# .PCD v0.7 - Point Cloud Data file format
VERSION 0.7
FIELDS x y z intensity
SIZE 4 4 4 4
TYPE F F F F
COUNT 1 1 1 1
WIDTH 2226
HEIGHT 1
VIEWPOINT 0 0 0 1 0 0 0
POINTS 2226
DATA ascii
-9.528 -1.146 2.537 1
-9.416 -1.071 2.546 11
-9.349 -1.022 2.545 18
-8.688 -0.931 2.566 24
-8.623 -0.926 2.548 9
-7.88 -0.865 2.559 0
-7.383 -0.842 2.552 0
-1.542 -0.186 2.897 2
-1.528 -0.195 2.888 22
-1.537 -0.209 2.875 24
-1.439 -0.208 2.87 24
-1.463 -0.226 2.853 24
-1.483 -0.244 2.836 27
-1.573 -0.274 2.808 20
-1.384 -0.255 2.814 34
-1.348 -0.263 2.802 28
-1.324 -0.272 2.788 28
-1.261 -0.271 2.781 12
-1.174 -0.265 2.778 17
-1.088 -0.256 2.778 11
-5.407 -1.58 2.721 3
-5.724 -1.571 2.695 2
-6.132 -1.577 2.665 4
-6.524 -1.569 2.638 4
-6.002 -1.345 2.665 0
-7.492 -1.561 2.582 8
-8.137 -1.572 2.549 14
-8.882 -1.588 2.514 7
-9.758 -1.613 2.476 9
-7.041 -1.074 2.63 48
-7.08 -1.001 2.636 34
-7.209 -0.946 2.637 12
-9.481 -1.166 2.529 9
-9.401 -1.095 2.535 12
-9.318 -1.046 2.534 29
-8.676 -0.954 2.555 16
-8.568 -0.945 2.539 2
-7.707 -0.867 2.558 0
-7.237 -0.844 2.551 0
-1.525 -0.187 2.896 6
-1.531 -0.198 2.885 23
-1.54 -0.212 2.873 35
-1.435 -0.21 2.869 23
-1.459 -0.228 2.852 26
-1.475 -0.244 2.835 26
-1.611 -0.283 2.802 22
-1.388 -0.258 2.812 33
-1.383 -0.271 2.796 24
-1.308 -0.27 2.789 17
-1.229 -0.266 2.785 15
-1.193 -0.27 2.774 16
-1.088 -0.256 2.777 11
-5.378 -1.578 2.722 2
-5.691 -1.57 2.695 3
-6.087 -1.575 2.665 4
-6.479 -1.568 2.638 15
-5.933 -1.339 2.666 0
-7.469 -1.569 2.58 17
-8.06 -1.573 2.549 4
-8.8 -1.591 2.514 15
-9.679 -1.621 2.473 14
-7.026 -1.089 2.625 33
-7.062 -1.015 2.63 15
-7.171 -0.96 2.631 8
-9.438 -1.187 2.521 10
-9.374 -1.118 2.525 13
-9.231 -1.062 2.527 41
-8.665 -0.978 2.544 37
-8.057 -0.91 2.556 0
-7.537 -0.868 2.558 0
-7.088 -0.844 2.551 0
-1.517 -0.189 2.895 8
-1.526 -0.201 2.884 25
-1.54 -0.215 2.871 40
-1.43 -0.212 2.867 20
-1.458 -0.231 2.85 23
-1.474 -0.246 2.834 25
-1.626 -0.288 2.798 22
-1.383 -0.259 2.812 22
-1.406 -0.278 2.791 22
-1.396 -0.29 2.774 12
-1.213 -0.264 2.786 17
-1.216 -0.276 2.768 17
-1.091 -0.258 2.775 11
-5.338 -1.574 2.722 3
-5.662 -1.57 2.695 3
-6.049 -1.574 2.665 22
-6.48 -1.58 2.635 11
-5.771 -1.313 2.673 0
-7.408 -1.57 2.579 4
-8.025 -1.582 2.546 13
-8.726 -1.596 2.512 5
-9.553 -1.621 2.473 5
-7.023 -1.105 2.62 22
-7.055 -1.032 2.624 20
-7.247 -0.989 2.62 7
-9.414 -1.209 2.511 11
-9.35 -1.142 2.515 18
-8.7 -1.026 2.543 19
-8.61 -0.997 2.535 7
-7.871 -0.912 2.555 0
-7.384 -0.871 2.556 0
-6.95 -0.846 2.55 0
-1.524 -0.194 2.893 12
-1.534 -0.205 2.881 40
-1.535 -0.218 2.869 41
-1.367 -0.206 2.871 21
-1.387 -0.222 2.856 23
-1.466 -0.248 2.833 21
-1.626 -0.291 2.796 17
-1.379 -0.26 2.811 21
-1.401 -0.279 2.79 23
-1.446 -0.302 2.764 19
-1.217 -0.266 2.784 17
-1.196 -0.273 2.771 21
-1.087 -0.259 2.775 12
-5.313 -1.575 2.722 4
-5.652 -1.577 2.693 4
-6.039 -1.581 2.664 7
-6.423 -1.576 2.636 4
-6.855 -1.572 2.608 4
-5.745 -1.228 2.671 0
-7.943 -1.581 2.547 5
-8.683 -1.606 2.509 13
-5.562 -0.956 2.689 0
-7.021 -1.121 2.614 33
-7.036 -1.047 2.619 21
-7.181 -0.999 2.616 6
-9.398 -1.233 2.502 11
-9.319 -1.165 2.506 41
-8.684 -1.05 2.533 13
-8.499 -1.009 2.53 1
-7.697 -0.914 2.554 0
-7.226 -0.872 2.556 0
-6.809 -0.847 2.55 0
-1.523 -0.198 2.89 18
-1.529 -0.208 2.88 41
-1.527 -0.22 2.868 39
-1.37 -0.209 2.87 20
-1.383 -0.223 2.855 23
-1.359 -0.232 2.843 26
-1.598 -0.288 2.798 13
-1.378 -0.262 2.81 22
-1.401 -0.28 2.789 20
-1.403 -0.295 2.77 15
-1.201 -0.264 2.786 17
-1.188 -0.273 2.771 20
-1.102 -0.264 2.771 11
-5.287 -1.575 2.722 3
-5.623 -1.578 2.693 12
-5.986 -1.578 2.665 4
-6.382 -1.577 2.636 17
-6.813 -1.574 2.607 18
-7.324 -1.58 2.577 3
-7.917 -1.592 2.543 13
-8.597 -1.609 2.508 8
-5.54 -0.965 2.687 0
-7.018 -1.137 2.608 20
-7.029 -1.064 2.613 42
-9.44 -1.339 2.486 9
-9.371 -1.256 2.493 11
-9.263 -1.184 2.498 6
-8.665 -1.073 2.522 24
-8.048 -0.979 2.544 0
-7.519 -0.915 2.554 0
-7.08 -0.874 2.555 0
-6.691 -0.85 2.548 0
-1.515 -0.201 2.889 24
-1.529 -0.212 2.878 42
-1.51 -0.221 2.867 36
-1.369 -0.212 2.868 21
-1.378 -0.225 2.854 23
-1.367 -0.235 2.841 26
-1.39 -0.253 2.823 19
-1.382 -0.265 2.807 21
-1.396 -0.281 2.788 16
-1.383 -0.292 2.772 11
-1.193 -0.264 2.787 18
-1.21 -0.279 2.766 13
-1.124 -0.27 2.765 12
-5.274 -1.579 2.722 3
-5.605 -1.582 2.693 22
-5.949 -1.578 2.665 11
-6.368 -1.584 2.634 10
-6.795 -1.583 2.605 7
-7.262 -1.581 2.576 9
-7.835 -1.592 2.543 5
-5.537 -1.048 2.68 0
-5.553 -0.98 2.682 5
-7.034 -1.157 2.602 18
-7.034 -1.082 2.606 49
-5.55 -0.802 2.692 0
-9.351 -1.279 2.483 15
-8.689 -1.135 2.518 13
-8.61 -1.091 2.514 6
-7.862 -0.979 2.544 0
-7.362 -0.916 2.553 0
-6.947 -0.877 2.553 0
-6.554 -0.85 2.548 0
-1.51 -0.204 2.887 24
-1.524 -0.215 2.876 41
-1.529 -0.227 2.864 35
-1.345 -0.211 2.868 17
-1.366 -0.226 2.853 19
-1.374 -0.239 2.839 24
-1.347 -0.248 2.827 16
-1.373 -0.265 2.807 13
-1.403 -0.285 2.785 12
-1.336 -0.284 2.778 10
-1.188 -0.264 2.786 13
-1.275 -0.296 2.752 12
-1.166 -0.281 2.756 13
-5.275 -1.588 2.72 6
-5.587 -1.585 2.692 6
-5.935 -1.585 2.663 13
-6.31 -1.582 2.635 4
-6.741 -1.583 2.605 4
-7.247 -1.592 2.573 10
-7.804 -1.602 2.541 16
-5.534 -1.06 2.676 2
-5.527 -0.988 2.679 34
-5.55 -0.926 2.681 1
-7.043 -1.102 2.599 128
-5.544 -0.815 2.687 0
-9.327 -1.302 2.474 16
-8.677 -1.159 2.508 10
-8.428 -1.092 2.514 1
-7.72 -0.983 2.541 0
-7.224 -0.919 2.552 0
-6.797 -0.877 2.553 0
-1.523 -0.202 2.893 0
-1.51 -0.208 2.885 26
-1.527 -0.219 2.873 41
-1.533 -0.231 2.861 35
-1.321 -0.21 2.869 15
-1.318 -0.22 2.857 15
-1.334 -0.234 2.842 22
-1.291 -0.239 2.832 11
-1.369 -0.267 2.806 12
-1.391 -0.285 2.785 10
-1.204 -0.258 2.798 10
-1.172 -0.262 2.788 9
-1.313 -0.306 2.743 11
-1.15 -0.279 2.758 13
-5.227 -1.581 2.721 6
-5.542 -1.582 2.693 4
-5.894 -1.584 2.663 4
-6.273 -1.584 2.634 15
-6.703 -1.588 2.604 20
-7.17 -1.589 2.574 6
-7.734 -1.604 2.54 4
-5.496 -1.064 2.675 28
-5.474 -0.991 2.678 14
-5.556 -0.941 2.676 8
-7.044 -1.12 2.592 149
-5.537 -0.83 2.682 20
-9.303 -1.325 2.465 26
-8.665 -1.182 2.498 15
-8.036 -1.065 2.526 0
-7.507 -0.978 2.544 0
-7.062 -0.919 2.552 0
-6.66 -0.877 2.553 0
-1.526 -0.206 2.89 0
-1.513 -0.212 2.883 32
-1.523 -0.222 2.872 41
-1.524 -0.233 2.86 32
-1.328 -0.213 2.867 17
-1.321 -0.224 2.855 14
-1.306 -0.233 2.843 20
-1.271 -0.238 2.834 10
-1.341 -0.263 2.809 8
-1.379 -0.284 2.786 5
-1.188 -0.256 2.8 13
-1.172 -0.263 2.787 16
-1.316 -0.308 2.742 12
-1.153 -0.281 2.756 12
-5.202 -1.582 2.721 6
-5.513 -1.583 2.692 10
-5.856 -1.584 2.663 6
-6.258 -1.592 2.633 12
-6.669 -1.591 2.603 5
-7.139 -1.596 2.572 22
-7.695 -1.612 2.538 18
-5.462 -1.071 2.673 17
-5.448 -0.999 2.675 13
-5.51 -0.947 2.674 9
-7.056 -1.141 2.585 53
-5.535 -0.844 2.676 9
-8.694 -1.262 2.49 7
-8.61 -1.199 2.491 5
-7.85 -1.063 2.527 0
-7.353 -0.98 2.543 0
-6.929 -0.922 2.551 0
-6.546 -0.881 2.551 0
-1.522 -0.209 2.889 1
-1.516 -0.216 2.881 43
-1.522 -0.226 2.87 41
-1.519 -0.235 2.859 29
-1.269 -0.206 2.871 12
-1.242 -0.212 2.862 12
-1.286 -0.231 2.844 17
-1.24 -0.234 2.836 10
-1.197 -0.237 2.828 2
-1.243 -0.258 2.806 0
-1.196 -0.259 2.798 12
-1.168 -0.264 2.786 22
-1.376 -0.324 2.728 11
-1.206 -0.295 2.743 14
-5.176 -1.583 2.721 12
-5.487 -1.585 2.692 18
-5.827 -1.586 2.663 22
-6.209 -1.591 2.633 4
-6.616 -1.593 2.603 6
-7.089 -1.6 2.571 3
-7.629 -1.614 2.537 3
-5.444 -1.079 2.67 17
-5.425 -1.009 2.672 22
-5.452 -0.951 2.672 15
-5.568 -0.914 2.667 0
-5.52 -0.857 2.671 0
-8.631 -1.277 2.484 7
-9.436 -1.342 2.43 1
-7.669 -1.061 2.528 0
-7.195 -0.979 2.544 0
-6.791 -0.923 2.55 0
-6.227 -0.855 2.564 0
-1.517 -0.213 2.887 2
-1.507 -0.219 2.879 43
-1.521 -0.229 2.868 38
-1.534 -0.242 2.855 27
-1.245 -0.205 2.872 9
-1.23 -0.213 2.862 11
-1.207 -0.219 2.852 13
-1.196 -0.228 2.84 9
-1.188 -0.237 2.828 4
-1.188 -0.248 2.813 4
-1.199 -0.262 2.795 11
-1.171 -0.266 2.784 20
-1.502 -0.356 2.702 5
-1.289 -0.317 2.724 16
-5.155 -1.585 2.72 21
-5.473 -1.59 2.691 6
-5.82 -1.595 2.661 7
-6.171 -1.592 2.632 12
-6.593 -1.6 2.601 24
-7.039 -1.604 2.57 12
-7.587 -1.622 2.535 14
-5.426 -1.088 2.667 16
-5.407 -1.018 2.669 19
-5.453 -0.964 2.668 17
-5.565 -0.929 2.662 3
-9.292 -1.467 2.437 27
-8.413 -1.268 2.488 2
-8.025 -1.164 2.506 0
-7.495 -1.058 2.529 0
-7.061 -0.982 2.542 0
-6.657 -0.924 2.549 0
-6.145 -0.86 2.562 1
-1.52 -0.218 2.884 3
-1.515 -0.223 2.876 44
-1.524 -0.233 2.865 37
-1.53 -0.244 2.853 26
-1.252 -0.209 2.869 7
-1.233 -0.215 2.86 11
-1.207 -0.221 2.851 13
-1.192 -0.229 2.839 15
-1.192 -0.24 2.826 7
-1.18 -0.249 2.813 10
-1.191 -0.261 2.796 12
-1.17 -0.268 2.783 11
-1.406 -0.335 2.719 4
-1.331 -0.329 2.714 6
-5.148 -1.592 2.719 7
-5.428 -1.587 2.692 5
-5.767 -1.591 2.662 4
-6.153 -1.6 2.631 15
-6.547 -1.601 2.601 4
-7.024 -1.615 2.567 10
-7.54 -1.629 2.533 3
-5.404 -1.096 2.665 28
-5.393 -1.028 2.666 17
-5.466 -0.981 2.662 16
-5.59 -0.947 2.655 6
-8.688 -1.397 2.464 11
-8.019 -1.232 2.502 4
-7.824 -1.158 2.509 0
-7.341 -1.058 2.529 0
-6.912 -0.981 2.543 0
-6.535 -0.925 2.549 0
-5.912 -0.845 2.569 8
-1.504 -0.219 2.883 4
-1.506 -0.226 2.875 43
-1.52 -0.236 2.864 37
-1.537 -0.249 2.851 20
-1.251 -0.212 2.868 7
-1.241 -0.219 2.858 10
-1.21 -0.224 2.849 12
-1.187 -0.23 2.839 15
-1.191 -0.241 2.825 8
-1.175 -0.249 2.812 3
-1.19 -0.263 2.794 12
-1.216 -0.28 2.773 10
-1.31 -0.313 2.737 13
-1.322 -0.329 2.714 12
-5.096 -1.584 2.721 7
-5.407 -1.59 2.691 11
-5.733 -1.592 2.662 9
-6.103 -1.599 2.631 4
-6.505 -1.605 2.6 7
-6.954 -1.614 2.567 4
-7.482 -1.633 2.532 14
-5.401 -1.108 2.661 23
-5.382 -1.039 2.662 18
-5.511 -1.003 2.655 14
-5.579 -0.961 2.65 10
-8.684 -1.42 2.455 15
-7.833 -1.226 2.505 5
-7.654 -1.155 2.51 0
-7.176 -1.055 2.53 0
-6.782 -0.982 2.542 0
-6.311 -0.912 2.555 0
-5.906 -0.861 2.561 19
-1.507 -0.223 2.881 5
-1.505 -0.23 2.873 43
-1.523 -0.241 2.861 34
-1.544 -0.253 2.848 18
-1.255 -0.215 2.866 6
-1.24 -0.222 2.856 11
-1.217 -0.227 2.847 12
-1.194 -0.234 2.836 15
-1.187 -0.243 2.824 9
-1.175 -0.251 2.811 0
-1.209 -0.269 2.789 9
-1.215 -0.281 2.772 12
-1.29 -0.31 2.74 10
-1.325 -0.331 2.712 14
-5.082 -1.589 2.72 7
-5.388 -1.595 2.69 19
-5.719 -1.599 2.66 18
-6.065 -1.602 2.63 8
-6.478 -1.611 2.598 24
-6.912 -1.619 2.566 20
-7.228 -1.594 2.543 6
-5.398 -1.12 2.657 19
-5.372 -1.051 2.659 35
-5.508 -1.017 2.65 16
-5.525 -0.966 2.648 10
-8.644 -1.437 2.448 11
-7.648 -1.219 2.508 6
-7.484 -1.151 2.511 0
-7.05 -1.058 2.529 0
-6.656 -0.983 2.541 0
-6.162 -0.909 2.557 1
-5.907 -0.877 2.553 23
-1.502 -0.227 2.879 7
-1.504 -0.234 2.87 42
-1.518 -0.244 2.859 31
-1.539 -0.256 2.846 14
-1.266 -0.219 2.863 6
-1.243 -0.225 2.854 9
-1.213 -0.23 2.845 13
-1.194 -0.236 2.835 16
-1.186 -0.245 2.822 10
-1.17 -0.252 2.81 5
-1.17 -0.262 2.795 16
-1.207 -0.281 2.772 15
-1.282 -0.31 2.74 10
-1.329 -0.333 2.71 16
-5.06 -1.591 2.719 19
-5.363 -1.597 2.69 6
-5.674 -1.597 2.661 5
-6.039 -1.607 2.629 22
-6.432 -1.614 2.598 4
-6.877 -1.626 2.564 4
-7.349 -1.638 2.53 7
-5.388 -1.131 2.654 19
-5.357 -1.062 2.655 60
-5.454 -1.021 2.648 26
-5.538 -0.983 2.642 2
-8.521 -1.441 2.447 5
-7.478 -1.212 2.51 6
-7.327 -1.147 2.513 0
-6.908 -1.056 2.53 0
-6.53 -0.984 2.541 0
-5.914 -0.889 2.567 9
-5.9 -0.893 2.545 97
-1.497 -0.23 2.878 9
-1.504 -0.237 2.869 40
-1.521 -0.248 2.857 28
-1.538 -0.26 2.844 10
-1.269 -0.223 2.861 5
-1.247 -0.228 2.852 8
-1.228 -0.235 2.842 12
-1.201 -0.24 2.832 15
-1.182 -0.246 2.821 16
-1.17 -0.253 2.809 2
-1.165 -0.263 2.795 23
-1.214 -0.285 2.769 16
-1.281 -0.312 2.738 16
-1.29 -0.325 2.717 14
-5.054 -1.598 2.718 14
-5.318 -1.594 2.69 5
-5.648 -1.601 2.66 5
-5.997 -1.607 2.629 4
-6.386 -1.615 2.597 8
-6.827 -1.629 2.564 10
-7.357 -1.657 2.525 12
-5.393 -1.145 2.65 17
-5.362 -1.076 2.65 76
-5.428 -1.03 2.645 34
-5.582 -1.006 2.634 2
-8.19 -1.407 2.46 1
-7.333 -1.211 2.511 4
-7.169 -1.143 2.515 0
-6.77 -1.055 2.53 0
-6.326 -0.972 2.547 0
-5.903 -0.905 2.559 13
-5.889 -0.908 2.538 7
-1.501 -0.235 2.875 12
-1.503 -0.241 2.866 36
-1.517 -0.251 2.855 25
-1.538 -0.263 2.842 7
-1.28 -0.227 2.858 3
-1.242 -0.23 2.85 9
-1.219 -0.236 2.841 13
-1.204 -0.242 2.83 15
-1.185 -0.249 2.819 19
-1.165 -0.254 2.808 2
-1.18 -0.268 2.791 16
-1.229 -0.29 2.765 17
-1.273 -0.312 2.738 17
-1.297 -0.329 2.714 15
-5.024 -1.598 2.718 7
-5.296 -1.597 2.69 7
-5.614 -1.603 2.659 14
-5.955 -1.608 2.629 7
-6.371 -1.625 2.595 23
-6.811 -1.641 2.56 16
-7.283 -1.657 2.525 4
-5.386 -1.156 2.646 17
-5.355 -1.088 2.647 161
-5.421 -1.043 2.641 28
-5.56 -1.017 2.63 4
-7.997 -1.397 2.464 1
-7.211 -1.211 2.511 1
-7.035 -1.143 2.515 0
-6.644 -1.055 2.53 0
-6.161 -0.964 2.55 1
-5.908 -0.922 2.55 17
-5.866 -0.921 2.531 4
-1.496 -0.239 2.873 12
-1.502 -0.245 2.864 36
-1.528 -0.256 2.852 17
-1.545 -0.268 2.839 6
-1.272 -0.229 2.857 1
-1.257 -0.235 2.847 8
-1.227 -0.239 2.839 12
-1.207 -0.245 2.828 17
-1.196 -0.253 2.816 19
-1.168 -0.257 2.806 9
-1.233 -0.282 2.78 9
-1.224 -0.291 2.764 16
-1.272 -0.313 2.737 20
-1.292 -0.329 2.714 16
-4.984 -1.594 2.719 7
-5.274 -1.6 2.689 24
-5.607 -1.612 2.657 11
-5.933 -1.615 2.627 31
-6.314 -1.624 2.595 4
-6.746 -1.64 2.561 4
-7.252 -1.667 2.522 14
-5.387 -1.17 2.642 18
-5.352 -1.101 2.642 157
-5.414 -1.056 2.636 14
-8.531 -1.584 2.423 3
-7.82 -1.388 2.467 1
-7.12 -1.216 2.509 0
-6.901 -1.142 2.515 0
-6.507 -1.052 2.532 0
-5.905 -0.942 2.561 11
-5.908 -0.939 2.542 51
-5.729 -0.915 2.534 1
-1.495 -0.243 2.871 12
-1.497 -0.248 2.863 32
-1.523 -0.259 2.85 15
-1.552 -0.273 2.836 3
0.0 -0.0 3.0 0
-1.256 -0.238 2.846 6
-1.222 -0.241 2.838 9
-1.207 -0.247 2.827 16
-1.191 -0.254 2.816 21
-1.175 -0.261 2.803 4
-1.252 -0.288 2.775 10
-1.22 -0.292 2.764 18
-1.271 -0.315 2.736 32
-1.261 -0.323 2.719 21
-4.973 -1.6 2.718 8
-5.271 -1.61 2.687 9
-5.554 -1.608 2.658 4
-5.906 -1.62 2.626 6
-6.275 -1.628 2.594 8
-6.707 -1.646 2.559 14
-7.193 -1.671 2.521 3
-5.392 -1.184 2.638 17
-5.353 -1.115 2.638 86
-5.411 -1.07 2.632 16
-8.197 -1.544 2.438 1
-7.651 -1.38 2.47 1
-7.049 -1.224 2.505 0
-6.772 -1.14 2.516 0
-6.334 -1.043 2.536 0
-5.906 -0.959 2.553 13
-5.885 -0.953 2.535 4
-5.576 -0.907 2.538 0
-1.494 -0.246 2.869 11
-1.5 -0.252 2.86 25
-1.522 -0.263 2.848 13
-1.566 -0.279 2.832 0
0.0 -0.0 3.0 0
-1.263 -0.242 2.843 4
-1.229 -0.245 2.835 9
-1.214 -0.251 2.824 16
-1.191 -0.256 2.814 17
-7.75 -1.733 1.694 0
-1.259 -0.292 2.772 10
-1.219 -0.293 2.762 19
-1.271 -0.317 2.734 33
-1.264 -0.326 2.717 25
-4.951 -1.603 2.717 19
-5.222 -1.605 2.688 5
-5.528 -1.612 2.657 4
-5.868 -1.622 2.626 5
-6.256 -1.637 2.592 21
-6.688 -1.656 2.556 9
-7.146 -1.676 2.519 14
-5.424 -1.205 2.632 16
-5.354 -1.129 2.633 52
-5.416 -1.085 2.626 13
-8.008 -1.531 2.443 1
-7.481 -1.37 2.474 1
-6.951 -1.227 2.504 1
-6.634 -1.137 2.518 0
-6.165 -1.033 2.54 0
-5.906 -0.977 2.544 17
-5.862 -0.966 2.529 3
-5.435 -0.9 2.542 0
-1.486 -0.248 2.868 8
-1.5 -0.256 2.858 23
-1.529 -0.268 2.845 9
-4.607 -0.833 2.5 0
0.0 -0.0 3.0 0
-1.259 -0.244 2.841 2
-1.236 -0.248 2.832 8
-1.264 -0.264 2.815 20
-1.19 -0.258 2.812 13
0.0 -0.0 3.0 0
-1.258 -0.294 2.77 11
-1.192 -0.289 2.766 17
-1.27 -0.318 2.733 33
-1.26 -0.326 2.717 27
-4.933 -1.606 2.717 13
-5.196 -1.608 2.688 5
-5.494 -1.613 2.657 17
-5.834 -1.625 2.625 13
-6.214 -1.64 2.591 4
-3.958 -0.989 2.735 3
-7.123 -1.688 2.516 5
-5.444 -1.223 2.626 13
-5.359 -1.143 2.628 41
-5.413 -1.099 2.622 26
-7.831 -1.519 2.447 1
-7.316 -1.36 2.478 1
-6.841 -1.228 2.504 2
-6.489 -1.13 2.52 0
-5.906 -1.008 2.551 12
-5.895 -0.992 2.537 31
-5.753 -0.964 2.53 1
-5.326 -0.896 2.543 0
-1.492 -0.255 2.865 6
-1.503 -0.261 2.855 23
-1.524 -0.271 2.843 7
-4.534 -0.831 2.501 0
0.0 -0.0 3.0 0
-1.254 -0.246 2.84 0
-1.235 -0.251 2.831 6
-1.271 -0.268 2.812 20
-1.193 -0.261 2.81 12
-10.919 -2.479 1.132 0
-1.265 -0.297 2.768 13
-1.16 -0.283 2.771 18
-1.262 -0.318 2.733 34
-1.255 -0.327 2.716 28
-4.915 -1.611 2.716 6
-5.162 -1.608 2.687 16
-5.487 -1.623 2.655 9
-5.823 -1.635 2.623 14
-3.946 -1.051 2.738 1
-3.928 -0.991 2.734 1
-5.558 -1.331 2.618 0
-5.448 -1.237 2.622 9
-5.367 -1.16 2.623 23
-5.409 -1.113 2.617 38
-3.923 -0.771 2.719 0
-7.171 -1.354 2.48 1
-6.727 -1.227 2.504 3
-6.344 -1.124 2.523 0
-5.902 -1.024 2.544 9
-5.876 -1.006 2.531 4
-5.525 -0.942 2.54 0
-5.248 -0.899 2.542 0
-1.488 -0.258 2.863 5
-1.498 -0.264 2.854 14
-1.535 -0.277 2.84 5
0.0 -0.0 3.0 0
0.0 -0.0 3.0 0
0.0 -0.0 3.0 0
-1.239 -0.255 2.828 3
-1.262 -0.268 2.812 15
-1.192 -0.263 2.809 10
0.0 -0.0 3.0 0
-1.256 -0.298 2.767 14
-1.141 -0.279 2.774 17
-1.257 -0.319 2.732 32
-1.259 -0.329 2.714 29
-4.867 -1.603 2.717 8
-5.163 -1.619 2.685 13
-5.437 -1.62 2.656 4
-5.777 -1.635 2.623 4
-3.855 -1.035 2.742 3
-3.876 -0.987 2.736 10
-5.547 -1.342 2.615 6
-5.453 -1.252 2.617 7
-5.376 -1.175 2.618 17
-3.914 -0.816 2.719 4
-7.489 -1.495 2.456 1
-7.018 -1.345 2.484 1
-6.637 -1.23 2.503 1
-6.155 -1.108 2.53 0
-5.907 -1.042 2.536 16
-5.853 -1.02 2.525 3
-5.408 -0.938 2.543 0
-5.174 -0.901 2.541 0
-1.487 -0.261 2.861 2
-1.501 -0.269 2.851 8
-1.546 -0.283 2.837 1
0.0 -0.0 3.0 0
0.0 -0.0 3.0 0
0.0 -0.0 3.0 0
-1.242 -0.258 2.826 2
-1.265 -0.272 2.81 10
-1.192 -0.265 2.807 8
-5.292 -1.22 2.081 0
-1.267 -0.303 2.764 15
-1.148 -0.283 2.771 12
-1.249 -0.319 2.733 32
-1.254 -0.33 2.713 30
-4.849 -1.608 2.717 8
-5.129 -1.618 2.685 6
-5.415 -1.624 2.655 5
-5.732 -1.635 2.623 6
-3.895 -1.055 2.737 5
-3.877 -0.997 2.733 8
-3.989 -0.975 2.721 1
-5.461 -1.268 2.612 6
-5.396 -1.194 2.612 16
-3.908 -0.826 2.716 6
-3.922 -0.794 2.711 1
-6.888 -1.34 2.486 1
-6.527 -1.228 2.504 0
-5.9 -1.08 2.542 10
-5.903 -1.059 2.528 20
-5.696 -1.009 2.53 1
-5.397 -0.952 2.536 0
-5.089 -0.9 2.541 0
-1.455 -0.26 2.862 0
-1.504 -0.273 2.849 8
0.0 -0.0 3.0 0
0.0 -0.0 3.0 0
0.0 -0.0 3.0 0
0.0 -0.0 3.0 0
0.0 -0.0 3.0 0
-1.326 -0.288 2.799 11
-1.199 -0.269 2.805 6
-5.262 -1.223 2.079 1
-1.266 -0.305 2.762 14
-1.154 -0.287 2.768 9
-1.24 -0.319 2.733 31
-1.257 -0.333 2.711 32
-4.834 -1.613 2.716 18
-5.096 -1.619 2.685 5
-5.381 -1.626 2.654 19
-5.709 -1.64 2.621 22
-3.85 -1.051 2.738 12
-3.855 -1.001 2.732 17
-3.913 -0.966 2.723 1
-3.888 -0.913 2.721 1
-3.917 -0.877 2.715 2
-3.905 -0.836 2.712 11
-7.148 -1.466 2.466 1
-6.747 -1.332 2.489 1
-6.358 -1.215 2.509 0
-5.909 -1.099 2.534 8
-5.868 -1.07 2.523 3
-5.508 -0.992 2.537 0
-5.249 -0.941 2.541 0
-4.995 -0.898 2.542 0
0.0 -0.0 3.0 0
-1.511 -0.279 2.845 7
0.0 -0.0 3.0 0
0.0 -0.0 3.0 0
0.0 -0.0 3.0 0
0.0 -0.0 3.0 0
-7.422 -1.571 1.94 0
-1.36 -0.297 2.792 11
-1.206 -0.273 2.802 6
-5.239 -1.227 2.075 2
-1.269 -0.308 2.76 13
-1.158 -0.289 2.766 9
-1.228 -0.317 2.734 30
-1.252 -0.333 2.71 34
-4.827 -1.62 2.714 13
-5.074 -1.622 2.685 8
-5.381 -1.638 2.652 9
-5.694 -1.649 2.619 7
-3.829 -1.055 2.737 18
-3.83 -1.003 2.731 16
-3.945 -0.984 2.718 4
-3.89 -0.924 2.717 2
-3.918 -0.888 2.712 11
-3.895 -0.844 2.709 14
-7.026 -1.461 2.468 1
-6.594 -1.32 2.493 1
-6.092 -1.183 2.522 0
-5.909 -1.117 2.526 15
-5.841 -1.083 2.518 2
-5.395 -0.988 2.539 0
-5.159 -0.94 2.541 0
-4.945 -0.903 2.54 0
0.0 -0.0 3.0 0
-1.514 -0.283 2.843 0
0.0 -0.0 3.0 0
0.0 -0.0 3.0 0
0.0 -0.0 3.0 0
0.0 -0.0 3.0 0
-7.382 -1.579 1.935 0
-1.498 -0.331 2.768 7
-1.209 -0.276 2.799 3
-5.232 -1.235 2.07 2
-1.272 -0.31 2.758 12
-1.191 -0.3 2.757 7
-1.22 -0.317 2.734 26
-1.252 -0.335 2.709 36
-4.798 -1.621 2.714 7
-5.044 -1.624 2.684 20
-5.332 -1.634 2.653 4
-5.648 -1.649 2.619 5
-3.815 -1.06 2.736 17
-3.816 -1.009 2.73 22
-3.885 -0.978 2.719 7
-3.872 -0.93 2.716 7
-3.9 -0.894 2.709 17
-3.896 -0.855 2.706 13
-6.893 -1.454 2.471 1
-6.281 -1.277 2.51 1
-5.904 -1.163 2.53 7
-5.893 -1.131 2.52 11
-5.633 -1.061 2.528 0
-5.317 -0.989 2.539 0
-5.093 -0.943 2.54 0
-4.872 -0.904 2.54 0
0.0 -0.0 3.0 0
0.0 -0.0 3.0 0
0.0 -0.0 3.0 0
0.0 -0.0 3.0 0
0.0 -0.0 3.0 0
0.0 -0.0 3.0 0
0.0 -0.0 3.0 0
-1.544 -0.344 2.759 7
-6.836 -1.574 1.856 2
-5.164 -1.228 2.074 1
-1.279 -0.314 2.755 10
-1.278 -0.323 2.738 10
-1.204 -0.314 2.736 20
-1.243 -0.335 2.709 33
-4.764 -1.619 2.715 8
-5.044 -1.635 2.682 8
-5.306 -1.639 2.652 5
-5.61 -1.65 2.619 10
-3.805 -1.067 2.734 16
-3.798 -1.013 2.729 18
-3.94 -1.003 2.713 11
-3.865 -0.938 2.713 10
-3.905 -0.906 2.706 25
-3.894 -0.865 2.702 7
-6.759 -1.444 2.474 1
-6.132 -1.264 2.515 0
-5.912 -1.182 2.522 6
-5.862 -1.143 2.515 2
-5.489 -1.051 2.532 0
-5.228 -0.988 2.539 0
-51.394 -9.668 -1.716 3
-4.833 -0.91 2.536 0
0.0 -0.0 3.0 0
0.0 -0.0 3.0 0
0.0 -0.0 3.0 0
0.0 -0.0 3.0 0
0.0 -0.0 3.0 0
0.0 -0.0 3.0 0
0.0 -0.0 3.0 0
-1.539 -0.347 2.757 7
-6.836 -1.588 1.846 2
-5.126 -1.229 2.074 1
-1.278 -0.316 2.753 10
-1.307 -0.334 2.73 11
-1.169 -0.307 2.742 18
-1.231 -0.334 2.71 31
-4.746 -1.622 2.714 8
-5.003 -1.632 2.683 6
-5.279 -1.642 2.651 15
-5.564 -1.65 2.619 21
-3.779 -1.068 2.734 17
-3.784 -1.019 2.727 21
-3.93 -1.01 2.71 12
-3.847 -0.944 2.711 14
-3.899 -0.915 2.703 28
-3.891 -0.875 2.699 1
-6.63 -1.436 2.477 1
-5.968 -1.247 2.521 1
-5.9 -1.197 2.516 17
-5.811 -1.15 2.512 1
-5.399 -1.05 2.533 0
-5.142 -0.987 2.54 0
-4.934 -0.943 2.54 0
0.0 -0.0 3.0 0
-4.565 -0.879 2.533 0
0.0 -0.0 3.0 0
0.0 -0.0 3.0 0
0.0 -0.0 3.0 0
0.0 -0.0 3.0 0
0.0 -0.0 3.0 0
0.0 -0.0 3.0 0
-1.538 -0.349 2.756 3
-6.835 -1.601 1.837 3
-3.266 -0.789 2.405 0
-1.274 -0.318 2.752 8
-1.348 -0.347 2.719 10
-1.127 -0.298 2.75 11
-1.219 -0.332 2.712 30
-4.72 -1.624 2.714 14
-4.977 -1.635 2.682 6
-5.264 -1.65 2.649 10
-3.859 -1.153 2.734 1
-3.765 -1.073 2.732 16
-3.766 -1.023 2.726 22
-3.862 -1.002 2.713 16
-3.849 -0.955 2.708 14
-3.896 -0.925 2.699 20
-6.899 -1.572 2.459 0
-6.501 -1.426 2.481 1
-5.906 -1.252 2.519 12
-5.885 -1.211 2.511 8
-5.604 -1.126 2.522 0
-5.321 -1.051 2.532 0
-5.076 -0.99 2.539 0
-4.852 -0.942 2.541 0
-4.667 -0.906 2.538 0
0.0 -0.0 3.0 0
0.0 -0.0 3.0 0
0.0 -0.0 3.0 0
0.0 -0.0 3.0 0
0.0 -0.0 3.0 0
0.0 -0.0 3.0 0
0.0 -0.0 3.0 0
-1.533 -0.351 2.754 1
-3.436 -0.812 2.41 0
-3.202 -0.78 2.412 0
-1.284 -0.322 2.748 6
-1.382 -0.357 2.711 11
-1.115 -0.296 2.751 11
-1.215 -0.332 2.711 29
-4.713 -1.632 2.712 17
-4.954 -1.639 2.682 13
-5.227 -1.649 2.649 5
-3.852 -1.16 2.732 5
-3.751 -1.078 2.731 32
-3.763 -1.032 2.723 25
-3.824 -1.003 2.712 18
-3.838 -0.962 2.706 16
-3.905 -0.939 2.695 12
-6.758 -1.559 2.463 1
-6.368 -1.415 2.485 1
-5.816 -1.249 2.52 1
-5.857 -1.223 2.506 2
-5.475 -1.117 2.526 0
-5.228 -1.048 2.534 0
-5.002 -0.99 2.539 0
-4.783 -0.942 2.54 0
0.0 -0.0 3.0 0
0.0 -0.0 3.0 0
0.0 -0.0 3.0 0
0.0 -0.0 3.0 0
0.0 -0.0 3.0 0
0.0 -0.0 3.0 0
0.0 -0.0 3.0 0
0.0 -0.0 3.0 0
-6.79 -1.572 1.899 0
0.0 -0.0 3.0 0
-3.154 -0.774 2.417 0
-1.28 -0.323 2.747 3
-1.43 -0.372 2.699 11
-1.114 -0.298 2.75 12
-1.195 -0.329 2.714 23
-4.699 -1.637 2.711 8
-4.943 -1.646 2.68 16
-5.2 -1.654 2.648 4
-3.846 -1.167 2.731 7
-3.752 -1.088 2.729 20
-3.753 -1.039 2.722 22
-3.814 -1.01 2.71 24
-3.84 -0.973 2.703 16
-3.914 -0.951 2.691 4
-6.641 -1.551 2.466 1
-6.2 -1.396 2.492 1
-5.711 -1.244 2.523 1
-5.81 -1.231 2.503 1
-5.386 -1.114 2.527 0
-5.127 -1.042 2.536 0
-4.917 -0.988 2.539 0
-4.756 -0.95 2.536 0
-4.609 -0.922 2.53 0
0.0 -0.0 3.0 0
0.0 -0.0 3.0 0
0.0 -0.0 3.0 0
0.0 -0.0 3.0 0
0.0 -0.0 3.0 0
0.0 -0.0 3.0 0
-122.44 -27.809 -15.757 18
0.0 -0.0 3.0 0
-3.259 -0.784 2.431 0
-3.08 -0.762 2.426 7
-1.271 -0.324 2.747 0
-1.455 -0.382 2.691 10
-1.121 -0.302 2.747 11
-1.179 -0.326 2.716 19
-4.669 -1.637 2.711 8
-4.91 -1.646 2.68 6
-5.174 -1.658 2.648 10
-3.854 -1.18 2.728 6
-3.742 -1.094 2.727 22
-3.75 -1.048 2.719 21
-3.804 -1.017 2.708 27
-3.856 -0.987 2.698 19
-3.942 -0.969 2.685 2
-6.508 -1.538 2.47 1
-5.912 -1.348 2.509 7
-5.594 -1.235 2.526 0
-5.627 -1.209 2.512 0
-5.3 -1.112 2.528 0
-5.064 -1.045 2.535 0
-4.874 -0.994 2.536 0
0.0 -0.0 3.0 0
-4.493 -0.911 2.536 0
0.0 -0.0 3.0 0
0.0 -0.0 3.0 0
0.0 -0.0 3.0 0
0.0 -0.0 3.0 0
0.0 -0.0 3.0 0
0.0 -0.0 3.0 0
0.0 -0.0 3.0 0
0.0 -0.0 3.0 0
-3.192 -0.774 2.438 0
-3.081 -0.769 2.421 7
-3.066 -0.787 2.386 33
-1.519 -0.401 2.675 7
-1.131 -0.307 2.742 11
-1.122 -0.313 2.728 13
-4.632 -1.634 2.712 8
-4.876 -1.645 2.68 6
-5.159 -1.664 2.646 15
-3.859 -1.191 2.725 5
-3.731 -1.1 2.726 18
-3.736 -1.054 2.718 27
-3.793 -1.024 2.706 34
-3.834 -0.992 2.697 15
-3.936 -0.978 2.682 1
-6.367 -1.523 2.476 0
-5.924 -1.369 2.502 5
-5.492 -1.229 2.528 0
-5.475 -1.192 2.518 0
-5.23 -1.113 2.527 0
-4.975 -1.042 2.536 0
-4.793 -0.992 2.538 0
0.0 -0.0 3.0 0
-49.969 -10.281 -2.238 4
0.0 -0.0 3.0 0
0.0 -0.0 3.0 0
0.0 -0.0 3.0 0
0.0 -0.0 3.0 0
0.0 -0.0 3.0 0
0.0 -0.0 3.0 0
0.0 -0.0 3.0 0
-3.376 -0.804 2.437 0
-3.144 -0.769 2.441 0
-3.075 -0.773 2.417 8
-3.056 -0.79 2.383 8
-1.544 -0.41 2.668 8
-1.145 -0.313 2.737 12
-1.091 -0.306 2.734 13
-4.621 -1.641 2.711 11
-4.853 -1.65 2.679 6
-5.128 -1.667 2.646 5
-3.864 -1.202 2.723 3
-3.729 -1.109 2.723 19
-3.729 -1.061 2.716 26
-3.783 -1.032 2.704 26
-3.816 -0.999 2.695 15
-3.925 -0.987 2.679 1
-6.212 -1.503 2.482 1
-5.908 -1.382 2.497 21
-5.419 -1.228 2.528 0
-5.385 -1.189 2.52 0
-5.125 -1.107 2.53 0
-4.913 -1.044 2.535 0
-4.742 -0.995 2.536 0
0.0 -0.0 3.0 0
-49.999 -10.433 -2.316 3
0.0 -0.0 3.0 0
-50.279 -10.647 -2.902 3
0.0 -0.0 3.0 0
0.0 -0.0 3.0 0
0.0 -0.0 3.0 0
0.0 -0.0 3.0 0
0.0 -0.0 3.0 0
-3.27 -0.785 2.45 0
-3.08 -0.759 2.448 8
-3.073 -0.778 2.413 12
-3.054 -0.795 2.379 3
-1.543 -0.413 2.666 8
-1.145 -0.314 2.736 13
-1.09 -0.308 2.733 13
-4.606 -1.646 2.71 19
-4.842 -1.657 2.678 15
-5.098 -1.669 2.645 5
-3.861 -1.21 2.721 8
-3.73 -1.119 2.721 17
-3.719 -1.068 2.714 41
-3.768 -1.038 2.702 20
-3.825 -1.01 2.691 14
-3.915 -0.995 2.677 1
-5.921 -1.45 2.501 5
-5.872 -1.391 2.494 3
-5.349 -1.228 2.529 0
-5.284 -1.182 2.522 0
-5.063 -1.108 2.53 0
-4.843 -1.044 2.535 0
-4.669 -0.994 2.536 0
-48.321 -10.232 -1.99 2
-50.107 -10.602 -2.402 3
0.0 -0.0 3.0 0
-50.293 -10.79 -2.981 2
0.0 -0.0 3.0 0
0.0 -0.0 3.0 0
0.0 -0.0 3.0 0
0.0 -0.0 3.0 0
-3.401 -0.804 2.458 0
-3.191 -0.774 2.458 0
-3.078 -0.766 2.444 8
-3.063 -0.783 2.41 47
-3.067 -0.804 2.372 0
-1.546 -0.416 2.663 4
-1.14 -0.315 2.735 12
-1.093 -0.31 2.731 13
-4.588 -1.65 2.709 9
-4.831 -1.665 2.676 14
-5.079 -1.676 2.644 7
-3.847 -1.215 2.719 6
-3.719 -1.125 2.72 20
-3.72 -1.078 2.711 40
-3.762 -1.047 2.7 17
-3.799 -1.015 2.69 14
-3.908 -1.004 2.674 1
-5.924 -1.468 2.494 3
-5.825 -1.397 2.492 2
-5.282 -1.229 2.528 0
-5.203 -1.18 2.523 0
-4.962 -1.101 2.533 0
-4.773 -1.043 2.536 0
-4.619 -0.997 2.535 0
-48.032 -10.314 -2.03 2
-50.163 -10.76 -2.482 4
-50.321 -10.837 -2.762 3
-50.007 -10.868 -3.024 2
0.0 -0.0 3.0 0
0.0 -0.0 3.0 0
0.0 -0.0 3.0 0
0.0 -0.0 3.0 0
-3.344 -0.798 2.462 0
-3.12 -0.763 2.466 1
-3.076 -0.771 2.44 10
-3.065 -0.789 2.405 8
-3.068 -0.811 2.367 0
-1.537 -0.417 2.662 4
-1.124 -0.313 2.737 10
-1.1 -0.314 2.727 12
-4.554 -1.649 2.709 7
-4.801 -1.666 2.676 7
-5.056 -1.68 2.643 18
-3.84 -1.223 2.718 9
-3.717 -1.134 2.717 18
-3.713 -1.086 2.709 47
-3.751 -1.054 2.698 18
-3.827 -1.032 2.684 14
-7.277 -1.891 2.386 1
-5.904 -1.48 2.491 17
-5.658 -1.373 2.5 0
0.0 -0.0 3.0 0
-5.125 -1.178 2.524 0
-4.896 -1.102 2.532 0
-4.719 -1.045 2.535 0
-4.541 -0.994 2.536 0
-47.728 -10.391 -2.068 1
0.0 -0.0 3.0 0
-50.33 -10.983 -2.84 3
0.0 -0.0 3.0 0
0.0 -0.0 3.0 0
0.0 -0.0 3.0 0
0.0 -0.0 3.0 0
0.0 -0.0 3.0 0
-3.211 -0.774 2.478 0
-3.083 -0.761 2.467 5
-3.073 -0.777 2.435 28
-3.055 -0.793 2.402 3
-1.232 -0.328 2.744 0
-1.498 -0.409 2.669 1
-1.135 -0.318 2.733 10
-1.099 -0.315 2.726 12
-4.532 -1.651 2.709 10
-4.775 -1.668 2.676 7
-5.041 -1.688 2.641 9
-3.826 -1.228 2.717 10
-3.714 -1.143 2.715 25
-3.714 -1.096 2.706 46
-3.748 -1.062 2.695 25
-3.824 -1.042 2.681 16
-5.914 -1.554 2.495 4
-5.865 -1.487 2.488 2
-5.542 -1.361 2.505 0
-5.158 -1.231 2.528 0
-5.024 -1.17 2.527 0
-4.83 -1.102 2.532 0
-7.143 -1.604 2.286 1
0.0 -0.0 3.0 0
0.0 -0.0 3.0 0
0.0 -0.0 3.0 0
-50.222 -11.103 -2.904 2
0.0 -0.0 3.0 0
0.0 -0.0 3.0 0
0.0 -0.0 3.0 0
0.0 -0.0 3.0 0
0.0 -0.0 3.0 0
-3.186 -0.775 2.477 0
-3.073 -0.766 2.464 9
-3.063 -0.782 2.432 72
-3.079 -0.806 2.393 1
-1.208 -0.324 2.747 2
-1.188 -0.327 2.736 1
-1.179 -0.332 2.721 10
-1.106 -0.319 2.723 11
-4.521 -1.658 2.708 9
-4.745 -1.669 2.676 6
-5.003 -1.687 2.641 5
-3.827 -1.238 2.714 8
-3.711 -1.151 2.713 20
-3.712 -1.106 2.704 46
-3.745 -1.072 2.693 23
-3.855 -1.062 2.675 14
-5.918 -1.572 2.489 3
-5.802 -1.488 2.488 1
-5.456 -1.356 2.506 0
-5.127 -1.239 2.524 1
-4.981 -1.175 2.525 0
-4.749 -1.098 2.534 0
-4.592 -1.045 2.535 0
0.0 -0.0 3.0 0
0.0 -0.0 3.0 0
-46.878 -10.468 -2.334 3
-49.962 -11.19 -2.95 2
-49.238 -11.116 -3.161 2
0.0 -0.0 3.0 0
0.0 -0.0 3.0 0
0.0 -0.0 3.0 0
-3.322 -0.799 2.481 0
-3.107 -0.763 2.485 2
-3.067 -0.771 2.46 11
-3.061 -0.787 2.428 9
-3.073 -0.81 2.39 1
-1.218 -0.329 2.743 4
-1.195 -0.331 2.732 2
-1.14 -0.323 2.729 5
-1.101 -0.32 2.722 12
-4.499 -1.66 2.707 15
-4.726 -1.674 2.675 14
-4.976 -1.69 2.641 5
-3.808 -1.242 2.713 8
-3.712 -1.162 2.71 18
-3.712 -1.115 2.701 36
-3.742 -1.082 2.69 30
-3.841 -1.069 2.673 17
-5.898 -1.583 2.485 15
-5.643 -1.465 2.496 0
-5.379 -1.353 2.507 0
-5.069 -1.24 2.524 3
-4.888 -1.167 2.528 0
-4.702 -1.101 2.533 0
-7.109 -1.639 2.27 1
0.0 -0.0 3.0 0
0.0 -0.0 3.0 0
-46.601 -10.544 -2.372 2
-49.663 -11.266 -2.99 2
-48.999 -11.2 -3.208 2
0.0 -0.0 3.0 0
0.0 -0.0 3.0 0
0.0 -0.0 3.0 0
-3.189 -0.775 2.497 0
-3.073 -0.762 2.486 9
-3.064 -0.777 2.456 74
-3.059 -0.794 2.423 3
-3.055 -0.812 2.388 0
-1.225 -0.334 2.739 3
-1.205 -0.336 2.728 2
-1.188 -0.339 2.716 4
-1.108 -0.323 2.719 12
-4.491 -1.668 2.706 14
-4.715 -1.681 2.673 16
-4.95 -1.694 2.64 11
-3.813 -1.254 2.711 10
-3.72 -1.174 2.707 16
-3.706 -1.124 2.699 28
-3.736 -1.091 2.687 22
-3.845 -1.081 2.67 14
-5.847 -1.587 2.484 1
-5.546 -1.456 2.499 0
-5.258 -1.339 2.513 0
-5.022 -1.244 2.523 4
-7.125 -1.724 2.303 0
-4.644 -1.102 2.532 0
-7.131 -1.666 2.258 2
0.0 -0.0 3.0 0
0.0 -0.0 3.0 0
-46.351 -10.624 -2.413 2
-49.411 -11.352 -3.036 2
-48.743 -11.278 -3.252 2
0.0 -0.0 3.0 0
0.0 -0.0 3.0 0
0.0 -0.0 3.0 0
-3.171 -0.778 2.495 0
-3.071 -0.769 2.481 10
-3.062 -0.784 2.451 113
-3.071 -0.803 2.416 1
-3.034 -0.813 2.388 0
-1.216 -0.333 2.74 2
-1.208 -0.339 2.725 4
-1.187 -0.341 2.714 3
-1.118 -0.329 2.714 13
-4.461 -1.668 2.706 8
-4.696 -1.687 2.672 7
-4.934 -1.702 2.638 13
-3.81 -1.262 2.709 9
-3.725 -1.185 2.704 16
-3.71 -1.136 2.696 26
-3.733 -1.1 2.685 21
-3.827 -1.087 2.668 16
-5.792 -1.589 2.484 1
-5.453 -1.447 2.502 0
-5.088 -1.311 2.523 0
-4.96 -1.244 2.523 4
-9.343 -2.289 2.075 0
-7.04 -1.691 2.282 2
-7.144 -1.691 2.247 5
0.0 -0.0 3.0 0
0.0 -0.0 3.0 0
-46.085 -10.7 -2.452 3
0.0 -0.0 3.0 0
0.0 -0.0 3.0 0
0.0 -0.0 3.0 0
0.0 -0.0 3.0 0
-3.23 -0.786 2.509 0
-3.092 -0.766 2.502 10
-3.076 -0.778 2.475 27
-3.063 -0.791 2.446 10
-3.065 -0.809 2.412 0
-2.986 -0.806 2.393 0
-1.219 -0.337 2.737 3
-1.207 -0.341 2.724 6
-1.186 -0.343 2.712 5
-1.121 -0.332 2.712 12
-4.435 -1.669 2.706 9
-4.654 -1.683 2.673 7
-4.915 -1.707 2.637 5
-3.848 -1.285 2.703 6
-3.729 -1.197 2.702 15
-3.711 -1.146 2.693 22
-3.737 -1.111 2.681 17
-3.831 -1.099 2.664 12
-5.634 -1.562 2.493 0
-5.353 -1.436 2.505 0
-4.915 -1.28 2.534 1
-4.918 -1.247 2.521 1
-9.243 -2.292 2.074 0
-7.065 -1.719 2.27 2
-7.158 -1.716 2.236 0
0.0 -0.0 3.0 0
0.0 -0.0 3.0 0
-45.812 -10.772 -2.489 2
0.0 -0.0 3.0 0
-48.251 -11.438 -3.34 2
0.0 -0.0 3.0 0
0.0 -0.0 3.0 0
-3.189 -0.785 2.51 0
-3.082 -0.772 2.499 59
-3.07 -0.783 2.472 255
-3.061 -0.798 2.441 3
-3.059 -0.814 2.409 0
-2.961 -0.805 2.393 0
-1.211 -0.337 2.737 3
-1.209 -0.345 2.721 7
-1.185 -0.345 2.711 9
-1.135 -0.337 2.707 13
-4.417 -1.673 2.705 9
-4.647 -1.692 2.671 6
-4.889 -1.711 2.636 4
-3.887 -1.308 2.698 5
-3.741 -1.211 2.698 15
-3.712 -1.156 2.69 23
-3.746 -1.125 2.677 16
-3.836 -1.111 2.66 13
-5.545 -1.553 2.496 0
-5.267 -1.429 2.508 0
-4.833 -1.274 2.536 1
-4.867 -1.249 2.52 1
-9.139 -2.295 2.073 0
-7.121 -1.754 2.255 1
0.0 -0.0 3.0 0
0.0 -0.0 3.0 0
0.0 -0.0 3.0 0
-45.573 -10.85 -2.529 2
0.0 -0.0 3.0 0
-48.022 -11.521 -3.386 1
0.0 -0.0 3.0 0
0.0 -0.0 3.0 0
-3.163 -0.787 2.508 0
-3.075 -0.778 2.495 18
-3.067 -0.79 2.467 255
-3.081 -0.81 2.433 2
-3.026 -0.812 2.41 0
-2.936 -0.805 2.393 0
-1.21 -0.339 2.735 6
-1.209 -0.346 2.72 11
-1.188 -0.348 2.708 10
-1.145 -0.343 2.702 15
-4.391 -1.674 2.705 11
-4.617 -1.693 2.671 11
-3.936 -1.387 2.705 1
-3.895 -1.321 2.695 0
-3.75 -1.224 2.695 14
-3.705 -1.165 2.688 25
-3.746 -1.135 2.674 17
-3.84 -1.123 2.657 16
-5.436 -1.539 2.5 0
-5.202 -1.427 2.509 0
-4.76 -1.269 2.538 1
-4.844 -1.259 2.517 0
-9.046 -2.299 2.071 0
0.0 -0.0 3.0 0
0.0 -0.0 3.0 0
0.0 -0.0 3.0 0
-45.588 -11.019 -2.374 2
-45.28 -10.916 -2.562 2
0.0 -0.0 3.0 0
0.0 -0.0 3.0 0
0.0 -0.0 3.0 0
-3.274 -0.811 2.513 0
-3.072 -0.772 2.518 21
-3.076 -0.786 2.49 91
-3.057 -0.795 2.464 13
-3.071 -0.815 2.43 1
-3.012 -0.815 2.408 0
-2.941 -0.813 2.387 0
-1.213 -0.343 2.732 6
-1.207 -0.348 2.718 15
-1.183 -0.349 2.707 12
-1.155 -0.348 2.698 14
-4.376 -1.678 2.704 17
-4.605 -1.7 2.67 18
-4.828 -1.714 2.636 11
-5.096 -1.742 2.598 5
-3.762 -1.238 2.691 15
-3.717 -1.178 2.684 18
-3.751 -1.148 2.671 16
-3.837 -1.133 2.654 14
-5.359 -1.533 2.502 0
-5.132 -1.423 2.51 0
-4.679 -1.262 2.541 1
0.0 -0.0 3.0 0
-8.954 -2.303 2.069 0
0.0 -0.0 3.0 0
0.0 -0.0 3.0 0
0.0 -0.0 3.0 0
-45.341 -11.097 -2.412 2
-45.126 -11.013 -2.611 4
0.0 -0.0 3.0 0
0.0 -0.0 3.0 0
0.0 -0.0 3.0 0
-3.202 -0.802 2.518 0
-3.077 -0.781 2.512 9
-3.078 -0.794 2.484 255
-3.074 -0.806 2.456 5
-3.053 -0.817 2.428 0
-2.93 -0.8 2.419 0
-2.95 -0.822 2.381 0
-1.208 -0.344 2.731 3
-1.206 -0.351 2.716 17
-1.19 -0.353 2.704 16
-1.169 -0.354 2.692 14
-4.372 -1.688 2.702 9
-4.582 -1.703 2.669 7
-3.896 -1.394 2.704 4
-5.057 -1.742 2.598 8
-3.796 -1.26 2.686 8
-3.725 -1.191 2.681 15
-3.759 -1.16 2.667 16
-3.838 -1.144 2.65 16
-5.282 -1.526 2.504 0
-5.051 -1.416 2.513 0
-4.629 -1.262 2.541 1
0.0 -0.0 3.0 0
-5.569 -1.45 2.414 0
0.0 -0.0 3.0 0
0.0 -0.0 3.0 0
0.0 -0.0 3.0 0
0.0 -0.0 3.0 0
-44.848 -11.079 -2.645 2
0.0 -0.0 3.0 0
0.0 -0.0 3.0 0
0.0 -0.0 3.0 0
-3.161 -0.801 2.519 0
-3.074 -0.788 2.508 9
-3.071 -0.801 2.48 255
-3.082 -0.817 2.449 5
-3.009 -0.812 2.431 0
-2.916 -0.803 2.417 0
-2.879 -0.809 2.39 0
-1.199 -0.343 2.732 0
-1.213 -0.355 2.712 20
-1.196 -0.357 2.7 16
-1.168 -0.356 2.691 18
-4.338 -1.687 2.703 8
-4.53 -1.696 2.67 5
-4.793 -1.727 2.633 4
-5.038 -1.749 2.596 18
-3.819 -1.278 2.681 7
-3.745 -1.208 2.676 15
-3.759 -1.171 2.664 17
-3.842 -1.158 2.646 9
-5.185 -1.514 2.508 0
-4.947 -1.401 2.518 0
-4.552 -1.255 2.543 1
-8.183 -2.201 2.155 0
-5.552 -1.462 2.409 2
0.0 -0.0 3.0 0
-46.601 -11.887 -2.293 4
0.0 -0.0 3.0 0
-5.552 -1.392 2.321 0
0.0 -0.0 3.0 0
-45.27 -11.325 -3.022 2
-47.144 -11.85 -3.569 1
-3.248 -0.823 2.525 0
-3.078 -0.787 2.527 11
-3.064 -0.794 2.504 33
-3.069 -0.807 2.476 15
-3.091 -0.827 2.442 3
-2.991 -0.814 2.43 0
-4.877 -1.353 2.017 7
-2.843 -0.804 2.394 0
-2.821 -0.815 2.364 0
-1.216 -0.358 2.71 19
-1.192 -0.358 2.7 19
-1.175 -0.36 2.687 20
-4.305 -1.685 2.703 11
-4.492 -1.693 2.671 5
-4.755 -1.726 2.633 5
-5.029 -1.76 2.594 6
-3.835 -1.294 2.677 5
-3.753 -1.221 2.673 12
-3.771 -1.186 2.66 20
-3.827 -1.164 2.644 5
-5.112 -1.508 2.51 0
-4.877 -1.396 2.519 0
-4.483 -1.25 2.545 1
-8.149 -2.217 2.149 0
-5.497 -1.465 2.408 6
0.0 -0.0 3.0 0
0.0 -0.0 3.0 0
-5.548 -1.417 2.339 0
0.0 -0.0 3.0 0
0.0 -0.0 3.0 0
-45.368 -11.484 -3.106 3
0.0 -0.0 3.0 0
-3.207 -0.821 2.526 0
-3.083 -0.797 2.521 8
-3.069 -0.803 2.498 182
-3.085 -0.819 2.468 7
-3.111 -0.84 2.434 2
-2.969 -0.816 2.429 0
-4.85 -1.357 2.014 5
-2.776 -0.792 2.403 0
-2.803 -0.815 2.363 0
-1.218 -0.361 2.707 16
-1.198 -0.362 2.696 21
-1.17 -0.361 2.686 22
-4.297 -1.692 2.702 9
-4.037 -1.532 2.702 2
-4.743 -1.734 2.631 6
-4.987 -1.759 2.594 6
-3.801 -1.294 2.677 0
-3.768 -1.237 2.669 12
-3.779 -1.2 2.656 11
-3.846 -1.181 2.639 0
-5.05 -1.504 2.511 0
-7.034 -2.035 2.299 1
-4.418 -1.245 2.547 1
-8.038 -2.212 2.151 0
-5.477 -1.476 2.404 15
-5.551 -1.47 2.376 1
-5.576 -1.457 2.351 0
-5.543 -1.433 2.332 2
0.0 -0.0 3.0 0
-43.834 -11.223 -2.718 1
-45.355 -11.615 -3.176 2
0.0 -0.0 3.0 0
-3.139 -0.813 2.531 1
-3.076 -0.804 2.517 8
-3.066 -0.81 2.494 52
-3.082 -0.827 2.463 5
-3.105 -0.846 2.43 2
-2.933 -0.813 2.431 0
-2.84 -0.801 2.418 0
-2.781 -0.8 2.397 0
-2.752 -0.806 2.37 0
-1.217 -0.363 2.706 15
-1.197 -0.365 2.694 21
-1.176 -0.366 2.682 26
-4.241 -1.681 2.704 13
-4.469 -1.708 2.668 6
-4.72 -1.739 2.63 14
-4.964 -1.764 2.593 6
-5.254 -1.801 2.551 9
-3.757 -1.244 2.667 2
-3.81 -1.22 2.65 10
-5.217 -1.618 2.505 0
-4.946 -1.488 2.517 0
-4.723 -1.381 2.524 0
-4.375 -1.246 2.546 1
-7.939 -2.209 2.152 0
-5.453 -1.487 2.399 20
-5.53 -1.482 2.371 1
-5.579 -1.475 2.343 1
0.0 -0.0 3.0 0
0.0 -0.0 3.0 0
-43.626 -11.301 -2.758 1
-45.464 -11.776 -3.262 3
-3.228 -0.84 2.534 0
-3.086 -0.807 2.534 5
-3.066 -0.81 2.514 30
-3.056 -0.816 2.49 7
-3.102 -0.84 2.454 2
-3.091 -0.849 2.427 2
-2.926 -0.818 2.427 0
-1.332 -0.379 2.725 1
-4.832 -1.4 1.945 1
-2.682 -0.792 2.382 0
-1.216 -0.365 2.704 15
-1.196 -0.366 2.693 22
-1.164 -0.363 2.684 27
-4.237 -1.691 2.702 13
-4.473 -1.721 2.665 8
-4.708 -1.747 2.629 11
-4.937 -1.768 2.592 14
-5.203 -1.8 2.551 5
-3.761 -1.256 2.663 1
-3.818 -1.234 2.646 2
-5.102 -1.597 2.512 0
-6.508 -1.977 2.358 1
-4.685 -1.384 2.523 0
-4.314 -1.242 2.548 1
-5.507 -1.549 2.405 0
-5.433 -1.499 2.394 22
-5.495 -1.49 2.368 2
-5.551 -1.485 2.339 1
0.0 -0.0 3.0 0
-44.014 -11.575 -2.646 1
-43.386 -11.369 -2.793 1
-3.478 -0.911 2.516 0
-3.179 -0.836 2.537 0
-3.08 -0.815 2.53 8
-3.067 -0.819 2.508 98
-3.068 -0.828 2.483 2
-3.118 -0.852 2.447 1
-2.936 -0.815 2.451 0
-2.84 -0.801 2.439 0
-1.342 -0.385 2.721 1
-1.315 -0.384 2.711 0
-2.122 -0.631 2.507 1
-1.215 -0.368 2.702 16
-1.202 -0.371 2.689 19
-1.167 -0.367 2.681 30
-4.085 -1.641 2.711 5
-4.45 -1.724 2.665 6
-4.674 -1.747 2.629 5
-4.925 -1.778 2.59 11
-5.176 -1.804 2.55 6
-5.439 -1.832 2.509 1
-3.83 -1.249 2.642 3
-5.055 -1.597 2.512 0
-4.796 -1.472 2.522 0
-6.858 -2.047 2.295 0
-4.283 -1.247 2.546 1
-5.506 -1.566 2.399 1
-5.409 -1.509 2.39 18
-5.463 -1.498 2.364 2
-5.504 -1.489 2.337 2
-44.648 -11.955 -2.575 3
0.0 -0.0 3.0 0
0.0 -0.0 3.0 0
-3.364 -0.892 2.526 0
-3.115 -0.828 2.541 1
-3.081 -0.823 2.525 9
-3.068 -0.827 2.503 19
-3.062 -0.834 2.479 2
-3.074 -0.848 2.449 0
-2.869 -0.803 2.458 0
-2.853 -0.811 2.432 0
-1.371 -0.397 2.712 0
-1.295 -0.381 2.713 3
-2.124 -0.636 2.503 0
-1.214 -0.37 2.7 13
-1.194 -0.371 2.689 16
-1.169 -0.37 2.678 29
-4.174 -1.688 2.702 6
-4.423 -1.726 2.664 8
-4.647 -1.75 2.628 6
-4.894 -1.78 2.589 6
-5.152 -1.811 2.548 16
-5.332 -1.812 2.514 0
-5.665 -1.865 2.465 1
-4.978 -1.588 2.514 0
-6.416 -1.988 2.354 0
-6.818 -2.056 2.292 1
-4.237 -1.247 2.546 0
-5.505 -1.583 2.392 1
-5.4 -1.523 2.385 20
-5.442 -1.51 2.359 2
-5.495 -1.504 2.33 2
0.0 -0.0 3.0 0
0.0 -0.0 3.0 0
0.0 -0.0 3.0 0
-3.223 -0.863 2.541 0
-3.093 -0.831 2.539 3
-3.066 -0.829 2.522 32
-3.057 -0.833 2.5 5
-3.07 -0.845 2.472 0
-3.022 -0.842 2.453 0
-2.806 -0.793 2.465 0
-2.869 -0.823 2.424 0
-1.31 -0.382 2.723 0
-1.316 -0.39 2.706 3
-1.304 -0.393 2.693 0
-1.209 -0.371 2.699 10
-1.193 -0.373 2.687 18
-1.168 -0.372 2.677 29
-4.17 -1.697 2.701 11
-4.415 -1.736 2.663 8
-4.632 -1.757 2.627 6
-4.859 -1.781 2.589 6
-5.144 -1.823 2.546 10
-5.251 -1.8 2.518 0
-5.682 -1.887 2.459 2
-4.875 -1.57 2.52 0
-6.383 -1.998 2.351 1
-6.762 -2.06 2.291 0
-4.172 -1.241 2.548 0
-5.511 -1.602 2.385 1
-5.391 -1.538 2.379 12
-5.43 -1.522 2.354 1
-5.539 -1.534 2.317 1
0.0 -0.0 3.0 0
0.0 -0.0 3.0 0
0.0 -0.0 3.0 0
-3.193 -0.865 2.54 0
-3.071 -0.834 2.538 8
-3.06 -0.835 2.518 68
-3.062 -0.843 2.494 2
-3.037 -0.844 2.473 0
-2.856 -0.803 2.478 0
-2.758 -0.786 2.47 0
-2.765 -0.8 2.44 0
-1.323 -0.389 2.717 2
-1.337 -0.4 2.699 2
-1.265 -0.385 2.7 5
-1.223 -0.378 2.694 3
-1.188 -0.373 2.687 21
-1.164 -0.372 2.676 29
-4.17 -1.708 2.699 9
-4.385 -1.735 2.663 13
-4.605 -1.76 2.626 15
-4.84 -1.788 2.587 9
-5.101 -1.822 2.546 6
-5.235 -1.809 2.515 8
-5.632 -1.887 2.459 0
-4.829 -1.57 2.52 0
-6.343 -2.005 2.349 0
-6.713 -2.065 2.289 1
0.0 -0.0 3.0 0
-5.529 -1.624 2.377 1
-5.382 -1.551 2.373 7
-5.405 -1.533 2.349 3
-5.53 -1.548 2.311 1
0.0 -0.0 3.0 0
0.0 -0.0 3.0 0
-3.284 -0.9 2.541 0
-3.079 -0.843 2.552 5
-3.072 -0.844 2.532 9
-3.06 -0.844 2.512 10
-3.044 -0.846 2.492 2
-3.084 -0.865 2.459 1
-2.849 -0.809 2.475 0
-2.717 -0.781 2.473 0
-2.803 -0.818 2.427 0
-1.345 -0.399 2.71 0
-4.854 -1.462 1.898 0
-1.283 -0.393 2.693 4
-1.296 -0.403 2.673 0
-1.187 -0.376 2.685 21
-1.159 -0.373 2.676 28
-4.162 -1.716 2.697 14
-4.381 -1.745 2.661 11
-4.604 -1.772 2.623 11
-4.816 -1.793 2.586 18
-5.074 -1.828 2.544 6
-5.185 -1.807 2.516 9
-5.6 -1.894 2.457 0
-4.745 -1.556 2.524 0
-6.284 -2.006 2.348 1
-6.673 -2.074 2.286 0
-4.088 -1.24 2.549 0
-5.5 -1.634 2.373 1
-5.38 -1.569 2.366 4
-5.404 -1.55 2.342 1
-5.483 -1.552 2.309 1
0.0 -0.0 3.0 0
0.0 -0.0 3.0 0
-3.212 -0.89 2.547 0
-3.088 -0.855 2.546 3
-3.065 -0.851 2.528 33
-3.05 -0.85 2.509 4
-3.018 -0.847 2.491 0
-2.971 -0.842 2.474 0
-2.843 -0.815 2.471 0
-2.764 -0.802 2.459 0
-2.714 -0.799 2.44 0
-1.321 -0.395 2.713 1
-1.32 -0.401 2.698 3
-1.322 -0.407 2.682 3
-1.269 -0.398 2.678 4
-1.182 -0.377 2.684 21
-1.154 -0.374 2.675 25
-4.147 -1.721 2.696 13
-4.347 -1.744 2.661 7
-4.559 -1.767 2.624 6
-4.801 -1.8 2.584 7
-5.046 -1.831 2.543 13
-5.165 -1.815 2.514 1
-5.587 -1.905 2.454 2
-4.668 -1.546 2.527 0
-6.255 -2.015 2.345 1
-6.621 -2.079 2.284 0
-4.057 -1.244 2.547 1
-5.476 -1.643 2.369 1
-5.368 -1.582 2.361 4
-5.387 -1.562 2.337 1
-5.462 -1.564 2.304 1
0.0 -0.0 3.0 0
0.0 -0.0 3.0 0
-3.148 -0.882 2.551 0
-3.077 -0.862 2.542 7
-3.066 -0.86 2.523 45
-3.062 -0.863 2.502 2
-2.992 -0.849 2.49 0
-2.937 -0.84 2.475 0
-2.851 -0.825 2.465 0
-2.753 -0.806 2.456 0
-2.768 -0.822 2.425 0
-1.451 -0.437 2.683 1
-1.367 -0.418 2.685 2
-1.321 -0.41 2.68 3
-1.256 -0.397 2.679 5
-1.173 -0.376 2.684 20
-1.146 -0.374 2.675 23
-4.128 -1.725 2.696 9
-4.328 -1.748 2.66 7
-4.543 -1.774 2.623 6
-4.773 -1.804 2.583 6
-5.034 -1.842 2.541 32
-5.084 -1.802 2.517 0
-5.547 -1.909 2.453 1
-5.86 -1.959 2.401 0
-6.203 -2.017 2.345 0
-4.119 -1.306 2.55 0
-4.023 -1.246 2.546 2
-5.478 -1.662 2.362 1
-5.366 -1.598 2.354 3
-5.382 -1.577 2.331 1
-5.48 -1.586 2.294 1
0.0 -0.0 3.0 0
-3.291 -0.936 2.543 0
-3.076 -0.872 2.556 6
-3.074 -0.869 2.538 8
-3.056 -0.866 2.52 10
-3.048 -0.868 2.499 1
-2.978 -0.853 2.487 0
-2.893 -0.835 2.478 0
-2.86 -0.835 2.458 0
-2.803 -0.828 2.442 0
-2.713 -0.812 2.432 0
-2.097 -0.636 2.538 2
-1.34 -0.413 2.689 3
0.0 -0.0 3.0 0
-1.244 -0.395 2.68 6
-1.172 -0.379 2.682 15
-1.144 -0.376 2.673 23
-4.113 -1.729 2.695 8
-4.309 -1.752 2.659 7
-4.524 -1.78 2.622 6
-4.746 -1.808 2.583 6
-4.995 -1.843 2.541 6
-7.135 -2.551 2.316 0
-4.789 -1.663 2.523 0
-5.824 -1.965 2.399 1
-6.159 -2.023 2.343 1
-4.005 -1.282 2.559 0
-3.996 -1.25 2.545 4
-5.48 -1.679 2.355 1
-5.376 -1.618 2.346 2
-5.376 -1.593 2.324 2
-5.512 -1.612 2.282 0
0.0 -0.0 3.0 0
-3.212 -0.924 2.549 0
-3.085 -0.883 2.55 6
-3.063 -0.876 2.534 30
-3.052 -0.874 2.515 3
-3.029 -0.871 2.497 0
-2.888 -0.835 2.498 0
-2.981 -0.869 2.457 0
-2.808 -0.827 2.463 0
-2.782 -0.828 2.441 0
-2.342 -0.707 2.505 0
-2.095 -0.641 2.534 3
-1.342 -0.416 2.686 3
-1.363 -0.43 2.664 3
-1.228 -0.393 2.682 7
-1.167 -0.379 2.682 15
-1.147 -0.379 2.67 23
-4.087 -1.729 2.695 11
-4.282 -1.754 2.659 10
-4.501 -1.783 2.621 14
-4.723 -1.812 2.582 11
-4.96 -1.845 2.54 3
-5.104 -1.84 2.507 0
-2.255 -0.79 2.774 1
-5.8 -1.974 2.396 1
-6.138 -2.034 2.339 0
-3.982 -1.287 2.557 0
-3.966 -1.253 2.544 5
-5.471 -1.694 2.35 1
-5.374 -1.635 2.34 2
-5.379 -1.61 2.317 3
-5.545 -1.64 2.27 1
0.0 -0.0 3.0 0
-3.147 -0.916 2.553 0
-3.081 -0.892 2.545 6
-3.068 -0.887 2.528 26
-3.061 -0.885 2.509 2
-2.989 -0.868 2.499 0
-4.846 -1.416 2.149 4
-2.838 -0.835 2.478 0
-2.816 -0.837 2.457 0
-2.813 -0.845 2.43 0
-2.111 -0.643 2.55 2
-2.074 -0.64 2.535 3
-1.583 -0.495 2.627 17
-1.388 -0.441 2.656 23
-1.216 -0.392 2.683 9
-1.17 -0.383 2.679 18
-1.146 -0.381 2.669 24
-4.071 -1.734 2.694 10
-4.274 -1.763 2.657 19
-4.489 -1.791 2.619 12
-4.707 -1.82 2.58 16
-4.933 -1.849 2.539 5
-5.133 -1.866 2.5 1
-2.257 -0.797 2.771 10
-5.745 -1.973 2.397 0
-6.079 -2.034 2.339 0
-3.928 -1.282 2.558 0
-3.943 -1.258 2.542 6
-5.515 -1.724 2.338 0
-5.38 -1.654 2.332 2
-5.373 -1.626 2.31 6
-5.539 -1.655 2.263 1
-3.244 -0.96 2.552 0
-3.099 -0.911 2.556 3
-3.071 -0.898 2.542 10
-3.057 -0.893 2.525 7
-2.955 -0.864 2.521 0
-2.997 -0.879 2.492 0
-2.791 -0.824 2.505 0
-2.827 -0.84 2.475 0
-2.885 -0.866 2.438 0
-2.705 -0.82 2.447 0
-2.086 -0.64 2.552 2
-2.069 -0.643 2.533 6
-2.031 -0.64 2.517 9
-1.394 -0.445 2.652 23
-1.203 -0.39 2.684 7
-1.172 -0.386 2.676 23
-1.141 -0.382 2.668 25
-4.053 -1.737 2.694 12
-4.262 -1.77 2.656 8
-4.462 -1.793 2.619 6
-4.683 -1.825 2.579 6
-4.879 -1.843 2.54 0
-5.135 -1.882 2.496 2
-2.258 -0.804 2.769 10
-5.709 -1.978 2.395 1
-6.046 -2.042 2.336 1
-3.89 -1.282 2.558 0
-3.916 -1.262 2.541 5
-7.21 -2.278 2.125 0
-5.378 -1.67 2.325 2
-5.375 -1.644 2.302 19
-5.514 -1.666 2.258 0
-3.198 -0.956 2.554 0
-3.084 -0.916 2.553 6
-3.071 -0.908 2.537 28
-3.054 -0.901 2.521 2
-3.036 -0.896 2.503 0
-2.982 -0.883 2.49 0
-2.804 -0.835 2.499 0
-2.727 -0.817 2.489 0
-2.803 -0.849 2.449 0
-2.222 -0.679 2.542 0
-2.084 -0.645 2.548 3
-2.066 -0.647 2.53 7
-2.044 -0.649 2.511 10
-1.507 -0.485 2.621 19
-1.209 -0.395 2.68 12
-1.167 -0.387 2.675 25
-1.143 -0.385 2.666 24
-2.348 -1.014 2.821 0
-2.311 -0.966 2.812 1
-4.435 -1.796 2.618 7
-4.656 -1.828 2.578 5
-4.777 -1.818 2.547 0
-2.253 -0.832 2.777 3
-2.263 -0.813 2.767 10
-5.688 -1.989 2.392 0
-5.972 -2.036 2.339 0
-3.83 -1.274 2.561 0
-3.885 -1.265 2.539 3
-7.165 -2.287 2.122 1
-5.384 -1.689 2.318 2
-5.385 -1.663 2.294 26
-5.505 -1.681 2.252 0
-3.15 -0.952 2.556 0
-3.085 -0.925 2.549 5
-3.061 -0.914 2.534 15
-3.051 -0.909 2.516 1
-2.979 -0.889 2.507 0
-3.047 -0.911 2.474 0
-2.778 -0.836 2.498 0
-2.716 -0.822 2.486 0
-2.759 -0.843 2.453 0
-2.096 -0.647 2.564 2
-2.067 -0.645 2.549 4
-2.061 -0.651 2.527 8
-2.046 -0.655 2.507 11
0.0 -0.0 3.0 0
-1.212 -0.398 2.677 14
-1.166 -0.389 2.673 25
-1.142 -0.387 2.664 25
-2.346 -1.019 2.82 8
-2.316 -0.975 2.81 3
-4.412 -1.799 2.618 6
-4.629 -1.831 2.577 6
-4.72 -1.812 2.548 0
-2.262 -0.843 2.774 9
-2.257 -0.818 2.765 8
-5.641 -1.99 2.392 0
-5.932 -2.041 2.337 2
-3.769 -1.266 2.564 0
-3.855 -1.267 2.539 2
-7.097 -2.288 2.122 0
-5.428 -1.72 2.305 1
-5.39 -1.683 2.286 11
-3.259 -1.005 2.552 0
-3.112 -0.951 2.557 2
-3.074 -0.933 2.545 11
-3.054 -0.921 2.53 6
-3.017 -0.908 2.517 0
-2.954 -0.89 2.507 0
-2.969 -0.896 2.483 0
-2.794 -0.848 2.49 0
-2.732 -0.834 2.479 0
-4.862 -1.498 2.027 3
-2.082 -0.648 2.563 2
-2.065 -0.65 2.545 6
-2.055 -0.654 2.525 9
-2.04 -0.658 2.504 10
-2.014 -0.658 2.486 10
-1.207 -0.4 2.676 9
-1.161 -0.39 2.673 26
-1.137 -0.387 2.663 26
-2.307 -1.009 2.822 7
-2.321 -0.984 2.809 3
-4.396 -1.806 2.616 11
-4.606 -1.836 2.576 12
-4.704 -1.819 2.546 8
-2.252 -0.846 2.773 9
-2.247 -0.821 2.765 12
-5.616 -1.998 2.389 1
-5.892 -2.045 2.336 2
-3.728 -1.264 2.565 0
-3.832 -1.272 2.537 0
-7.048 -2.295 2.119 1
-5.441 -1.742 2.296 0
-5.396 -1.702 2.278 3
-3.165 -0.986 2.561 0
-3.082 -0.951 2.557 6
-3.067 -0.94 2.542 22
-3.062 -0.934 2.524 1
-3.044 -0.926 2.508 0
-4.851 -1.476 2.182 3
-2.954 -0.901 2.48 0
-2.81 -0.861 2.483 0
-2.741 -0.845 2.472 0
-2.149 -0.668 2.566 1
-2.08 -0.653 2.56 3
-2.059 -0.653 2.543 7
-2.049 -0.657 2.522 10
-2.038 -0.662 2.501 11
-2.023 -0.666 2.48 9
-1.206 -0.402 2.674 8
-1.167 -0.395 2.669 25
-1.136 -0.39 2.661 25
-2.25 -0.99 2.825 5
-2.326 -0.993 2.807 3
-2.299 -0.951 2.798 4
-4.597 -1.846 2.574 15
-2.257 -0.88 2.781 0
-2.253 -0.853 2.771 10
-2.245 -0.827 2.763 11
-5.576 -2.002 2.388 0
-5.874 -2.058 2.331 2
-3.705 -1.268 2.563 0
0.0 -0.0 3.0 0
-6.995 -2.3 2.117 0
-7.437 -2.405 2.028 0
-5.413 -1.725 2.268 1
-3.109 -0.979 2.564 1
-3.075 -0.959 2.553 5
-3.063 -0.949 2.537 10
-3.062 -0.944 2.519 1
-2.973 -0.913 2.514 0
-2.849 -0.876 2.514 0
-2.883 -0.888 2.487 0
-2.859 -0.885 2.468 0
-2.662 -0.829 2.482 0
-2.109 -0.662 2.57 2
-2.07 -0.655 2.558 4
-2.046 -0.654 2.542 8
-2.043 -0.66 2.52 11
-2.036 -0.666 2.498 11
-2.024 -0.671 2.476 8
-1.19 -0.399 2.676 8
-1.162 -0.396 2.668 23
-1.135 -0.391 2.66 24
-2.236 -0.991 2.825 3
-2.298 -0.987 2.808 3
-2.307 -0.961 2.796 4
-2.254 -0.911 2.79 6
-2.254 -0.886 2.779 9
-2.247 -0.858 2.77 7
-2.246 -0.835 2.76 9
-5.536 -2.005 2.387 0
-5.834 -2.063 2.33 1
-6.162 -2.128 2.267 3
0.0 -0.0 3.0 0
-6.946 -2.306 2.115 0
-7.368 -2.406 2.028 0
-3.206 -1.031 2.562 0
-3.101 -0.986 2.561 2
-3.068 -0.966 2.549 15
-3.06 -0.957 2.533 4
-3.036 -0.944 2.519 0
-2.996 -0.93 2.506 0
-4.84 -1.502 2.167 4
-3.016 -0.938 2.459 0
-2.785 -0.87 2.477 0
-4.847 -1.522 2.049 3
-2.092 -0.662 2.57 2
-2.061 -0.657 2.557 6
-2.043 -0.659 2.539 9
-2.041 -0.665 2.517 11
-2.037 -0.671 2.494 11
-2.022 -0.675 2.473 8
-1.188 -0.402 2.675 6
