# .PCD v0.7 - Point Cloud Data file format
VERSION 0.7
FIELDS x y z intensity
SIZE 4 4 4 4
TYPE F F F F
COUNT 1 1 1 1
WIDTH 2354
HEIGHT 1
VIEWPOINT 0 0 0 1 0 0 0
POINTS 2354
DATA ascii
0.0 -0.0 3.0 0
0.0 -0.0 3.0 0
0.0 -0.0 3.0 0
0.0 -0.0 3.0 0
-0.332 -0.839 2.296 0
0.0 -0.0 3.0 0
-0.4 -1.329 2.766 25
0.0 -0.0 3.0 0
-0.427 -1.395 2.704 0
-0.433 -1.404 2.676 0
-0.425 -1.363 2.66 0
-0.416 -1.324 2.645 0
-0.421 -1.328 2.619 0
-0.416 -1.302 2.602 0
-0.405 -1.259 2.591 0
-0.411 -1.265 2.564 0
-0.402 -1.229 2.553 0
-0.39 -1.181 2.547 0
-0.396 -1.19 2.519 0
-0.377 -1.122 2.524 0
-0.388 -1.145 2.49 0
-0.377 -1.105 2.485 0
-0.368 -1.068 2.479 0
-0.364 -1.049 2.466 0
0.0 -0.0 3.0 0
-0.357 -1.009 2.441 0
0.0 -0.0 3.0 0
-0.35 -0.973 2.416 0
0.0 -0.0 3.0 0
-0.349 -0.953 2.381 0
0.0 -0.0 3.0 0
-0.341 -0.915 2.359 0
0.0 -0.0 3.0 0
0.0 -0.0 3.0 0
-0.324 -0.845 2.34 0
0.0 -0.0 3.0 0
0.0 -0.0 3.0 0
0.0 -0.0 3.0 0
-0.396 -1.33 2.765 25
0.0 -0.0 3.0 0
-0.425 -1.403 2.702 0
-0.429 -1.404 2.676 0
-0.423 -1.372 2.658 0
-0.411 -1.325 2.645 0
-0.412 -1.314 2.623 0
-0.411 -1.3 2.603 0
-0.403 -1.267 2.588 0
-0.405 -1.259 2.566 0
-0.399 -1.233 2.551 0
-0.39 -1.193 2.542 0
-0.391 -1.189 2.52 0
-0.378 -1.138 2.517 0
-0.379 -1.132 2.496 0
-0.377 -1.117 2.479 0
-0.364 -1.069 2.479 0
-0.362 -1.053 2.463 0
0.0 -0.0 3.0 0
-0.355 -1.017 2.436 0
0.0 -0.0 3.0 0
-0.35 -0.984 2.409 0
0.0 -0.0 3.0 0
-0.339 -0.938 2.391 0
0.0 -0.0 3.0 0
-0.334 -0.906 2.365 0
0.0 -0.0 3.0 0
0.0 -0.0 3.0 0
-0.332 -0.876 2.316 0
0.0 -0.0 3.0 0
0.0 -0.0 3.0 0
0.0 -0.0 3.0 0
-0.39 -1.324 2.767 24
0.0 -0.0 3.0 0
-0.421 -1.405 2.701 0
-0.422 -1.398 2.677 0
-0.416 -1.366 2.659 0
-0.407 -1.326 2.645 0
-0.412 -1.33 2.619 0
-0.409 -1.309 2.6 0
-0.397 -1.261 2.59 0
-0.41 -1.29 2.556 0
-0.389 -1.216 2.557 0
-0.383 -1.187 2.544 0
-0.388 -1.193 2.518 0
-0.369 -1.125 2.523 0
-0.372 -1.123 2.5 0
-0.37 -1.107 2.484 0
-0.358 -1.063 2.481 0
-0.359 -1.057 2.461 0
0.0 -0.0 3.0 0
-0.355 -1.028 2.43 0
0.0 -0.0 3.0 0
-0.349 -0.992 2.404 0
0.0 -0.0 3.0 0
-0.344 -0.96 2.376 0
0.0 -0.0 3.0 0
-0.331 -0.907 2.365 0
0.0 -0.0 3.0 0
0.0 -0.0 3.0 0
-0.33 -0.88 2.313 0
0.0 -0.0 3.0 0
0.0 -0.0 3.0 0
0.0 -0.0 3.0 0
-0.386 -1.325 2.766 22
0.0 -0.0 3.0 0
-0.411 -1.386 2.705 0
-0.418 -1.399 2.677 0
-0.412 -1.367 2.659 0
-0.398 -1.312 2.648 0
-0.407 -1.328 2.619 0
-0.404 -1.31 2.6 0
-0.388 -1.247 2.595 0
-0.403 -1.283 2.558 0
-0.384 -1.214 2.558 0
-0.374 -1.17 2.551 0
-0.38 -1.18 2.523 0
-0.364 -1.122 2.524 0
-0.371 -1.134 2.495 0
-0.365 -1.105 2.485 0
-0.354 -1.064 2.481 0
-0.358 -1.065 2.457 0
0.0 -0.0 3.0 0
-0.347 -1.016 2.437 0
0.0 -0.0 3.0 0
-0.339 -0.976 2.413 0
0.0 -0.0 3.0 0
-0.332 -0.939 2.39 0
0.0 -0.0 3.0 0
-0.33 -0.915 2.36 0
-0.332 -0.913 2.337 0
0.0 -0.0 3.0 0
-0.323 -0.871 2.319 0
0.0 -0.0 3.0 0
0.0 -0.0 3.0 0
0.0 -0.0 3.0 0
-0.382 -1.326 2.766 21
0.0 -0.0 3.0 0
-0.41 -1.4 2.703 0
-0.415 -1.404 2.676 0
-0.407 -1.368 2.659 0
-0.4 -1.333 2.643 0
-0.399 -1.318 2.622 0
-0.398 -1.304 2.601 0
-0.384 -1.248 2.594 0
-0.401 -1.292 2.555 0
-0.38 -1.215 2.558 0
-0.381 -1.208 2.536 0
-0.375 -1.177 2.524 0
-0.363 -1.13 2.52 0
-0.365 -1.128 2.498 0
-0.359 -1.098 2.488 0
-0.357 -1.086 2.47 0
-0.351 -1.056 2.462 0
0.0 -0.0 3.0 0
-0.346 -1.023 2.433 0
0.0 -0.0 3.0 0
-0.338 -0.983 2.409 0
0.0 -0.0 3.0 0
-0.329 -0.94 2.39 0
0.0 -0.0 3.0 0
-0.318 -0.894 2.374 0
0.0 -0.0 3.0 0
0.0 -0.0 3.0 0
-0.326 -0.89 2.305 0
0.0 -0.0 3.0 0
-0.314 -0.839 2.296 0
0.0 -0.0 3.0 0
-0.378 -1.327 2.766 21
0.0 -0.0 3.0 0
-0.403 -1.393 2.704 0
-0.406 -1.391 2.679 0
-0.401 -1.362 2.66 0
-0.391 -1.319 2.647 0
-0.399 -1.334 2.618 0
-0.396 -1.313 2.599 0
-0.384 -1.261 2.59 0
-0.395 -1.286 2.557 0
-0.379 -1.228 2.553 0
-0.371 -1.191 2.543 0
-0.372 -1.182 2.522 0
-0.358 -1.127 2.521 0
-0.361 -1.129 2.497 0
-0.354 -1.096 2.489 0
-0.349 -1.073 2.476 0
-0.347 -1.057 2.461 0
0.0 -0.0 3.0 0
-0.339 -1.015 2.438 0
0.0 -0.0 3.0 0
-0.34 -1.001 2.398 0
0.0 -0.0 3.0 0
-0.324 -0.937 2.391 0
0.0 -0.0 3.0 0
-0.316 -0.897 2.372 0
-0.315 -0.887 2.356 0
0.0 -0.0 3.0 0
-0.317 -0.876 2.315 0
0.0 -0.0 3.0 0
0.0 -0.0 3.0 0
0.0 -0.0 3.0 0
-0.373 -1.325 2.766 20
0.0 -0.0 3.0 0
-0.401 -1.401 2.702 0
-0.399 -1.384 2.68 0
-0.399 -1.371 2.658 0
-0.387 -1.32 2.646 0
-0.388 -1.313 2.623 0
-0.387 -1.299 2.603 0
-0.378 -1.258 2.591 0
-0.395 -1.301 2.552 0
-0.372 -1.217 2.557 0
-0.368 -1.195 2.541 0
-0.368 -1.183 2.522 0
-0.353 -1.125 2.523 0
-0.361 -1.141 2.492 0
-0.357 -1.118 2.478 0
-0.344 -1.071 2.478 0
-0.343 -1.058 2.461 0
0.0 -0.0 3.0 0
-0.338 -1.025 2.432 0
0.0 -0.0 3.0 0
-0.326 -0.972 2.416 0
0.0 -0.0 3.0 0
-0.322 -0.942 2.388 0
0.0 -0.0 3.0 0
-0.313 -0.898 2.371 0
-0.322 -0.915 2.335 0
0.0 -0.0 3.0 0
-0.306 -0.856 2.331 0
0.0 -0.0 3.0 0
-0.31 -0.85 2.287 0
0.0 -0.0 3.0 0
-0.367 -1.322 2.767 19
0.0 -0.0 3.0 0
-0.393 -1.391 2.704 0
-0.395 -1.386 2.68 0
-0.393 -1.368 2.659 0
-0.388 -1.339 2.641 0
-0.389 -1.333 2.618 0
-0.385 -1.307 2.6 0
-0.373 -1.256 2.592 0
-0.382 -1.274 2.561 0
-0.369 -1.222 2.555 0
-0.361 -1.185 2.545 0
-0.362 -1.177 2.524 0
-0.357 -1.15 2.512 0
-0.351 -1.125 2.499 0
-0.348 -1.105 2.485 0
-0.343 -1.079 2.474 0
-0.339 -1.059 2.46 0
0.0 -0.0 3.0 0
-0.334 -1.023 2.433 0
0.0 -0.0 3.0 0
-0.328 -0.989 2.406 0
0.0 -0.0 3.0 0
-0.318 -0.943 2.388 0
0.0 -0.0 3.0 0
0.0 -0.0 3.0 0
-0.311 -0.894 2.351 0
0.0 -0.0 3.0 0
-0.313 -0.883 2.31 0
0.0 -0.0 3.0 0
0.0 -0.0 3.0 0
0.0 -0.0 3.0 0
-0.364 -1.327 2.766 17
0.0 -0.0 3.0 0
-0.388 -1.389 2.705 0
-0.39 -1.387 2.68 0
-0.39 -1.373 2.658 0
-0.382 -1.334 2.643 0
-0.382 -1.323 2.621 0
-0.379 -1.301 2.602 0
-0.369 -1.257 2.592 0
-0.388 -1.311 2.549 0
-0.364 -1.22 2.556 0
-0.353 -1.172 2.55 0
-0.359 -1.182 2.522 0
-0.352 -1.149 2.512 0
-0.347 -1.126 2.499 0
-0.344 -1.106 2.484 0
-0.335 -1.066 2.48 0
-0.338 -1.066 2.457 0
0.0 -0.0 3.0 0
-0.326 -1.01 2.44 0
0.0 -0.0 3.0 0
-0.318 -0.97 2.417 0
0.0 -0.0 3.0 0
-0.319 -0.956 2.379 0
0.0 -0.0 3.0 0
-0.298 -0.878 2.385 0
-0.309 -0.901 2.345 0
0.0 -0.0 3.0 0
-0.302 -0.863 2.326 0
0.0 -0.0 3.0 0
0.0 -0.0 3.0 0
0.0 -0.0 3.0 0
-0.359 -1.325 2.766 17
0.0 -0.0 3.0 0
-0.384 -1.39 2.705 0
-0.386 -1.388 2.68 0
-0.381 -1.359 2.661 0
-0.376 -1.331 2.643 0
-0.376 -1.316 2.623 0
-0.375 -1.302 2.602 0
-0.366 -1.262 2.59 0
-0.379 -1.294 2.554 0
-0.361 -1.225 2.554 0
-0.355 -1.194 2.542 0
-0.355 -1.183 2.522 0
-0.34 -1.125 2.523 0
-0.347 -1.137 2.494 0
-0.338 -1.1 2.487 0
-0.333 -1.073 2.476 0
-0.332 -1.061 2.459 0
0.0 -0.0 3.0 0
-0.326 -1.024 2.432 0
0.0 -0.0 3.0 0
-0.318 -0.981 2.41 0
0.0 -0.0 3.0 0
-0.312 -0.948 2.385 0
-0.311 -0.933 2.37 0
0.0 -0.0 3.0 0
-0.302 -0.89 2.354 0
0.0 -0.0 3.0 0
0.0 -0.0 3.0 0
0.0 -0.0 3.0 0
-0.294 -0.834 2.3 0
0.0 -0.0 3.0 0
-0.356 -1.33 2.766 16
0.0 -0.0 3.0 0
-0.375 -1.376 2.708 0
-0.38 -1.382 2.681 0
-0.376 -1.357 2.662 0
-0.371 -1.328 2.644 0
-0.369 -1.31 2.624 0
-0.369 -1.299 2.603 0
-0.365 -1.273 2.586 0
-0.374 -1.295 2.554 0
-0.359 -1.232 2.551 0
-0.347 -1.181 2.547 0
-0.35 -1.18 2.523 0
-0.336 -1.126 2.522 0
-0.344 -1.141 2.492 0
-0.331 -1.09 2.492 0
-0.33 -1.078 2.474 0
-0.328 -1.062 2.459 0
0.0 -0.0 3.0 0
-0.32 -1.019 2.435 0
0.0 -0.0 3.0 0
-0.319 -0.995 2.402 0
0.0 -0.0 3.0 0
-0.309 -0.948 2.384 0
-0.297 -0.902 2.391 0
-0.294 -0.885 2.38 0
0.0 -0.0 3.0 0
0.0 -0.0 3.0 0
-0.296 -0.868 2.322 0
0.0 -0.0 3.0 0
-0.299 -0.859 2.28 0
0.0 -0.0 3.0 0
-0.349 -1.318 2.768 15
0.0 -0.0 3.0 0
-0.376 -1.396 2.703 0
-0.377 -1.391 2.679 0
-0.374 -1.366 2.659 0
-0.366 -1.326 2.645 0
-0.367 -1.319 2.622 0
-0.367 -1.308 2.6 0
-0.357 -1.26 2.591 0
-0.378 -1.326 2.543 0
-0.35 -1.215 2.558 0
-0.343 -1.182 2.546 0
-0.344 -1.174 2.526 0
-0.334 -1.13 2.52 0
-0.34 -1.142 2.491 0
-0.329 -1.095 2.489 0
-0.325 -1.075 2.476 0
-0.319 -1.046 2.467 0
0.0 -0.0 3.0 0
-0.317 -1.02 2.435 0
0.0 -0.0 3.0 0
-0.304 -0.963 2.421 0
0.0 -0.0 3.0 0
-0.304 -0.946 2.386 0
-0.301 -0.925 2.376 0
0.0 -0.0 3.0 0
-0.295 -0.891 2.353 0
0.0 -0.0 3.0 0
-0.289 -0.856 2.331 0
0.0 -0.0 3.0 0
0.0 -0.0 3.0 0
0.0 -0.0 3.0 0
-0.348 -1.332 2.765 13
0.0 -0.0 3.0 0
-0.37 -1.394 2.704 0
-0.37 -1.38 2.681 0
-0.37 -1.37 2.658 0
-0.364 -1.334 2.642 0
-0.357 -1.297 2.628 0
-0.36 -1.298 2.603 0
-0.352 -1.261 2.59 0
-0.365 -1.293 2.555 0
-0.351 -1.235 2.55 0
-0.339 -1.183 2.546 0
-0.344 -1.189 2.519 0
-0.33 -1.131 2.52 0
-0.335 -1.14 2.492 0
-0.322 -1.086 2.494 0
-0.323 -1.08 2.473 0
-0.322 -1.067 2.456 0
0.0 -0.0 3.0 0
-0.309 -1.007 2.442 0
0.0 -0.0 3.0 0
-0.307 -0.984 2.409 0
0.0 -0.0 3.0 0
-0.299 -0.94 2.39 0
0.0 -0.0 3.0 0
0.0 -0.0 3.0 0
-0.297 -0.907 2.341 0
0.0 -0.0 3.0 0
-0.291 -0.872 2.319 0
0.0 -0.0 3.0 0
0.0 -0.0 3.0 0
0.0 -0.0 3.0 0
-0.343 -1.328 2.766 13
0.0 -0.0 3.0 0
-0.363 -1.383 2.706 0
-0.37 -1.397 2.678 0
-0.365 -1.368 2.659 0
-0.358 -1.331 2.643 0
-0.352 -1.298 2.628 0
-0.358 -1.307 2.601 0
-0.345 -1.251 2.593 0
-0.374 -1.342 2.538 0
-0.349 -1.243 2.548 0
-0.332 -1.174 2.549 0
-0.336 -1.176 2.525 0
-0.323 -1.121 2.524 0
-0.327 -1.127 2.498 0
-0.325 -1.111 2.482 0
-0.318 -1.077 2.475 0
-0.314 -1.054 2.463 0
0.0 -0.0 3.0 0
-0.31 -1.025 2.432 0
0.0 -0.0 3.0 0
-0.3 -0.971 2.417 0
0.0 -0.0 3.0 0
-0.295 -0.941 2.389 0
-0.304 -0.959 2.353 0
0.0 -0.0 3.0 0
-0.291 -0.902 2.345 0
0.0 -0.0 3.0 0
-0.285 -0.867 2.323 0
0.0 -0.0 3.0 0
-0.284 -0.846 2.29 0
0.0 -0.0 3.0 0
-0.341 -1.337 2.764 12
0.0 -0.0 3.0 0
-0.36 -1.388 2.705 0
-0.359 -1.375 2.683 0
-0.361 -1.369 2.659 0
-0.35 -1.318 2.647 0
-0.349 -1.303 2.626 0
-0.356 -1.318 2.597 0
-0.34 -1.248 2.594 0
-0.363 -1.321 2.545 0
-0.338 -1.222 2.555 0
-0.33 -1.181 2.547 0
-0.332 -1.177 2.524 0
-0.323 -1.137 2.518 0
-0.323 -1.127 2.498 0
-0.318 -1.101 2.487 0
-0.313 -1.074 2.476 0
-0.315 -1.073 2.454 0
0.0 -0.0 3.0 0
-0.301 -1.005 2.443 0
0.0 -0.0 3.0 0
-0.298 -0.979 2.412 0
0.0 -0.0 3.0 0
-0.294 -0.948 2.384 0
-0.292 -0.934 2.37 0
0.0 -0.0 3.0 0
-0.292 -0.915 2.335 0
0.0 -0.0 3.0 0
-0.285 -0.877 2.315 0
0.0 -0.0 3.0 0
-0.279 -0.84 2.295 0
0.0 -0.0 3.0 0
-0.333 -1.323 2.767 11
0.0 -0.0 3.0 0
-0.355 -1.386 2.705 0
-0.354 -1.372 2.683 0
-0.355 -1.366 2.659 0
-0.35 -1.333 2.643 0
-0.346 -1.308 2.625 0
-0.347 -1.301 2.602 0
-0.338 -1.257 2.592 0
-0.357 -1.315 2.547 0
-0.336 -1.23 2.552 0
-0.32 -1.161 2.554 0
-0.333 -1.196 2.517 0
-0.316 -1.127 2.522 0
-0.32 -1.132 2.496 0
-0.314 -1.102 2.486 0
-0.31 -1.079 2.474 0
-0.306 -1.056 2.462 0
-0.628 -2.144 1.86 0
-0.299 -1.013 2.439 0
0.0 -0.0 3.0 0
-0.292 -0.973 2.416 0
0.0 -0.0 3.0 0
-0.288 -0.942 2.388 0
0.0 -0.0 3.0 0
0.0 -0.0 3.0 0
-0.288 -0.916 2.335 0
0.0 -0.0 3.0 0
-0.278 -0.868 2.322 0
0.0 -0.0 3.0 0
-0.282 -0.862 2.277 0
0.0 -0.0 3.0 0
-0.331 -1.331 2.765 10
0.0 -0.0 3.0 0
-0.349 -1.383 2.706 0
-0.352 -1.381 2.681 0
-0.349 -1.36 2.661 0
-0.344 -1.33 2.644 0
-0.344 -1.317 2.622 0
-0.344 -1.305 2.601 0
-0.338 -1.272 2.587 0
-0.35 -1.305 2.551 0
-0.331 -1.227 2.553 0
-0.312 -1.148 2.56 0
-0.324 -1.179 2.524 0
-0.313 -1.131 2.52 0
-0.318 -1.14 2.492 0
-0.311 -1.103 2.486 0
-0.305 -1.073 2.476 0
-0.302 -1.053 2.463 0
-0.293 -1.013 2.461 0
-0.294 -1.007 2.442 0
0.0 -0.0 3.0 0
-0.286 -0.964 2.421 0
0.0 -0.0 3.0 0
-0.288 -0.953 2.381 0
-0.285 -0.936 2.369 0
0.0 -0.0 3.0 0
-0.278 -0.895 2.35 0
0.0 -0.0 3.0 0
-0.274 -0.865 2.324 0
0.0 -0.0 3.0 0
0.0 -0.0 3.0 0
0.0 -0.0 3.0 0
-0.327 -1.332 2.765 9
0.0 -0.0 3.0 0
-0.344 -1.38 2.707 0
-0.342 -1.363 2.685 0
-0.346 -1.365 2.66 0
-0.339 -1.328 2.644 0
-0.338 -1.31 2.624 0
-0.339 -1.303 2.602 0
-0.331 -1.263 2.59 0
-0.35 -1.325 2.544 0
-0.328 -1.232 2.552 0
-0.321 -1.195 2.541 0
-0.318 -1.173 2.526 0
-0.309 -1.132 2.519 0
-0.316 -1.149 2.489 0
-0.308 -1.108 2.484 0
-0.306 -1.091 2.468 0
-0.3 -1.061 2.459 0
-0.6 -2.103 1.882 0
-0.295 -1.024 2.432 0
0.0 -0.0 3.0 0
-0.285 -0.974 2.415 0
0.0 -0.0 3.0 0
-0.281 -0.944 2.387 0
0.0 -0.0 3.0 0
0.0 -0.0 3.0 0
-0.28 -0.914 2.336 0
0.0 -0.0 3.0 0
-0.276 -0.881 2.311 0
0.0 -0.0 3.0 0
-0.267 -0.836 2.298 0
0.0 -0.0 3.0 0
-0.323 -1.333 2.765 8
0.0 -0.0 3.0 0
-0.34 -1.381 2.707 0
-0.34 -1.371 2.683 0
-0.341 -1.362 2.66 0
-0.336 -1.332 2.643 0
-0.336 -1.323 2.621 0
-0.334 -1.301 2.602 0
-0.324 -1.252 2.593 0
-0.342 -1.311 2.549 0
-0.323 -1.229 2.553 0
-0.308 -1.16 2.555 0
-0.318 -1.188 2.52 0
-0.305 -1.133 2.519 0
-0.311 -1.146 2.49 0
-0.302 -1.101 2.487 0
-0.298 -1.078 2.474 0
-0.296 -1.062 2.459 0
0.0 -0.0 3.0 0
-0.285 -1.005 2.443 0
0.0 -0.0 3.0 0
-0.287 -0.992 2.404 0
0.0 -0.0 3.0 0
-0.277 -0.941 2.389 0
-0.278 -0.937 2.368 0
0.0 -0.0 3.0 0
-0.275 -0.908 2.34 0
0.0 -0.0 3.0 0
-0.271 -0.879 2.313 0
0.0 -0.0 3.0 0
0.0 -0.0 3.0 0
0.0 -0.0 3.0 0
-0.318 -1.331 2.765 8
0.0 -0.0 3.0 0
-0.34 -1.4 2.702 0
-0.338 -1.38 2.681 0
-0.336 -1.363 2.66 0
-0.328 -1.318 2.647 0
-0.326 -1.301 2.627 0
-0.329 -1.302 2.602 0
-0.323 -1.268 2.588 0
-0.337 -1.309 2.549 0
-0.316 -1.22 2.556 0
-0.308 -1.176 2.549 0
-0.312 -1.182 2.522 0
-0.3 -1.127 2.522 0
-0.305 -1.136 2.494 0
-0.296 -1.095 2.489 0
-0.294 -1.079 2.474 0
-0.293 -1.063 2.458 0
-0.577 -2.079 1.895 0
-0.285 -1.016 2.437 0
-0.285 -1.01 2.417 0
-0.282 -0.989 2.406 0
0.0 -0.0 3.0 0
-0.266 -0.916 2.405 0
-0.281 -0.96 2.352 0
0.0 -0.0 3.0 0
-0.272 -0.912 2.337 0
0.0 -0.0 3.0 0
-0.265 -0.871 2.32 0
0.0 -0.0 3.0 0
-0.263 -0.846 2.29 0
0.0 -0.0 3.0 0
-0.314 -1.335 2.765 7
0.0 -0.0 3.0 0
-0.336 -1.401 2.702 0
-0.33 -1.365 2.685 0
-0.329 -1.353 2.663 0
-0.327 -1.335 2.642 0
-0.322 -1.302 2.627 0
-0.326 -1.306 2.601 0
-0.316 -1.258 2.591 0
-0.332 -1.31 2.549 0
-0.313 -1.225 2.554 0
-0.305 -1.183 2.546 0
-0.306 -1.176 2.525 0
-0.298 -1.135 2.518 0
-0.304 -1.148 2.489 0
-0.296 -1.11 2.482 0
-0.287 -1.066 2.48 0
-0.292 -1.073 2.453 0
-0.572 -2.087 1.89 0
-0.284 -1.027 2.431 0
0.0 -0.0 3.0 0
-0.28 -0.997 2.401 0
0.0 -0.0 3.0 0
-0.262 -0.914 2.407 0
-0.269 -0.929 2.373 0
0.0 -0.0 3.0 0
-0.269 -0.912 2.337 0
0.0 -0.0 3.0 0
-0.26 -0.865 2.324 0
0.0 -0.0 3.0 0
-0.251 -0.82 2.312 0
0.0 -0.0 3.0 0
-0.309 -1.333 2.765 6
0.0 -0.0 3.0 0
-0.331 -1.403 2.702 0
-0.325 -1.366 2.685 0
-0.325 -1.354 2.663 0
-0.32 -1.324 2.645 0
-0.317 -1.299 2.627 0
-0.32 -1.3 2.603 0
-0.314 -1.266 2.589 0
-0.323 -1.292 2.555 0
-0.308 -1.222 2.555 0
-0.301 -1.184 2.545 0
-0.303 -1.18 2.523 0
-0.287 -1.11 2.529 0
-0.296 -1.134 2.495 0
-0.288 -1.093 2.49 0
-0.287 -1.081 2.473 0
-0.285 -1.065 2.458 0
-0.562 -2.078 1.895 0
-0.275 -1.011 2.44 0
0.0 -0.0 3.0 0
-0.275 -0.991 2.405 0
-0.272 -0.97 2.394 0
0.0 -0.0 3.0 0
-0.278 -0.974 2.343 0
0.0 -0.0 3.0 0
-0.274 -0.942 2.316 0
0.0 -0.0 3.0 0
-0.256 -0.866 2.324 0
0.0 -0.0 3.0 0
-0.253 -0.836 2.299 0
0.0 -0.0 3.0 0
-0.306 -1.337 2.764 5
-0.323 -1.401 2.728 0
-0.325 -1.396 2.703 0
-0.323 -1.375 2.682 0
-0.324 -1.369 2.659 0
-0.314 -1.317 2.647 0
-0.312 -1.296 2.628 0
-0.316 -1.3 2.602 0
-0.307 -1.256 2.592 0
-0.312 -1.263 2.565 0
-0.302 -1.215 2.558 0
-0.292 -1.163 2.553 0
-0.298 -1.177 2.524 0
-0.289 -1.133 2.519 0
-0.296 -1.149 2.488 0
-0.289 -1.112 2.481 0
-0.286 -1.092 2.467 0
-0.282 -1.068 2.456 0
-0.554 -2.08 1.894 0
-0.271 -1.008 2.441 0
-0.271 -0.998 2.424 0
-0.268 -0.981 2.41 0
0.0 -0.0 3.0 0
-0.268 -0.96 2.376 0
-0.265 -0.943 2.364 0
0.0 -0.0 3.0 0
-0.262 -0.914 2.336 0
0.0 -0.0 3.0 0
-0.255 -0.872 2.318 0
0.0 -0.0 3.0 0
0.0 -0.0 3.0 0
0.0 -0.0 3.0 0
-0.301 -1.334 2.765 4
-0.322 -1.414 2.725 0
-0.318 -1.386 2.705 0
-0.315 -1.361 2.686 0
-0.316 -1.355 2.662 0
-0.308 -1.311 2.649 0
-0.309 -1.301 2.627 0
-0.309 -1.29 2.606 0
-0.302 -1.253 2.593 0
-0.312 -1.283 2.558 0
-0.3 -1.224 2.555 0
-0.286 -1.157 2.556 0
-0.294 -1.178 2.524 0
-0.284 -1.13 2.52 0
-0.292 -1.149 2.488 0
-0.278 -1.088 2.493 0
-0.276 -1.068 2.479 0
-0.275 -1.056 2.462 0
-0.547 -2.081 1.893 0
-0.269 -1.015 2.437 0
0.0 -0.0 3.0 0
-0.263 -0.975 2.414 0
0.0 -0.0 3.0 0
-0.253 -0.922 2.401 0
-0.261 -0.941 2.365 0
0.0 -0.0 3.0 0
-0.26 -0.922 2.33 0
0.0 -0.0 3.0 0
-0.251 -0.87 2.32 0
0.0 -0.0 3.0 0
-0.247 -0.84 2.295 0
0.0 -0.0 3.0 0
-0.3 -1.35 2.762 4
0.0 -0.0 3.0 0
-0.316 -1.398 2.703 0
-0.31 -1.358 2.686 0
-0.311 -1.352 2.663 0
-0.307 -1.323 2.645 0
-0.303 -1.294 2.629 0
-0.308 -1.306 2.601 0
-0.296 -1.243 2.596 0
-0.306 -1.276 2.561 0
-0.293 -1.213 2.558 0
-0.286 -1.173 2.55 0
-0.289 -1.176 2.525 0
-0.282 -1.138 2.517 0
-0.283 -1.133 2.496 0
-0.279 -1.106 2.484 0
-0.276 -1.087 2.47 0
-0.275 -1.07 2.455 0
-0.54 -2.083 1.892 0
-0.265 -1.016 2.437 0
0.0 -0.0 3.0 0
-0.264 -0.993 2.403 0
-0.261 -0.973 2.392 0
0.0 -0.0 3.0 0
-0.261 -0.954 2.356 0
0.0 -0.0 3.0 0
-0.253 -0.909 2.339 0
0.0 -0.0 3.0 0
-0.249 -0.877 2.315 0
0.0 -0.0 3.0 0
-0.242 -0.835 2.299 0
0.0 -0.0 3.0 0
-0.295 -1.348 2.762 4
0.0 -0.0 3.0 0
-0.31 -1.391 2.704 0
-0.307 -1.367 2.684 0
-0.309 -1.364 2.66 0
-0.301 -1.316 2.647 0
-0.297 -1.287 2.631 0
-0.305 -1.311 2.599 0
-0.294 -1.255 2.592 0
-0.306 -1.295 2.554 0
-0.293 -1.228 2.553 0
-0.282 -1.174 2.549 0
-0.289 -1.194 2.518 0
-0.273 -1.117 2.526 0
-0.282 -1.144 2.491 0
-0.272 -1.093 2.49 0
-0.273 -1.09 2.468 0
-0.272 -1.074 2.453 0
-0.525 -2.057 1.906 0
-0.258 -1.003 2.444 0
-0.264 -1.017 2.413 0
-0.258 -0.984 2.409 0
0.0 -0.0 3.0 0
-0.243 -0.91 2.409 0
-0.259 -0.961 2.352 0
0.0 -0.0 3.0 0
-0.251 -0.913 2.336 0
0.0 -0.0 3.0 0
-0.247 -0.883 2.31 0
0.0 -0.0 3.0 0
0.0 -0.0 3.0 0
0.0 -0.0 3.0 0
-0.291 -1.349 2.762 3
-0.309 -1.42 2.724 0
-0.305 -1.389 2.705 0
-0.306 -1.383 2.681 0
-0.307 -1.373 2.658 0
-0.295 -1.31 2.649 0
-0.293 -1.292 2.629 0
-0.299 -1.304 2.601 0
-0.293 -1.271 2.587 0
-0.298 -1.278 2.56 0
-0.287 -1.223 2.555 0
-0.278 -1.174 2.549 0
-0.284 -1.191 2.519 0
-0.275 -1.143 2.515 0
-0.278 -1.145 2.49 0
-0.268 -1.094 2.49 0
-0.267 -1.081 2.473 0
-0.266 -1.068 2.456 0
-0.527 -2.096 1.885 0
-0.256 -1.011 2.44 0
0.0 -0.0 3.0 0
-0.249 -0.964 2.421 0
-0.259 -0.994 2.379 0
0.0 -0.0 3.0 0
-0.254 -0.956 2.355 0
0.0 -0.0 3.0 0
-0.246 -0.911 2.338 0
0.0 -0.0 3.0 0
-0.242 -0.878 2.314 0
0.0 -0.0 3.0 0
-0.234 -0.833 2.301 0
0.0 -0.0 3.0 0
-0.286 -1.342 2.763 3
0.0 -0.0 3.0 0
-0.3 -1.386 2.705 0
-0.298 -1.365 2.685 0
-0.299 -1.359 2.661 0
-0.292 -1.318 2.647 0
-0.288 -1.289 2.63 0
-0.292 -1.294 2.604 0
-0.286 -1.257 2.592 0
-0.299 -1.305 2.551 0
-0.284 -1.23 2.552 0
-0.278 -1.193 2.542 0
-0.278 -1.181 2.523 0
-0.266 -1.122 2.524 0
-0.272 -1.138 2.493 0
-0.268 -1.112 2.481 0
-0.264 -1.085 2.471 0
-0.26 -1.058 2.461 0
-0.248 -1.001 2.468 0
-0.255 -1.019 2.435 0
0.0 -0.0 3.0 0
-0.246 -0.968 2.418 0
-0.246 -0.958 2.401 0
-0.242 -0.935 2.393 0
-0.248 -0.947 2.362 0
0.0 -0.0 3.0 0
-0.247 -0.927 2.326 0
0.0 -0.0 3.0 0
-0.232 -0.853 2.333 0
0.0 -0.0 3.0 0
-0.229 -0.827 2.306 0
0.0 -0.0 3.0 0
-0.281 -1.343 2.763 3
-0.296 -1.399 2.728 0
-0.297 -1.394 2.704 0
-0.293 -1.366 2.685 0
-0.295 -1.359 2.661 0
-0.288 -1.319 2.647 0
-0.282 -1.279 2.633 0
-0.287 -1.291 2.605 0
-0.28 -1.25 2.594 0
-0.291 -1.287 2.557 0
-0.278 -1.22 2.556 0
-0.272 -1.183 2.546 0
-0.276 -1.193 2.518 0
-0.263 -1.123 2.523 0
-0.268 -1.136 2.494 0
-0.262 -1.102 2.486 0
-0.259 -1.079 2.474 0
-0.255 -1.056 2.462 0
0.0 -0.0 3.0 0
-0.25 -1.015 2.437 0
-0.252 -1.016 2.414 0
-0.244 -0.976 2.414 0
-0.243 -0.962 2.399 0
0.0 -0.0 3.0 0
-0.242 -0.941 2.366 0
0.0 -0.0 3.0 0
-0.241 -0.918 2.333 0
0.0 -0.0 3.0 0
-0.234 -0.876 2.315 0
0.0 -0.0 3.0 0
-0.229 -0.836 2.298 0
0.0 -0.0 3.0 0
-0.277 -1.344 2.763 2
-0.29 -1.393 2.729 0
-0.294 -1.403 2.702 0
-0.289 -1.367 2.684 0
-0.288 -1.349 2.664 0
-0.286 -1.332 2.643 0
-0.279 -1.287 2.631 0
-0.283 -1.292 2.605 0
-0.274 -1.243 2.596 0
-0.287 -1.288 2.557 0
-0.272 -1.214 2.558 0
-0.266 -1.177 2.548 0
-0.272 -1.194 2.518 0
-0.26 -1.127 2.521 0
-0.265 -1.144 2.491 0
-0.256 -1.092 2.491 0
-0.259 -1.098 2.465 0
-0.256 -1.073 2.453 0
-0.249 -1.036 2.449 0
-0.242 -1.0 2.446 0
-0.245 -1.003 2.421 0
-0.238 -0.963 2.421 0
-0.242 -0.973 2.392 0
0.0 -0.0 3.0 0
-0.24 -0.947 2.361 0
0.0 -0.0 3.0 0
-0.238 -0.921 2.331 0
0.0 -0.0 3.0 0
-0.234 -0.886 2.308 0
0.0 -0.0 3.0 0
0.0 -0.0 3.0 0
0.0 -0.0 3.0 0
-0.275 -1.356 2.761 2
-0.286 -1.397 2.728 0
-0.288 -1.392 2.704 0
-0.282 -1.356 2.687 0
-0.287 -1.365 2.66 0
-0.281 -1.325 2.645 0
-0.274 -1.284 2.632 0
-0.277 -1.285 2.607 0
-0.272 -1.252 2.593 0
-0.286 -1.304 2.551 0
-0.272 -1.233 2.551 0
-0.262 -1.177 2.548 0
-0.267 -1.188 2.52 0
-0.256 -1.128 2.521 0
-0.261 -1.141 2.492 0
-0.253 -1.097 2.489 0
-0.252 -1.084 2.471 0
-0.248 -1.057 2.461 0
-0.242 -1.023 2.456 0
-0.241 -1.01 2.44 0
0.0 -0.0 3.0 0
-0.239 -0.984 2.409 0
-0.235 -0.956 2.402 0
-0.226 -0.913 2.407 0
-0.235 -0.941 2.365 0
0.0 -0.0 3.0 0
-0.233 -0.916 2.334 0
0.0 -0.0 3.0 0
-0.225 -0.868 2.322 0
0.0 -0.0 3.0 0
-0.222 -0.838 2.297 0
0.0 -0.0 3.0 0
-0.272 -1.361 2.76 2
-0.284 -1.41 2.726 0
-0.282 -1.389 2.705 0
-0.279 -1.361 2.686 0
-0.283 -1.37 2.658 0
-0.279 -1.341 2.641 0
-0.27 -1.285 2.631 0
-0.274 -1.29 2.606 0
-0.269 -1.257 2.592 0
-0.277 -1.286 2.557 0
-0.266 -1.223 2.555 0
-0.262 -1.192 2.542 0
-0.261 -1.181 2.523 0
-0.256 -1.147 2.513 0
-0.255 -1.135 2.495 0
-0.249 -1.098 2.488 0
-0.249 -1.088 2.469 0
-0.247 -1.068 2.456 0
-0.239 -1.027 2.454 0
-0.237 -1.007 2.442 0
-0.245 -1.031 2.405 0
-0.236 -0.987 2.407 0
-0.233 -0.964 2.398 0
0.0 -0.0 3.0 0
-0.235 -0.956 2.355 0
0.0 -0.0 3.0 0
-0.227 -0.907 2.341 0
0.0 -0.0 3.0 0
-0.226 -0.884 2.309 0
0.0 -0.0 3.0 0
-0.215 -0.824 2.309 0
0.0 -0.0 3.0 0
-0.265 -1.346 2.763 2
-0.284 -1.43 2.722 0
-0.279 -1.394 2.704 0
-0.275 -1.362 2.686 0
-0.277 -1.363 2.66 0
-0.274 -1.334 2.643 0
-0.268 -1.293 2.629 0
-0.269 -1.287 2.607 0
-0.264 -1.257 2.591 0
-0.272 -1.283 2.558 0
-0.261 -1.22 2.556 0
-0.251 -1.164 2.553 0
-0.259 -1.192 2.518 0
-0.247 -1.127 2.522 0
-0.25 -1.128 2.498 0
-0.246 -1.101 2.487 0
-0.247 -1.096 2.466 0
-0.241 -1.062 2.459 0
-0.237 -1.032 2.451 0
-0.235 -1.015 2.437 0
-0.238 -1.019 2.412 0
-0.231 -0.981 2.411 0
-0.234 -0.985 2.385 0
0.0 -0.0 3.0 0
-0.228 -0.943 2.364 0
0.0 -0.0 3.0 0
-0.229 -0.927 2.326 0
0.0 -0.0 3.0 0
-0.219 -0.872 2.319 0
0.0 -0.0 3.0 0
-0.215 -0.839 2.296 0
0.0 -0.0 3.0 0
-0.261 -1.346 2.763 2
-0.272 -1.396 2.729 0
-0.275 -1.399 2.703 0
-0.27 -1.359 2.686 0
-0.275 -1.372 2.658 0
-0.267 -1.324 2.645 0
-0.262 -1.287 2.631 0
-0.268 -1.306 2.601 0
-0.263 -1.269 2.588 0
-0.273 -1.309 2.549 0
-0.255 -1.213 2.558 0
-0.252 -1.187 2.544 0
-0.252 -1.178 2.524 0
-0.244 -1.13 2.52 0
-0.249 -1.143 2.491 0
-0.241 -1.098 2.488 0
-0.239 -1.079 2.474 0
-0.238 -1.066 2.457 0
-0.234 -1.039 2.448 0
-0.229 -1.008 2.441 0
-0.231 -1.006 2.419 0
-0.224 -0.966 2.42 0
-0.227 -0.972 2.393 0
0.0 -0.0 3.0 0
-0.224 -0.941 2.366 0
0.0 -0.0 3.0 0
-0.221 -0.911 2.338 0
0.0 -0.0 3.0 0
-0.214 -0.866 2.323 0
0.0 -0.0 3.0 0
0.0 -0.0 3.0 0
0.0 -0.0 3.0 0
-0.257 -1.347 2.762 1
-0.269 -1.401 2.728 0
-0.268 -1.384 2.706 0
-0.268 -1.371 2.684 0
-0.269 -1.365 2.66 0
-0.264 -1.328 2.644 0
-0.258 -1.287 2.631 0
-0.262 -1.295 2.604 0
-0.255 -1.255 2.592 0
-0.261 -1.269 2.563 0
-0.255 -1.232 2.552 0
-0.243 -1.165 2.553 0
-0.25 -1.187 2.521 0
-0.241 -1.135 2.518 0
-0.243 -1.137 2.494 0
-0.238 -1.103 2.486 0
-0.232 -1.065 2.48 0
-0.231 -1.053 2.463 0
-0.229 -1.033 2.451 0
-0.225 -1.006 2.443 0
-0.226 -1.0 2.423 0
-0.223 -0.979 2.412 0
-0.221 -0.962 2.399 0
0.0 -0.0 3.0 0
-0.221 -0.944 2.363 0
0.0 -0.0 3.0 0
-0.218 -0.915 2.335 0
0.0 -0.0 3.0 0
-0.214 -0.879 2.313 0
0.0 -0.0 3.0 0
-0.203 -0.816 2.316 0
0.0 -0.0 3.0 0
-0.252 -1.344 2.763 1
-0.267 -1.413 2.725 0
-0.269 -1.412 2.7 0
-0.262 -1.368 2.684 0
-0.264 -1.366 2.659 0
-0.261 -1.337 2.642 0
-0.253 -1.284 2.632 0
-0.257 -1.296 2.604 0
-0.249 -1.244 2.596 0
-0.264 -1.307 2.55 0
-0.251 -1.233 2.551 0
-0.242 -1.177 2.548 0
-0.247 -1.195 2.517 0
-0.233 -1.117 2.526 0
-0.241 -1.145 2.49 0
-0.235 -1.108 2.484 0
-0.236 -1.101 2.463 0
-0.232 -1.074 2.453 0
-0.225 -1.03 2.452 0
-0.225 -1.021 2.434 0
-0.224 -1.01 2.417 0
-0.219 -0.977 2.413 0
-0.22 -0.973 2.392 0
0.0 -0.0 3.0 0
-0.221 -0.961 2.352 0
0.0 -0.0 3.0 0
-0.214 -0.912 2.337 0
0.0 -0.0 3.0 0
-0.208 -0.87 2.32 0
0.0 -0.0 3.0 0
-0.201 -0.822 2.31 0
0.0 -0.0 3.0 0
-0.248 -1.348 2.762 1
-0.261 -1.406 2.727 0
-0.261 -1.394 2.704 0
-0.256 -1.357 2.687 0
-0.261 -1.37 2.658 0
-0.254 -1.322 2.646 0
-0.248 -1.281 2.633 0
-0.253 -1.294 2.605 0
-0.246 -1.253 2.593 0
-0.255 -1.287 2.557 0
-0.243 -1.215 2.558 0
-0.232 -1.148 2.559 0
-0.24 -1.181 2.523 0
-0.235 -1.143 2.515 0
-0.231 -1.117 2.503 0
-0.231 -1.104 2.485 0
-0.235 -1.116 2.455 0
-0.225 -1.057 2.461 0
-0.219 -1.02 2.457 0
-0.22 -1.017 2.436 0
0.0 -0.0 3.0 0
-0.218 -0.991 2.405 0
-0.214 -0.963 2.398 0
-0.207 -0.923 2.4 0
-0.215 -0.948 2.361 0
0.0 -0.0 3.0 0
-0.21 -0.91 2.339 0
0.0 -0.0 3.0 0
-0.206 -0.874 2.317 0
0.0 -0.0 3.0 0
-0.194 -0.807 2.322 0
0.0 -0.0 3.0 0
-0.244 -1.349 2.762 1
-0.255 -1.399 2.728 0
-0.258 -1.402 2.702 0
-0.25 -1.346 2.689 0
-0.255 -1.363 2.66 0
-0.251 -1.335 2.642 0
-0.246 -1.294 2.629 0
-0.249 -1.298 2.603 0
-0.244 -1.261 2.59 0
-0.251 -1.287 2.557 0
-0.24 -1.224 2.555 0
-0.235 -1.186 2.545 0
-0.236 -1.181 2.523 0
-0.231 -1.144 2.514 0
-0.237 -1.164 2.482 0
-0.227 -1.105 2.485 0
-0.223 -1.078 2.474 0
-0.223 -1.065 2.457 0
-0.217 -1.031 2.452 0
-0.216 -1.018 2.436 0
-0.216 -1.005 2.42 0
-0.217 -1.001 2.399 0
-0.212 -0.971 2.393 0
0.0 -0.0 3.0 0
-0.211 -0.949 2.36 0
0.0 -0.0 3.0 0
-0.209 -0.92 2.332 0
0.0 -0.0 3.0 0
-0.202 -0.871 2.319 0
0.0 -0.0 3.0 0
0.0 -0.0 3.0 0
0.0 -0.0 3.0 0
-0.238 -1.339 2.764 1
-0.25 -1.396 2.729 0
-0.251 -1.388 2.705 0
-0.248 -1.363 2.685 0
-0.254 -1.383 2.655 0
-0.245 -1.324 2.645 0
-0.24 -1.287 2.631 0
-0.243 -1.292 2.605 0
-0.238 -1.254 2.593 0
-0.248 -1.291 2.555 0
-0.236 -1.224 2.554 0
-0.229 -1.176 2.549 0
-0.232 -1.178 2.524 0
-0.226 -1.138 2.517 0
-0.228 -1.143 2.491 0
-0.222 -1.098 2.488 0
-0.221 -1.086 2.47 0
-0.219 -1.065 2.457 0
-0.216 -1.042 2.446 0
-0.215 -1.029 2.429 0
-0.213 -1.009 2.418 0
-0.205 -0.965 2.42 0
-0.21 -0.978 2.389 0
0.0 -0.0 3.0 0
-0.206 -0.943 2.364 0
0.0 -0.0 3.0 0
-0.205 -0.917 2.334 0
0.0 -0.0 3.0 0
-0.201 -0.884 2.309 0
0.0 -0.0 3.0 0
-0.191 -0.823 2.309 0
0.0 -0.0 3.0 0
-0.234 -1.343 2.763 1
-0.247 -1.404 2.727 0
-0.248 -1.396 2.703 0
-0.243 -1.36 2.686 0
-0.246 -1.365 2.66 0
-0.24 -1.321 2.646 0
-0.236 -1.287 2.631 0
-0.24 -1.295 2.604 0
-0.234 -1.255 2.592 0
-0.243 -1.288 2.556 0
-0.232 -1.221 2.556 0
-0.227 -1.188 2.544 0
-0.228 -1.183 2.522 0
-0.22 -1.127 2.521 0
-0.225 -1.144 2.491 0
-0.22 -1.109 2.483 0
-0.219 -1.097 2.465 0
-0.214 -1.059 2.46 0
-0.21 -1.033 2.451 0
-0.208 -1.013 2.439 0
-0.21 -1.016 2.413 0
-0.205 -0.982 2.41 0
-0.207 -0.982 2.386 0
0.0 -0.0 3.0 0
-0.205 -0.953 2.357 0
0.0 -0.0 3.0 0
-0.202 -0.921 2.331 0
0.0 -0.0 3.0 0
-0.193 -0.863 2.326 0
0.0 -0.0 3.0 0
0.0 -0.0 3.0 0
0.0 -0.0 3.0 0
-0.231 -1.348 2.762 1
-0.245 -1.421 2.724 0
-0.243 -1.397 2.703 0
-0.241 -1.372 2.683 0
-0.241 -1.358 2.661 0
-0.235 -1.318 2.647 0
-0.233 -1.296 2.628 0
-0.236 -1.3 2.602 0
-0.229 -1.248 2.595 0
-0.239 -1.293 2.555 0
-0.227 -1.222 2.555 0
-0.222 -1.18 2.547 0
-0.223 -1.176 2.525 0
-0.217 -1.135 2.518 0
-0.221 -1.145 2.49 0
-0.213 -1.096 2.489 0
-0.215 -1.098 2.465 0
-0.207 -1.046 2.467 0
-0.206 -1.033 2.451 0
-0.208 -1.03 2.429 0
-0.207 -1.016 2.413 0
-0.201 -0.979 2.412 0
-0.201 -0.969 2.394 0
0.0 -0.0 3.0 0
-0.201 -0.954 2.357 0
0.0 -0.0 3.0 0
-0.198 -0.921 2.331 0
0.0 -0.0 3.0 0
-0.189 -0.86 2.328 0
0.0 -0.0 3.0 0
0.0 -0.0 3.0 0
0.0 -0.0 3.0 0
-0.228 -1.356 2.761 1
-0.236 -1.394 2.729 0
-0.239 -1.397 2.703 0
-0.235 -1.365 2.685 0
-0.238 -1.37 2.658 0
-0.232 -1.322 2.646 0
-0.229 -1.293 2.629 0
-0.232 -1.301 2.602 0
-0.227 -1.26 2.59 0
-0.229 -1.264 2.565 0
-0.22 -1.204 2.562 0
-0.219 -1.189 2.544 0
-0.222 -1.191 2.519 0
-0.21 -1.117 2.526 0
-0.215 -1.134 2.495 0
-0.207 -1.082 2.495 0
-0.211 -1.095 2.466 0
-0.209 -1.074 2.453 0
-0.202 -1.03 2.452 0
-0.202 -1.021 2.434 0
-0.201 -1.007 2.419 0
-0.198 -0.984 2.409 0
-0.201 -0.986 2.384 0
0.0 -0.0 3.0 0
-0.194 -0.935 2.37 0
0.0 -0.0 3.0 0
-0.187 -0.886 2.356 0
0.0 -0.0 3.0 0
-0.186 -0.864 2.325 0
0.0 -0.0 3.0 0
-0.184 -0.837 2.298 0
0.0 -0.0 3.0 0
-0.223 -1.349 2.762 1
-0.233 -1.402 2.727 0
-0.235 -1.402 2.702 0
-0.23 -1.361 2.686 0
-0.234 -1.371 2.658 0
-0.226 -1.311 2.649 0
-0.222 -1.282 2.632 0
-0.226 -1.29 2.605 0
-0.22 -1.25 2.594 0
-0.227 -1.275 2.561 0
-0.22 -1.226 2.554 0
-0.213 -1.178 2.548 0
-0.216 -1.185 2.521 0
-0.209 -1.133 2.519 0
-0.21 -1.131 2.496 0
-0.207 -1.105 2.485 0
-0.208 -1.099 2.464 0
-0.202 -1.061 2.459 0
-0.195 -1.013 2.461 0
-0.196 -1.007 2.442 0
-0.194 -0.99 2.428 0
-0.191 -0.967 2.419 0
-0.19 -0.949 2.407 0
0.0 -0.0 3.0 0
-0.192 -0.942 2.365 0
0.0 -0.0 3.0 0
-0.19 -0.916 2.334 0
0.0 -0.0 3.0 0
-0.181 -0.855 2.332 0
0.0 -0.0 3.0 0
-0.182 -0.843 2.293 0
0.0 -0.0 3.0 0
-0.219 -1.35 2.762 1
-0.228 -1.399 2.728 0
-0.23 -1.398 2.703 0
-0.227 -1.369 2.684 0
-0.23 -1.372 2.658 0
-0.225 -1.334 2.642 0
-0.219 -1.286 2.631 0
-0.223 -1.298 2.603 0
-0.214 -1.238 2.598 0
-0.225 -1.287 2.557 0
-0.213 -1.209 2.56 0
-0.209 -1.176 2.549 0
-0.211 -1.178 2.524 0
-0.205 -1.133 2.519 0
-0.208 -1.139 2.493 0
-0.203 -1.105 2.485 0
-0.201 -1.085 2.471 0
-0.199 -1.062 2.459 0
-0.191 -1.014 2.461 0
-0.193 -1.011 2.44 0
-0.196 -1.018 2.412 0
-0.192 -0.991 2.404 0
-0.19 -0.971 2.393 0
0.0 -0.0 3.0 0
-0.187 -0.939 2.367 0
0.0 -0.0 3.0 0
-0.186 -0.914 2.336 0
0.0 -0.0 3.0 0
-0.176 -0.846 2.339 0
0.0 -0.0 3.0 0
-0.177 -0.838 2.297 0
0.0 -0.0 3.0 0
-0.213 -1.343 2.763 1
-0.225 -1.404 2.727 0
-0.225 -1.395 2.703 0
-0.22 -1.355 2.687 0
-0.222 -1.353 2.663 0
-0.222 -1.339 2.641 0
-0.215 -1.291 2.63 0
-0.219 -1.299 2.603 0
-0.213 -1.255 2.592 0
-0.219 -1.281 2.559 0
-0.21 -1.217 2.557 0
-0.209 -1.198 2.54 0
-0.207 -1.178 2.524 0
-0.201 -1.134 2.519 0
-0.204 -1.139 2.493 0
-0.199 -1.106 2.484 0
-0.199 -1.097 2.465 0
-0.197 -1.073 2.454 0
-0.194 -1.046 2.444 0
-0.188 -1.005 2.443 0
-0.191 -1.012 2.416 0
-0.185 -0.975 2.414 0
-0.192 -0.997 2.377 0
0.0 -0.0 3.0 0
-0.184 -0.943 2.364 0
0.0 -0.0 3.0 0
-0.186 -0.933 2.322 0
0.0 -0.0 3.0 0
-0.175 -0.859 2.329 0
0.0 -0.0 3.0 0
-0.17 -0.817 2.315 0
0.0 -0.0 3.0 0
-0.211 -1.359 2.76 1
-0.221 -1.408 2.726 0
-0.221 -1.396 2.703 0
-0.219 -1.371 2.683 0
-0.22 -1.365 2.66 0
-0.214 -1.321 2.646 0
-0.211 -1.292 2.63 0
-0.213 -1.292 2.605 0
-0.208 -1.252 2.593 0
-0.213 -1.27 2.563 0
-0.21 -1.24 2.549 0
-0.203 -1.191 2.543 0
-0.203 -1.179 2.524 0
-0.195 -1.124 2.523 0
-0.197 -1.126 2.499 0
-0.194 -1.096 2.489 0
-0.192 -1.08 2.473 0
-0.19 -1.056 2.462 0
-0.189 -1.039 2.448 0
-0.186 -1.015 2.437 0
-0.187 -1.013 2.415 0
-0.182 -0.978 2.412 0
-0.187 -0.991 2.381 0
0.0 -0.0 3.0 0
-0.183 -0.953 2.357 0
0.0 -0.0 3.0 0
-0.176 -0.898 2.348 0
0.0 -0.0 3.0 0
-0.178 -0.893 2.302 0
0.0 -0.0 3.0 0
0.0 -0.0 3.0 0
0.0 -0.0 3.0 0
-0.206 -1.352 2.762 1
-0.215 -1.398 2.728 0
-0.217 -1.4 2.702 0
-0.212 -1.357 2.687 0
-0.215 -1.362 2.66 0
-0.209 -1.314 2.648 0
-0.207 -1.288 2.631 0
-0.209 -1.29 2.606 0
-0.205 -1.255 2.592 0
-0.211 -1.282 2.559 0
-0.203 -1.225 2.554 0
-0.197 -1.177 2.548 0
-0.198 -1.173 2.526 0
-0.194 -1.142 2.515 0
-0.195 -1.138 2.494 0
-0.19 -1.099 2.487 0
-0.189 -1.083 2.472 0
-0.187 -1.06 2.46 0
-0.184 -1.033 2.451 0
-0.185 -1.03 2.429 0
-0.186 -1.027 2.407 0
-0.179 -0.979 2.412 0
-0.182 -0.985 2.384 0
0.0 -0.0 3.0 0
-0.177 -0.944 2.363 0
0.0 -0.0 3.0 0
-0.176 -0.918 2.333 0
0.0 -0.0 3.0 0
-0.171 -0.876 2.316 0
0.0 -0.0 3.0 0
0.0 -0.0 3.0 0
0.0 -0.0 3.0 0
-0.201 -1.345 2.763 1
-0.21 -1.398 2.728 0
-0.214 -1.408 2.701 0
-0.208 -1.357 2.687 0
-0.21 -1.359 2.661 0
-0.207 -1.333 2.643 0
-0.202 -1.289 2.63 0
-0.205 -1.293 2.605 0
-0.199 -1.245 2.596 0
-0.205 -1.275 2.561 0
-0.196 -1.211 2.559 0
-0.192 -1.17 2.551 0
-0.195 -1.18 2.523 0
-0.189 -1.136 2.518 0
-0.191 -1.138 2.494 0
-0.187 -1.1 2.487 0
-0.185 -1.081 2.473 0
-0.186 -1.078 2.451 0
-0.186 -1.065 2.434 0
-0.181 -1.03 2.429 0
-0.18 -1.014 2.415 0
-0.176 -0.983 2.41 0
-0.179 -0.989 2.382 0
0.0 -0.0 3.0 0
-0.174 -0.947 2.361 0
0.0 -0.0 3.0 0
-0.173 -0.922 2.33 0
0.0 -0.0 3.0 0
-0.166 -0.867 2.323 0
0.0 -0.0 3.0 0
0.0 -0.0 3.0 0
0.0 -0.0 3.0 0
-0.198 -1.357 2.761 1
-0.207 -1.403 2.727 0
-0.208 -1.401 2.702 0
-0.206 -1.376 2.682 0
-0.207 -1.367 2.659 0
-0.205 -1.345 2.64 0
-0.198 -1.29 2.63 0
-0.201 -1.298 2.603 0
-0.195 -1.25 2.594 0
-0.199 -1.261 2.566 0
-0.195 -1.226 2.554 0
-0.19 -1.186 2.545 0
-0.192 -1.185 2.521 0
-0.185 -1.136 2.518 0
-0.186 -1.127 2.498 0
-0.185 -1.111 2.482 0
-0.183 -1.091 2.468 0
-0.178 -1.054 2.463 0
0.0 -0.0 3.0 0
-0.174 -1.014 2.438 0
-0.179 -1.031 2.405 0
-0.171 -0.977 2.413 0
-0.173 -0.976 2.39 0
0.0 -0.0 3.0 0
-0.173 -0.958 2.354 0
0.0 -0.0 3.0 0
-0.167 -0.906 2.342 0
0.0 -0.0 3.0 0
-0.161 -0.861 2.327 0
0.0 -0.0 3.0 0
0.0 -0.0 3.0 0
0.0 -0.0 3.0 0
-0.192 -1.346 2.763 1
-0.203 -1.407 2.726 0
-0.204 -1.402 2.702 0
-0.199 -1.358 2.686 0
-0.201 -1.36 2.661 0
-0.198 -1.33 2.643 0
-0.196 -1.302 2.627 0
-0.198 -1.302 2.602 0
-0.193 -1.261 2.59 0
-0.196 -1.272 2.562 0
-0.191 -1.227 2.553 0
-0.186 -1.182 2.546 0
-0.188 -1.188 2.52 0
-0.18 -1.129 2.521 0
-0.183 -1.138 2.493 0
-0.18 -1.105 2.485 0
-0.18 -1.099 2.464 0
-0.177 -1.068 2.456 0
0.0 -0.0 3.0 0
-0.173 -1.024 2.432 0
-0.172 -1.011 2.416 0
-0.168 -0.977 2.413 0
-0.171 -0.987 2.383 0
0.0 -0.0 3.0 0
-0.166 -0.939 2.367 0
0.0 -0.0 3.0 0
-0.164 -0.913 2.337 0
0.0 -0.0 3.0 0
-0.159 -0.867 2.322 0
0.0 -0.0 3.0 0
0.0 -0.0 3.0 0
0.0 -0.0 3.0 0
-0.188 -1.347 2.763 1
-0.196 -1.389 2.73 0
-0.2 -1.403 2.702 0
-0.195 -1.362 2.685 0
-0.197 -1.361 2.661 0
-0.194 -1.327 2.644 0
-0.188 -1.279 2.633 0
-0.192 -1.295 2.604 0
-0.188 -1.258 2.591 0
-0.193 -1.277 2.56 0
-0.186 -1.224 2.554 0
-0.179 -1.168 2.552 0
-0.182 -1.178 2.524 0
-0.177 -1.134 2.519 0
-0.18 -1.143 2.491 0
-0.176 -1.105 2.485 0
-0.171 -1.068 2.479 0
-0.172 -1.062 2.459 0
-0.172 -1.052 2.441 0
-0.169 -1.025 2.432 0
-0.168 -1.008 2.418 0
-0.164 -0.977 2.413 0
-0.167 -0.987 2.383 0
0.0 -0.0 3.0 0
-0.166 -0.962 2.351 0
0.0 -0.0 3.0 0
-0.161 -0.916 2.335 0
0.0 -0.0 3.0 0
-0.152 -0.849 2.337 0
0.0 -0.0 3.0 0
0.0 -0.0 3.0 0
0.0 -0.0 3.0 0
-0.184 -1.347 2.763 1
-0.194 -1.405 2.727 0
-0.194 -1.396 2.703 0
-0.19 -1.359 2.686 0
-0.195 -1.376 2.657 0
-0.19 -1.332 2.643 0
-0.184 -1.276 2.634 0
-0.188 -1.296 2.604 0
-0.182 -1.243 2.596 0
-0.188 -1.273 2.562 0
-0.18 -1.213 2.558 0
-0.177 -1.176 2.548 0
-0.18 -1.19 2.519 0
-0.174 -1.138 2.517 0
-0.175 -1.137 2.494 0
-0.171 -1.102 2.486 0
-0.167 -1.068 2.479 0
-0.169 -1.069 2.455 0
-0.17 -1.063 2.435 0
-0.164 -1.019 2.435 0
-0.172 -1.056 2.39 0
-0.16 -0.977 2.413 0
-0.161 -0.974 2.391 0
0.0 -0.0 3.0 0
-0.163 -0.966 2.349 0
0.0 -0.0 3.0 0
-0.157 -0.91 2.339 0
0.0 -0.0 3.0 0
-0.152 -0.868 2.322 0
0.0 -0.0 3.0 0
0.0 -0.0 3.0 0
0.0 -0.0 3.0 0
-0.181 -1.352 2.762 1
-0.188 -1.398 2.728 0
-0.189 -1.388 2.705 0
-0.187 -1.363 2.685 0
-0.189 -1.366 2.66 0
-0.186 -1.332 2.643 0
-0.18 -1.284 2.632 0
-0.184 -1.296 2.604 0
-0.178 -1.248 2.595 0
-0.183 -1.27 2.563 0
-0.179 -1.233 2.551 0
-0.175 -1.191 2.543 0
-0.176 -1.187 2.521 0
-0.169 -1.135 2.518 0
-0.173 -1.148 2.489 0
-0.168 -1.103 2.486 0
-0.164 -1.072 2.477 0
-0.164 -1.063 2.459 0
-0.163 -1.046 2.444 0
-0.16 -1.015 2.437 0
-0.162 -1.019 2.412 0
-0.157 -0.978 2.412 0
-0.163 -1.005 2.372 0
0.0 -0.0 3.0 0
-0.156 -0.943 2.364 0
0.0 -0.0 3.0 0
-0.155 -0.92 2.332 0
0.0 -0.0 3.0 0
-0.152 -0.884 2.31 0
0.0 -0.0 3.0 0
0.0 -0.0 3.0 0
0.0 -0.0 3.0 0
-0.175 -1.344 2.763 1
-0.183 -1.394 2.729 0
-0.185 -1.397 2.703 0
-0.182 -1.364 2.685 0
-0.184 -1.362 2.66 0
-0.181 -1.333 2.643 0
-0.176 -1.285 2.632 0
-0.18 -1.301 2.602 0
-0.173 -1.241 2.597 0
-0.185 -1.312 2.548 0
-0.172 -1.215 2.558 0
-0.169 -1.181 2.547 0
-0.171 -1.184 2.522 0
-0.167 -1.146 2.514 0
-0.167 -1.134 2.495 0
-0.163 -1.099 2.487 0
-0.164 -1.094 2.466 0
-0.158 -1.046 2.467 0
-0.158 -1.036 2.449 0
-0.157 -1.02 2.435 0
-0.159 -1.023 2.409 0
-0.151 -0.962 2.422 0
-0.155 -0.982 2.386 0
0.0 -0.0 3.0 0
-0.155 -0.96 2.353 0
0.0 -0.0 3.0 0
-0.151 -0.921 2.331 0
0.0 -0.0 3.0 0
-0.15 -0.894 2.302 0
0.0 -0.0 3.0 0
0.0 -0.0 3.0 0
0.0 -0.0 3.0 0
-0.172 -1.353 2.761 0
-0.179 -1.395 2.729 0
-0.182 -1.405 2.701 0
-0.179 -1.368 2.684 0
-0.178 -1.352 2.663 0
-0.176 -1.326 2.645 0
-0.174 -1.297 2.628 0
-0.176 -1.301 2.602 0
-0.169 -1.241 2.597 0
-0.173 -1.26 2.566 0
-0.168 -1.211 2.559 0
-0.165 -1.181 2.547 0
-0.169 -1.199 2.516 0
-0.163 -1.147 2.513 0
-0.163 -1.134 2.495 0
-0.16 -1.108 2.484 0
-0.162 -1.108 2.459 0
-0.158 -1.071 2.454 0
-0.159 -1.065 2.434 0
-0.151 -1.006 2.443 0
-0.154 -1.016 2.413 0
-0.15 -0.983 2.41 0
-0.152 -0.985 2.384 0
0.0 -0.0 3.0 0
-0.15 -0.95 2.359 0
0.0 -0.0 3.0 0
-0.147 -0.918 2.333 0
0.0 -0.0 3.0 0
-0.143 -0.875 2.316 0
0.0 -0.0 3.0 0
0.0 -0.0 3.0 0
0.0 -0.0 3.0 0
-0.167 -1.345 2.763 0
-0.175 -1.399 2.728 0
-0.177 -1.402 2.702 0
-0.174 -1.369 2.684 0
-0.173 -1.348 2.664 0
-0.172 -1.326 2.645 0
-0.169 -1.29 2.63 0
-0.173 -1.31 2.6 0
-0.168 -1.26 2.591 0
-0.17 -1.268 2.563 0
-0.166 -1.226 2.554 0
-0.16 -1.171 2.551 0
-0.164 -1.192 2.518 0
-0.155 -1.117 2.526 0
-0.162 -1.156 2.485 0
-0.156 -1.1 2.487 0
-0.157 -1.102 2.462 0
-0.152 -1.054 2.463 0
-0.151 -1.037 2.449 0
-0.15 -1.024 2.432 0
-0.152 -1.028 2.407 0
-0.145 -0.972 2.416 0
-0.146 -0.969 2.395 0
0.0 -0.0 3.0 0
-0.148 -0.96 2.352 0
0.0 -0.0 3.0 0
-0.143 -0.915 2.335 0
0.0 -0.0 3.0 0
-0.141 -0.882 2.311 0
0.0 -0.0 3.0 0
0.0 -0.0 3.0 0
0.0 -0.0 3.0 0
-0.162 -1.337 2.764 0
-0.174 -1.427 2.723 0
-0.173 -1.402 2.702 0
-0.171 -1.377 2.682 0
-0.17 -1.357 2.662 0
-0.169 -1.338 2.641 0
-0.166 -1.301 2.627 0
-0.168 -1.306 2.601 0
-0.164 -1.269 2.588 0
-0.167 -1.28 2.559 0
-0.162 -1.227 2.553 0
-0.158 -1.186 2.545 0
-0.158 -1.181 2.523 0
-0.154 -1.137 2.518 0
-0.155 -1.138 2.493 0
-0.154 -1.118 2.478 0
-0.151 -1.088 2.469 0
-0.15 -1.072 2.454 0
-0.148 -1.048 2.443 0
-0.146 -1.021 2.434 0
-0.149 -1.035 2.403 0
-0.144 -0.987 2.407 0
-0.144 -0.983 2.386 0
0.0 -0.0 3.0 0
-0.144 -0.961 2.352 0
0.0 -0.0 3.0 0
-0.14 -0.918 2.333 0
0.0 -0.0 3.0 0
-0.137 -0.879 2.313 0
0.0 -0.0 3.0 0
0.0 -0.0 3.0 0
0.0 -0.0 3.0 0
-0.16 -1.354 2.761 0
-0.167 -1.408 2.726 0
-0.168 -1.399 2.703 0
-0.164 -1.355 2.687 0
-0.167 -1.368 2.659 0
-0.165 -1.339 2.641 0
-0.16 -1.287 2.631 0
-0.163 -1.299 2.603 0
-0.158 -1.251 2.594 0
-0.159 -1.247 2.571 0
-0.158 -1.231 2.552 0
-0.154 -1.19 2.543 0
-0.155 -1.186 2.521 0
-0.15 -1.137 2.518 0
-0.152 -1.139 2.493 0
-0.147 -1.098 2.488 0
-0.15 -1.11 2.459 0
-0.144 -1.055 2.463 0
-0.141 -1.02 2.457 0
-0.139 -1.0 2.445 0
-0.144 -1.022 2.41 0
-0.138 -0.973 2.415 0
-0.139 -0.97 2.394 0
0.0 -0.0 3.0 0
-0.14 -0.958 2.354 0
0.0 -0.0 3.0 0
-0.138 -0.925 2.328 0
0.0 -0.0 3.0 0
-0.133 -0.876 2.315 0
0.0 -0.0 3.0 0
0.0 -0.0 3.0 0
0.0 -0.0 3.0 0
-0.154 -1.338 2.764 0
-0.163 -1.405 2.727 0
-0.162 -1.384 2.706 0
-0.162 -1.375 2.683 0
-0.161 -1.354 2.663 0
-0.159 -1.332 2.643 0
-0.156 -1.287 2.631 0
-0.158 -1.292 2.605 0
-0.155 -1.258 2.591 0
-0.16 -1.288 2.556 0
-0.153 -1.224 2.554 0
-0.149 -1.183 2.546 0
-0.151 -1.186 2.521 0
-0.146 -1.134 2.519 0
-0.148 -1.143 2.491 0
-0.145 -1.105 2.485 0
-0.143 -1.081 2.473 0
-0.141 -1.062 2.459 0
-0.138 -1.024 2.456 0
-0.136 -1.004 2.444 0
-0.138 -1.008 2.418 0
-0.136 -0.984 2.409 0
-0.14 -1.004 2.373 0
0.0 -0.0 3.0 0
-0.136 -0.955 2.356 0
0.0 -0.0 3.0 0
-0.132 -0.913 2.337 0
0.0 -0.0 3.0 0
-0.129 -0.87 2.32 0
0.0 -0.0 3.0 0
0.0 -0.0 3.0 0
0.0 -0.0 3.0 0
-0.152 -1.363 2.76 0
-0.158 -1.405 2.727 0
-0.159 -1.4 2.702 0
-0.157 -1.371 2.683 0
-0.158 -1.365 2.66 0
-0.156 -1.336 2.642 0
-0.151 -1.288 2.631 0
-0.155 -1.304 2.601 0
-0.153 -1.277 2.585 0
-0.155 -1.285 2.557 0
-0.15 -1.232 2.552 0
-0.145 -1.184 2.546 0
-0.147 -1.187 2.521 0
-0.141 -1.13 2.52 0
-0.144 -1.14 2.492 0
-0.141 -1.106 2.484 0
-0.139 -1.086 2.47 0
-0.138 -1.065 2.457 0
-0.138 -1.052 2.441 0
-0.133 -1.011 2.44 0
-0.136 -1.022 2.41 0
-0.132 -0.981 2.411 0
-0.134 -0.984 2.385 0
0.0 -0.0 3.0 0
-0.131 -0.949 2.36 0
0.0 -0.0 3.0 0
-0.13 -0.919 2.332 0
0.0 -0.0 3.0 0
-0.128 -0.887 2.307 0
0.0 -0.0 3.0 0
0.0 -0.0 3.0 0
0.0 -0.0 3.0 0
-0.145 -1.339 2.764 0
-0.153 -1.398 2.728 0
-0.155 -1.401 2.702 0
-0.152 -1.364 2.685 0
-0.152 -1.351 2.663 0
-0.15 -1.321 2.646 0
-0.147 -1.288 2.631 0
-0.15 -1.3 2.603 0
-0.147 -1.267 2.588 0
-0.149 -1.27 2.563 0
-0.146 -1.237 2.55 0
-0.141 -1.184 2.546 0
-0.142 -1.183 2.522 0
-0.138 -1.135 2.518 0
-0.138 -1.129 2.497 0
-0.138 -1.113 2.481 0
-0.137 -1.097 2.465 0
-0.134 -1.063 2.459 0
-0.134 -1.05 2.442 0
-0.131 -1.019 2.435 0
-0.134 -1.036 2.402 0
-0.128 -0.978 2.412 0
-0.131 -0.995 2.378 0
0.0 -0.0 3.0 0
-0.129 -0.959 2.353 0
0.0 -0.0 3.0 0
-0.127 -0.927 2.327 0
0.0 -0.0 3.0 0
-0.124 -0.887 2.307 0
0.0 -0.0 3.0 0
0.0 -0.0 3.0 0
0.0 -0.0 3.0 0
-0.141 -1.336 2.764 0
-0.149 -1.406 2.727 0
-0.15 -1.401 2.702 0
-0.146 -1.349 2.689 0
-0.148 -1.355 2.662 0
-0.146 -1.325 2.645 0
-0.143 -1.289 2.63 0
-0.146 -1.301 2.602 0
-0.142 -1.259 2.591 0
-0.147 -1.286 2.557 0
-0.14 -1.222 2.555 0
-0.136 -1.17 2.551 0
-0.138 -1.184 2.522 0
-0.134 -1.135 2.518 0
-0.137 -1.148 2.489 0
-0.133 -1.103 2.486 0
-0.132 -1.09 2.468 0
-0.13 -1.059 2.46 0
-0.131 -1.057 2.438 0
-0.128 -1.022 2.433 0
-0.129 -1.022 2.41 0
-0.124 -0.978 2.412 0
-0.128 -0.995 2.378 0
0.0 -0.0 3.0 0
-0.125 -0.956 2.355 0
0.0 -0.0 3.0 0
-0.122 -0.917 2.334 0
0.0 -0.0 3.0 0
-0.119 -0.875 2.317 0
0.0 -0.0 3.0 0
0.0 -0.0 3.0 0
0.0 -0.0 3.0 0
-0.138 -1.352 2.762 0
-0.145 -1.403 2.727 0
-0.146 -1.398 2.703 0
-0.143 -1.361 2.686 0
-0.144 -1.355 2.662 0
-0.142 -1.33 2.644 0
-0.137 -1.273 2.635 0
-0.141 -1.297 2.603 0
-0.136 -1.241 2.597 0
-0.141 -1.271 2.562 0
-0.136 -1.223 2.555 0
-0.132 -1.174 2.55 0
-0.135 -1.187 2.52 0
-0.13 -1.131 2.52 0
-0.133 -1.152 2.487 0
-0.129 -1.103 2.486 0
-0.127 -1.08 2.473 0
-0.127 -1.071 2.454 0
-0.124 -1.033 2.451 0
-0.124 -1.023 2.433 0
-0.126 -1.03 2.405 0
-0.122 -0.985 2.408 0
-0.122 -0.975 2.391 0
0.0 -0.0 3.0 0
-0.122 -0.963 2.35 0
0.0 -0.0 3.0 0
-0.118 -0.914 2.336 0
0.0 -0.0 3.0 0
-0.116 -0.875 2.317 0
0.0 -0.0 3.0 0
0.0 -0.0 3.0 0
0.0 -0.0 3.0 0
-0.134 -1.352 2.762 0
-0.14 -1.398 2.728 0
-0.141 -1.394 2.704 0
-0.139 -1.361 2.686 0
-0.141 -1.375 2.657 0
-0.138 -1.334 2.643 0
-0.134 -1.286 2.631 0
-0.138 -1.306 2.601 0
-0.133 -1.249 2.594 0
-0.138 -1.284 2.558 0
-0.131 -1.215 2.558 0
-0.127 -1.166 2.552 0
-0.131 -1.192 2.518 0
-0.128 -1.147 2.513 0
-0.128 -1.145 2.49 0
-0.124 -1.097 2.489 0
-0.126 -1.101 2.463 0
-0.122 -1.06 2.46 0
-0.123 -1.054 2.44 0
-0.12 -1.023 2.433 0
-0.122 -1.027 2.407 0
-0.117 -0.979 2.412 0
-0.117 -0.968 2.395 0
0.0 -0.0 3.0 0
-0.118 -0.96 2.352 0
0.0 -0.0 3.0 0
-0.115 -0.911 2.338 0
0.0 -0.0 3.0 0
-0.112 -0.875 2.316 0
0.0 -0.0 3.0 0
0.0 -0.0 3.0 0
0.0 -0.0 3.0 0
-0.128 -1.333 2.765 0
-0.136 -1.403 2.727 0
-0.137 -1.398 2.703 0
-0.135 -1.366 2.685 0
-0.135 -1.359 2.661 0
-0.133 -1.327 2.644 0
-0.131 -1.297 2.628 0
-0.134 -1.306 2.601 0
-0.128 -1.246 2.595 0
-0.13 -1.249 2.57 0
-0.127 -1.216 2.557 0
-0.126 -1.189 2.543 0
-0.126 -1.185 2.521 0
-0.123 -1.143 2.515 0
-0.124 -1.142 2.492 0
-0.121 -1.104 2.485 0
-0.12 -1.084 2.471 0
-0.12 -1.074 2.453 0
-0.119 -1.05 2.441 0
-0.114 -1.003 2.444 0
-0.117 -1.014 2.415 0
-0.112 -0.969 2.418 0
-0.116 -0.992 2.38 0
0.0 -0.0 3.0 0
-0.114 -0.957 2.355 0
0.0 -0.0 3.0 0
-0.114 -0.934 2.321 0
0.0 -0.0 3.0 0
-0.108 -0.869 2.321 0
0.0 -0.0 3.0 0
0.0 -0.0 3.0 0
0.0 -0.0 3.0 0
-0.126 -1.353 2.761 0
-0.133 -1.42 2.724 0
-0.134 -1.411 2.7 0
-0.13 -1.362 2.686 0
-0.131 -1.36 2.661 0
-0.129 -1.327 2.644 0
-0.126 -1.29 2.63 0
-0.129 -1.306 2.601 0
-0.125 -1.257 2.591 0
-0.127 -1.258 2.567 0
-0.126 -1.239 2.549 0
-0.122 -1.193 2.542 0
-0.121 -1.166 2.529 0
-0.119 -1.137 2.518 0
-0.119 -1.127 2.498 0
-0.118 -1.111 2.482 0
-0.117 -1.088 2.469 0
-0.114 -1.057 2.461 0
-0.113 -1.037 2.449 0
-0.112 -1.014 2.438 0
-0.116 -1.045 2.397 0
-0.109 -0.972 2.416 0
-0.113 -1.0 2.375 0
0.0 -0.0 3.0 0
-0.11 -0.954 2.357 0
0.0 -0.0 3.0 0
-0.108 -0.915 2.335 0
0.0 -0.0 3.0 0
-0.105 -0.87 2.321 0
0.0 -0.0 3.0 0
0.0 -0.0 3.0 0
0.0 -0.0 3.0 0
-0.121 -1.35 2.762 0
-0.127 -1.404 2.727 0
-0.127 -1.392 2.704 0
-0.126 -1.363 2.685 0
-0.126 -1.356 2.662 0
-0.125 -1.331 2.643 0
-0.122 -1.291 2.63 0
-0.124 -1.295 2.604 0
-0.122 -1.261 2.59 0
-0.121 -1.246 2.571 0
-0.12 -1.227 2.553 0
-0.118 -1.186 2.545 0
-0.119 -1.189 2.519 0
-0.114 -1.133 2.519 0
-0.116 -1.138 2.493 0
-0.113 -1.105 2.485 0
-0.113 -1.089 2.469 0
-0.112 -1.068 2.456 0
-0.11 -1.037 2.449 0
-0.108 -1.01 2.44 0
-0.111 -1.035 2.403 0
-0.105 -0.963 2.422 0
-0.109 -0.989 2.382 0
0.0 -0.0 3.0 0
-0.105 -0.941 2.365 0
0.0 -0.0 3.0 0
-0.105 -0.922 2.33 0
0.0 -0.0 3.0 0
-0.103 -0.882 2.311 0
0.0 -0.0 3.0 0
0.0 -0.0 3.0 0
0.0 -0.0 3.0 0
-0.118 -1.354 2.761 0
-0.123 -1.404 2.727 0
-0.124 -1.407 2.701 0
-0.122 -1.367 2.684 0
-0.122 -1.353 2.663 0
-0.12 -1.328 2.644 0
-0.117 -1.283 2.632 0
-0.12 -1.299 2.603 0
-0.117 -1.258 2.591 0
-0.12 -1.273 2.562 0
-0.116 -1.228 2.553 0
-0.112 -1.172 2.55 0
-0.114 -1.178 2.524 0
-0.111 -1.137 2.518 0
-0.114 -1.158 2.485 0
-0.108 -1.09 2.492 0
-0.11 -1.096 2.466 0
-0.107 -1.057 2.461 0
-0.105 -1.027 2.454 0
-0.104 -1.014 2.438 0
-0.106 -1.018 2.412 0
-0.101 -0.963 2.422 0
-0.106 -0.996 2.377 0
0.0 -0.0 3.0 0
-0.103 -0.951 2.358 0
0.0 -0.0 3.0 0
-0.101 -0.912 2.337 0
0.0 -0.0 3.0 0
-0.099 -0.876 2.316 0
0.0 -0.0 3.0 0
0.0 -0.0 3.0 0
0.0 -0.0 3.0 0
-0.113 -1.346 2.763 0
-0.119 -1.404 2.727 0
-0.12 -1.404 2.702 0
-0.117 -1.363 2.685 0
-0.117 -1.349 2.664 0
-0.116 -1.328 2.644 0
-0.114 -1.288 2.631 0
-0.117 -1.308 2.6 0
-0.114 -1.266 2.589 0
-0.116 -1.274 2.561 0
-0.111 -1.221 2.556 0
-0.11 -1.19 2.543 0
-0.111 -1.193 2.518 0
-0.107 -1.138 2.517 0
-0.107 -1.128 2.498 0
-0.104 -1.09 2.492 0
-0.103 -1.067 2.48 0
-0.104 -1.065 2.457 0
-0.104 -1.056 2.439 0
-0.101 -1.018 2.436 0
-0.101 -1.008 2.418 0
-0.097 -0.96 2.423 0
-0.101 -0.987 2.383 0
0.0 -0.0 3.0 0
-0.101 -0.965 2.349 0
0.0 -0.0 3.0 0
-0.097 -0.906 2.342 0
0.0 -0.0 3.0 0
-0.094 -0.861 2.328 0
0.0 -0.0 3.0 0
0.0 -0.0 3.0 0
0.0 -0.0 3.0 0
-0.109 -1.354 2.761 0
-0.114 -1.409 2.726 0
-0.115 -1.404 2.702 0
-0.114 -1.375 2.683 0
-0.113 -1.354 2.662 0
-0.112 -1.328 2.644 0
-0.11 -1.292 2.63 0
-0.111 -1.296 2.604 0
-0.108 -1.244 2.596 0
-0.111 -1.266 2.564 0
-0.108 -1.229 2.553 0
-0.105 -1.18 2.547 0
-0.105 -1.175 2.525 0
-0.103 -1.138 2.517 0
-0.105 -1.147 2.489 0
-0.101 -1.098 2.488 0
-0.101 -1.082 2.472 0
-0.1 -1.062 2.459 0
-0.1 -1.052 2.441 0
-0.097 -1.014 2.438 0
-0.098 -1.011 2.416 0
-0.094 -0.967 2.419 0
-0.096 -0.977 2.39 0
0.0 -0.0 3.0 0
-0.097 -0.962 2.351 0
0.0 -0.0 3.0 0
-0.095 -0.922 2.33 0
0.0 -0.0 3.0 0
-0.092 -0.879 2.313 0
0.0 -0.0 3.0 0
0.0 -0.0 3.0 0
0.0 -0.0 3.0 0
-0.104 -1.343 2.763 0
-0.109 -1.393 2.729 0
-0.11 -1.397 2.703 0
-0.108 -1.36 2.686 0
-0.11 -1.366 2.659 0
-0.107 -1.321 2.646 0
-0.105 -1.28 2.633 0
-0.107 -1.297 2.603 0
-0.104 -1.255 2.592 0
-0.107 -1.274 2.561 0
-0.104 -1.229 2.553 0
-0.101 -1.18 2.547 0
-0.103 -1.19 2.519 0
-0.099 -1.141 2.516 0
-0.1 -1.133 2.496 0
-0.098 -1.098 2.488 0
-0.096 -1.075 2.476 0
-0.096 -1.065 2.457 0
-0.096 -1.049 2.442 0
-0.095 -1.028 2.43 0
-0.095 -1.015 2.414 0
-0.09 -0.953 2.427 0
-0.092 -0.974 2.391 0
0.0 -0.0 3.0 0
-0.092 -0.952 2.358 0
0.0 -0.0 3.0 0
-0.091 -0.916 2.335 0
0.0 -0.0 3.0 0
-0.088 -0.874 2.318 0
0.0 -0.0 3.0 0
0.0 -0.0 3.0 0
0.0 -0.0 3.0 0
-0.1 -1.344 2.763 0
-0.107 -1.422 2.724 0
-0.106 -1.397 2.703 0
-0.104 -1.36 2.686 0
-0.105 -1.362 2.66 0
-0.103 -1.329 2.644 0
-0.102 -1.295 2.629 0
-0.102 -1.289 2.606 0
-0.099 -1.244 2.596 0
-0.102 -1.267 2.564 0
-0.1 -1.229 2.553 0
-0.097 -1.176 2.548 0
-0.099 -1.194 2.518 0
-0.095 -1.138 2.517 0
-0.096 -1.137 2.494 0
-0.094 -1.098 2.488 0
-0.094 -1.09 2.469 0
-0.093 -1.07 2.455 0
-0.09 -1.028 2.453 0
-0.091 -1.026 2.431 0
-0.092 -1.033 2.404 0
-0.088 -0.974 2.415 0
-0.089 -0.978 2.389 0
0.0 -0.0 3.0 0
-0.088 -0.945 2.362 0
0.0 -0.0 3.0 0
-0.089 -0.935 2.32 0
0.0 -0.0 3.0 0
-0.084 -0.867 2.323 0
0.0 -0.0 3.0 0
0.0 -0.0 3.0 0
0.0 -0.0 3.0 0
-0.096 -1.348 2.762 0
-0.102 -1.413 2.725 0
-0.102 -1.401 2.702 0
-0.1 -1.369 2.684 0
-0.1 -1.355 2.662 0
-0.099 -1.325 2.645 0
-0.097 -1.293 2.629 0
-0.1 -1.309 2.6 0
-0.096 -1.256 2.592 0
-0.099 -1.279 2.56 0
-0.095 -1.223 2.555 0
-0.094 -1.188 2.544 0
-0.094 -1.187 2.52 0
-0.091 -1.138 2.517 0
-0.093 -1.151 2.487 0
-0.091 -1.114 2.481 0
-0.089 -1.076 2.475 0
-0.089 -1.066 2.457 0
-0.087 -1.028 2.453 0
-0.086 -1.012 2.439 0
-0.088 -1.019 2.412 0
-0.086 -0.995 2.402 0
-0.086 -0.981 2.387 0
0.0 -0.0 3.0 0
-0.086 -0.962 2.351 0
0.0 -0.0 3.0 0
-0.084 -0.92 2.332 0
0.0 -0.0 3.0 0
-0.081 -0.868 2.322 0
0.0 -0.0 3.0 0
0.0 -0.0 3.0 0
0.0 -0.0 3.0 0
-0.093 -1.36 2.76 0
-0.096 -1.402 2.727 0
-0.097 -1.398 2.703 0
-0.096 -1.369 2.684 0
-0.095 -1.347 2.664 0
-0.095 -1.326 2.645 0
-0.093 -1.289 2.63 0
-0.094 -1.297 2.603 0
-0.093 -1.272 2.587 0
-0.093 -1.26 2.566 0
-0.092 -1.23 2.552 0
-0.089 -1.174 2.55 0
