# .PCD v0.7 - Point Cloud Data file format
VERSION 0.7
FIELDS x y z intensity
SIZE 4 4 4 4
TYPE F F F F
COUNT 1 1 1 1
WIDTH 2078
HEIGHT 1
VIEWPOINT 0 0 0 1 0 0 0
POINTS 2078
DATA ascii
10.216 -23.999 -4.337 5
9.756 -22.732 -4.386 6
9.33 -21.551 -4.421 5
8.96 -20.529 -4.472 6
8.623 -19.587 -4.519 9
8.332 -18.774 -4.585 6
8.035 -17.948 -4.618 8
7.753 -17.179 -4.648 8
7.498 -16.471 -4.681 7
7.258 -15.814 -4.713 7
7.045 -15.219 -4.754 6
6.832 -14.631 -4.779 6
6.639 -14.101 -4.816 10
6.463 -13.606 -4.855 6
6.282 -13.116 -4.881 7
6.116 -12.656 -4.909 7
5.95 -12.211 -4.93 7
5.792 -11.78 -4.946 7
5.637 -11.366 -4.958 7
5.496 -10.981 -4.978 8
5.359 -10.612 -4.997 9
5.223 -10.246 -5.005 9
5.094 -9.9 -5.017 9
4.972 -9.575 -5.035 10
4.859 -9.266 -5.054 20
16.132 -40.606 -4.16 5
14.755 -36.829 -4.159 5
12.892 -31.895 -3.779 33
12.411 -30.449 -4.03 26
11.937 -29.029 -4.238 7
11.224 -27.057 -4.25 6
10.64 -25.44 -4.295 5
10.12 -23.987 -4.334 5
9.665 -22.722 -4.383 6
9.243 -21.543 -4.418 5
8.876 -20.52 -4.469 6
8.545 -19.585 -4.518 10
8.257 -18.771 -4.584 8
7.964 -17.95 -4.619 8
7.685 -17.18 -4.649 7
7.43 -16.469 -4.68 7
7.193 -15.814 -4.713 7
6.983 -15.219 -4.754 7
6.776 -14.64 -4.784 6
6.584 -14.109 -4.821 8
6.406 -13.608 -4.856 6
6.228 -13.12 -4.883 7
6.065 -12.663 -4.913 6
5.899 -12.213 -4.931 7
5.741 -11.779 -4.945 7
5.587 -11.364 -4.957 6
5.449 -10.982 -4.979 8
5.315 -10.619 -5.002 12
5.178 -10.25 -5.008 9
5.053 -9.906 -5.022 10
4.932 -9.581 -5.039 15
4.817 -9.265 -5.054 22
15.974 -40.569 -4.153 6
14.604 -36.779 -4.149 5
12.761 -31.853 -3.771 31
12.296 -30.438 -4.027 16
11.817 -28.997 -4.23 6
11.119 -27.047 -4.247 6
10.535 -25.414 -4.287 5
10.028 -23.982 -4.332 5
9.576 -22.715 -4.38 6
9.159 -21.539 -4.416 5
8.795 -20.515 -4.467 6
8.469 -19.586 -4.518 9
8.183 -18.771 -4.584 6
7.889 -17.942 -4.616 8
7.617 -17.182 -4.65 7
7.366 -16.473 -4.682 7
7.132 -15.821 -4.716 7
6.921 -15.221 -4.756 7
6.713 -14.636 -4.782 6
6.525 -14.108 -4.82 11
6.348 -13.605 -4.855 6
6.176 -13.126 -4.887 7
6.009 -12.66 -4.911 7
5.849 -12.219 -4.935 7
5.692 -11.784 -4.948 7
5.539 -11.37 -4.961 7
5.403 -10.987 -4.982 7
5.268 -10.621 -5.003 9
5.134 -10.253 -5.011 9
5.01 -9.91 -5.025 10
4.891 -9.586 -5.044 11
4.78 -9.277 -5.064 20
15.802 -40.495 -4.14 6
14.454 -36.73 -4.14 4
12.634 -31.822 -3.764 27
12.17 -30.399 -4.018 10
11.7 -28.971 -4.223 6
11.013 -27.029 -4.242 6
10.434 -25.399 -4.283 6
9.933 -23.972 -4.329 5
9.485 -22.705 -4.377 5
9.076 -21.538 -4.416 5
8.713 -20.509 -4.465 6
8.391 -19.582 -4.517 9
8.109 -18.77 -4.584 7
7.819 -17.944 -4.617 8
7.55 -17.187 -4.652 8
7.3 -16.474 -4.682 5
7.065 -15.814 -4.713 7
6.86 -15.224 -4.757 6
6.657 -14.645 -4.787 6
6.47 -14.116 -4.825 9
6.296 -13.616 -4.861 5
6.122 -13.13 -4.89 7
5.957 -12.663 -4.913 7
5.798 -12.222 -4.937 7
5.642 -11.787 -4.951 7
5.492 -11.374 -4.964 7
5.356 -10.991 -4.986 8
5.222 -10.622 -5.004 8
5.089 -10.254 -5.011 9
4.968 -9.915 -5.029 10
4.849 -9.589 -5.046 12
4.736 -9.273 -5.061 21
15.632 -40.424 -4.128 6
13.303 -34.114 -3.631 9
12.506 -31.787 -3.757 29
12.05 -30.373 -4.012 12
11.588 -28.954 -4.219 5
10.904 -27.008 -4.237 6
10.331 -25.379 -4.277 6
9.839 -23.963 -4.326 5
9.399 -22.704 -4.377 6
8.991 -21.533 -4.414 4
8.634 -20.51 -4.465 7
8.314 -19.579 -4.516 9
8.036 -18.773 -4.585 6
7.749 -17.947 -4.618 8
7.481 -17.185 -4.651 8
7.232 -16.471 -4.681 7
7.003 -15.821 -4.716 7
6.799 -15.226 -4.758 6
6.599 -14.65 -4.79 6
6.412 -14.118 -4.826 8
6.241 -13.62 -4.864 5
6.068 -13.134 -4.892 7
5.906 -12.669 -4.916 7
5.748 -12.228 -4.941 7
5.592 -11.788 -4.951 7
5.446 -11.382 -4.97 7
5.312 -10.999 -4.991 8
5.178 -10.629 -5.009 10
5.046 -10.26 -5.016 9
4.921 -9.91 -5.025 8
4.807 -9.591 -5.048 12
4.696 -9.278 -5.065 20
15.474 -40.382 -4.121 6
13.275 -34.352 -3.677 13
12.388 -31.776 -3.754 27
11.94 -30.372 -4.012 13
11.473 -28.931 -4.213 6
10.796 -26.986 -4.231 6
10.229 -25.36 -4.272 6
9.743 -23.946 -4.321 5
9.313 -22.704 -4.377 6
8.912 -21.538 -4.416 4
8.554 -20.507 -4.464 7
8.235 -19.572 -4.513 9
7.963 -18.772 -4.584 6
7.679 -17.949 -4.619 8
7.416 -17.192 -4.655 8
7.169 -16.478 -4.684 7
6.941 -15.823 -4.718 7
6.734 -15.219 -4.755 6
6.54 -14.652 -4.791 6
6.358 -14.128 -4.831 8
6.183 -13.618 -4.862 6
6.014 -13.137 -4.893 6
5.852 -12.669 -4.916 7
5.699 -12.233 -4.944 7
5.545 -11.797 -4.957 7
5.4 -11.39 -4.975 7
5.264 -11.0 -4.992 8
5.132 -10.629 -5.009 9
5.002 -10.264 -5.019 9
4.883 -9.924 -5.036 9
4.766 -9.597 -5.053 13
4.653 -9.278 -5.065 19
15.311 -40.325 -4.11 5
13.047 -34.075 -3.624 16
12.271 -31.765 -3.752 28
11.839 -30.394 -4.017 14
11.355 -28.896 -4.205 6
10.69 -26.968 -4.226 6
10.133 -25.355 -4.27 6
9.649 -23.934 -4.317 6
9.221 -22.688 -4.372 5
8.825 -21.525 -4.412 4
8.474 -20.505 -4.463 7
8.161 -19.575 -4.514 9
7.89 -18.774 -4.585 8
7.608 -17.947 -4.618 8
7.346 -17.19 -4.653 7
7.103 -16.478 -4.684 7
6.88 -15.83 -4.721 7
6.677 -15.231 -4.761 7
6.48 -14.653 -4.791 6
6.297 -14.123 -4.828 10
6.127 -13.622 -4.864 6
5.961 -13.14 -4.895 6
5.801 -12.674 -4.92 7
5.646 -12.232 -4.944 7
5.493 -11.793 -4.954 7
5.352 -11.391 -4.976 7
5.218 -11.004 -4.995 8
5.087 -10.632 -5.012 8
4.958 -10.266 -5.021 9
4.839 -9.924 -5.036 10
4.726 -9.602 -5.057 12
4.614 -9.282 -5.069 16
15.146 -40.259 -4.099 6
12.822 -33.797 -3.57 13
12.152 -31.751 -3.749 28
11.735 -30.407 -4.02 11
11.249 -28.894 -4.204 6
10.588 -26.961 -4.224 6
10.034 -25.342 -4.267 6
9.556 -23.924 -4.314 6
9.134 -22.684 -4.37 5
8.74 -21.519 -4.41 5
8.393 -20.498 -4.461 7
8.085 -19.575 -4.514 9
7.815 -18.77 -4.583 8
7.536 -17.944 -4.617 8
7.28 -17.194 -4.655 8
7.038 -16.478 -4.684 7
6.818 -15.836 -4.724 7
6.615 -15.23 -4.76 6
6.421 -14.654 -4.792 6
6.242 -14.131 -4.833 8
6.071 -13.621 -4.864 6
5.906 -13.14 -4.895 6
5.749 -12.677 -4.922 7
5.595 -12.234 -4.945 6
5.444 -11.797 -4.957 7
5.304 -11.395 -4.979 7
5.173 -11.01 -4.999 8
5.042 -10.636 -5.015 8
4.913 -10.266 -5.021 10
4.796 -9.926 -5.038 9
4.683 -9.605 -5.059 12
4.574 -9.287 -5.073 22
14.978 -40.186 -4.086 5
12.737 -33.887 -3.587 15
12.034 -31.736 -3.746 25
11.64 -30.445 -4.029 12
11.133 -28.865 -4.197 6
10.479 -26.934 -4.217 6
9.934 -25.324 -4.262 6
9.464 -23.917 -4.312 6
9.047 -22.678 -4.369 6
8.657 -21.513 -4.408 5
8.314 -20.494 -4.459 7
8.009 -19.574 -4.514 9
7.743 -18.772 -4.584 6
7.468 -17.949 -4.619 8
7.209 -17.188 -4.652 8
6.973 -16.481 -4.685 7
6.749 -15.822 -4.717 10
6.554 -15.232 -4.761 6
6.364 -14.662 -4.796 6
6.182 -14.124 -4.829 9
6.016 -13.625 -4.866 6
5.849 -13.137 -4.894 7
5.695 -12.676 -4.921 7
5.547 -12.243 -4.95 7
5.397 -11.805 -4.963 8
5.256 -11.397 -4.98 7
5.126 -11.011 -5.0 8
4.998 -10.642 -5.02 8
4.87 -10.272 -5.025 9
4.756 -9.935 -5.045 10
4.641 -9.607 -5.061 12
4.533 -9.289 -5.075 20
14.821 -40.138 -4.077 5
12.65 -33.973 -3.604 17
11.906 -31.694 -3.737 21
11.538 -30.462 -4.033 12
11.022 -28.847 -4.192 6
10.379 -26.929 -4.216 6
9.839 -25.318 -4.26 6
9.363 -23.887 -4.303 6
8.959 -22.669 -4.366 6
8.571 -21.503 -4.404 5
8.233 -20.487 -4.457 7
7.932 -19.569 -4.512 10
7.67 -18.77 -4.583 9
7.397 -17.946 -4.618 8
7.14 -17.184 -4.651 8
6.908 -16.48 -4.685 7
6.686 -15.823 -4.718 41
6.495 -15.236 -4.763 7
6.301 -14.653 -4.791 6
6.128 -14.135 -4.835 7
5.964 -13.635 -4.872 4
5.798 -13.146 -4.899 8
5.645 -12.685 -4.927 7
5.493 -12.238 -4.948 12
5.35 -11.812 -4.968 7
5.21 -11.404 -4.985 7
5.08 -11.015 -5.003 9
4.951 -10.643 -5.02 8
4.826 -10.275 -5.028 8
4.71 -9.932 -5.043 8
4.602 -9.615 -5.068 11
4.494 -9.297 -5.081 21
14.661 -40.082 -4.068 6
12.596 -34.151 -3.638 12
11.79 -31.685 -3.735 27
11.441 -30.492 -4.04 13
10.907 -28.818 -4.185 6
10.272 -26.905 -4.209 6
9.74 -25.304 -4.256 5
9.272 -23.879 -4.3 6
8.873 -22.668 -4.365 6
8.491 -21.504 -4.404 5
8.152 -20.479 -4.454 7
7.856 -19.568 -4.511 9
7.596 -18.768 -4.583 8
7.329 -17.95 -4.619 8
7.074 -17.188 -4.652 7
6.842 -16.479 -4.684 7
6.624 -15.825 -4.718 43
6.432 -15.234 -4.762 6
6.248 -14.668 -4.799 6
6.071 -14.136 -4.835 8
5.908 -13.635 -4.872 6
5.745 -13.149 -4.901 6
5.593 -12.687 -4.928 7
5.445 -12.246 -4.953 7
5.301 -11.814 -4.968 9
5.161 -11.404 -4.985 7
5.032 -11.015 -5.003 8
4.907 -10.645 -5.022 7
4.784 -10.281 -5.033 7
4.67 -9.94 -5.049 10
4.559 -9.613 -5.067 11
4.45 -9.293 -5.078 22
14.499 -40.017 -4.056 6
12.069 -33.035 -3.421 6
11.674 -31.673 -3.732 27
11.341 -30.516 -4.045 14
10.798 -28.803 -4.182 6
10.173 -26.899 -4.208 6
9.642 -25.29 -4.252 6
9.182 -23.874 -4.299 6
8.785 -22.658 -4.362 6
8.407 -21.497 -4.402 5
8.071 -20.472 -4.451 7
7.784 -19.574 -4.514 9
7.525 -18.769 -4.583 8
7.256 -17.944 -4.617 8
7.011 -17.198 -4.657 8
6.779 -16.486 -4.687 7
6.563 -15.831 -4.721 47
6.373 -15.239 -4.765 7
6.186 -14.661 -4.796 6
6.013 -14.135 -4.835 7
5.853 -13.637 -4.874 6
5.691 -13.151 -4.902 6
5.541 -12.689 -4.929 7
5.395 -12.251 -4.956 7
5.251 -11.815 -4.969 7
5.116 -11.411 -4.99 7
4.99 -11.028 -5.012 8
4.86 -10.645 -5.022 7
4.739 -10.28 -5.032 7
4.63 -9.948 -5.056 8
4.52 -9.621 -5.073 11
4.411 -9.296 -5.081 18
14.343 -39.968 -4.047 6
11.948 -33.019 -3.418 20
11.549 -31.637 -3.725 32
11.24 -30.538 -4.05 14
10.684 -28.773 -4.174 6
10.07 -26.886 -4.204 6
9.543 -25.271 -4.246 6
9.089 -23.862 -4.295 6
8.701 -22.658 -4.362 6
8.324 -21.489 -4.399 5
7.992 -20.467 -4.449 7
7.707 -19.568 -4.511 12
7.451 -18.766 -4.582 8
7.187 -17.944 -4.617 8
6.941 -17.19 -4.654 7
6.715 -16.488 -4.688 7
6.502 -15.835 -4.723 46
6.313 -15.24 -4.765 6
6.128 -14.666 -4.798 6
5.957 -14.139 -4.837 7
5.799 -13.643 -4.877 6
5.638 -13.154 -4.903 6
5.49 -12.694 -4.932 7
5.344 -12.252 -4.957 7
5.204 -11.822 -4.974 7
5.066 -11.408 -4.988 7
4.943 -11.028 -5.013 8
4.817 -10.651 -5.026 8
4.695 -10.283 -5.034 8
4.584 -9.944 -5.053 9
4.476 -9.62 -5.072 12
4.37 -9.298 -5.082 18
14.193 -39.932 -4.041 6
11.845 -33.051 -3.424 30
11.439 -31.638 -3.725 30
11.142 -30.564 -4.056 14
10.575 -28.757 -4.17 7
9.965 -26.865 -4.198 6
9.445 -25.256 -4.242 6
8.998 -23.853 -4.292 6
8.615 -22.652 -4.36 5
8.243 -21.489 -4.399 5
7.914 -20.465 -4.449 7
7.63 -19.562 -4.509 25
7.38 -18.767 -4.582 8
7.117 -17.944 -4.617 8
6.875 -17.192 -4.654 7
6.65 -16.487 -4.688 7
6.437 -15.83 -4.721 45
6.252 -15.241 -4.765 6
6.072 -14.673 -4.802 7
5.901 -14.141 -4.839 7
5.742 -13.64 -4.875 6
5.585 -13.155 -4.904 6
5.437 -12.693 -4.932 7
5.295 -12.256 -4.959 7
5.154 -11.823 -4.974 8
5.02 -11.415 -4.993 6
4.894 -11.025 -5.01 7
4.772 -10.654 -5.028 9
4.653 -10.291 -5.04 9
4.544 -9.952 -5.059 8
4.434 -9.622 -5.074 23
4.331 -9.305 -5.088 21
14.024 -39.844 -4.026 6
11.849 -33.386 -3.49 20
11.327 -31.635 -3.724 29
11.042 -30.586 -4.061 15
10.464 -28.734 -4.164 6
9.858 -26.836 -4.191 5
9.353 -25.255 -4.242 6
8.908 -23.847 -4.291 7
8.53 -22.649 -4.359 6
8.161 -21.485 -4.398 5
7.839 -20.471 -4.451 7
7.552 -19.553 -4.506 35
7.309 -18.771 -4.584 8
7.048 -17.944 -4.617 8
6.807 -17.191 -4.654 8
6.584 -16.485 -4.687 7
6.376 -15.835 -4.723 47
6.194 -15.248 -4.769 5
6.013 -14.673 -4.802 6
5.845 -14.145 -4.841 9
5.689 -13.646 -4.878 5
5.531 -13.158 -4.906 7
5.386 -12.698 -4.935 7
5.244 -12.258 -4.96 7
5.104 -11.821 -4.973 7
4.972 -11.416 -4.993 7
4.851 -11.034 -5.017 8
4.728 -10.66 -5.033 9
4.61 -10.293 -5.042 9
4.501 -9.954 -5.06 9
4.391 -9.62 -5.072 26
4.293 -9.312 -5.095 21
13.873 -39.804 -4.018 5
11.66 -33.176 -3.449 15
11.219 -31.643 -3.726 30
10.943 -30.612 -4.067 14
10.352 -28.707 -4.157 6
9.76 -26.833 -4.19 6
9.254 -25.236 -4.236 5
8.82 -23.845 -4.29 7
8.443 -22.642 -4.357 5
8.081 -21.484 -4.398 5
7.76 -20.465 -4.449 7
7.476 -19.547 -4.503 36
7.236 -18.767 -4.583 6
6.978 -17.943 -4.616 8
6.74 -17.19 -4.654 8
6.523 -16.493 -4.691 7
6.314 -15.836 -4.724 46
6.132 -15.246 -4.768 7
5.957 -14.679 -4.805 6
5.788 -14.147 -4.842 9
5.635 -13.651 -4.881 4
5.481 -13.166 -4.911 6
5.333 -12.696 -4.933 7
5.192 -12.256 -4.959 7
5.057 -11.827 -4.977 8
4.926 -11.422 -4.998 7
4.803 -11.034 -5.017 16
4.685 -10.665 -5.037 9
4.566 -10.296 -5.044 8
4.459 -9.959 -5.064 9
4.35 -9.625 -5.076 23
4.252 -9.313 -5.096 18
13.723 -39.762 -4.011 6
11.828 -33.991 -3.607 19
11.107 -31.639 -3.725 28
10.844 -30.637 -4.073 14
10.247 -28.701 -4.156 6
9.661 -26.825 -4.188 5
9.161 -25.23 -4.235 6
8.731 -23.838 -4.288 7
8.357 -22.635 -4.354 5
7.998 -21.475 -4.395 5
7.683 -20.463 -4.448 8
7.402 -19.548 -4.504 23
7.167 -18.775 -4.585 9
6.912 -17.949 -4.619 8
6.674 -17.192 -4.654 8
6.458 -16.491 -4.69 7
6.254 -15.839 -4.725 45
6.072 -15.246 -4.768 6
5.898 -14.679 -4.805 7
5.731 -14.146 -4.841 7
5.579 -13.65 -4.881 5
5.426 -13.164 -4.91 7
5.285 -12.707 -4.94 7
5.145 -12.266 -4.965 7
5.008 -11.831 -4.98 7
4.878 -11.422 -4.998 7
4.76 -11.043 -5.023 8
4.64 -10.668 -5.039 10
4.523 -10.301 -5.048 9
4.414 -9.954 -5.061 8
4.309 -9.626 -5.077 21
4.215 -9.323 -5.104 22
13.57 -39.713 -4.002 6
11.591 -33.643 -3.54 17
10.977 -31.583 -3.713 21
10.745 -30.661 -4.079 14
10.139 -28.684 -4.152 6
9.557 -26.802 -4.182 6
9.061 -25.207 -4.228 6
8.64 -23.828 -4.285 7
8.269 -22.62 -4.35 5
7.92 -21.481 -4.396 4
7.604 -20.457 -4.446 7
7.333 -19.558 -4.508 10
7.093 -18.767 -4.582 8
6.841 -17.945 -4.617 8
6.61 -17.198 -4.657 8
6.395 -16.496 -4.692 7
6.189 -15.833 -4.722 44
6.014 -15.253 -4.772 6
5.839 -14.679 -4.805 6
5.676 -14.152 -4.845 9
5.525 -13.652 -4.882 6
5.374 -13.169 -4.913 6
5.233 -12.707 -4.94 7
5.094 -12.266 -4.966 7
4.962 -11.837 -4.984 8
4.831 -11.425 -5.0 7
4.712 -11.04 -5.021 7
4.597 -10.675 -5.045 10
4.478 -10.299 -5.047 8
4.374 -9.961 -5.067 9
4.269 -9.633 -5.083 14
4.178 -9.332 -5.112 18
13.418 -39.664 -3.994 5
11.398 -33.417 -3.496 20
10.848 -31.527 -3.701 30
10.647 -30.69 -4.085 17
10.029 -28.659 -4.145 6
9.459 -26.795 -4.18 6
8.968 -25.201 -4.226 5
8.547 -23.81 -4.279 7
8.185 -22.618 -4.349 5
7.836 -21.469 -4.392 5
7.527 -20.455 -4.445 7
7.261 -19.562 -4.509 9
7.023 -18.77 -4.584 8
6.773 -17.947 -4.618 8
6.544 -17.2 -4.658 8
6.332 -16.497 -4.692 7
6.13 -15.841 -4.726 46
5.956 -15.259 -4.775 6
5.783 -14.685 -4.808 6
5.62 -14.155 -4.846 8
5.469 -13.65 -4.881 6
5.321 -13.171 -4.914 6
5.182 -12.712 -4.943 7
5.044 -12.267 -4.966 6
4.912 -11.838 -4.985 7
4.785 -11.431 -5.004 7
4.667 -11.045 -5.025 8
4.553 -10.678 -5.047 10
4.437 -10.307 -5.053 8
4.331 -9.963 -5.068 8
4.226 -9.631 -5.082 13
4.139 -9.339 -5.118 18
11.422 -34.107 -3.014 2
11.312 -33.503 -3.512 23
10.746 -31.548 -3.706 28
10.544 -30.703 -4.088 15
9.923 -28.644 -4.142 6
9.356 -26.775 -4.174 6
8.876 -25.195 -4.224 6
8.459 -23.807 -4.278 6
8.1 -22.61 -4.347 5
7.76 -21.477 -4.395 5
7.452 -20.459 -4.446 7
7.186 -19.559 -4.508 9
6.951 -18.766 -4.582 8
6.703 -17.942 -4.616 8
6.478 -17.2 -4.658 8
6.268 -16.498 -4.693 7
6.069 -15.845 -4.728 46
5.895 -15.256 -4.773 6
5.723 -14.68 -4.806 6
5.563 -14.153 -4.845 7
5.418 -13.662 -4.888 6
5.268 -13.171 -4.914 6
5.13 -12.713 -4.944 7
4.994 -12.271 -4.969 7
4.864 -11.841 -4.987 7
4.738 -11.434 -5.006 7
4.624 -11.054 -5.031 9
4.509 -10.683 -5.05 9
4.392 -10.306 -5.052 7
4.29 -9.967 -5.071 10
4.187 -9.638 -5.088 12
4.103 -9.351 -5.129 22
11.344 -34.223 -3.034 1
11.2 -33.511 -3.514 25
10.644 -31.569 -3.71 27
10.445 -30.727 -4.094 13
9.813 -28.618 -4.135 6
9.259 -26.77 -4.173 5
8.782 -25.184 -4.221 6
8.374 -23.81 -4.279 6
8.017 -22.609 -4.346 5
7.679 -21.471 -4.393 5
7.375 -20.456 -4.445 9
7.11 -19.551 -4.505 9
6.879 -18.765 -4.582 8
6.634 -17.941 -4.615 8
6.412 -17.199 -4.657 8
6.204 -16.498 -4.693 7
6.007 -15.845 -4.728 45
5.835 -15.255 -4.773 6
5.665 -14.683 -4.807 6
5.509 -14.158 -4.848 7
5.361 -13.657 -4.885 6
5.214 -13.173 -4.915 7
5.08 -12.716 -4.946 7
4.946 -12.277 -4.973 7
4.813 -11.838 -4.985 7
4.691 -11.436 -5.008 7
4.578 -11.056 -5.032 8
4.464 -10.685 -5.052 8
4.352 -10.316 -5.06 8
4.248 -9.971 -5.075 9
4.146 -9.642 -5.09 11
4.054 -9.332 -5.112 16
12.965 -39.516 -3.968 6
11.095 -33.54 -3.52 20
10.54 -31.585 -3.714 27
10.343 -30.743 -4.098 14
9.706 -28.599 -4.131 6
9.157 -26.75 -4.168 6
8.693 -25.188 -4.223 6
8.279 -23.783 -4.271 7
7.932 -22.604 -4.344 5
7.599 -21.469 -4.392 5
7.298 -20.453 -4.444 9
7.038 -19.554 -4.506 10
6.808 -18.764 -4.581 8
6.567 -17.942 -4.616 8
6.346 -17.2 -4.658 8
6.139 -16.495 -4.692 7
5.947 -15.848 -4.729 46
5.777 -15.261 -4.776 6
5.607 -14.682 -4.807 6
5.454 -14.164 -4.851 8
5.308 -13.661 -4.887 6
5.163 -13.177 -4.918 7
5.028 -12.717 -4.946 7
4.894 -12.274 -4.971 7
4.769 -11.85 -4.993 8
4.644 -11.438 -5.009 7
4.535 -11.064 -5.039 8
4.419 -10.686 -5.053 8
4.307 -10.315 -5.059 8
4.208 -9.979 -5.081 9
4.105 -9.643 -5.091 11
4.011 -9.329 -5.11 16
12.807 -39.442 -3.955 7
10.97 -33.509 -3.514 21
10.424 -31.565 -3.709 29
10.232 -30.729 -4.094 13
9.602 -28.588 -4.128 6
9.058 -26.737 -4.164 6
8.597 -25.171 -4.218 6
8.194 -23.786 -4.272 6
7.849 -22.602 -4.344 5
7.52 -21.466 -4.391 5
7.224 -20.456 -4.445 9
6.966 -19.557 -4.507 9
6.738 -18.766 -4.582 8
6.499 -17.944 -4.617 8
6.279 -17.197 -4.656 7
6.077 -16.498 -4.693 7
5.886 -15.851 -4.731 47
5.717 -15.26 -4.775 6
5.551 -14.687 -4.809 5
5.394 -14.156 -4.847 9
5.255 -13.666 -4.89 5
5.112 -13.184 -4.922 6
4.977 -12.721 -4.949 7
4.845 -12.277 -4.973 7
4.718 -11.846 -4.99 7
4.595 -11.435 -5.007 7
4.489 -11.066 -5.04 9
4.377 -10.695 -5.059 8
4.268 -10.328 -5.069 8
4.163 -9.974 -5.077 9
4.065 -9.649 -5.096 11
3.974 -9.339 -5.118 15
12.657 -39.389 -3.945 8
10.851 -33.493 -3.51 25
10.313 -31.555 -3.707 31
10.121 -30.719 -4.092 18
9.497 -28.576 -4.125 6
8.959 -26.723 -4.16 6
8.506 -25.166 -4.216 5
8.108 -23.785 -4.272 6
7.764 -22.592 -4.341 5
7.439 -21.459 -4.389 5
7.147 -20.452 -4.444 9
6.893 -19.556 -4.507 10
6.666 -18.76 -4.58 8
6.432 -17.944 -4.617 8
6.216 -17.204 -4.66 8
6.016 -16.506 -4.697 7
5.824 -15.85 -4.731 42
5.658 -15.263 -4.777 6
5.496 -14.696 -4.814 4
5.342 -14.167 -4.853 7
5.2 -13.667 -4.891 6
5.058 -13.181 -4.92 7
4.924 -12.717 -4.947 7
4.796 -12.28 -4.975 7
4.672 -11.852 -4.994 7
4.55 -11.443 -5.013 7
4.443 -11.068 -5.042 8
4.334 -10.699 -5.062 9
4.225 -10.33 -5.07 10
4.124 -9.984 -5.085 10
4.022 -9.647 -5.095 9
3.932 -9.336 -5.115 18
12.505 -39.329 -3.935 9
10.716 -33.428 -3.498 24
10.196 -31.53 -3.702 33
10.01 -30.704 -4.089 16
9.39 -28.552 -4.119 6
8.86 -26.709 -4.157 6
8.413 -25.159 -4.214 6
8.019 -23.772 -4.268 7
7.677 -22.576 -4.335 5
7.359 -21.456 -4.388 5
7.069 -20.444 -4.441 7
6.817 -19.548 -4.504 10
6.596 -18.762 -4.58 8
6.365 -17.949 -4.619 8
6.148 -17.198 -4.657 8
5.951 -16.502 -4.695 7
5.763 -15.849 -4.73 39
5.599 -15.265 -4.778 6
5.438 -14.694 -4.813 6
5.287 -14.168 -4.853 7
5.146 -13.668 -4.891 6
5.007 -13.188 -4.924 6
4.876 -12.727 -4.953 7
4.746 -12.28 -4.975 6
4.621 -11.848 -4.992 7
4.502 -11.442 -5.012 7
4.397 -11.069 -5.042 8
4.289 -10.7 -5.063 11
4.182 -10.333 -5.073 10
4.083 -9.99 -5.09 10
3.983 -9.653 -5.1 10
3.897 -9.35 -5.128 17
12.358 -39.283 -3.927 12
10.592 -33.396 -3.492 31
10.08 -31.504 -3.696 29
9.896 -30.679 -4.083 15
9.283 -28.532 -4.114 5
8.765 -26.705 -4.156 6
8.32 -25.147 -4.211 6
7.932 -23.767 -4.266 7
7.596 -22.58 -4.337 5
7.281 -21.456 -4.388 5
6.994 -20.447 -4.442 7
6.747 -19.553 -4.506 10
6.524 -18.757 -4.578 8
6.297 -17.946 -4.618 8
6.086 -17.205 -4.66 7
5.889 -16.505 -4.696 7
5.702 -15.852 -4.732 44
5.542 -15.271 -4.781 7
5.381 -14.696 -4.814 6
5.231 -14.169 -4.854 7
5.095 -13.678 -4.897 4
4.954 -13.188 -4.924 6
4.825 -12.727 -4.953 7
4.698 -12.286 -4.979 6
4.576 -11.857 -4.998 7
4.458 -11.45 -5.018 7
4.352 -11.075 -5.046 8
4.244 -10.701 -5.064 9
4.137 -10.332 -5.072 9
4.041 -9.991 -5.091 8
3.944 -9.66 -5.105 11
3.858 -9.354 -5.131 16
12.216 -39.253 -3.921 13
10.49 -33.431 -3.498 30
9.98 -31.53 -3.702 29
9.779 -30.645 -4.075 13
9.176 -28.507 -4.108 5
8.663 -26.68 -4.149 6
8.228 -25.139 -4.208 6
7.846 -23.765 -4.266 6
7.51 -22.566 -4.332 5
7.201 -21.453 -4.387 5
6.919 -20.446 -4.442 9
6.674 -19.551 -4.505 10
6.456 -18.762 -4.58 8
6.229 -17.947 -4.618 8
6.02 -17.205 -4.66 8
5.826 -16.505 -4.696 7
5.642 -15.855 -4.733 41
5.483 -15.272 -4.782 6
5.323 -14.697 -4.814 6
5.175 -14.17 -4.855 7
5.04 -13.676 -4.896 6
4.904 -13.195 -4.928 6
4.774 -12.73 -4.955 7
4.647 -12.286 -4.978 6
4.527 -11.856 -4.997 7
4.41 -11.449 -5.017 6
4.307 -11.076 -5.047 16
4.202 -10.709 -5.07 9
4.096 -10.338 -5.077 9
3.997 -9.989 -5.089 10
3.903 -9.663 -5.108 13
3.817 -9.354 -5.131 19
12.074 -39.221 -3.916 13
10.392 -33.481 -3.508 31
9.878 -31.548 -3.706 29
9.662 -30.61 -4.067 12
9.072 -28.49 -4.103 5
8.568 -26.676 -4.148 7
8.138 -25.134 -4.207 6
7.757 -23.752 -4.262 7
7.429 -22.567 -4.332 5
7.125 -21.455 -4.388 6
6.845 -20.449 -4.443 9
6.598 -19.543 -4.502 10
6.382 -18.748 -4.575 8
6.161 -17.944 -4.617 8
5.954 -17.201 -4.659 8
5.764 -16.507 -4.698 7
5.581 -15.853 -4.732 42
5.423 -15.27 -4.781 6
5.268 -14.702 -4.817 6
5.121 -14.174 -4.857 8
4.987 -13.679 -4.898 5
4.85 -13.192 -4.926 6
4.723 -12.73 -4.955 7
4.597 -12.285 -4.978 6
4.479 -11.858 -4.998 7
4.364 -11.454 -5.02 7
4.262 -11.081 -5.05 44
4.157 -10.71 -5.071 10
4.052 -10.339 -5.078 9
3.955 -9.992 -5.092 8
3.863 -9.666 -5.111 15
3.775 -9.35 -5.128 18
11.931 -39.181 -3.909 15
10.277 -33.475 -3.507 21
9.778 -31.574 -3.711 30
9.548 -30.584 -4.061 13
8.968 -28.476 -4.1 6
8.471 -26.665 -4.145 6
8.044 -25.118 -4.203 6
7.671 -23.749 -4.261 6
7.346 -22.56 -4.33 5
7.044 -21.447 -4.385 5
6.769 -20.444 -4.441 9
6.527 -19.544 -4.502 9
6.313 -18.753 -4.577 8
6.095 -17.948 -4.618 8
5.89 -17.204 -4.66 8
5.701 -16.507 -4.697 7
5.52 -15.855 -4.733 44
5.366 -15.275 -4.783 6
5.212 -14.706 -4.82 6
5.068 -14.181 -4.861 8
4.932 -13.68 -4.898 6
4.796 -13.188 -4.924 6
4.673 -12.736 -4.958 7
4.55 -12.294 -4.984 6
4.431 -11.86 -4.999 7
4.319 -11.459 -5.024 7
4.216 -11.082 -5.051 41
4.114 -10.714 -5.073 8
4.011 -10.346 -5.083 9
3.915 -9.998 -5.096 9
3.822 -9.669 -5.113 21
3.732 -9.345 -5.124 17
11.791 -39.152 -3.904 13
10.148 -33.422 -3.497 25
9.669 -31.569 -3.71 30
9.436 -30.559 -4.055 15
8.864 -28.458 -4.095 6
8.373 -26.649 -4.141 6
7.953 -25.113 -4.201 5
7.582 -23.735 -4.256 7
7.261 -22.549 -4.327 5
6.966 -21.446 -4.385 5
6.695 -20.445 -4.442 9
6.455 -19.545 -4.503 10
6.244 -18.754 -4.577 8
6.027 -17.944 -4.617 8
5.824 -17.2 -4.658 7
5.641 -16.516 -4.701 7
5.46 -15.856 -4.734 43
5.307 -15.277 -4.784 6
5.154 -14.704 -4.818 7
5.011 -14.179 -4.859 8
4.879 -13.683 -4.9 6
4.744 -13.191 -4.926 6
4.622 -12.735 -4.958 7
4.501 -12.295 -4.984 7
4.383 -11.862 -5.001 7
4.272 -11.46 -5.025 7
4.172 -11.086 -5.055 42
4.069 -10.715 -5.074 9
3.968 -10.346 -5.083 8
3.874 -10.001 -5.099 9
3.782 -9.672 -5.116 24
3.696 -9.356 -5.133 15
11.645 -39.1 -3.894 9
10.019 -33.369 -3.486 23
9.562 -31.569 -3.71 29
9.327 -30.546 -4.052 23
8.761 -28.444 -4.092 6
8.274 -26.629 -4.135 6
7.862 -25.102 -4.198 6
7.499 -23.739 -4.258 7
7.179 -22.545 -4.325 6
6.887 -21.441 -4.383 5
6.617 -20.436 -4.438 10
6.384 -19.546 -4.503 10
6.175 -18.754 -4.577 8
5.958 -17.941 -4.615 8
5.759 -17.199 -4.658 8
5.578 -16.514 -4.701 7
5.401 -15.862 -4.736 47
5.247 -15.274 -4.783 7
5.098 -14.707 -4.82 6
4.956 -14.179 -4.859 8
4.825 -13.683 -4.9 6
4.696 -13.204 -4.934 7
4.573 -12.741 -4.961 7
4.451 -12.294 -4.984 7
4.336 -11.866 -5.004 7
4.226 -11.465 -5.028 7
4.126 -11.087 -5.055 41
4.027 -10.722 -5.079 7
3.924 -10.347 -5.084 8
3.831 -10.002 -5.099 8
3.74 -9.672 -5.116 28
3.656 -9.358 -5.135 16
11.504 -39.063 -3.888 9
9.882 -33.286 -3.47 22
9.453 -31.563 -3.709 31
9.212 -30.511 -4.044 14
8.658 -28.43 -4.088 6
8.179 -26.625 -4.134 6
7.771 -25.093 -4.195 5
7.415 -23.74 -4.258 7
7.097 -22.541 -4.324 6
6.808 -21.436 -4.381 6
6.541 -20.43 -4.436 11
6.311 -19.543 -4.502 10
6.105 -18.753 -4.577 8
5.892 -17.943 -4.617 8
5.696 -17.205 -4.66 8
5.516 -16.517 -4.702 7
5.341 -15.864 -4.737 44
5.194 -15.289 -4.79 6
5.042 -14.712 -4.822 6
4.9 -14.179 -4.86 8
4.774 -13.689 -4.903 6
4.644 -13.206 -4.935 7
4.521 -12.74 -4.961 7
4.403 -12.3 -4.987 7
4.286 -11.862 -5.001 7
4.181 -11.469 -5.031 7
4.082 -11.091 -5.058 37
3.982 -10.722 -5.08 7
3.882 -10.35 -5.086 9
3.791 -10.008 -5.104 8
3.702 -9.681 -5.123 32
3.618 -9.364 -5.14 15
11.355 -38.999 -3.877 7
9.763 -33.259 -3.465 23
9.34 -31.542 -3.704 30
9.106 -30.504 -4.042 14
8.559 -28.425 -4.087 6
8.086 -26.623 -4.134 6
7.682 -25.09 -4.194 6
7.327 -23.725 -4.253 7
7.016 -22.535 -4.322 6
6.732 -21.439 -4.382 5
6.463 -20.417 -4.431 13
6.238 -19.537 -4.499 10
6.036 -18.753 -4.577 8
5.827 -17.946 -4.618 8
5.631 -17.204 -4.66 8
5.456 -16.525 -4.706 7
5.279 -15.857 -4.734 40
5.132 -15.279 -4.785 6
4.985 -14.712 -4.822 6
4.847 -14.186 -4.863 8
4.721 -13.692 -4.905 6
4.59 -13.203 -4.933 6
4.472 -12.745 -4.964 7
4.353 -12.298 -4.986 7
4.239 -11.867 -5.004 7
4.135 -11.473 -5.034 7
4.035 -11.089 -5.057 33
3.939 -10.726 -5.082 9
3.84 -10.356 -5.091 10
3.748 -10.008 -5.104 9
3.661 -9.683 -5.125 32
3.578 -9.366 -5.142 12
11.212 -38.952 -3.868 7
9.644 -33.236 -3.46 22
9.237 -31.555 -3.707 31
8.997 -30.49 -4.039 14
8.455 -28.406 -4.082 6
7.989 -26.606 -4.129 6
7.591 -25.08 -4.192 5
7.241 -23.717 -4.251 6
6.935 -22.534 -4.322 6
6.655 -21.441 -4.383 5
6.389 -20.418 -4.431 16
6.168 -19.54 -4.501 10
5.967 -18.753 -4.577 8
5.76 -17.945 -4.617 7
5.567 -17.206 -4.661 8
5.394 -16.527 -4.706 7
5.221 -15.865 -4.738 44
5.076 -15.287 -4.789 6
4.927 -14.709 -4.821 6
4.793 -14.189 -4.865 8
4.667 -13.691 -4.905 6
4.541 -13.211 -4.938 6
4.422 -12.747 -4.965 7
4.304 -12.299 -4.987 7
4.192 -11.867 -5.005 7
4.09 -11.477 -5.037 7
3.992 -11.095 -5.061 29
3.894 -10.726 -5.083 8
3.797 -10.356 -5.091 9
3.707 -10.01 -5.106 8
3.621 -9.686 -5.127 31
3.541 -9.374 -5.149 14
11.072 -38.914 -3.862 7
9.537 -33.249 -3.463 29
9.132 -31.559 -3.708 27
8.891 -30.48 -4.037 12
8.354 -28.394 -4.079 6
7.894 -26.597 -4.127 6
7.499 -25.065 -4.187 5
7.157 -23.716 -4.251 7
6.855 -22.537 -4.323 6
6.577 -21.435 -4.381 5
6.314 -20.415 -4.43 20
6.096 -19.54 -4.501 10
5.898 -18.753 -4.577 8
5.692 -17.941 -4.615 8
5.503 -17.204 -4.66 8
5.33 -16.521 -4.704 7
5.161 -15.866 -4.739 40
5.016 -15.284 -4.787 6
4.874 -14.719 -4.826 6
4.737 -14.189 -4.865 9
4.616 -13.701 -4.91 6
4.49 -13.214 -4.94 6
4.373 -12.752 -4.968 7
4.255 -12.301 -4.989 7
4.145 -11.872 -5.008 7
4.043 -11.478 -5.037 7
3.945 -11.093 -5.06 24
3.851 -10.73 -5.085 8
3.756 -10.362 -5.096 9
3.667 -10.016 -5.111 9
3.579 -9.685 -5.127 10
3.502 -9.379 -5.153 16
10.927 -38.855 -3.851 6
9.42 -33.228 -3.459 30
9.025 -31.557 -3.708 27
8.782 -30.46 -4.032 12
8.252 -28.378 -4.075 6
7.797 -26.579 -4.122 6
7.41 -25.061 -4.186 5
7.072 -23.712 -4.249 7
6.772 -22.524 -4.318 6
6.499 -21.432 -4.379 5
6.241 -20.415 -4.431 16
6.025 -19.54 -4.501 9
5.829 -18.752 -4.576 8
5.627 -17.946 -4.618 8
5.438 -17.202 -4.659 7
5.269 -16.522 -4.704 6
5.101 -15.867 -4.739 39
4.959 -15.287 -4.789 7
4.818 -14.722 -4.828 7
4.682 -14.188 -4.864 9
4.563 -13.703 -4.912 6
4.437 -13.213 -4.939 5
4.322 -12.751 -4.968 7
4.206 -12.302 -4.989 8
4.098 -11.876 -5.01 7
3.995 -11.476 -5.035 6
3.901 -11.097 -5.062 21
3.806 -10.73 -5.086 7
3.711 -10.359 -5.094 9
3.625 -10.019 -5.113 9
3.541 -9.693 -5.134 10
3.461 -9.376 -5.151 17
10.79 -38.827 -3.846 6
9.293 -33.169 -3.447 22
8.919 -31.557 -3.708 29
8.674 -30.445 -4.029 11
8.151 -28.365 -4.072 6
7.702 -26.569 -4.119 6
7.323 -25.061 -4.186 5
6.986 -23.703 -4.247 7
6.691 -22.522 -4.318 6
6.422 -21.429 -4.379 5
6.172 -20.43 -4.436 11
5.953 -19.536 -4.499 10
5.761 -18.755 -4.578 8
5.561 -17.945 -4.617 8
5.375 -17.208 -4.661 8
5.205 -16.516 -4.701 7
5.043 -15.871 -4.741 42
4.902 -15.291 -4.791 7
4.761 -14.722 -4.828 6
4.629 -14.194 -4.868 35
4.51 -13.706 -4.913 6
4.388 -13.221 -4.944 6
4.271 -12.752 -4.968 7
4.158 -12.307 -4.992 7
4.051 -11.877 -5.011 7
3.949 -11.476 -5.036 7
3.856 -11.1 -5.064 19
3.763 -10.733 -5.088 7
3.67 -10.365 -5.098 10
3.585 -10.025 -5.118 10
3.501 -9.696 -5.136 10
3.421 -9.378 -5.152 13
10.648 -38.776 -3.837 6
9.178 -33.155 -3.445 30
8.814 -31.56 -3.708 28
8.566 -30.43 -4.025 11
8.051 -28.351 -4.069 6
7.61 -26.569 -4.119 6
7.235 -25.057 -4.185 5
6.903 -23.702 -4.246 6
6.609 -22.512 -4.315 6
6.346 -21.429 -4.379 5
6.098 -20.43 -4.436 12
5.883 -19.539 -4.5 10
5.691 -18.75 -4.576 9
5.494 -17.943 -4.616 8
5.313 -17.212 -4.663 8
5.144 -16.52 -4.703 6
4.983 -15.872 -4.741 44
4.844 -15.294 -4.793 6
4.703 -14.715 -4.824 6
4.573 -14.19 -4.865 35
4.459 -13.711 -4.916 6
4.335 -13.219 -4.943 6
4.222 -12.757 -4.972 7
4.11 -12.311 -4.995 6
4.003 -11.878 -5.012 7
3.904 -11.483 -5.041 6
3.813 -11.106 -5.069 16
3.719 -10.736 -5.09 7
3.628 -10.368 -5.1 8
3.543 -10.024 -5.117 8
3.46 -9.698 -5.137 13
3.382 -9.379 -5.153 12
10.507 -38.727 -3.829 6
9.056 -33.11 -3.436 29
8.709 -31.564 -3.709 28
8.459 -30.414 -4.022 9
7.949 -28.334 -4.065 6
7.514 -26.551 -4.114 6
7.144 -25.045 -4.181 5
6.817 -23.693 -4.244 6
6.527 -22.503 -4.312 6
6.267 -21.422 -4.376 6
6.021 -20.415 -4.43 26
5.812 -19.538 -4.5 10
5.624 -18.756 -4.578 8
5.428 -17.945 -4.617 7
5.248 -17.209 -4.662 8
5.081 -16.514 -4.701 7
4.922 -15.868 -4.739 44
4.787 -15.298 -4.795 7
4.649 -14.724 -4.829 6
4.52 -14.196 -4.869 38
4.404 -13.707 -4.913 6
4.284 -13.221 -4.944 6
4.171 -12.755 -4.97 7
4.062 -12.316 -4.998 7
3.956 -11.882 -5.014 7
3.857 -11.481 -5.039 6
3.766 -11.103 -5.067 14
3.676 -10.739 -5.093 9
3.584 -10.367 -5.1 7
3.503 -10.032 -5.124 9
3.421 -9.703 -5.142 15
3.343 -9.384 -5.158 13
10.368 -38.682 -3.821 7
8.933 -33.061 -3.426 24
8.605 -31.571 -3.711 27
8.353 -30.402 -4.019 9
7.851 -28.327 -4.063 6
7.42 -26.544 -4.112 6
7.057 -25.044 -4.181 5
6.734 -23.691 -4.243 6
6.445 -22.496 -4.309 6
6.194 -21.431 -4.379 5
5.947 -20.415 -4.43 26
5.739 -19.529 -4.497 9
5.555 -18.75 -4.576 8
5.363 -17.946 -4.618 7
5.185 -17.21 -4.663 8
5.02 -16.517 -4.702 7
4.865 -15.878 -4.744 45
4.73 -15.301 -4.796 6
4.593 -14.724 -4.829 6
4.466 -14.197 -4.87 36
4.351 -13.708 -4.914 6
4.233 -13.223 -4.945 5
4.12 -12.753 -4.969 7
4.015 -12.32 -5.001 7
3.909 -11.882 -5.015 7
3.811 -11.484 -5.041 6
3.724 -11.113 -5.074 13
3.634 -10.745 -5.097 9
3.542 -10.37 -5.102 7
3.462 -10.034 -5.126 10
3.38 -9.705 -5.144 13
3.305 -9.389 -5.162 14
10.233 -38.656 -3.816 6
8.814 -33.027 -3.42 31
8.501 -31.578 -3.712 26
8.246 -30.385 -4.015 9
7.753 -28.32 -4.061 6
7.327 -26.535 -4.11 6
6.971 -25.046 -4.182 5
6.651 -23.688 -4.242 7
6.365 -22.493 -4.308 6
6.113 -21.415 -4.374 5
5.875 -20.417 -4.431 30
5.667 -19.525 -4.495 10
5.486 -18.748 -4.575 8
5.297 -17.947 -4.618 8
5.121 -17.211 -4.663 7
4.96 -16.521 -4.704 7
4.805 -15.874 -4.742 43
4.673 -15.303 -4.797 6
4.538 -14.729 -4.832 6
4.412 -14.2 -4.871 37
4.298 -13.71 -4.915 6
4.18 -13.221 -4.944 6
4.07 -12.754 -4.97 6
3.967 -12.323 -5.003 7
3.862 -11.885 -5.017 6
3.765 -11.484 -5.041 6
3.679 -11.112 -5.074 12
3.59 -10.747 -5.099 7
3.502 -10.379 -5.109 10
3.422 -10.039 -5.13 11
3.34 -9.707 -5.145 13
3.264 -9.388 -5.161 13
10.093 -38.602 -3.807 7
8.705 -33.026 -3.42 29
8.396 -31.581 -3.713 26
8.139 -30.368 -4.011 8
7.651 -28.299 -4.056 6
7.235 -26.531 -4.109 6
6.881 -25.033 -4.178 5
6.566 -23.682 -4.24 7
6.286 -22.489 -4.307 6
6.041 -21.426 -4.378 5
5.803 -20.42 -4.432 32
5.598 -19.526 -4.495 10
5.416 -18.743 -4.573 8
5.232 -17.948 -4.618 8
5.058 -17.212 -4.663 8
4.897 -16.518 -4.703 7
4.746 -15.878 -4.744 42
4.614 -15.3 -4.796 7
4.482 -14.728 -4.831 6
4.358 -14.202 -4.872 35
4.247 -13.715 -4.918 6
4.131 -13.228 -4.948 6
4.021 -12.758 -4.972 7
3.918 -12.324 -5.003 6
3.816 -11.889 -5.019 6
3.72 -11.487 -5.043 6
3.632 -11.109 -5.072 15
3.547 -10.75 -5.101 8
3.459 -10.381 -5.11 9
3.379 -10.039 -5.129 12
3.302 -9.714 -5.151 12
3.225 -9.389 -5.162 13
9.955 -38.559 -3.799 6
8.589 -33.002 -3.415 22
8.295 -31.594 -3.716 18
8.03 -30.343 -4.005 8
7.555 -28.299 -4.056 6
7.14 -26.515 -4.105 6
6.793 -25.028 -4.177 5
6.484 -23.684 -4.241 6
6.206 -22.486 -4.306 6
5.965 -21.425 -4.377 5
5.73 -20.419 -4.432 34
5.529 -19.532 -4.498 10
5.349 -18.745 -4.573 8
5.166 -17.946 -4.618 8
4.997 -17.219 -4.667 7
4.836 -16.517 -4.702 6
4.687 -15.881 -4.746 42
4.558 -15.305 -4.798 6
4.426 -14.73 -4.832 6
4.304 -14.203 -4.873 38
4.193 -13.713 -4.917 5
4.079 -13.226 -4.947 6
3.972 -12.762 -4.975 6
3.868 -12.321 -5.001 6
3.768 -11.889 -5.019 7
3.674 -11.49 -5.045 6
3.589 -11.115 -5.075 22
3.505 -10.756 -5.105 9
3.416 -10.38 -5.11 9
3.337 -10.037 -5.128 12
3.26 -9.713 -5.15 13
3.187 -9.396 -5.168 14
9.819 -38.52 -3.792 7
8.489 -33.036 -3.422 24
8.192 -31.604 -3.718 17
7.925 -30.329 -4.002 7
7.456 -28.288 -4.053 6
7.05 -26.517 -4.105 6
6.705 -25.018 -4.174 5
6.399 -23.672 -4.237 6
6.128 -22.49 -4.307 6
5.889 -21.425 -4.377 5
5.657 -20.417 -4.431 24
5.458 -19.53 -4.497 10
5.279 -18.738 -4.571 8
5.1 -17.946 -4.618 8
4.932 -17.212 -4.663 8
4.775 -16.521 -4.704 8
4.628 -15.88 -4.745 46
4.499 -15.301 -4.796 7
4.373 -14.739 -4.837 6
4.25 -14.205 -4.874 37
4.139 -13.71 -4.916 5
4.027 -13.227 -4.948 6
3.921 -12.76 -4.973 6
3.821 -12.325 -5.004 6
3.723 -11.896 -5.024 7
3.628 -11.49 -5.045 7
3.545 -11.118 -5.078 8
3.459 -10.752 -5.102 9
3.376 -10.388 -5.116 12
3.298 -10.046 -5.135 11
3.221 -9.718 -5.154 10
3.148 -9.397 -5.169 13
9.686 -38.492 -3.787 6
8.393 -33.087 -3.431 28
8.089 -31.613 -3.719 17
7.817 -30.304 -3.996 7
7.36 -28.287 -4.053 6
6.958 -26.509 -4.103 6
6.619 -25.019 -4.174 5
6.314 -23.661 -4.234 6
6.048 -22.486 -4.306 6
5.811 -21.416 -4.374 5
5.585 -20.42 -4.432 29
5.388 -19.528 -4.496 23
5.213 -18.743 -4.573 8
5.034 -17.943 -4.616 8
4.869 -17.216 -4.665 8
4.716 -16.527 -4.707 7
4.57 -15.886 -4.748 43
4.441 -15.3 -4.796 6
4.317 -14.74 -4.838 6
4.194 -14.2 -4.871 37
4.089 -13.718 -4.92 4
3.977 -13.231 -4.95 6
3.872 -12.763 -4.975 6
3.772 -12.325 -5.004 6
3.676 -11.899 -5.026 6
3.584 -11.499 -5.051 6
3.501 -11.123 -5.082 8
3.415 -10.751 -5.101 11
3.334 -10.39 -5.117 12
3.255 -10.044 -5.134 12
3.179 -9.716 -5.153 13
3.108 -9.399 -5.171 14
9.554 -38.464 -3.782 5
8.281 -33.074 -3.429 31
7.99 -31.634 -3.724 15
7.713 -30.297 -3.995 7
7.26 -28.267 -4.048 6
6.866 -26.503 -4.101 6
6.53 -25.009 -4.171 5
6.235 -23.673 -4.237 7
5.969 -22.482 -4.305 6
5.735 -21.415 -4.374 6
5.512 -20.418 -4.431 29
5.314 -19.515 -4.491 39
5.145 -18.743 -4.573 8
4.969 -17.943 -4.616 5
4.806 -17.216 -4.665 8
4.654 -16.523 -4.705 8
4.51 -15.882 -4.746 43
4.384 -15.301 -4.796 7
4.262 -14.742 -4.838 6
4.142 -14.207 -4.875 35
4.034 -13.713 -4.917 6
3.927 -13.235 -4.952 6
3.822 -12.763 -4.975 7
3.724 -12.328 -5.006 6
3.63 -11.902 -5.028 6
3.538 -11.498 -5.051 6
3.455 -11.12 -5.079 11
3.372 -10.753 -5.103 10
3.292 -10.395 -5.121 11
3.215 -10.049 -5.137 12
3.14 -9.721 -5.157 13
3.07 -9.403 -5.174 14
9.421 -38.434 -3.777 6
8.168 -33.056 -3.426 31
7.889 -31.649 -3.727 15
7.606 -30.271 -3.989 7
7.163 -28.263 -4.047 6
6.775 -26.501 -4.101 6
6.447 -25.017 -4.174 5
6.15 -23.658 -4.233 7
5.888 -22.473 -4.302 6
5.662 -21.421 -4.376 5
5.44 -20.419 -4.432 24
5.245 -19.516 -4.491 38
5.078 -18.744 -4.573 8
4.904 -17.943 -4.616 8
4.741 -17.208 -4.661 8
4.595 -16.529 -4.708 7
4.451 -15.883 -4.747 46
4.327 -15.303 -4.797 6
4.204 -14.733 -4.834 6
4.087 -14.206 -4.874 36
3.983 -13.717 -4.92 6
3.876 -13.235 -4.953 6
3.775 -12.77 -4.98 7
3.675 -12.325 -5.004 5
3.583 -11.905 -5.03 7
3.494 -11.504 -5.055 7
3.412 -11.125 -5.083 10
3.33 -10.758 -5.107 10
3.248 -10.391 -5.118 12
3.175 -10.053 -5.141 11
3.101 -9.725 -5.16 12
3.031 -9.407 -5.178 14
7.952 -32.875 -2.797 10
8.066 -33.081 -3.43 31
7.783 -31.646 -3.727 16
7.503 -30.263 -3.987 6
7.064 -28.247 -4.043 6
6.685 -26.499 -4.1 6
6.359 -25.007 -4.171 5
6.063 -23.639 -4.227 35
5.81 -22.471 -4.301 5
5.585 -21.416 -4.374 6
5.368 -20.42 -4.432 22
5.175 -19.513 -4.49 33
5.011 -18.744 -4.573 8
4.84 -17.947 -4.618 8
4.68 -17.214 -4.664 8
4.535 -16.536 -4.711 8
4.392 -15.882 -4.746 47
4.27 -15.305 -4.798 6
4.15 -14.738 -4.837 6
4.033 -14.206 -4.875 34
3.93 -13.718 -4.92 6
3.825 -13.236 -4.953 6
3.724 -12.767 -4.977 7
3.629 -12.334 -5.01 6
3.537 -11.907 -5.031 6
3.449 -11.509 -5.059 8
3.366 -11.124 -5.082 10
3.286 -10.76 -5.108 11
3.207 -10.395 -5.121 12
3.133 -10.052 -5.14 12
3.06 -9.726 -5.161 13
2.991 -9.405 -5.176 14
7.923 -33.201 -2.854 20
7.957 -33.078 -3.43 28
7.684 -31.666 -3.731 15
7.402 -30.262 -3.986 6
6.968 -28.241 -4.041 6
6.591 -26.485 -4.097 6
6.273 -25.006 -4.17 5
5.982 -23.639 -4.227 38
5.73 -22.463 -4.299 5
5.512 -21.421 -4.376 6
5.297 -20.425 -4.434 21
5.104 -19.51 -4.489 14
4.943 -18.744 -4.573 8
4.776 -17.949 -4.619 8
4.616 -17.21 -4.663 8
4.473 -16.53 -4.708 8
4.334 -15.887 -4.749 46
4.214 -15.307 -4.799 6
4.094 -14.739 -4.837 6
3.98 -14.207 -4.875 38
3.879 -13.721 -4.922 6
3.775 -13.24 -4.955 6
3.675 -12.77 -4.98 7
3.579 -12.331 -5.008 7
3.49 -11.907 -5.031 7
3.403 -11.509 -5.059 10
3.324 -11.132 -5.088 11
3.243 -10.762 -5.11 11
3.164 -10.394 -5.12 12
3.092 -10.056 -5.143 13
3.018 -9.721 -5.157 13
2.952 -9.409 -5.179 13
7.807 -33.168 -2.848 44
7.845 -33.064 -3.427 22
7.578 -31.661 -3.73 17
7.298 -30.25 -3.984 7
6.871 -28.231 -4.039 6
6.504 -26.493 -4.099 6
6.186 -24.999 -4.168 5
5.899 -23.633 -4.225 38
5.652 -22.465 -4.299 6
5.435 -21.415 -4.374 5
5.225 -20.422 -4.433 16
5.039 -19.525 -4.495 9
4.876 -18.744 -4.573 8
4.71 -17.946 -4.618 8
4.556 -17.219 -4.667 8
4.413 -16.533 -4.709 8
4.274 -15.882 -4.746 46
4.157 -15.308 -4.8 6
4.037 -14.733 -4.834 6
3.926 -14.207 -4.875 37
3.826 -13.722 -4.922 5
3.724 -13.239 -4.955 6
3.625 -12.77 -4.979 7
3.533 -12.336 -5.011 7
3.445 -11.916 -5.037 10
3.357 -11.508 -5.058 9
3.279 -11.131 -5.087 11
3.2 -10.763 -5.111 10
3.123 -10.401 -5.126 11
3.052 -10.06 -5.147 11
2.981 -9.731 -5.165 14
2.913 -9.41 -5.18 15
7.692 -33.136 -2.843 24
7.737 -33.064 -3.427 19
7.474 -31.661 -3.73 20
7.194 -30.234 -3.98 7
6.773 -28.218 -4.035 6
6.415 -26.493 -4.099 6
6.099 -24.991 -4.166 5
5.818 -23.633 -4.225 36
5.573 -22.459 -4.297 6
5.36 -21.412 -4.373 6
5.153 -20.423 -4.433 15
4.969 -19.521 -4.493 10
4.807 -18.737 -4.57 8
4.647 -17.952 -4.62 7
4.492 -17.215 -4.665 8
4.353 -16.535 -4.71 7
4.218 -15.891 -4.75 40
4.101 -15.312 -4.802 7
3.982 -14.734 -4.834 6
3.872 -14.208 -4.876 37
3.773 -13.718 -4.92 5
3.673 -13.243 -4.957 6
3.576 -12.773 -4.981 7
3.484 -12.336 -5.011 6
3.399 -11.918 -5.039 9
3.312 -11.513 -5.061 9
3.236 -11.139 -5.093 11
3.157 -10.765 -5.112 12
3.079 -10.397 -5.123 12
3.011 -10.062 -5.148 11
2.94 -9.732 -5.166 13
2.875 -9.416 -5.185 14
7.59 -33.156 -2.846 8
7.63 -33.068 -3.428 28
7.37 -31.664 -3.73 16
7.092 -30.229 -3.979 7
6.676 -28.208 -4.033 6
6.322 -26.479 -4.095 6
6.014 -24.99 -4.166 5
5.738 -23.639 -4.227 35
5.495 -22.458 -4.297 6
5.285 -21.414 -4.373 6
5.081 -20.423 -4.434 12
4.898 -19.517 -4.492 10
4.74 -18.736 -4.57 8
4.582 -17.95 -4.619 7
4.43 -17.217 -4.665 8
4.293 -16.536 -4.711 8
4.159 -15.891 -4.751 9
4.045 -15.316 -4.804 7
3.926 -14.731 -4.833 6
3.819 -14.211 -4.878 38
3.722 -13.722 -4.922 6
3.621 -13.239 -4.955 6
3.527 -12.772 -4.981 7
3.437 -12.339 -5.013 8
3.351 -11.917 -5.038 8
3.267 -11.515 -5.063 9
3.19 -11.134 -5.089 11
3.115 -10.772 -5.118 11
3.04 -10.407 -5.131 11
2.97 -10.063 -5.149 13
2.9 -9.733 -5.167 14
2.837 -9.42 -5.189 15
7.468 -33.09 -2.835 30
7.526 -33.083 -3.431 29
7.26 -31.637 -3.725 15
6.988 -30.212 -3.975 6
6.579 -28.197 -4.03 6
6.232 -26.478 -4.095 6
5.927 -24.982 -4.163 5
5.658 -23.641 -4.228 31
5.418 -22.459 -4.297 5
5.211 -21.415 -4.374 5
5.01 -20.427 -4.435 12
4.83 -19.521 -4.493 9
4.672 -18.732 -4.568 8
4.515 -17.942 -4.616 7
4.368 -17.219 -4.666 8
4.233 -16.537 -4.712 8
4.101 -15.893 -4.752 9
3.988 -15.314 -4.803 7
3.871 -14.732 -4.833 6
3.766 -14.212 -4.878 37
3.669 -13.722 -4.922 6
3.573 -13.249 -4.961 7
3.474 -12.762 -4.974 7
3.39 -12.344 -5.016 9
3.306 -11.922 -5.041 10
3.223 -11.52 -5.066 10
3.146 -11.136 -5.091 11
3.07 -10.768 -5.114 12
2.999 -10.411 -5.134 10
2.928 -10.063 -5.149 11
2.86 -9.734 -5.167 13
2.797 -9.417 -5.186 15
7.471 -33.585 -2.922 16
7.421 -33.093 -3.433 33
7.158 -31.642 -3.726 12
6.884 -30.194 -3.971 7
6.485 -28.194 -4.029 6
6.142 -26.474 -4.094 6
5.844 -24.988 -4.165 5
5.577 -23.643 -4.228 27
5.339 -22.453 -4.295 6
5.135 -21.408 -4.371 5
4.937 -20.419 -4.432 10
4.761 -19.52 -4.493 10
4.609 -18.745 -4.573 8
4.451 -17.945 -4.617 8
4.305 -17.217 -4.665 8
4.173 -16.539 -4.712 7
4.044 -15.898 -4.754 9
3.931 -15.315 -4.803 6
3.815 -14.729 -4.831 6
3.711 -14.209 -4.876 38
3.618 -13.725 -4.924 6
3.523 -13.252 -4.963 7
3.427 -12.767 -4.978 7
3.341 -12.34 -5.014 8
3.259 -11.921 -5.041 10
3.178 -11.522 -5.068 10
3.104 -11.144 -5.097 12
3.03 -10.778 -5.122 11
2.956 -10.409 -5.133 12
2.887 -10.064 -5.15 11
2.821 -9.737 -5.17 13
2.758 -9.421 -5.189 15
7.368 -33.608 -2.926 5
7.314 -33.096 -3.433 29
7.048 -31.614 -3.72 11
6.786 -30.2 -3.972 7
6.39 -28.191 -4.029 6
6.052 -26.466 -4.092 6
5.755 -24.971 -4.16 5
5.497 -23.644 -4.229 23
5.262 -22.453 -4.296 5
5.062 -21.411 -4.373 5
4.864 -20.412 -4.429 9
4.691 -19.516 -4.491 9
4.541 -18.74 -4.572 8
4.388 -17.95 -4.619 8
4.243 -17.219 -4.666 8
4.112 -16.536 -4.711 7
3.986 -15.899 -4.754 9
3.875 -15.319 -4.805 7
3.761 -14.732 -4.833 6
3.658 -14.209 -4.876 39
3.568 -13.731 -4.928 6
3.473 -13.254 -4.964 7
3.379 -12.773 -4.982 9
3.294 -12.345 -5.017 10
3.213 -11.927 -5.045 10
3.132 -11.523 -5.069 10
3.059 -11.142 -5.095 11
2.986 -10.776 -5.121 11
2.914 -10.41 -5.133 11
2.846 -10.065 -5.15 11
2.78 -9.737 -5.171 13
2.72 -9.424 -5.192 16
8.238 -38.137 -3.725 6
7.204 -33.088 -3.432 24
6.941 -31.601 -3.717 13
6.681 -30.174 -3.966 7
6.294 -28.179 -4.026 6
5.963 -26.469 -4.092 6
5.673 -24.982 -4.163 5
5.417 -23.645 -4.229 20
5.184 -22.45 -4.294 5
4.987 -21.411 -4.373 6
4.792 -20.412 -4.429 9
4.622 -19.515 -4.491 9
4.475 -18.743 -4.573 8
4.322 -17.941 -4.616 8
4.182 -17.22 -4.667 8
4.053 -16.541 -4.713 7
3.927 -15.896 -4.753 9
3.816 -15.308 -4.8 7
3.705 -14.728 -4.831 6
3.605 -14.211 -4.877 38
3.518 -13.741 -4.933 6
3.422 -13.253 -4.963 7
3.329 -12.772 -4.981 9
3.245 -12.34 -5.014 8
3.167 -11.928 -5.046 10
3.088 -11.528 -5.072 11
3.015 -11.146 -5.098 11
2.943 -10.781 -5.124 12
2.872 -10.414 -5.136 11
2.808 -10.075 -5.158 12
2.741 -9.741 -5.174 13
2.681 -9.428 -5.195 16
8.109 -38.104 -3.719 7
7.095 -33.078 -3.43 28
6.838 -31.603 -3.717 16
6.578 -30.159 -3.963 9
6.198 -28.172 -4.024 6
5.873 -26.46 -4.09 6
5.586 -24.968 -4.16 5
5.337 -23.65 -4.231 18
5.104 -22.439 -4.291 5
4.912 -21.407 -4.371 6
4.722 -20.414 -4.43 10
4.554 -19.517 -4.492 10
4.406 -18.734 -4.569 8
4.258 -17.943 -4.616 7
4.118 -17.214 -4.664 7
3.992 -16.538 -4.712 7
3.869 -15.9 -4.755 9
3.761 -15.315 -4.804 7
3.651 -14.732 -4.833 6
3.551 -14.211 -4.877 36
3.466 -13.741 -4.933 7
3.373 -13.259 -4.967 8
3.28 -12.774 -4.982 9
3.198 -12.346 -5.018 9
3.12 -11.926 -5.044 10
3.043 -11.53 -5.073 10
2.973 -11.154 -5.104 11
2.899 -10.776 -5.12 11
2.831 -10.418 -5.139 12
2.766 -10.072 -5.156 12
2.702 -9.748 -5.179 14
2.643 -9.433 -5.2 19
7.98 -38.074 -3.713 7
6.984 -33.06 -3.426 28
6.738 -31.615 -3.72 13
6.477 -30.152 -3.961 5
6.106 -28.175 -4.025 6
5.785 -26.462 -4.091 6
5.502 -24.97 -4.16 5
5.258 -23.655 -4.232 15
5.028 -22.443 -4.292 6
4.838 -21.407 -4.371 6
4.65 -20.41 -4.428 9
4.485 -19.516 -4.491 9
4.341 -18.739 -4.571 8
4.195 -17.947 -4.618 8
4.059 -17.226 -4.669 7
3.932 -16.539 -4.712 7
3.811 -15.9 -4.755 9
3.704 -15.312 -4.802 6
3.598 -14.739 -4.837 6
3.498 -14.21 -4.877 41
3.411 -13.729 -4.927 7
3.32 -13.251 -4.962 8
3.232 -12.776 -4.984 9
3.152 -12.354 -5.023 9
3.074 -11.931 -5.048 10
2.998 -11.531 -5.074 10
2.929 -11.155 -5.104 12
2.858 -10.785 -5.127 10
2.789 -10.418 -5.14 11
2.727 -10.082 -5.164 11
2.661 -9.745 -5.177 14
2.603 -9.43 -5.198 22
7.854 -38.055 -3.71 6
6.872 -33.035 -3.421 20
6.639 -31.635 -3.724 14
6.379 -30.156 -3.962 7
6.009 -28.158 -4.021 6
5.695 -26.457 -4.089 5
5.419 -24.974 -4.161 5
5.175 -23.644 -4.229 13
4.953 -22.45 -4.295 4
4.763 -21.403 -4.37 5
4.58 -20.416 -4.431 9
4.416 -19.514 -4.491 10
4.275 -18.737 -4.57 8
4.13 -17.942 -4.616 8
3.996 -17.219 -4.667 8
3.872 -16.536 -4.711 7
3.754 -15.903 -4.756 8
3.648 -15.315 -4.804 7
3.542 -14.735 -4.834 7
3.445 -14.213 -4.878 40
3.361 -13.735 -4.93 7
3.271 -13.257 -4.965 7
3.182 -12.774 -4.982 9
3.104 -12.353 -5.022 9
3.028 -11.932 -5.049 10
2.953 -11.535 -5.077 10
2.883 -11.149 -5.101 12
2.814 -10.783 -5.126 12
2.748 -10.422 -5.143 9
2.686 -10.082 -5.164 11
2.622 -9.747 -5.179 13
2.564 -9.431 -5.198 24
7.726 -38.024 -3.705 7
6.757 -32.994 -3.413 12
6.539 -31.651 -3.728 13
6.276 -30.137 -3.958 7
5.916 -28.162 -4.021 6
5.606 -26.452 -4.088 5
5.334 -24.972 -4.161 5
5.095 -23.644 -4.229 10
4.874 -22.439 -4.291 5
4.689 -21.398 -4.368 5
4.507 -20.407 -4.428 11
4.348 -19.512 -4.49 11
4.208 -18.735 -4.57 9
4.065 -17.939 -4.615 8
3.934 -17.22 -4.667 8
3.812 -16.536 -4.711 7
3.697 -15.907 -4.758 8
3.593 -15.319 -4.805 7
3.486 -14.731 -4.833 7
3.392 -14.212 -4.878 40
3.31 -13.74 -4.933 8
3.223 -13.265 -4.97 8
3.135 -12.783 -4.988 9
3.057 -12.357 -5.025 8
2.981 -11.934 -5.05 9
2.908 -11.536 -5.078 10
2.84 -11.153 -5.103 11
2.773 -10.79 -5.131 12
2.706 -10.423 -5.143 12
2.644 -10.079 -5.162 13
2.583 -9.751 -5.182 13
2.525 -9.43 -5.198 27
7.601 -38.009 -3.702 7
6.653 -33.007 -3.416 13
6.434 -31.639 -3.725 14
6.175 -30.129 -3.956 7
5.821 -28.152 -4.019 6
5.519 -26.456 -4.089 6
5.247 -24.957 -4.156 5
5.014 -23.64 -4.228 8
4.796 -22.435 -4.289 4
4.614 -21.393 -4.366 5
4.434 -20.399 -4.425 30
4.281 -19.518 -4.492 9
4.145 -18.748 -4.574 8
4.003 -17.947 -4.618 8
3.872 -17.22 -4.667 7
3.752 -16.536 -4.711 7
3.638 -15.903 -4.756 7
3.535 -15.315 -4.803 7
3.433 -14.737 -4.836 7
3.338 -14.208 -4.875 40
3.258 -13.739 -4.932 7
3.172 -13.264 -4.97 8
3.087 -12.784 -4.989 8
3.01 -12.358 -5.025 9
2.936 -11.938 -5.052 10
2.862 -11.534 -5.076 10
2.796 -11.157 -5.106 10
2.73 -10.791 -5.131 11
2.664 -10.425 -5.145 10
2.604 -10.085 -5.167 11
2.544 -9.757 -5.187 14
2.488 -9.439 -5.205 32
7.473 -37.972 -3.696 7
6.542 -32.983 -3.411 11
6.333 -31.647 -3.727 13
6.076 -30.125 -3.955 7
5.726 -28.142 -4.017 6
5.432 -26.461 -4.09 6
5.163 -24.954 -4.155 5
4.933 -23.636 -4.226 8
4.719 -22.431 -4.288 4
4.54 -21.392 -4.366 6
4.363 -20.397 -4.424 28
4.212 -19.516 -4.491 10
4.076 -18.734 -4.569 9
3.937 -17.937 -4.614 10
3.811 -17.221 -4.667 5
3.693 -16.54 -4.713 7
3.579 -15.899 -4.755 7
3.48 -15.317 -4.805 8
3.379 -14.736 -4.835 8
3.286 -14.214 -4.879 40
3.208 -13.745 -4.935 8
3.122 -13.266 -4.971 7
3.037 -12.783 -4.987 8
2.963 -12.36 -5.026 8
2.891 -11.942 -5.055 9
2.818 -11.537 -5.079 10
2.752 -11.158 -5.107 11
2.686 -10.79 -5.131 10
2.623 -10.429 -5.148 12
2.564 -10.088 -5.169 12
2.503 -9.753 -5.184 13
2.449 -9.439 -5.205 34
7.349 -37.96 -3.693 6
6.436 -32.98 -3.411 9
6.233 -31.662 -3.73 11
5.974 -30.108 -3.951 7
5.633 -28.141 -4.016 6
5.343 -26.459 -4.09 6
5.081 -24.962 -4.158 5
4.849 -23.618 -4.221 7
4.644 -22.441 -4.291 4
4.467 -21.394 -4.367 5
4.294 -20.402 -4.426 35
4.145 -19.52 -4.493 9
4.011 -18.738 -4.571 8
3.873 -17.934 -4.612 16
3.749 -17.221 -4.667 5
3.634 -16.544 -4.714 7
3.523 -15.906 -4.758 9
3.423 -15.317 -4.805 8
3.324 -14.734 -4.834 8
3.233 -14.212 -4.878 40
3.157 -13.75 -4.938 8
3.073 -13.271 -4.974 7
2.99 -12.788 -4.991 8
2.915 -12.36 -5.027 9
2.844 -11.94 -5.054 10
2.774 -11.545 -5.084 10
2.709 -11.162 -5.109 11
2.643 -10.791 -5.132 11
2.581 -10.429 -5.148 12
2.522 -10.085 -5.167 11
2.465 -9.759 -5.189 13
2.41 -9.441 -5.207 37
7.223 -37.935 -3.689 6
6.33 -32.98 -3.411 10
6.133 -31.676 -3.733 10
5.877 -30.114 -3.952 7
5.541 -28.146 -4.018 6
5.254 -26.451 -4.088 5
4.996 -24.958 -4.157 5
4.77 -23.62 -4.221 6
4.567 -22.436 -4.29 5
4.392 -21.385 -4.364 6
4.22 -20.385 -4.42 22
4.076 -19.517 -4.492 9
3.945 -18.739 -4.571 8
3.811 -17.942 -4.616 30
3.69 -17.232 -4.672 5
3.575 -16.543 -4.714 7
3.464 -15.901 -4.756 9
3.369 -15.326 -4.809 7
3.271 -14.744 -4.84 8
3.181 -14.218 -4.881 42
3.104 -13.745 -4.936 8
3.023 -13.272 -4.975 7
2.94 -12.785 -4.989 9
2.869 -12.365 -5.03 10
2.798 -11.944 -5.056 9
2.728 -11.539 -5.08 10
2.666 -11.165 -5.112 10
2.601 -10.795 -5.134 11
2.541 -10.435 -5.153 12
2.482 -10.088 -5.169 12
2.425 -9.762 -5.191 14
2.371 -9.441 -5.207 35
7.098 -37.91 -3.685 7
6.222 -32.971 -3.409 10
6.029 -31.667 -3.731 14
5.775 -30.093 -3.948 7
5.448 -28.139 -4.016 6
5.166 -26.452 -4.088 6
4.914 -24.961 -4.158 5
4.69 -23.616 -4.22 7
4.489 -22.426 -4.287 5
4.32 -21.391 -4.365 6
4.153 -20.401 -4.425 10
4.006 -19.508 -4.488 10
3.878 -18.733 -4.568 8
3.747 -17.938 -4.614 37
3.628 -17.228 -4.67 4
3.516 -16.546 -4.716 7
3.409 -15.915 -4.762 10
3.312 -15.322 -4.807 8
3.216 -14.739 -4.837 8
3.128 -14.216 -4.88 34
3.053 -13.746 -4.936 8
2.973 -13.273 -4.975 8
2.893 -12.79 -4.992 9
2.822 -12.369 -5.033 10
2.753 -11.948 -5.059 10
2.684 -11.546 -5.085 10
2.622 -11.165 -5.112 11
2.559 -10.798 -5.137 11
2.499 -10.439 -5.155 10
2.442 -10.091 -5.171 12
2.386 -9.765 -5.193 14
2.333 -9.446 -5.211 39
6.973 -37.885 -3.68 6
6.118 -32.978 -3.41 9
5.93 -31.686 -3.735 13
5.678 -30.098 -3.949 6
5.354 -28.133 -4.014 6
