# .PCD v0.7 - Point Cloud Data file format
VERSION 0.7
FIELDS x y z intensity
SIZE 4 4 4 4
TYPE F F F F
COUNT 1 1 1 1
WIDTH 2001
HEIGHT 1
VIEWPOINT 0 0 0 1 0 0 0
POINTS 2001
DATA ascii
0.089 -17.266 -4.687 7
0.09 -16.6 -4.741 7
0.087 -15.955 -4.782 37
0.087 -15.382 -4.837 7
0.088 -14.816 -4.878 8
0.085 -14.288 -4.92 9
0.086 -13.818 -4.978 8
0.084 -13.351 -5.022 7
0.084 -12.86 -5.036 12
0.082 -12.442 -5.08 10
0.083 -12.027 -5.113 11
0.08 -11.622 -5.138 11
0.081 -11.248 -5.172 12
0.079 -10.88 -5.199 12
0.08 -10.527 -5.225 11
0.08 -10.186 -5.249 13
0.078 -9.86 -5.274 14
0.078 -9.533 -5.287 32
0.013 -37.308 -3.578 7
0.011 -33.045 -3.423 20
0.017 -32.017 -3.805 15
0.016 -29.901 -3.903 6
0.02 -28.018 -3.986 7
0.023 -26.347 -4.06 5
0.022 -24.881 -4.135 7
0.026 -23.602 -4.216 5
0.024 -22.406 -4.28 5
0.027 -21.338 -4.347 9
0.026 -20.41 -4.429 17
0.029 -19.534 -4.498 9
0.028 -18.762 -4.58 8
0.031 -17.979 -4.632 7
0.03 -17.266 -4.687 8
0.032 -16.6 -4.741 7
0.031 -15.955 -4.782 36
0.033 -15.385 -4.839 7
0.035 -14.812 -4.876 8
0.034 -14.288 -4.92 9
0.036 -13.818 -4.978 7
0.035 -13.355 -5.024 7
0.037 -12.86 -5.036 11
0.036 -12.436 -5.076 10
0.038 -12.027 -5.113 11
0.037 -11.622 -5.138 11
0.038 -11.248 -5.172 13
0.037 -10.884 -5.201 12
0.039 -10.528 -5.225 10
0.04 -10.193 -5.254 13
0.039 -9.86 -5.274 13
0.04 -9.536 -5.29 42
-0.102 -37.316 -3.58 7
-0.091 -33.054 -3.425 17
-0.084 -32.025 -3.807 17
-0.079 -29.909 -3.905 6
-0.069 -28.022 -3.987 7
-0.061 -26.35 -4.06 5
-0.058 -24.873 -4.132 6
-0.051 -23.598 -4.215 5
-0.049 -22.41 -4.282 5
-0.043 -21.338 -4.347 9
-0.042 -20.395 -4.423 32
-0.036 -19.53 -4.497 9
-0.035 -18.766 -4.582 8
-0.031 -17.979 -4.632 5
-0.03 -17.266 -4.687 8
-0.026 -16.6 -4.741 8
-0.025 -15.959 -4.784 34
-0.021 -15.385 -4.839 7
-0.018 -14.816 -4.878 8
-0.017 -14.284 -4.918 9
-0.014 -13.822 -4.98 8
-0.014 -13.352 -5.022 7
-0.011 -12.863 -5.038 11
-0.01 -12.439 -5.078 10
-0.008 -12.027 -5.113 10
-0.007 -11.628 -5.142 10
-0.005 -11.251 -5.175 10
-0.005 -10.88 -5.199 12
-0.002 -10.528 -5.225 11
0.0 -10.19 -5.252 11
0.0 -9.86 -5.274 14
0.002 -9.537 -5.29 39
-0.217 -37.324 -3.581 7
-0.194 -33.088 -3.432 18
-0.184 -32.013 -3.804 24
-0.173 -29.905 -3.904 6
-0.158 -28.022 -3.987 6
-0.145 -26.35 -4.06 5
-0.138 -24.869 -4.131 6
-0.128 -23.605 -4.217 5
-0.122 -22.406 -4.28 5
-0.114 -21.334 -4.346 7
-0.109 -20.387 -4.42 32
-0.102 -19.53 -4.497 10
-0.099 -18.766 -4.582 8
-0.092 -17.979 -4.632 7
-0.089 -17.277 -4.692 7
-0.083 -16.596 -4.739 7
-0.081 -15.959 -4.784 31
-0.075 -15.385 -4.839 8
-0.07 -14.812 -4.876 8
-0.068 -14.288 -4.92 9
-0.064 -13.818 -4.978 7
-0.062 -13.355 -5.024 7
-0.058 -12.86 -5.036 9
-0.056 -12.443 -5.08 9
-0.053 -12.024 -5.11 9
-0.051 -11.622 -5.138 10
-0.048 -11.251 -5.175 13
-0.047 -10.884 -5.201 12
-0.043 -10.525 -5.223 14
-0.04 -10.19 -5.251 13
-0.039 -9.863 -5.276 13
-0.036 -9.536 -5.29 43
-0.332 -37.323 -3.581 7
-0.297 -33.087 -3.431 18
-0.284 -32.024 -3.807 13
-0.267 -29.924 -3.908 7
-0.247 -28.021 -3.986 6
-0.23 -26.361 -4.063 5
-0.219 -24.872 -4.132 6
-0.205 -23.605 -4.217 5
-0.196 -22.414 -4.283 4
-0.184 -21.342 -4.349 9
-0.177 -20.391 -4.422 29
-0.168 -19.526 -4.495 10
-0.162 -18.766 -4.582 8
-0.153 -17.979 -4.632 8
-0.149 -17.277 -4.692 8
-0.141 -16.599 -4.74 8
-0.136 -15.959 -4.784 36
-0.129 -15.378 -4.836 8
-0.123 -14.816 -4.878 7
-0.12 -14.295 -4.924 7
-0.114 -13.818 -4.978 8
-0.111 -13.351 -5.022 7
-0.105 -12.867 -5.04 8
-0.103 -12.442 -5.08 10
-0.098 -12.027 -5.113 10
-0.095 -11.628 -5.142 10
-0.091 -11.251 -5.175 11
-0.088 -10.884 -5.201 13
-0.084 -10.531 -5.227 12
-0.08 -10.19 -5.251 12
-0.078 -9.863 -5.276 14
-0.074 -9.539 -5.292 41
-0.447 -37.33 -3.582 7
-0.4 -33.113 -3.437 15
-0.384 -32.019 -3.806 12
-0.362 -29.907 -3.905 6
-0.337 -28.028 -3.988 7
-0.314 -26.361 -4.063 6
-0.299 -24.872 -4.132 6
-0.282 -23.608 -4.218 5
-0.269 -22.413 -4.282 5
-0.255 -21.341 -4.348 9
-0.245 -20.394 -4.423 21
-0.233 -19.537 -4.5 9
-0.226 -18.769 -4.583 8
-0.215 -17.978 -4.631 7
-0.208 -17.272 -4.69 8
-0.198 -16.603 -4.742 7
-0.192 -15.961 -4.785 34
-0.184 -15.388 -4.841 7
-0.175 -14.811 -4.875 8
-0.171 -14.283 -4.917 9
-0.164 -13.821 -4.979 8
-0.16 -13.354 -5.024 7
-0.152 -12.862 -5.037 9
-0.149 -12.442 -5.08 10
-0.143 -12.027 -5.113 9
-0.139 -11.628 -5.142 11
-0.133 -11.251 -5.175 12
-0.13 -10.884 -5.201 12
-0.125 -10.531 -5.227 12
-0.12 -10.19 -5.251 12
-0.117 -9.86 -5.274 13
-0.112 -9.542 -5.295 42
-0.562 -37.332 -3.583 7
-0.503 -33.129 -3.44 16
-0.484 -32.029 -3.808 13
-0.456 -29.914 -3.906 6
-0.426 -28.039 -3.991 7
-0.399 -26.355 -4.062 6
-0.379 -24.875 -4.133 6
-0.358 -23.607 -4.217 5
-0.343 -22.412 -4.282 5
-0.325 -21.336 -4.347 9
-0.313 -20.4 -4.425 12
-0.299 -19.532 -4.498 9
-0.289 -18.772 -4.584 8
-0.276 -17.988 -4.636 7
-0.267 -17.271 -4.69 8
-0.256 -16.605 -4.743 7
-0.248 -15.961 -4.785 36
-0.238 -15.381 -4.837 7
-0.228 -14.814 -4.877 8
-0.222 -14.29 -4.921 9
-0.214 -13.824 -4.981 8
-0.208 -13.35 -5.021 7
-0.2 -12.862 -5.037 11
-0.195 -12.441 -5.079 10
-0.188 -12.027 -5.112 10
-0.183 -11.631 -5.144 10
-0.176 -11.257 -5.179 10
-0.172 -10.883 -5.201 11
-0.166 -10.53 -5.227 12
-0.16 -10.19 -5.251 12
-0.156 -9.863 -5.276 13
-0.151 -9.542 -5.294 42
-0.678 -37.338 -3.584 7
-0.606 -33.131 -3.44 14
-0.585 -32.027 -3.808 12
-0.55 -29.912 -3.906 6
-0.515 -28.026 -3.988 7
-0.483 -26.37 -4.066 5
-0.46 -24.877 -4.133 7
-0.435 -23.598 -4.215 5
-0.417 -22.419 -4.284 5
-0.396 -21.339 -4.348 10
-0.381 -20.407 -4.428 9
-0.364 -19.535 -4.499 9
-0.353 -18.774 -4.585 8
-0.337 -17.987 -4.635 5
-0.327 -17.27 -4.689 8
-0.313 -16.601 -4.741 8
-0.304 -15.957 -4.783 36
-0.292 -15.384 -4.838 5
-0.281 -14.818 -4.879 8
-0.273 -14.289 -4.921 9
-0.264 -13.823 -4.981 8
-0.257 -13.356 -5.025 8
-0.247 -12.862 -5.037 7
-0.241 -12.445 -5.082 10
-0.233 -12.026 -5.111 10
-0.227 -11.63 -5.144 10
-0.219 -11.254 -5.177 13
-0.214 -10.889 -5.205 11
-0.207 -10.533 -5.229 12
-0.2 -10.195 -5.256 13
-0.195 -9.866 -5.278 14
-0.189 -9.542 -5.294 39
-0.793 -37.36 -3.588 7
-0.709 -33.152 -3.444 15
-0.685 -32.033 -3.809 15
-0.645 -29.926 -3.909 7
-0.604 -28.036 -3.99 7
-0.568 -26.376 -4.067 5
-0.54 -24.884 -4.135 7
-0.512 -23.604 -4.216 5
-0.49 -22.421 -4.285 5
-0.466 -21.341 -4.348 10
-0.449 -20.406 -4.427 10
-0.43 -19.538 -4.5 9
-0.416 -18.766 -4.582 8
-0.399 -17.987 -4.635 7
-0.386 -17.273 -4.691 8
-0.371 -16.6 -4.741 8
-0.359 -15.96 -4.784 37
-0.346 -15.383 -4.838 7
-0.334 -14.82 -4.88 8
-0.324 -14.292 -4.922 9
-0.314 -13.826 -4.982 8
-0.306 -13.356 -5.025 7
-0.294 -12.861 -5.036 9
-0.287 -12.44 -5.079 10
-0.278 -12.032 -5.116 10
-0.271 -11.63 -5.144 10
-0.262 -11.253 -5.176 12
-0.256 -10.885 -5.203 11
-0.248 -10.529 -5.226 13
-0.24 -10.198 -5.258 13
-0.235 -9.868 -5.281 14
-0.227 -9.544 -5.297 42
-0.908 -37.357 -3.587 7
-0.812 -33.153 -3.444 17
-0.785 -32.035 -3.809 13
-0.739 -29.924 -3.909 6
-0.693 -28.037 -3.99 7
-0.652 -26.366 -4.065 5
-0.62 -24.886 -4.136 7
-0.589 -23.607 -4.217 5
-0.564 -22.423 -4.286 5
-0.537 -21.332 -4.345 11
-0.517 -20.408 -4.428 10
-0.496 -19.536 -4.499 8
-0.48 -18.776 -4.586 8
-0.46 -17.989 -4.636 8
-0.445 -17.272 -4.69 7
-0.429 -16.606 -4.744 8
-0.415 -15.958 -4.783 35
-0.401 -15.382 -4.837 8
-0.386 -14.819 -4.88 8
-0.375 -14.284 -4.918 8
-0.364 -13.825 -4.982 8
-0.354 -13.355 -5.024 7
-0.342 -12.867 -5.04 9
-0.333 -12.44 -5.078 9
-0.323 -12.028 -5.113 9
-0.315 -11.633 -5.145 11
-0.305 -11.252 -5.175 11
-0.298 -10.891 -5.207 12
-0.289 -10.532 -5.228 12
-0.28 -10.19 -5.252 12
-0.274 -9.864 -5.277 13
-0.265 -9.543 -5.296 41
-1.024 -37.365 -3.589 6
-0.915 -33.155 -3.445 15
-0.886 -32.044 -3.811 16
-0.834 -29.913 -3.906 6
-0.782 -28.031 -3.989 7
-0.737 -26.368 -4.065 5
-0.701 -24.884 -4.135 6
-0.666 -23.601 -4.216 5
-0.637 -22.429 -4.288 5
-0.607 -21.331 -4.345 12
-0.585 -20.41 -4.429 9
-0.561 -19.538 -4.5 9
-0.544 -18.778 -4.587 8
-0.522 -17.991 -4.637 7
-0.505 -17.274 -4.691 8
-0.486 -16.602 -4.742 7
-0.471 -15.961 -4.784 36
-0.455 -15.384 -4.838 7
-0.439 -14.825 -4.882 8
-0.427 -14.294 -4.923 9
-0.414 -13.821 -4.979 8
-0.403 -13.35 -5.021 8
-0.389 -12.862 -5.037 8
-0.38 -12.445 -5.082 10
-0.368 -12.027 -5.113 10
-0.359 -11.635 -5.147 11
-0.348 -11.255 -5.177 11
-0.34 -10.884 -5.201 12
-0.33 -10.534 -5.23 11
-0.32 -10.193 -5.254 11
-0.313 -9.864 -5.277 16
-0.303 -9.539 -5.293 43
-1.139 -37.378 -3.591 6
-1.019 -33.16 -3.446 14
-0.987 -32.05 -3.812 14
-0.928 -29.931 -3.91 6
-0.872 -28.044 -3.992 7
-0.821 -26.37 -4.066 4
-0.781 -24.885 -4.136 7
-0.742 -23.602 -4.216 5
-0.711 -22.427 -4.287 5
-0.678 -21.332 -4.345 13
-0.654 -20.412 -4.429 10
-0.627 -19.537 -4.5 9
-0.607 -18.78 -4.588 8
-0.583 -17.982 -4.633 5
-0.565 -17.277 -4.692 8
-0.544 -16.611 -4.746 7
-0.527 -15.962 -4.785 34
-0.509 -15.383 -4.838 7
-0.492 -14.817 -4.878 8
-0.478 -14.299 -4.926 9
-0.464 -13.822 -4.98 8
-0.452 -13.352 -5.023 8
-0.436 -12.868 -5.041 8
-0.426 -12.447 -5.083 10
-0.413 -12.029 -5.114 9
-0.403 -11.634 -5.146 10
-0.391 -11.257 -5.179 11
-0.382 -10.883 -5.201 12
-0.371 -10.536 -5.232 8
-0.36 -10.195 -5.256 11
-0.352 -9.863 -5.276 13
-0.342 -9.542 -5.295 41
-1.255 -37.382 -3.591 7
-1.123 -33.212 -3.456 13
-1.087 -32.062 -3.815 14
-1.023 -29.936 -3.911 6
-0.961 -28.045 -3.992 8
-0.906 -26.375 -4.067 5
-0.862 -24.894 -4.138 7
-0.819 -23.608 -4.218 5
-0.784 -22.417 -4.284 4
-0.748 -21.331 -4.345 14
-0.722 -20.41 -4.429 9
-0.692 -19.535 -4.499 9
-0.671 -18.774 -4.585 8
-0.644 -17.987 -4.635 7
-0.624 -17.279 -4.693 8
-0.602 -16.609 -4.745 7
-0.583 -15.961 -4.785 36
-0.564 -15.388 -4.841 7
-0.544 -14.819 -4.879 9
-0.529 -14.291 -4.922 8
-0.514 -13.822 -4.98 7
-0.5 -13.355 -5.024 7
-0.484 -12.867 -5.04 7
-0.472 -12.44 -5.078 9
-0.458 -12.028 -5.113 10
-0.447 -11.633 -5.145 11
-0.434 -11.256 -5.178 10
-0.424 -10.885 -5.202 12
-0.412 -10.532 -5.229 10
-0.4 -10.195 -5.255 12
-0.391 -9.869 -5.281 12
-0.38 -9.541 -5.294 42
-1.37 -37.391 -3.593 7
-1.226 -33.205 -3.454 13
-1.188 -32.066 -3.816 14
-1.118 -29.944 -3.913 7
-1.05 -28.042 -3.992 7
-0.991 -26.38 -4.068 5
-0.943 -24.903 -4.141 7
-0.896 -23.601 -4.216 5
-0.858 -22.422 -4.285 5
-0.819 -21.332 -4.345 15
-0.79 -20.412 -4.429 9
-0.758 -19.54 -4.501 9
-0.735 -18.78 -4.588 8
-0.706 -17.993 -4.638 7
-0.683 -17.273 -4.691 8
-0.659 -16.611 -4.746 8
-0.639 -15.963 -4.786 35
-0.618 -15.39 -4.842 7
-0.597 -14.82 -4.88 8
-0.581 -14.293 -4.923 9
-0.564 -13.823 -4.981 8
-0.549 -13.353 -5.023 7
-0.531 -12.872 -5.043 8
-0.518 -12.445 -5.082 9
-0.503 -12.03 -5.114 10
-0.491 -11.632 -5.145 10
-0.477 -11.258 -5.18 11
-0.466 -10.894 -5.209 12
-0.453 -10.534 -5.23 10
-0.44 -10.2 -5.259 13
-0.43 -9.865 -5.277 13
-0.418 -9.544 -5.296 42
-1.486 -37.398 -3.594 8
-1.331 -33.228 -3.459 10
-1.289 -32.078 -3.818 14
-1.212 -29.941 -3.912 6
-1.14 -28.066 -3.998 7
-1.076 -26.384 -4.07 5
-1.023 -24.908 -4.142 7
-0.973 -23.594 -4.214 5
-0.932 -22.432 -4.289 4
-0.89 -21.337 -4.347 16
-0.858 -20.42 -4.432 10
-0.824 -19.542 -4.501 9
-0.798 -18.777 -4.586 8
-0.767 -17.991 -4.637 7
-0.743 -17.282 -4.695 8
-0.717 -16.609 -4.745 7
-0.695 -15.965 -4.787 37
-0.672 -15.392 -4.842 7
-0.65 -14.819 -4.879 8
-0.632 -14.295 -4.924 9
-0.614 -13.825 -4.982 8
-0.598 -13.359 -5.027 8
-0.579 -12.868 -5.041 8
-0.565 -12.451 -5.086 10
-0.548 -12.036 -5.118 10
-0.535 -11.634 -5.146 11
-0.52 -11.257 -5.178 11
-0.508 -10.892 -5.208 11
-0.493 -10.533 -5.23 12
-0.48 -10.202 -5.261 12
-0.469 -9.873 -5.284 13
-0.456 -9.545 -5.297 37
-1.603 -37.429 -3.6 8
-1.435 -33.259 -3.465 11
-1.39 -32.082 -3.819 14
-1.308 -29.952 -3.915 7
-1.229 -28.055 -3.995 7
-1.161 -26.392 -4.072 5
-1.104 -24.917 -4.145 6
-1.05 -23.595 -4.214 5
-1.006 -22.428 -4.287 5
-0.96 -21.327 -4.343 23
-0.926 -20.41 -4.429 9
-0.89 -19.546 -4.503 8
-0.862 -18.783 -4.589 8
-0.829 -17.996 -4.639 8
-0.803 -17.28 -4.693 8
-0.774 -16.607 -4.744 8
-0.751 -15.966 -4.787 37
-0.727 -15.393 -4.843 7
-0.703 -14.824 -4.882 8
-0.683 -14.296 -4.925 8
-0.664 -13.823 -4.981 7
-0.647 -13.357 -5.026 7
-0.626 -12.869 -5.042 13
-0.611 -12.442 -5.08 10
-0.593 -12.031 -5.115 9
-0.579 -11.635 -5.147 11
-0.563 -11.259 -5.18 11
-0.55 -10.894 -5.209 11
-0.535 -10.535 -5.231 11
-0.52 -10.197 -5.258 13
-0.508 -9.865 -5.278 14
-0.495 -9.544 -5.297 42
-1.718 -37.427 -3.599 7
-1.539 -33.266 -3.466 12
-1.491 -32.09 -3.821 14
-1.402 -29.956 -3.916 6
-1.319 -28.066 -3.998 6
-1.245 -26.393 -4.072 5
-1.185 -24.913 -4.144 7
-1.127 -23.597 -4.214 5
-1.08 -22.44 -4.291 5
-1.031 -21.332 -4.345 24
-0.994 -20.418 -4.432 10
-0.955 -19.54 -4.501 12
-0.925 -18.776 -4.586 8
-0.891 -17.998 -4.64 7
-0.862 -17.284 -4.695 7
-0.832 -16.604 -4.743 8
-0.806 -15.964 -4.786 34
-0.781 -15.388 -4.841 7
-0.755 -14.822 -4.881 8
-0.735 -14.298 -4.926 8
-0.714 -13.825 -4.982 8
-0.695 -13.355 -5.025 7
-0.673 -12.864 -5.038 21
-0.657 -12.447 -5.083 10
-0.639 -12.036 -5.118 10
-0.623 -11.634 -5.146 10
-0.606 -11.261 -5.181 12
-0.592 -10.89 -5.206 12
-0.576 -10.54 -5.235 12
-0.56 -10.199 -5.259 13
-0.548 -9.867 -5.28 14
-0.533 -9.543 -5.296 39
-1.834 -37.427 -3.599 7
-1.643 -33.282 -3.469 14
-1.592 -32.1 -3.823 14
-1.498 -29.971 -3.919 6
-1.409 -28.071 -3.999 6
-1.331 -26.4 -4.074 5
-1.265 -24.905 -4.141 6
-1.204 -23.6 -4.215 5
-1.153 -22.438 -4.29 5
-1.101 -21.332 -4.345 24
-1.062 -20.412 -4.429 9
-1.021 -19.541 -4.501 14
-0.989 -18.781 -4.588 8
-0.952 -17.991 -4.637 7
-0.922 -17.282 -4.695 8
-0.89 -16.605 -4.743 7
-0.862 -15.961 -4.785 34
-0.835 -15.393 -4.843 7
-0.808 -14.82 -4.88 8
-0.786 -14.289 -4.92 9
-0.764 -13.827 -4.983 8
-0.745 -13.36 -5.028 7
-0.721 -12.869 -5.042 20
-0.703 -12.442 -5.08 9
-0.684 -12.034 -5.117 10
-0.667 -11.632 -5.145 10
-0.649 -11.256 -5.178 13
-0.634 -10.891 -5.207 11
-0.617 -10.539 -5.234 12
-0.6 -10.195 -5.256 11
-0.587 -9.872 -5.284 13
-0.571 -9.545 -5.297 43
-1.95 -37.436 -3.601 7
-1.747 -33.28 -3.469 13
-1.692 -32.099 -3.823 13
-1.593 -29.975 -3.92 6
-1.498 -28.062 -3.997 6
-1.415 -26.404 -4.075 5
-1.346 -24.913 -4.144 6
-1.281 -23.597 -4.214 5
-1.227 -22.442 -4.292 5
-1.172 -21.34 -4.348 25
-1.131 -20.417 -4.431 9
-1.087 -19.542 -4.501 15
-1.053 -18.782 -4.588 8
-1.014 -17.996 -4.639 8
-0.981 -17.28 -4.693 8
-0.948 -16.614 -4.747 7
-0.918 -15.967 -4.788 34
-0.89 -15.391 -4.842 8
-0.861 -14.825 -4.882 8
-0.837 -14.294 -4.923 8
-0.814 -13.824 -4.981 8
-0.793 -13.358 -5.026 7
-0.768 -12.87 -5.042 12
-0.75 -12.447 -5.083 10
-0.729 -12.033 -5.116 10
-0.711 -11.631 -5.144 10
-0.692 -11.258 -5.179 12
-0.676 -10.896 -5.21 11
-0.658 -10.547 -5.24 12
-0.641 -10.2 -5.26 13
-0.626 -9.867 -5.28 13
-0.609 -9.543 -5.296 42
-2.067 -37.458 -3.605 7
-1.85 -33.278 -3.469 16
-1.793 -32.102 -3.823 13
-1.687 -29.973 -3.92 6
-1.589 -28.089 -4.003 5
-1.5 -26.403 -4.075 5
-1.427 -24.917 -4.145 6
-1.358 -23.608 -4.218 5
-1.301 -22.434 -4.289 5
-1.243 -21.337 -4.347 23
-1.199 -20.417 -4.431 10
-1.153 -19.553 -4.506 13
-1.117 -18.782 -4.588 8
-1.075 -17.999 -4.64 7
-1.041 -17.283 -4.695 8
-1.005 -16.611 -4.746 7
-0.975 -15.971 -4.79 35
-0.944 -15.388 -4.841 7
-0.914 -14.819 -4.879 8
-0.889 -14.298 -4.926 9
-0.864 -13.83 -4.984 8
-0.842 -13.356 -5.025 7
-0.815 -12.865 -5.039 26
-0.796 -12.448 -5.084 10
-0.774 -12.034 -5.117 9
-0.755 -11.638 -5.149 10
-0.735 -11.262 -5.182 12
-0.718 -10.891 -5.207 10
-0.699 -10.535 -5.231 12
-0.681 -10.201 -5.26 12
-0.665 -9.872 -5.284 13
-0.648 -9.548 -5.3 43
-2.183 -37.468 -3.607 7
-1.954 -33.269 -3.467 19
-1.896 -32.128 -3.829 13
-1.783 -29.988 -3.923 7
-1.679 -28.096 -4.005 6
-1.585 -26.402 -4.074 5
-1.508 -24.92 -4.146 6
-1.436 -23.619 -4.221 5
-1.375 -22.441 -4.291 5
-1.314 -21.337 -4.347 30
-1.267 -20.42 -4.432 9
-1.219 -19.546 -4.503 31
-1.181 -18.79 -4.592 8
-1.137 -18.0 -4.641 7
-1.1 -17.281 -4.694 8
-1.063 -16.608 -4.744 7
-1.03 -15.968 -4.788 36
-0.999 -15.396 -4.845 8
-0.966 -14.816 -4.878 8
-0.94 -14.296 -4.924 9
-0.914 -13.823 -4.981 7
-0.891 -13.357 -5.026 8
-0.863 -12.869 -5.042 19
-0.842 -12.446 -5.082 10
-0.819 -12.032 -5.116 10
-0.799 -11.63 -5.143 11
-0.778 -11.26 -5.181 12
-0.76 -10.896 -5.211 12
-0.74 -10.543 -5.237 11
-0.721 -10.203 -5.262 13
-0.704 -9.868 -5.28 13
-0.686 -9.55 -5.302 38
-2.299 -37.476 -3.608 6
-2.058 -33.279 -3.469 16
-1.996 -32.125 -3.828 13
-1.879 -30.001 -3.926 6
-1.768 -28.098 -4.006 7
-1.67 -26.401 -4.074 5
-1.589 -24.923 -4.147 6
-1.513 -23.622 -4.222 5
-1.45 -22.452 -4.295 5
-1.385 -21.343 -4.349 32
-1.335 -20.417 -4.431 9
-1.284 -19.531 -4.497 41
-1.244 -18.783 -4.589 8
-1.199 -17.997 -4.639 7
-1.161 -17.289 -4.697 8
-1.121 -16.613 -4.747 8
-1.086 -15.969 -4.788 31
-1.053 -15.393 -4.843 7
-1.019 -14.82 -4.88 7
-0.991 -14.293 -4.923 9
-0.964 -13.824 -4.981 8
-0.94 -13.354 -5.024 7
-0.911 -12.867 -5.04 12
-0.889 -12.447 -5.083 10
-0.864 -12.036 -5.119 10
-0.843 -11.634 -5.146 10
-0.821 -11.261 -5.182 12
-0.802 -10.894 -5.209 11
-0.782 -10.548 -5.241 14
-0.761 -10.204 -5.263 12
-0.744 -9.872 -5.283 13
-0.724 -9.545 -5.298 46
-2.417 -37.501 -3.612 7
-2.161 -33.268 -3.467 12
-2.098 -32.139 -3.831 14
-1.973 -29.996 -3.925 6
-1.723 -26.051 -3.495 2
-1.756 -26.419 -4.079 3
-1.67 -24.93 -4.149 6
-1.591 -23.633 -4.225 5
-1.523 -22.447 -4.294 5
-1.456 -21.343 -4.349 31
-1.403 -20.413 -4.43 10
-1.35 -19.534 -4.499 40
-1.308 -18.787 -4.59 8
-1.26 -18.0 -4.641 7
-1.22 -17.289 -4.697 8
-1.179 -16.616 -4.748 8
-1.143 -15.973 -4.791 38
-1.107 -15.394 -4.843 8
-1.072 -14.818 -4.879 8
-1.043 -14.294 -4.923 8
-1.014 -13.825 -4.982 8
-0.989 -13.359 -5.027 8
-0.958 -12.864 -5.039 25
-0.935 -12.445 -5.082 10
-0.909 -12.034 -5.117 9
-0.888 -11.639 -5.15 10
-0.864 -11.256 -5.178 12
-0.844 -10.895 -5.21 12
-0.822 -10.543 -5.237 12
-0.801 -10.202 -5.261 12
-0.783 -9.873 -5.284 14
-0.763 -9.549 -5.301 43
-2.315 -34.271 -3.043 7
-2.265 -33.27 -3.467 18
-2.201 -32.16 -3.836 18
-1.815 -26.327 -3.078 22
-1.784 -25.74 -3.418 5
-1.841 -26.426 -4.081 4
-1.751 -24.928 -4.148 6
-1.668 -23.624 -4.223 5
-1.597 -22.443 -4.292 5
-1.527 -21.346 -4.35 31
-1.472 -20.423 -4.434 9
-1.416 -19.534 -4.499 25
-1.372 -18.787 -4.59 8
-1.322 -17.997 -4.639 7
-1.28 -17.289 -4.697 8
-1.237 -16.609 -4.745 8
-1.198 -15.966 -4.787 35
-1.162 -15.39 -4.842 8
-1.124 -14.811 -4.875 8
-1.095 -14.297 -4.925 8
-1.065 -13.829 -4.984 8
-1.038 -13.36 -5.027 7
-1.006 -12.869 -5.041 8
-0.981 -12.446 -5.082 10
-0.955 -12.035 -5.118 9
-0.932 -11.637 -5.148 10
-0.907 -11.26 -5.181 12
-0.886 -10.893 -5.208 12
-0.863 -10.537 -5.233 12
-0.842 -10.206 -5.265 11
-0.822 -9.874 -5.286 12
-0.801 -9.55 -5.302 40
-2.425 -34.334 -3.054 37
-2.368 -33.263 -3.466 15
-2.303 -32.172 -3.838 15
-1.888 -26.17 -3.042 16
-1.849 -25.502 -3.358 18
-1.925 -26.413 -4.077 5
-1.832 -24.934 -4.15 6
-1.746 -23.635 -4.226 5
-1.671 -22.446 -4.293 5
-1.598 -21.345 -4.35 32
-1.541 -20.422 -4.433 9
-1.482 -19.545 -4.503 10
-1.436 -18.789 -4.591 8
-1.384 -18.0 -4.641 7
-1.339 -17.285 -4.696 8
-1.294 -16.609 -4.745 8
-1.255 -15.97 -4.789 39
-1.217 -15.398 -4.846 8
-1.178 -14.819 -4.879 8
-1.146 -14.298 -4.926 8
-1.115 -13.83 -4.985 8
-1.087 -13.36 -5.027 7
-1.053 -12.87 -5.042 8
-1.028 -12.449 -5.085 10
-1.0 -12.032 -5.116 10
-0.976 -11.634 -5.146 10
-0.951 -11.261 -5.182 12
-0.928 -10.894 -5.209 10
-0.904 -10.542 -5.236 11
-0.881 -10.198 -5.258 11
-0.862 -9.872 -5.284 14
-0.84 -9.552 -5.303 42
-2.523 -34.216 -3.033 26
-2.472 -33.268 -3.467 19
-2.405 -32.185 -3.841 18
-1.933 -25.67 -2.926 9
-1.921 -25.369 -3.325 31
-2.011 -26.418 -4.079 3
-1.913 -24.936 -4.15 6
-1.823 -23.641 -4.228 5
-1.745 -22.449 -4.294 5
-1.668 -21.344 -4.349 32
-1.609 -20.422 -4.433 9
-1.549 -19.552 -4.505 9
-1.5 -18.789 -4.591 7
-1.445 -18.0 -4.641 8
-1.399 -17.284 -4.695 8
-1.353 -16.613 -4.747 8
-1.31 -15.962 -4.785 37
-1.271 -15.394 -4.844 8
-1.231 -14.819 -4.879 8
-1.197 -14.295 -4.924 9
-1.165 -13.823 -4.981 8
-1.136 -13.361 -5.028 7
-1.101 -12.866 -5.04 8
-1.074 -12.45 -5.085 10
-1.045 -12.037 -5.119 10
-1.02 -11.635 -5.147 10
-0.994 -11.259 -5.18 12
-0.97 -10.895 -5.21 11
-0.945 -10.539 -5.234 12
-0.922 -10.202 -5.262 11
-0.901 -9.87 -5.282 13
-0.878 -9.55 -5.301 43
-2.621 -34.107 -3.014 28
-2.575 -33.252 -3.464 15
-2.507 -32.193 -3.843 13
-2.0 -25.49 -2.885 31
-1.996 -25.294 -3.306 41
-2.096 -26.424 -4.08 4
-1.994 -24.942 -4.152 6
-1.901 -23.643 -4.228 6
-1.82 -22.454 -4.296 6
-1.739 -21.34 -4.348 31
-1.677 -20.424 -4.434 9
-1.615 -19.558 -4.508 9
-1.564 -18.788 -4.591 8
-1.507 -18.0 -4.64 8
-1.459 -17.288 -4.697 8
-1.41 -16.613 -4.747 8
-1.367 -15.97 -4.789 40
-1.326 -15.398 -4.846 8
-1.284 -14.819 -4.879 9
-1.249 -14.291 -4.922 9
-1.215 -13.827 -4.983 8
-1.185 -13.361 -5.028 7
-1.148 -12.871 -5.042 8
-1.121 -12.447 -5.083 10
-1.09 -12.033 -5.117 10
-1.064 -11.635 -5.147 10
-1.037 -11.259 -5.18 12
-1.012 -10.889 -5.206 10
-0.987 -10.54 -5.235 12
-0.962 -10.2 -5.26 11
-0.941 -9.877 -5.288 15
-0.917 -9.554 -5.305 42
-2.718 -34.008 -2.997 28
-2.678 -33.24 -3.461 15
-2.609 -32.202 -3.845 13
-2.075 -25.417 -2.868 45
-2.072 -25.241 -3.293 46
-2.09 -25.316 -3.783 1
-2.076 -24.948 -4.154 7
-1.979 -23.649 -4.23 6
-1.894 -22.46 -4.298 5
-1.81 -21.342 -4.349 30
-1.746 -20.431 -4.436 7
-1.681 -19.557 -4.507 9
-1.628 -18.787 -4.591 7
-1.569 -18.002 -4.642 8
-1.519 -17.287 -4.697 8
-1.469 -16.615 -4.748 8
-1.423 -15.965 -4.787 39
-1.381 -15.401 -4.847 8
-1.337 -14.822 -4.881 8
-1.3 -14.295 -4.924 9
-1.266 -13.827 -4.983 8
-1.233 -13.357 -5.026 7
-1.195 -12.864 -5.038 8
-1.167 -12.451 -5.086 10
-1.135 -12.031 -5.115 8
-1.108 -11.636 -5.148 10
-1.08 -11.26 -5.181 12
-1.054 -10.89 -5.206 11
-1.028 -10.538 -5.233 12
-1.002 -10.201 -5.261 13
-0.979 -9.872 -5.283 13
-0.955 -9.549 -5.3 39
-2.826 -34.032 -3.001 35
-2.785 -33.279 -3.469 23
-2.71 -32.197 -3.844 14
-2.153 -25.388 -2.861 40
-2.151 -25.215 -3.287 49
-2.166 -25.251 -3.766 4
-2.156 -24.942 -4.152 7
-2.056 -23.646 -4.229 6
-1.968 -22.459 -4.297 4
-1.882 -21.351 -4.352 30
-1.814 -20.425 -4.434 6
-1.747 -19.556 -4.507 9
-1.692 -18.789 -4.591 7
-1.631 -18.001 -4.641 7
-1.579 -17.286 -4.696 8
-1.527 -16.615 -4.748 7
-1.479 -15.965 -4.787 38
-1.436 -15.404 -4.849 7
-1.39 -14.821 -4.881 9
-1.352 -14.298 -4.926 8
-1.316 -13.827 -4.983 8
-1.283 -13.361 -5.028 8
-1.243 -12.867 -5.04 8
-1.213 -12.448 -5.084 9
-1.181 -12.034 -5.117 10
-1.152 -11.636 -5.148 11
-1.123 -11.26 -5.181 12
-1.097 -10.893 -5.209 12
-1.069 -10.541 -5.236 11
-1.042 -10.201 -5.261 12
-1.019 -9.87 -5.282 13
-0.994 -9.553 -5.304 39
-2.931 -34.027 -3.0 28
-2.884 -33.22 -3.457 35
-2.812 -32.213 -3.847 13
-2.234 -25.385 -2.861 36
-2.23 -25.201 -3.283 52
-2.245 -25.218 -3.757 0
-2.237 -24.943 -4.152 7
-2.133 -23.644 -4.229 6
-2.043 -22.471 -4.301 5
-1.954 -21.368 -4.358 32
-1.882 -20.42 -4.432 6
-1.813 -19.554 -4.506 9
-1.757 -18.792 -4.593 7
-1.693 -18.004 -4.642 8
-1.639 -17.292 -4.699 7
-1.584 -16.614 -4.747 7
-1.536 -15.979 -4.793 9
-1.49 -15.396 -4.845 8
-1.443 -14.821 -4.881 8
-1.404 -14.302 -4.928 9
-1.366 -13.826 -4.983 8
-1.331 -13.354 -5.024 7
-1.291 -12.864 -5.038 8
-1.26 -12.451 -5.086 10
-1.227 -12.038 -5.12 10
-1.197 -11.636 -5.148 11
-1.167 -11.264 -5.184 10
-1.139 -10.89 -5.206 9
-1.11 -10.542 -5.237 12
-1.083 -10.202 -5.262 11
-1.059 -9.876 -5.287 13
-1.032 -9.55 -5.301 41
-3.034 -34.002 -2.996 29
-2.991 -33.262 -3.465 39
-2.414 -26.69 -2.673 5
-2.313 -25.37 -2.857 43
-2.309 -25.183 -3.279 54
-2.321 -25.169 -3.744 0
-2.319 -24.951 -4.154 7
-2.211 -23.645 -4.229 6
-2.118 -22.473 -4.302 5
-2.025 -21.367 -4.357 29
-1.952 -20.433 -4.437 8
-1.88 -19.556 -4.507 9
-1.821 -18.798 -4.595 7
-1.754 -17.995 -4.638 8
-1.699 -17.292 -4.699 7
-1.643 -16.621 -4.75 8
-1.593 -15.978 -4.793 9
-1.544 -15.396 -4.845 7
-1.496 -14.824 -4.882 8
-1.455 -14.294 -4.923 9
-1.416 -13.823 -4.981 8
-1.381 -13.361 -5.028 8
-1.339 -12.871 -5.043 8
-1.307 -12.448 -5.084 9
-1.272 -12.031 -5.115 9
-1.241 -11.64 -5.15 10
-1.21 -11.261 -5.182 11
-1.181 -10.895 -5.21 11
-1.152 -10.542 -5.237 14
-1.122 -10.196 -5.257 12
-1.098 -9.874 -5.285 13
-0.96 -8.57 -4.45 11
-3.148 -34.092 -3.011 27
-3.086 -33.158 -3.445 36
-2.496 -26.666 -2.668 10
-2.393 -25.367 -2.856 49
-2.389 -25.172 -3.276 52
-2.402 -25.165 -3.743 0
-2.401 -24.956 -4.156 7
-2.289 -23.65 -4.231 6
-2.193 -22.478 -4.304 5
-2.098 -21.379 -4.361 32
-2.021 -20.431 -4.436 9
-1.945 -19.551 -4.505 9
-1.885 -18.793 -4.593 6
-1.817 -18.005 -4.643 7
-1.758 -17.287 -4.697 7
-1.701 -16.619 -4.75 8
-1.649 -15.977 -4.792 10
-1.599 -15.399 -4.846 4
-1.549 -14.816 -4.878 8
-1.507 -14.301 -4.927 9
-1.467 -13.825 -4.982 7
-1.429 -13.354 -5.024 8
-1.387 -12.871 -5.043 9
-1.353 -12.448 -5.084 10
-1.317 -12.031 -5.115 10
-1.285 -11.637 -5.148 11
-1.253 -11.258 -5.179 11
-1.223 -10.891 -5.207 11
-1.193 -10.539 -5.234 11
-1.163 -10.2 -5.26 11
-1.136 -9.868 -5.281 13
-0.985 -8.487 -4.377 12
-3.253 -34.085 -3.01 30
-3.186 -33.122 -3.438 40
-2.566 -26.515 -2.636 1
-2.474 -25.364 -2.856 53
-2.468 -25.153 -3.271 56
-2.609 -26.431 -4.082 2
-2.484 -24.971 -4.16 7
-2.367 -23.658 -4.233 5
-2.267 -22.483 -4.305 5
-2.169 -21.38 -4.362 29
-2.09 -20.436 -4.438 18
-2.012 -19.56 -4.508 8
-1.949 -18.794 -4.593 5
-1.879 -18.003 -4.642 8
-1.818 -17.285 -4.696 8
-1.759 -16.622 -4.751 8
-1.705 -15.976 -4.792 9
-1.654 -15.397 -4.845 6
-1.602 -14.816 -4.878 8
-1.559 -14.297 -4.925 9
-1.517 -13.826 -4.982 8
-1.478 -13.356 -5.025 8
-1.434 -12.867 -5.04 9
-1.399 -12.444 -5.081 9
-1.362 -12.028 -5.113 10
-1.33 -11.637 -5.148 10
-1.296 -11.262 -5.182 12
-1.265 -10.892 -5.207 11
-1.234 -10.54 -5.234 11
-1.204 -10.203 -5.262 12
-1.176 -9.872 -5.283 13
-1.01 -8.403 -4.305 11
-3.342 -33.907 -2.979 15
-3.292 -33.139 -3.442 37
-2.636 -26.382 -2.608 1
-2.554 -25.356 -2.854 54
-2.548 -25.145 -3.269 56
-2.569 -25.201 -3.753 1
-2.565 -24.968 -4.159 6
-2.445 -23.658 -4.233 5
-2.342 -22.483 -4.305 5
-2.241 -21.389 -4.365 25
-2.158 -20.43 -4.436 22
-2.079 -19.562 -4.509 9
-2.013 -18.792 -4.593 6
-1.94 -18.001 -4.641 7
-1.878 -17.287 -4.697 8
-1.818 -16.623 -4.752 8
-1.762 -15.978 -4.793 9
-1.709 -15.403 -4.848 7
-1.655 -14.814 -4.877 7
-1.61 -14.296 -4.924 9
-1.568 -13.825 -4.982 8
-1.527 -13.352 -5.023 8
-1.482 -12.867 -5.04 8
-1.446 -12.447 -5.083 9
-1.408 -12.031 -5.115 10
-1.374 -11.637 -5.148 10
-1.34 -11.264 -5.184 11
-1.308 -10.895 -5.21 11
-1.275 -10.54 -5.234 11
-1.243 -10.197 -5.258 12
-1.05 -8.53 -4.157 11
-1.032 -8.308 -4.222 9
-3.464 -34.073 -3.008 36
-3.389 -33.075 -3.429 38
-2.702 -26.214 -2.572 9
-2.634 -25.356 -2.854 55
-2.628 -25.137 -3.267 56
-2.645 -25.151 -3.739 2
-2.647 -24.975 -4.161 7
-2.524 -23.67 -4.237 6
-2.417 -22.488 -4.307 5
-2.313 -21.386 -4.364 23
-2.226 -20.424 -4.434 33
-2.146 -19.567 -4.511 9
-2.077 -18.79 -4.592 5
-2.003 -18.007 -4.643 7
-1.939 -17.292 -4.699 8
-1.876 -16.625 -4.753 8
-1.818 -15.98 -4.794 9
-1.764 -15.399 -4.846 7
-1.708 -14.813 -4.876 8
-1.662 -14.295 -4.924 9
-1.618 -13.827 -4.983 8
-1.577 -13.355 -5.024 7
-1.529 -12.863 -5.037 8
-1.493 -12.45 -5.085 10
-1.454 -12.034 -5.117 10
-1.418 -11.636 -5.148 10
-1.382 -11.258 -5.179 11
-1.35 -10.888 -5.204 11
-1.316 -10.536 -5.232 12
-1.284 -10.2 -5.26 12
-1.073 -8.442 -4.084 10
-1.052 -8.206 -4.133 8
-3.56 -33.976 -2.991 18
-3.491 -33.06 -3.426 32
-2.78 -26.167 -2.562 9
-2.715 -25.352 -2.853 54
-2.707 -25.13 -3.266 56
-2.741 -25.285 -3.775 14
-2.728 -24.975 -4.161 5
-2.602 -23.674 -4.238 6
-2.492 -22.492 -4.308 5
-2.384 -21.39 -4.365 23
-2.294 -20.421 -4.433 27
-2.212 -19.567 -4.511 9
-2.142 -18.795 -4.594 6
-2.065 -18.008 -4.644 7
-1.999 -17.294 -4.7 7
-1.935 -16.627 -4.753 8
-1.874 -15.979 -4.793 9
-1.818 -15.394 -4.843 8
-1.761 -14.813 -4.876 7
-1.714 -14.297 -4.925 8
-1.668 -13.823 -4.981 8
-1.626 -13.354 -5.024 6
-1.578 -12.869 -5.041 7
-1.539 -12.446 -5.082 10
-1.499 -12.036 -5.119 10
-1.463 -11.639 -5.15 10
-1.426 -11.258 -5.179 12
-1.393 -10.894 -5.21 11
-1.358 -10.54 -5.235 12
-1.111 -8.555 -3.928 0
-1.096 -8.357 -4.013 12
-1.075 -8.132 -4.069 11
-3.677 -34.083 -3.01 39
-3.604 -33.144 -3.443 30
-2.858 -26.12 -2.552 11
-2.795 -25.351 -2.853 54
-2.789 -25.137 -3.267 55
-2.817 -25.23 -3.76 3
-2.811 -24.982 -4.163 7
-2.681 -23.681 -4.24 6
-2.567 -22.5 -4.311 5
-2.456 -21.395 -4.367 23
-2.364 -20.429 -4.435 13
-2.279 -19.572 -4.513 9
-2.206 -18.789 -4.591 7
-2.128 -18.013 -4.646 7
-2.06 -17.295 -4.7 7
-1.993 -16.625 -4.753 8
-1.931 -15.977 -4.792 9
-1.872 -15.392 -4.843 8
-1.814 -14.814 -4.877 7
-1.765 -14.292 -4.922 8
-1.72 -13.828 -4.984 8
-1.675 -13.357 -5.025 5
-1.625 -12.868 -5.041 8
-1.586 -12.449 -5.084 10
-1.544 -12.029 -5.114 9
-1.507 -11.632 -5.145 10
-1.469 -11.26 -5.181 11
-1.435 -10.894 -5.209 11
-1.399 -10.537 -5.232 12
-1.137 -8.494 -3.878 10
-1.119 -8.278 -3.946 10
-1.097 -8.051 -3.999 12
-3.781 -34.056 -3.005 34
-3.701 -33.078 -3.43 36
-2.935 -26.072 -2.542 11
-2.875 -25.343 -2.851 43
-2.871 -25.143 -3.269 55
-2.9 -25.245 -3.764 9
-2.892 -24.977 -4.162 6
-2.76 -23.689 -4.242 6
-2.643 -22.51 -4.314 5
-2.529 -21.402 -4.369 22
-2.435 -20.444 -4.441 10
-2.345 -19.568 -4.512 9
-2.27 -18.789 -4.591 8
-2.19 -18.011 -4.645 8
-2.121 -17.301 -4.703 7
-2.05 -16.62 -4.75 8
-1.987 -15.979 -4.793 9
-1.928 -15.394 -4.843 8
-1.867 -14.813 -4.876 7
-1.817 -14.291 -4.921 9
-1.77 -13.824 -4.981 8
-1.724 -13.355 -5.025 7
-1.673 -12.864 -5.038 9
-1.633 -12.451 -5.086 9
-1.59 -12.032 -5.115 10
-1.551 -11.631 -5.144 10
-1.513 -11.26 -5.181 12
-1.477 -10.891 -5.207 10
-1.441 -10.543 -5.237 10
-1.159 -8.414 -3.813 12
-1.142 -8.205 -3.885 8
-1.119 -7.973 -3.931 7
-3.884 -34.034 -3.001 29
-3.806 -33.091 -3.432 32
-3.015 -26.048 -2.537 20
-2.958 -25.361 -2.855 1
-2.953 -25.155 -3.272 55
-2.984 -25.259 -3.768 16
-2.975 -24.987 -4.165 6
-2.838 -23.692 -4.243 5
-2.718 -22.51 -4.314 5
-2.601 -21.409 -4.372 19
-2.504 -20.445 -4.441 9
-2.412 -19.573 -4.513 9
-2.334 -18.787 -4.59 8
-2.252 -18.008 -4.644 7
-2.18 -17.298 -4.702 7
-2.109 -16.624 -4.752 9
-2.044 -15.979 -4.794 9
-1.982 -15.388 -4.841 7
-1.921 -14.814 -4.877 7
-1.87 -14.299 -4.926 8
-1.82 -13.822 -4.98 7
-1.773 -13.351 -5.022 8
-1.72 -12.862 -5.037 8
-1.68 -12.45 -5.085 10
-1.636 -12.034 -5.117 10
-1.596 -11.634 -5.146 9
-1.556 -11.259 -5.18 12
-1.519 -10.887 -5.204 11
-1.201 -8.54 -3.672 5
-1.182 -8.339 -3.753 12
-1.162 -8.117 -3.811 10
-1.378 -9.543 -5.296 27
-3.999 -34.108 -3.014 39
-3.915 -33.133 -3.44 45
-3.093 -26.008 -2.528 13
0.0 -0.0 3.0 0
-3.034 -25.157 -3.272 53
-3.085 -25.416 -3.81 3
-3.059 -25.005 -4.17 6
-2.916 -23.687 -4.242 6
-2.793 -22.509 -4.314 5
-2.674 -21.413 -4.373 18
-2.573 -20.444 -4.441 9
-2.479 -19.573 -4.513 9
-2.398 -18.787 -4.59 7
-2.313 -18.001 -4.641 8
-2.24 -17.295 -4.7 8
-2.168 -16.625 -4.753 8
-2.101 -15.985 -4.796 9
-2.038 -15.397 -4.845 7
-1.975 -14.823 -4.882 7
-1.92 -14.291 -4.921 9
-1.871 -13.824 -4.981 5
-1.823 -13.352 -5.023 7
-1.769 -12.865 -5.039 8
-1.726 -12.446 -5.083 10
-1.681 -12.03 -5.114 10
-1.641 -11.637 -5.148 10
-1.6 -11.258 -5.18 10
-1.562 -10.893 -5.208 10
-1.224 -8.466 -3.614 12
-1.203 -8.256 -3.686 8
-1.183 -8.036 -3.743 10
-1.417 -9.546 -5.299 37
-4.12 -34.225 -3.035 28
-4.028 -33.2 -3.453 40
-3.17 -25.967 -2.519 12
-3.123 -25.382 -2.86 1
-3.118 -25.179 -3.278 55
-3.142 -25.214 -3.756 20
-3.14 -24.999 -4.168 7
-2.995 -23.697 -4.245 6
-2.868 -22.513 -4.315 5
-2.746 -21.42 -4.375 15
-2.642 -20.448 -4.442 9
-2.546 -19.573 -4.513 9
-2.463 -18.788 -4.591 8
-2.376 -18.009 -4.644 7
-2.301 -17.296 -4.701 8
-2.226 -16.623 -4.751 8
-2.157 -15.979 -4.793 8
-2.093 -15.398 -4.846 7
-2.028 -14.818 -4.879 7
-1.974 -14.3 -4.926 8
-1.921 -13.819 -4.978 5
-1.872 -13.351 -5.022 7
-1.816 -12.863 -5.038 7
-1.773 -12.448 -5.084 10
-1.726 -12.029 -5.113 10
-1.685 -11.636 -5.148 10
-1.643 -11.258 -5.179 11
-1.605 -10.895 -5.21 11
-1.246 -8.39 -3.555 9
-1.223 -8.171 -3.616 10
-1.203 -7.96 -3.679 6
-1.455 -9.546 -5.298 39
-4.21 -34.087 -3.011 5
-4.136 -33.234 -3.46 39
-3.25 -25.946 -2.515 12
0.0 -0.0 3.0 0
-3.202 -25.2 -3.283 50
-3.224 -25.212 -3.756 2
-3.223 -25.013 -4.172 7
-3.074 -23.703 -4.247 6
-2.943 -22.512 -4.314 5
-2.816 -21.408 -4.372 31
-2.712 -20.452 -4.444 9
-2.613 -19.577 -4.515 9
-2.528 -18.791 -4.592 8
-2.439 -18.009 -4.644 7
-2.361 -17.292 -4.699 8
-2.284 -16.62 -4.75 8
-2.214 -15.979 -4.794 9
-2.149 -15.403 -4.848 7
-2.083 -14.826 -4.883 7
-2.025 -14.294 -4.923 8
-1.972 -13.824 -4.981 8
-1.921 -13.353 -5.023 8
-1.864 -12.861 -5.037 8
-1.82 -12.446 -5.083 8
-1.772 -12.031 -5.115 10
-1.729 -11.634 -5.147 10
-1.686 -11.257 -5.179 11
-1.287 -8.512 -3.414 9
-1.264 -8.29 -3.477 6
-1.242 -8.081 -3.544 8
-1.533 -9.877 -5.288 11
-1.494 -9.542 -5.295 40
-4.345 -34.313 -3.05 2
-4.255 -33.342 -3.481 32
-3.33 -25.925 -2.511 15
0.0 -0.0 3.0 0
-3.285 -25.213 -3.286 54
-3.338 -25.46 -3.822 3
-3.306 -25.015 -4.173 6
-3.153 -23.709 -4.249 6
-3.018 -22.518 -4.316 5
-2.888 -21.407 -4.371 31
-2.781 -20.451 -4.443 9
-2.68 -19.581 -4.516 9
-2.592 -18.788 -4.591 8
-2.501 -18.006 -4.643 8
-2.421 -17.293 -4.699 8
-2.342 -16.617 -4.749 8
-2.27 -15.977 -4.792 9
-2.204 -15.403 -4.848 8
-2.136 -14.823 -4.882 7
-2.078 -14.299 -4.926 8
-2.023 -13.822 -4.98 8
-1.97 -13.351 -5.022 8
-1.913 -12.867 -5.04 7
-1.867 -12.448 -5.084 9
-1.817 -12.026 -5.112 9
-1.773 -11.63 -5.144 10
-1.73 -11.259 -5.18 12
-1.318 -8.497 -3.403 8
-1.284 -8.209 -3.413 8
-1.261 -7.998 -3.477 12
-1.571 -9.867 -5.279 13
-1.533 -9.545 -5.297 38
-4.926 -37.969 -3.695 7
-4.362 -33.357 -3.484 23
-3.41 -25.91 -2.507 15
0.0 -0.0 3.0 0
-3.368 -25.23 -3.291 54
-3.394 -25.262 -3.769 10
-3.388 -25.02 -4.174 6
-3.232 -23.711 -4.249 6
-3.094 -22.523 -4.318 5
-2.96 -21.41 -4.372 32
-2.851 -20.454 -4.444 9
-2.747 -19.584 -4.517 9
-2.657 -18.787 -4.59 7
-2.563 -18.006 -4.643 8
-2.482 -17.293 -4.699 8
-2.401 -16.617 -4.749 8
-2.327 -15.978 -4.793 9
-2.259 -15.401 -4.847 8
-2.189 -14.824 -4.882 8
-2.13 -14.3 -4.926 8
-2.074 -13.827 -4.983 8
-2.02 -13.349 -5.021 7
-1.96 -12.861 -5.037 6
-1.914 -12.447 -5.083 9
-1.864 -12.032 -5.115 9
-1.818 -11.632 -5.145 10
-1.774 -11.258 -5.18 11
-1.351 -8.496 -3.402 4
-1.316 -8.209 -3.414 2
-1.284 -7.942 -3.431 5
-1.611 -9.873 -5.284 15
-1.571 -9.545 -5.297 39
-5.052 -38.017 -3.703 6
-4.471 -33.382 -3.489 28
-3.49 -25.892 -2.503 15
0.0 -0.0 3.0 0
-3.453 -25.251 -3.296 55
-3.481 -25.294 -3.777 17
-3.471 -25.025 -4.176 7
-3.312 -23.724 -4.253 6
-3.17 -22.529 -4.32 5
-3.034 -21.419 -4.375 16
-2.921 -20.46 -4.447 9
-2.814 -19.579 -4.516 9
-2.722 -18.791 -4.592 8
-2.626 -18.009 -4.644 7
-2.541 -17.286 -4.696 8
-2.458 -16.611 -4.746 8
-2.384 -15.974 -4.791 9
-2.315 -15.405 -4.849 8
-2.243 -14.825 -4.883 8
-2.181 -14.294 -4.923 8
-2.125 -13.824 -4.981 7
-2.069 -13.347 -5.02 7
-2.008 -12.863 -5.038 7
-1.961 -12.448 -5.084 9
-1.91 -12.033 -5.117 10
-1.863 -11.631 -5.144 9
-1.816 -11.253 -5.176 11
-1.775 -10.894 -5.209 11
-1.365 -8.312 -3.494 5
-1.315 -7.942 -3.431 4
-1.65 -9.866 -5.279 14
-1.61 -9.544 -5.297 36
-5.172 -38.024 -3.705 7
-4.578 -33.392 -3.491 27
-3.57 -25.874 -2.5 15
0.0 -0.0 3.0 0
-3.537 -25.271 -3.301 55
-3.568 -25.325 -3.786 10
-3.555 -25.038 -4.179 6
-3.393 -23.737 -4.257 6
-3.247 -22.539 -4.323 5
-3.107 -21.429 -4.379 14
-2.99 -20.458 -4.446 9
-2.882 -19.586 -4.518 9
-2.787 -18.79 -4.592 8
-2.688 -18.005 -4.643 8
-2.603 -17.293 -4.699 8
-2.518 -16.614 -4.747 8
-2.44 -15.97 -4.789 9
-2.37 -15.406 -4.85 8
-2.296 -14.822 -4.881 8
-2.234 -14.299 -4.926 8
-2.176 -13.826 -4.982 7
-2.118 -13.345 -5.019 7
-2.056 -12.861 -5.036 7
-2.008 -12.447 -5.083 9
-1.954 -12.025 -5.111 10
-1.907 -11.629 -5.143 9
-1.86 -11.255 -5.177 11
-1.817 -10.89 -5.206 12
-1.433 -8.518 -3.655 0
-1.348 -7.946 -3.434 1
-1.69 -9.865 -5.278 14
-1.649 -9.544 -5.296 38
-5.292 -38.032 -3.706 8
-4.685 -33.41 -3.494 28
-3.652 -25.867 -2.498 15
0.0 -0.0 3.0 0
-3.619 -25.272 -3.301 56
-3.651 -25.33 -3.787 15
-3.638 -25.042 -4.181 6
-3.471 -23.734 -4.256 6
-3.323 -22.544 -4.325 5
-3.181 -21.442 -4.383 12
-3.06 -20.465 -4.449 9
-2.949 -19.592 -4.521 9
-2.852 -18.796 -4.594 8
-2.751 -18.008 -4.644 8
-2.664 -17.301 -4.703 8
-2.577 -16.618 -4.749 8
-2.497 -15.975 -4.792 9
-2.425 -15.406 -4.85 8
-2.35 -14.823 -4.882 8
-2.286 -14.295 -4.924 8
-2.227 -13.827 -4.983 7
-2.168 -13.35 -5.021 7
-2.106 -12.869 -5.041 8
-2.054 -12.444 -5.081 10
-2.0 -12.027 -5.112 9
-1.952 -11.631 -5.144 8
-1.904 -11.254 -5.176 12
-1.859 -10.888 -5.205 11
-1.813 -10.532 -5.229 11
-1.482 -8.54 -3.915 3
-1.396 -7.963 -3.681 5
-1.687 -9.542 -5.295 40
-5.416 -38.063 -3.712 6
-4.794 -33.43 -3.498 22
-3.733 -25.86 -2.497 15
0.0 -0.0 3.0 0
-3.702 -25.28 -3.303 56
-3.736 -25.342 -3.79 15
-3.723 -25.058 -4.185 6
-3.55 -23.735 -4.257 6
-3.399 -22.549 -4.327 5
-3.255 -21.452 -4.386 12
-3.131 -20.475 -4.452 9
-3.016 -19.587 -4.519 9
-2.916 -18.792 -4.592 8
-2.814 -18.011 -4.645 8
-2.724 -17.296 -4.701 8
-2.635 -16.614 -4.747 8
-2.554 -15.971 -4.79 9
-2.481 -15.406 -4.85 8
-2.404 -14.823 -4.882 7
-2.338 -14.296 -4.925 8
-2.277 -13.823 -4.981 7
-2.217 -13.347 -5.02 7
-2.154 -12.869 -5.042 7
-2.102 -12.446 -5.083 9
-2.047 -12.028 -5.113 10
-1.997 -11.629 -5.142 9
-1.948 -11.256 -5.178 11
-1.901 -10.884 -5.201 12
-1.855 -10.531 -5.228 11
-1.811 -10.196 -5.256 14
-1.516 -8.454 -4.094 0
-1.488 -8.226 -4.151 1
-5.539 -38.086 -3.716 7
-4.902 -33.443 -3.501 22
-3.816 -25.86 -2.497 12
0.0 -0.0 3.0 0
-3.786 -25.292 -3.306 55
-3.822 -25.361 -3.795 15
-3.805 -25.054 -4.184 6
-3.63 -23.747 -4.26 5
-3.476 -22.558 -4.329 4
-3.328 -21.457 -4.388 11
-3.2 -20.465 -4.449 9
-3.083 -19.589 -4.519 9
-2.982 -18.797 -4.595 8
-2.878 -18.014 -4.646 8
-2.786 -17.303 -4.704 5
-2.694 -16.617 -4.749 8
-2.611 -15.97 -4.789 9
-2.536 -15.406 -4.85 7
-2.458 -14.828 -4.884 8
-2.391 -14.3 -4.926 8
-2.328 -13.824 -4.982 7
-2.267 -13.348 -5.02 7
-2.203 -12.874 -5.044 7
-2.148 -12.444 -5.081 9
-2.093 -12.029 -5.114 8
-2.042 -11.634 -5.146 7
-1.99 -11.248 -5.172 10
-1.945 -10.889 -5.205 12
-1.897 -10.533 -5.229 13
-1.851 -10.194 -5.255 13
-1.556 -8.487 -4.122 5
-1.476 -7.977 -3.934 4
-5.663 -38.116 -3.721 6
-5.01 -33.455 -3.503 22
-3.887 -25.786 -2.481 2
-4.002 -26.344 -3.082 0
-3.869 -25.3 -3.308 54
-3.906 -25.372 -3.798 15
-3.889 -25.065 -4.187 7
-3.711 -23.755 -4.263 5
-3.554 -22.574 -4.335 3
-3.4 -21.455 -4.387 10
-3.271 -20.474 -4.452 9
-3.151 -19.591 -4.52 9
-3.048 -18.804 -4.597 8
-2.94 -18.009 -4.644 8
-2.848 -17.305 -4.705 7
-2.754 -16.62 -4.75 8
-2.668 -15.97 -4.789 9
-2.591 -15.403 -4.848 7
-2.512 -14.828 -4.884 8
-2.443 -14.297 -4.925 9
-2.378 -13.818 -4.978 7
-2.316 -13.345 -5.018 7
-2.25 -12.868 -5.041 7
-2.195 -12.441 -5.079 9
-2.138 -12.027 -5.113 10
-2.087 -11.631 -5.144 7
-2.035 -11.252 -5.175 11
-1.987 -10.887 -5.204 11
-1.937 -10.528 -5.226 13
-1.891 -10.19 -5.252 12
-1.849 -9.867 -5.279 15
-1.548 -8.189 -4.118 4
-5.125 -33.778 -2.956 5
-5.115 -33.452 -3.502 20
-3.974 -25.817 -2.488 2
-3.948 -25.445 -2.875 2
-3.952 -25.304 -3.309 54
-3.991 -25.383 -3.801 15
-3.974 -25.08 -4.192 6
-3.791 -23.763 -4.265 6
-3.629 -22.571 -4.334 4
-3.474 -21.459 -4.389 11
-3.341 -20.476 -4.453 10
-3.22 -19.604 -4.525 9
-3.113 -18.802 -4.596 8
-3.003 -18.015 -4.647 8
-2.907 -17.297 -4.701 7
-2.813 -16.62 -4.75 8
-2.725 -15.973 -4.791 9
-2.647 -15.403 -4.848 7
-2.566 -14.828 -4.884 7
-2.495 -14.294 -4.923 9
-2.429 -13.818 -4.978 8
-2.366 -13.345 -5.019 8
-2.301 -12.879 -5.048 8
-2.242 -12.442 -5.08 9
-2.184 -12.025 -5.111 9
-2.131 -11.626 -5.14 7
-2.079 -11.253 -5.176 11
-2.03 -10.885 -5.202 10
-1.98 -10.53 -5.227 11
-1.932 -10.192 -5.253 13
-1.887 -9.856 -5.27 14
-1.658 -8.586 -4.464 2
-5.236 -33.81 -2.962 11
-5.225 -33.471 -3.506 28
-4.062 -25.848 -2.494 1
-4.034 -25.473 -2.881 0
-4.037 -25.319 -3.313 53
-4.075 -25.39 -3.803 15
-4.058 -25.083 -4.192 6
-3.87 -23.763 -4.265 6
-3.706 -22.578 -4.336 5
-3.547 -21.464 -4.391 10
-3.411 -20.481 -4.454 10
-3.287 -19.602 -4.524 20
-3.179 -18.804 -4.597 8
-3.067 -18.017 -4.648 7
-2.969 -17.303 -4.704 8
-2.871 -16.619 -4.75 8
-2.783 -15.973 -4.791 9
-2.702 -15.402 -4.848 7
-2.619 -14.823 -4.882 8
-2.547 -14.294 -4.923 9
-2.48 -13.818 -4.978 7
-2.415 -13.339 -5.015 7
-2.348 -12.873 -5.044 7
-2.29 -12.446 -5.082 9
-2.23 -12.026 -5.112 10
-2.176 -11.627 -5.141 5
-2.122 -11.248 -5.172 11
-2.072 -10.884 -5.201 10
-2.021 -10.528 -5.226 13
-1.973 -10.194 -5.255 12
-1.928 -9.864 -5.277 14
-1.882 -9.54 -5.293 37
-5.349 -33.852 -2.969 22
-5.332 -33.479 -3.508 20
-4.157 -25.925 -2.511 1
0.0 -0.0 3.0 0
-4.121 -25.329 -3.315 53
-4.161 -25.404 -3.807 15
-4.142 -25.094 -4.196 6
-3.951 -23.774 -4.268 6
-3.781 -22.571 -4.334 4
-3.62 -21.465 -4.391 10
-3.482 -20.485 -4.456 9
-3.352 -19.588 -4.519 36
-3.244 -18.806 -4.598 8
-3.129 -18.015 -4.647 7
-3.028 -17.294 -4.7 8
-2.93 -16.617 -4.749 8
-2.84 -15.972 -4.79 9
-2.757 -15.398 -4.846 7
-2.673 -14.823 -4.882 7
-2.599 -14.29 -4.921 9
-2.531 -13.815 -4.976 7
-2.465 -13.34 -5.015 8
-2.397 -12.873 -5.044 8
-2.336 -12.44 -5.079 9
-2.275 -12.02 -5.108 9
-2.221 -11.628 -5.142 6
-2.166 -11.252 -5.175 12
-2.116 -10.888 -5.205 10
-2.063 -10.529 -5.226 12
-2.014 -10.191 -5.253 12
-1.968 -9.862 -5.275 14
-1.92 -9.539 -5.292 37
-5.413 -33.587 -2.922 26
-5.439 -33.483 -3.508 21
-4.249 -25.982 -2.523 1
0.0 -0.0 3.0 0
-4.205 -25.34 -3.318 55
-4.247 -25.422 -3.812 16
-4.227 -25.1 -4.197 6
-4.031 -23.777 -4.269 6
-3.859 -22.586 -4.339 5
-3.694 -21.472 -4.394 10
-3.552 -20.485 -4.456 9
-3.419 -19.586 -4.518 42
-3.31 -18.807 -4.598 8
-3.192 -18.014 -4.646 7
-3.09 -17.297 -4.701 8
-2.99 -16.62 -4.75 8
-2.896 -15.968 -4.788 9
-2.811 -15.39 -4.842 7
-2.727 -14.819 -4.879 8
-2.651 -14.289 -4.921 9
-2.583 -13.822 -4.98 7
-2.515 -13.34 -5.015 8
-2.445 -12.873 -5.044 8
-2.385 -12.447 -5.083 9
-2.321 -12.02 -5.108 9
-2.266 -11.629 -5.143 10
-2.21 -11.25 -5.174 11
-2.157 -10.879 -5.198 11
-2.105 -10.527 -5.225 12
-2.055 -10.193 -5.254 11
-2.008 -9.861 -5.274 14
-1.959 -9.538 -5.291 30
-5.502 -33.481 -2.904 17
-5.551 -33.512 -3.514 28
-4.343 -26.042 -2.535 7
0.0 -0.0 3.0 0
-4.29 -25.354 -3.321 54
-4.334 -25.441 -3.817 16
-4.31 -25.099 -4.197 7
-4.112 -23.788 -4.273 6
-3.935 -22.586 -4.339 5
-3.767 -21.476 -4.395 9
-3.624 -20.494 -4.459 9
-3.488 -19.591 -4.52 33
-3.375 -18.808 -4.599 8
-3.255 -18.015 -4.647 7
-3.151 -17.299 -4.702 8
-3.049 -16.618 -4.749 8
-2.954 -15.97 -4.789 9
-2.867 -15.393 -4.843 7
-2.78 -14.816 -4.878 8
-2.704 -14.293 -4.923 9
-2.635 -13.822 -4.98 7
-2.565 -13.34 -5.015 8
-2.493 -12.87 -5.042 8
-2.432 -12.444 -5.082 9
-2.369 -12.027 -5.112 9
-2.311 -11.627 -5.141 10
-2.253 -11.247 -5.171 10
-2.2 -10.88 -5.199 11
-2.145 -10.522 -5.221 11
-2.096 -10.191 -5.253 12
-2.047 -9.859 -5.273 14
-1.998 -9.536 -5.289 37
-5.603 -33.453 -2.899 20
-5.658 -33.515 -3.515 21
-4.44 -26.122 -2.552 6
0.0 -0.0 3.0 0
-4.374 -25.36 -3.323 54
-4.419 -25.45 -3.819 17
-4.395 -25.113 -4.201 7
-4.191 -23.786 -4.272 5
-4.013 -22.596 -4.342 5
-3.84 -21.473 -4.394 9
-3.694 -20.494 -4.459 9
-3.555 -19.591 -4.52 15
-3.442 -18.813 -4.601 8
-3.319 -18.016 -4.647 7
-3.212 -17.297 -4.701 8
-3.109 -16.623 -4.752 8
-3.012 -15.976 -4.792 9
-2.923 -15.392 -4.843 7
-2.835 -14.818 -4.879 8
-2.756 -14.289 -4.92 8
-2.685 -13.814 -4.976 8
-2.616 -13.346 -5.019 8
-2.543 -12.874 -5.044 8
-2.478 -12.438 -5.077 9
-2.414 -12.025 -5.111 9
-2.356 -11.627 -5.141 10
-2.297 -11.248 -5.172 11
-2.242 -10.878 -5.197 11
-2.188 -10.526 -5.224 10
-2.136 -10.186 -5.248 12
-2.087 -9.858 -5.272 14
-2.037 -9.537 -5.29 35
-5.752 -33.704 -2.943 2
-5.764 -33.513 -3.514 21
-4.552 -26.282 -2.587 2
0.0 -0.0 3.0 0
-4.46 -25.378 -3.327 54
-4.506 -25.463 -3.823 18
-4.48 -25.122 -4.204 6
-4.274 -23.8 -4.276 5
-4.091 -22.607 -4.345 5
-3.915 -21.487 -4.399 10
-3.763 -20.49 -4.458 8
-3.626 -19.607 -4.526 10
-3.508 -18.817 -4.603 8
-3.382 -18.018 -4.648 7
-3.274 -17.298 -4.702 8
-3.167 -16.618 -4.749 7
-3.069 -15.974 -4.791 9
-2.979 -15.39 -4.842 7
-2.889 -14.82 -4.88 8
-2.81 -14.291 -4.922 9
-2.736 -13.814 -4.976 7
-2.665 -13.342 -5.017 8
-2.59 -12.87 -5.042 8
-2.527 -12.445 -5.082 9
-2.461 -12.025 -5.111 9
-2.401 -11.628 -5.142 10
-2.34 -11.243 -5.168 11
-2.286 -10.882 -5.2 11
-2.23 -10.527 -5.225 12
-2.177 -10.19 -5.252 13
-2.127 -9.856 -5.27 13
-2.076 -9.536 -5.289 35
-6.667 -38.354 -3.763 6
-5.876 -33.539 -3.519 22
-5.715 -32.395 -3.886 13
0.0 -0.0 3.0 0
-4.545 -25.391 -3.331 53
-4.592 -25.476 -3.826 19
-4.566 -25.136 -4.208 5
-4.356 -23.814 -4.281 5
-4.169 -22.614 -4.348 5
-3.99 -21.494 -4.401 8
-3.836 -20.502 -4.462 9
-3.694 -19.607 -4.526 8
-3.574 -18.818 -4.603 8
-3.445 -18.012 -4.646 7
-3.334 -17.296 -4.701 8
-3.228 -16.623 -4.752 8
-3.125 -15.965 -4.787 9
-3.035 -15.393 -4.843 7
-2.943 -14.816 -4.878 9
-2.861 -14.287 -4.919 8
-2.787 -13.814 -4.975 8
-2.714 -13.338 -5.014 7
-2.638 -12.864 -5.038 8
-2.574 -12.445 -5.082 10
-2.506 -12.022 -5.109 9
-2.446 -11.628 -5.142 11
-2.385 -11.246 -5.171 11
-2.329 -10.879 -5.198 12
-2.273 -10.528 -5.226 12
-2.219 -10.191 -5.253 11
-2.167 -9.857 -5.271 13
-2.115 -9.534 -5.287 34
-6.792 -38.373 -3.766 7
-5.988 -33.563 -3.524 24
-5.819 -32.397 -3.886 14
0.0 -0.0 3.0 0
-4.631 -25.403 -3.334 53
-4.678 -25.489 -3.83 20
-4.65 -25.137 -4.208 6
-4.435 -23.812 -4.28 6
-4.245 -22.612 -4.347 4
-4.064 -21.497 -4.402 9
-3.907 -20.505 -4.463 9
-3.763 -19.614 -4.529 9
-3.639 -18.815 -4.602 8
-3.508 -18.013 -4.646 5
-3.395 -17.29 -4.698 8
-3.286 -16.618 -4.749 8
-3.185 -15.974 -4.791 9
-3.091 -15.395 -4.844 8
-2.997 -14.815 -4.877 8
-2.914 -14.286 -4.919 9
-2.838 -13.813 -4.975 8
-2.764 -13.337 -5.014 7
-2.687 -12.866 -5.04 9
-2.62 -12.437 -5.077 9
-2.552 -12.019 -5.107 9
-2.491 -11.625 -5.14 10
-2.429 -11.246 -5.171 11
-2.373 -10.883 -5.201 11
-2.314 -10.525 -5.223 11
-2.257 -10.18 -5.243 12
-2.205 -9.848 -5.264 13
-2.154 -9.535 -5.289 28
-6.917 -38.391 -3.769 6
-6.092 -33.545 -3.521 31
-5.925 -32.407 -3.888 14
0.0 -0.0 3.0 0
-4.716 -25.417 -3.337 54
-4.765 -25.502 -3.833 21
-4.736 -25.149 -4.211 6
-4.517 -23.821 -4.283 6
-4.325 -22.63 -4.353 5
-4.139 -21.507 -4.406 7
-3.978 -20.509 -4.465 9
-3.833 -19.622 -4.532 9
-3.704 -18.815 -4.602 8
-3.572 -18.013 -4.646 6
-3.457 -17.294 -4.7 8
-3.345 -16.615 -4.748 8
-3.241 -15.969 -4.788 9
-3.148 -15.396 -4.845 7
-3.051 -14.817 -4.878 8
-2.967 -14.285 -4.918 8
-2.89 -13.815 -4.976 7
-2.814 -13.337 -5.014 7
-2.735 -12.863 -5.038 8
-2.668 -12.437 -5.077 9
-2.598 -12.019 -5.107 9
-2.536 -11.625 -5.14 10
-2.473 -11.243 -5.169 10
-2.415 -10.88 -5.199 11
-2.356 -10.523 -5.222 12
-2.299 -10.183 -5.246 15
-2.248 -9.858 -5.272 15
-2.193 -9.533 -5.287 35
-7.045 -38.424 -3.775 6
-6.208 -33.597 -3.531 24
-6.028 -32.397 -3.886 14
0.0 -0.0 3.0 0
-4.802 -25.429 -3.34 53
-4.851 -25.51 -3.835 21
-4.823 -25.165 -4.216 6
-4.599 -23.83 -4.286 6
-4.403 -22.636 -4.355 5
-4.213 -21.509 -4.406 9
-4.05 -20.515 -4.467 9
-3.901 -19.621 -4.532 8
-3.771 -18.819 -4.603 8
-3.636 -18.017 -4.648 6
-3.518 -17.292 -4.699 8
-3.405 -16.62 -4.75 8
-3.299 -15.97 -4.789 9
-3.202 -15.388 -4.84 8
-3.107 -14.822 -4.881 8
-3.019 -14.284 -4.918 8
-2.942 -13.814 -4.975 7
-2.865 -13.339 -5.015 8
-2.785 -12.866 -5.039 8
-2.716 -12.44 -5.079 9
-2.645 -12.018 -5.106 10
-2.581 -11.621 -5.137 11
-2.516 -11.24 -5.167 10
-2.458 -10.878 -5.197 11
-2.399 -10.527 -5.224 12
-2.341 -10.184 -5.247 13
-2.286 -9.85 -5.265 13
-2.232 -9.531 -5.285 35
-7.176 -38.473 -3.784 6
-6.322 -33.628 -3.537 23
-6.137 -32.417 -3.89 13
-4.883 -25.593 -2.909 6
-4.889 -25.445 -3.344 51
-4.938 -25.526 -3.84 23
-4.907 -25.166 -4.216 7
-4.681 -23.843 -4.289 6
-4.48 -22.637 -4.355 4
-4.288 -21.519 -4.41 10
-4.122 -20.521 -4.469 12
-3.97 -19.628 -4.534 9
-3.838 -18.823 -4.605 8
-3.7 -18.017 -4.648 7
-3.58 -17.295 -4.7 9
-3.465 -16.621 -4.75 8
-3.356 -15.968 -4.788 9
-3.257 -15.382 -4.838 6
-3.16 -14.817 -4.878 8
-3.072 -14.282 -4.917 9
-2.993 -13.813 -4.975 7
-2.915 -13.339 -5.015 8
-2.833 -12.861 -5.037 8
-2.764 -12.44 -5.078 9
-2.692 -12.022 -5.109 9
-2.627 -11.625 -5.14 10
-2.561 -11.244 -5.169 11
-2.5 -10.875 -5.195 12
-2.439 -10.521 -5.22 9
-2.382 -10.185 -5.247 12
-2.327 -9.854 -5.268 14
-2.271 -9.532 -5.286 34
-7.3 -38.482 -3.785 6
-6.432 -33.636 -3.538 22
-6.243 -32.425 -3.892 14
-4.969 -25.604 -2.911 35
-4.974 -25.453 -3.346 52
-5.025 -25.537 -3.843 26
-4.993 -25.174 -4.218 6
-4.764 -23.855 -4.293 6
-4.558 -22.643 -4.357 4
-4.363 -21.525 -4.412 9
-4.192 -20.516 -4.467 33
-4.038 -19.628 -4.534 9
-3.905 -18.829 -4.607 8
-3.763 -18.017 -4.648 6
-3.641 -17.292 -4.699 8
-3.525 -16.622 -4.751 7
-3.415 -15.972 -4.79 9
-3.314 -15.387 -4.84 7
-3.216 -14.822 -4.881 8
-3.124 -14.281 -4.916 9
-3.045 -13.811 -4.974 7
-2.965 -13.334 -5.012 7
-2.881 -12.861 -5.036 8
-2.811 -12.439 -5.078 10
-2.738 -12.021 -5.108 9
-2.671 -11.618 -5.135 10
-2.605 -11.241 -5.167 10
-2.544 -10.874 -5.194 10
-2.482 -10.524 -5.222 10
-2.423 -10.182 -5.245 13
-2.366 -9.848 -5.264 13
