# .PCD v0.7 - Point Cloud Data file format
VERSION 0.7
FIELDS x y z intensity
SIZE 4 4 4 4
TYPE F F F F
COUNT 1 1 1 1
WIDTH 2316
HEIGHT 1
VIEWPOINT 0 0 0 1 0 0 0
POINTS 2316
DATA ascii
-2.036 -1.459 2.716 9
-1.993 -1.404 2.702 9
-1.955 -1.357 2.687 9
-1.913 -1.308 2.674 10
-1.896 -1.277 2.658 13
-1.892 -1.257 2.64 11
-1.881 -1.232 2.623 3
-1.855 -1.201 2.61 12
-1.842 -1.178 2.594 11
-1.832 -1.158 2.579 3
-1.822 -1.138 2.563 1
0.0 -0.0 3.0 0
-1.752 -1.073 2.545 0
0.0 -0.0 3.0 0
-1.693 -1.018 2.525 0
0.0 -0.0 3.0 0
-1.662 -0.984 2.499 0
0.0 -0.0 3.0 0
-1.596 -0.933 2.483 0
-1.488 -0.865 2.501 0
-25.707 -14.863 -5.931 10
-1.45 -0.834 2.479 1
-1.463 -0.839 2.455 4
-1.426 -0.814 2.451 4
-1.412 -0.804 2.437 5
-1.421 -0.807 2.414 0
-1.393 -0.789 2.405 0
-1.349 -0.762 2.405 2
-1.324 -0.747 2.395 3
-1.312 -0.738 2.38 8
-1.299 -0.731 2.365 5
-2.045 -1.497 2.736 8
-2.019 -1.454 2.717 8
-1.982 -1.405 2.701 8
-1.938 -1.354 2.687 9
-1.909 -1.313 2.673 10
-1.896 -1.285 2.656 13
-1.888 -1.262 2.638 10
-1.86 -1.227 2.625 11
-1.861 -1.213 2.606 8
-1.835 -1.181 2.593 14
-1.825 -1.161 2.578 3
-1.811 -1.139 2.563 0
-1.793 -1.117 2.549 0
0.0 -0.0 3.0 0
-1.726 -1.054 2.531 0
-1.676 -1.015 2.527 0
0.0 -0.0 3.0 0
0.0 -0.0 3.0 0
0.0 -0.0 3.0 0
-1.583 -0.932 2.484 0
-1.488 -0.871 2.497 0
-1.453 -0.845 2.492 0
-1.44 -0.834 2.479 0
-1.45 -0.837 2.457 4
-1.42 -0.816 2.449 5
-1.4 -0.802 2.438 4
-1.405 -0.802 2.417 0
-1.38 -0.787 2.407 0
-1.33 -0.756 2.409 3
-1.318 -0.748 2.394 4
-1.302 -0.738 2.381 6
-1.287 -0.728 2.367 5
-2.04 -1.502 2.735 9
-2.011 -1.458 2.717 8
-1.968 -1.404 2.702 9
-1.92 -1.35 2.688 9
-1.901 -1.317 2.672 11
-1.888 -1.288 2.655 17
-1.887 -1.271 2.636 6
-1.863 -1.238 2.622 14
-1.847 -1.211 2.606 11
-1.835 -1.188 2.591 7
-1.821 -1.166 2.576 2
-1.814 -1.149 2.559 0
0.0 -0.0 3.0 0
-1.748 -1.085 2.54 0
0.0 -0.0 3.0 0
0.0 -0.0 3.0 0
0.0 -0.0 3.0 0
-1.616 -0.97 2.506 0
0.0 -0.0 3.0 0
-1.57 -0.93 2.485 0
-1.479 -0.871 2.497 0
-1.446 -0.848 2.491 0
-1.437 -0.838 2.476 0
-1.444 -0.838 2.456 5
-1.411 -0.816 2.449 5
-1.387 -0.8 2.44 5
-1.389 -0.799 2.42 1
-1.365 -0.783 2.41 1
-1.324 -0.757 2.408 3
-1.309 -0.748 2.395 7
-1.293 -0.737 2.382 5
-1.284 -0.731 2.365 4
-2.033 -1.507 2.734 9
-1.987 -1.45 2.718 8
-1.948 -1.398 2.703 9
-1.916 -1.355 2.687 9
-1.891 -1.317 2.672 11
-1.888 -1.296 2.653 11
-1.883 -1.275 2.634 6
-1.852 -1.238 2.621 11
-1.84 -1.215 2.605 16
-1.828 -1.192 2.59 2
-1.824 -1.176 2.572 0
0.0 -0.0 3.0 0
0.0 -0.0 3.0 0
0.0 -0.0 3.0 0
0.0 -0.0 3.0 0
0.0 -0.0 3.0 0
0.0 -0.0 3.0 0
-1.596 -0.964 2.509 0
0.0 -0.0 3.0 0
-1.547 -0.922 2.489 0
-1.456 -0.863 2.502 1
-1.437 -0.848 2.491 0
-1.421 -0.834 2.479 0
-1.434 -0.838 2.456 5
-1.398 -0.814 2.451 5
-1.387 -0.805 2.437 5
-1.386 -0.802 2.418 1
-1.342 -0.775 2.416 3
-1.311 -0.755 2.41 3
-1.306 -0.75 2.392 6
-1.297 -0.743 2.376 5
-1.275 -0.729 2.366 2
-2.009 -1.498 2.736 8
-1.974 -1.448 2.719 8
-1.937 -1.399 2.703 9
-1.912 -1.361 2.686 9
-1.89 -1.325 2.67 14
-1.88 -1.299 2.652 10
-1.866 -1.272 2.635 14
-1.858 -1.251 2.618 8
-1.836 -1.221 2.603 11
-1.83 -1.201 2.586 2
-1.823 -1.183 2.569 0
0.0 -0.0 3.0 0
0.0 -0.0 3.0 0
0.0 -0.0 3.0 0
0.0 -0.0 3.0 0
0.0 -0.0 3.0 0
0.0 -0.0 3.0 0
0.0 -0.0 3.0 0
-1.575 -0.952 2.494 0
0.0 -0.0 3.0 0
-1.462 -0.873 2.496 1
-1.421 -0.843 2.493 0
-1.405 -0.83 2.481 0
-1.421 -0.836 2.457 6
-1.391 -0.816 2.45 6
-1.378 -0.804 2.437 5
-1.377 -0.801 2.418 3
-1.33 -0.772 2.418 5
-1.309 -0.758 2.408 5
-1.3 -0.752 2.391 5
-1.285 -0.741 2.378 4
-1.259 -0.725 2.369 2
-2.005 -1.503 2.735 9
-1.957 -1.444 2.719 8
-1.923 -1.397 2.703 9
-1.899 -1.359 2.686 11
-1.889 -1.333 2.668 14
-1.892 -1.316 2.647 3
-1.862 -1.278 2.634 16
-1.844 -1.249 2.618 15
-1.826 -1.221 2.603 3
-1.826 -1.207 2.584 1
-1.836 -1.199 2.564 0
0.0 -0.0 3.0 0
0.0 -0.0 3.0 0
0.0 -0.0 3.0 0
0.0 -0.0 3.0 0
0.0 -0.0 3.0 0
0.0 -0.0 3.0 0
-1.609 -0.986 2.498 0
0.0 -0.0 3.0 0
-1.54 -0.931 2.484 0
-1.456 -0.875 2.495 1
-1.401 -0.837 2.497 0
-1.382 -0.822 2.486 0
-1.405 -0.832 2.46 7
-1.382 -0.815 2.45 6
-1.368 -0.804 2.437 5
-1.348 -0.79 2.426 4
-1.327 -0.776 2.416 3
-1.299 -0.757 2.409 7
-1.297 -0.754 2.389 4
-1.276 -0.74 2.379 3
-1.241 -0.719 2.375 3
-1.985 -1.497 2.736 9
-1.943 -1.442 2.72 9
-1.919 -1.403 2.702 9
-1.891 -1.362 2.685 11
-1.888 -1.341 2.666 10
-1.875 -1.313 2.648 4
-1.855 -1.281 2.633 17
-1.84 -1.254 2.617 15
-1.835 -1.236 2.599 2
-1.819 -1.21 2.584 0
-1.901 -1.25 2.545 0
0.0 -0.0 3.0 0
0.0 -0.0 3.0 0
-1.733 -1.105 2.531 0
0.0 -0.0 3.0 0
-1.645 -1.03 2.519 0
-1.616 -1.004 2.511 0
0.0 -0.0 3.0 0
-1.575 -0.964 2.488 0
0.0 -0.0 3.0 0
-1.44 -0.871 2.497 1
-24.995 -15.036 -6.035 11
-1.395 -0.836 2.478 0
-1.399 -0.834 2.459 7
-1.376 -0.817 2.449 6
-1.356 -0.802 2.439 5
-1.338 -0.789 2.427 5
-1.318 -0.774 2.416 4
-1.297 -0.76 2.406 6
-1.288 -0.753 2.39 5
-1.266 -0.739 2.38 2
-1.216 -0.708 2.385 6
-1.971 -1.495 2.736 9
-1.932 -1.443 2.719 8
-1.909 -1.404 2.702 10
-1.893 -1.372 2.683 15
-1.894 -1.353 2.663 8
-1.858 -1.309 2.649 6
-1.854 -1.289 2.63 31
-1.836 -1.26 2.615 8
-1.818 -1.232 2.6 2
-1.812 -1.213 2.582 0
0.0 -0.0 3.0 0
0.0 -0.0 3.0 0
-1.711 -1.109 2.552 0
0.0 -0.0 3.0 0
0.0 -0.0 3.0 0
0.0 -0.0 3.0 0
0.0 -0.0 3.0 0
-1.585 -0.984 2.499 0
0.0 -0.0 3.0 0
0.0 -0.0 3.0 0
-1.437 -0.874 2.495 1
-1.411 -0.855 2.486 0
-1.376 -0.829 2.482 0
-1.383 -0.829 2.461 8
-1.366 -0.816 2.449 6
-1.349 -0.803 2.437 5
-1.329 -0.788 2.427 3
-1.311 -0.776 2.416 7
-1.291 -0.761 2.405 4
-1.282 -0.754 2.389 4
-1.254 -0.736 2.382 2
-1.22 -0.715 2.379 1
-1.948 -1.487 2.738 8
-1.918 -1.441 2.72 9
-1.904 -1.409 2.7 10
-1.889 -1.378 2.682 11
-1.909 -1.372 2.658 3
-1.854 -1.314 2.648 7
-1.847 -1.292 2.629 59
-1.836 -1.267 2.613 2
-1.817 -1.239 2.597 0
-1.837 -1.238 2.574 0
0.0 -0.0 3.0 0
-1.752 -1.154 2.557 0
-1.727 -1.127 2.545 0
0.0 -0.0 3.0 0
0.0 -0.0 3.0 0
0.0 -0.0 3.0 0
0.0 -0.0 3.0 0
-1.556 -0.972 2.505 0
0.0 -0.0 3.0 0
-1.527 -0.941 2.478 0
-1.433 -0.879 2.493 1
-1.395 -0.851 2.489 0
-1.36 -0.825 2.485 0
-1.383 -0.835 2.458 9
-1.36 -0.818 2.448 6
-1.34 -0.803 2.438 5
-1.323 -0.79 2.426 6
-1.305 -0.777 2.415 6
-1.288 -0.764 2.403 6
-1.273 -0.754 2.39 2
-1.22 -0.721 2.395 10
-1.211 -0.713 2.38 1
-1.937 -1.487 2.738 8
-1.914 -1.447 2.719 9
-1.897 -1.413 2.7 10
-1.888 -1.386 2.68 7
-1.902 -1.376 2.657 3
-1.841 -1.313 2.648 4
-1.843 -1.297 2.628 30
-1.825 -1.268 2.612 2
-1.826 -1.253 2.593 0
0.0 -0.0 3.0 0
0.0 -0.0 3.0 0
0.0 -0.0 3.0 0
0.0 -0.0 3.0 0
0.0 -0.0 3.0 0
0.0 -0.0 3.0 0
-1.595 -1.02 2.525 0
0.0 -0.0 3.0 0
-1.549 -0.974 2.504 0
0.0 -0.0 3.0 0
-1.504 -0.933 2.483 0
-1.427 -0.88 2.492 1
-24.512 -15.038 -6.036 4
-1.364 -0.832 2.48 0
-1.367 -0.831 2.461 10
-1.354 -0.819 2.447 6
-1.337 -0.806 2.436 6
-1.32 -0.793 2.424 6
-1.299 -0.778 2.414 5
-1.275 -0.762 2.405 4
-1.261 -0.75 2.392 2
-1.217 -0.723 2.394 2
-1.196 -0.708 2.384 9
-1.926 -1.488 2.738 9
-1.907 -1.45 2.718 10
-1.893 -1.418 2.699 15
-1.878 -1.387 2.68 5
-1.933 -1.407 2.649 2
-1.833 -1.316 2.647 3
-1.829 -1.295 2.629 11
-1.821 -1.273 2.611 1
-1.835 -1.268 2.588 0
-1.868 -1.275 2.561 0
-1.855 -1.253 2.544 0
-1.721 -1.149 2.559 0
0.0 -0.0 3.0 0
0.0 -0.0 3.0 0
0.0 -0.0 3.0 0
-1.592 -1.024 2.522 0
-1.582 -1.01 2.507 0
-1.549 -0.981 2.5 0
-1.518 -0.955 2.492 0
-1.478 -0.923 2.488 0
-1.421 -0.882 2.491 1
-24.315 -15.015 -6.022 6
-1.351 -0.83 2.482 0
-1.361 -0.832 2.46 12
-1.348 -0.821 2.446 6
-1.324 -0.803 2.438 6
-1.314 -0.794 2.423 8
-1.296 -0.781 2.411 5
-1.269 -0.762 2.405 3
-1.242 -0.744 2.398 3
-1.214 -0.726 2.391 1
-1.209 -0.72 2.374 3
-1.913 -1.485 2.738 9
-1.906 -1.457 2.717 10
-1.895 -1.428 2.696 10
-1.87 -1.39 2.679 3
-1.957 -1.433 2.643 2
-1.832 -1.323 2.645 4
-1.825 -1.301 2.627 3
-1.804 -1.27 2.612 0
-1.786 -1.241 2.597 0
-1.883 -1.294 2.554 0
0.0 -0.0 3.0 0
0.0 -0.0 3.0 0
0.0 -0.0 3.0 0
0.0 -0.0 3.0 0
-1.594 -1.041 2.537 0
0.0 -0.0 3.0 0
0.0 -0.0 3.0 0
-1.571 -1.001 2.49 0
-1.499 -0.949 2.496 0
-1.481 -0.931 2.484 0
-1.417 -0.885 2.489 0
-24.18 -15.03 -6.031 6
-1.351 -0.836 2.478 0
-1.354 -0.834 2.459 15
-1.338 -0.82 2.447 6
-1.318 -0.805 2.437 6
-1.308 -0.795 2.422 8
-1.287 -0.78 2.412 5
-1.251 -0.756 2.41 2
-1.227 -0.739 2.401 3
-1.205 -0.724 2.392 3
-1.209 -0.725 2.37 13
-1.905 -1.488 2.738 9
-1.898 -1.461 2.716 11
-1.887 -1.431 2.696 7
-1.857 -1.388 2.679 8
-1.94 -1.43 2.644 1
-1.831 -1.331 2.643 4
-1.827 -1.311 2.624 2
-1.816 -1.287 2.607 0
-1.827 -1.279 2.584 0
-1.953 -1.351 2.535 0
-1.847 -1.263 2.54 0
0.0 -0.0 3.0 0
0.0 -0.0 3.0 0
0.0 -0.0 3.0 0
0.0 -0.0 3.0 0
0.0 -0.0 3.0 0
-1.513 -0.978 2.523 0
0.0 -0.0 3.0 0
0.0 -0.0 3.0 0
-1.461 -0.925 2.487 0
-1.411 -0.888 2.487 0
-1.328 -0.831 2.501 0
-1.345 -0.837 2.477 0
-1.348 -0.835 2.458 18
-1.329 -0.82 2.447 6
-1.312 -0.806 2.436 6
-1.305 -0.798 2.42 6
-1.278 -0.779 2.413 4
-1.248 -0.759 2.407 2
-1.227 -0.744 2.398 1
-1.203 -0.727 2.39 4
-1.209 -0.729 2.366 29
-1.901 -1.494 2.737 10
-1.894 -1.466 2.715 15
-1.886 -1.439 2.694 4
-1.862 -1.4 2.677 13
-1.904 -1.411 2.648 1
-1.811 -1.325 2.645 2
-1.81 -1.307 2.625 1
0.0 -0.0 3.0 0
0.0 -0.0 3.0 0
-2.107 -1.467 2.495 0
0.0 -0.0 3.0 0
0.0 -0.0 3.0 0
-1.689 -1.138 2.54 0
-1.619 -1.081 2.541 0
0.0 -0.0 3.0 0
0.0 -0.0 3.0 0
-1.539 -1.002 2.511 0
-1.522 -0.983 2.499 0
-1.492 -0.957 2.491 0
-1.452 -0.925 2.487 0
-1.408 -0.891 2.485 0
-1.328 -0.836 2.498 0
-1.319 -0.827 2.483 0
-1.345 -0.838 2.456 19
-1.323 -0.821 2.446 6
-1.303 -0.805 2.436 6
-1.295 -0.798 2.42 6
-1.272 -0.781 2.412 2
-1.217 -0.744 2.419 6
-1.215 -0.741 2.4 1
-1.216 -0.739 2.38 6
-1.207 -0.732 2.364 56
-1.894 -1.497 2.736 10
-1.89 -1.472 2.714 8
-1.882 -1.444 2.693 3
-1.848 -1.398 2.677 12
-1.903 -1.419 2.646 0
-1.794 -1.321 2.646 1
-1.806 -1.312 2.624 0
-1.801 -1.293 2.605 0
0.0 -0.0 3.0 0
-2.128 -1.491 2.487 1
0.0 -0.0 3.0 0
-1.667 -1.142 2.562 0
0.0 -0.0 3.0 0
0.0 -0.0 3.0 0
0.0 -0.0 3.0 0
-1.523 -1.006 2.531 0
0.0 -0.0 3.0 0
-1.515 -0.985 2.498 0
0.0 -0.0 3.0 0
-1.442 -0.925 2.487 0
-1.401 -0.893 2.484 0
-1.328 -0.842 2.494 0
-1.319 -0.832 2.48 0
-1.336 -0.838 2.456 20
-1.31 -0.818 2.448 6
-1.297 -0.806 2.435 4
-1.289 -0.798 2.42 4
-1.259 -0.778 2.414 2
-1.214 -0.747 2.417 1
-1.203 -0.738 2.402 5
-1.207 -0.738 2.38 17
-1.204 -0.734 2.362 88
-1.895 -1.507 2.734 11
-1.879 -1.472 2.714 7
-1.862 -1.437 2.694 11
-1.847 -1.406 2.675 8
-1.794 -1.347 2.664 0
-1.778 -1.316 2.647 1
0.0 -0.0 3.0 0
-1.781 -1.287 2.607 0
-1.798 -1.283 2.583 0
-2.126 -1.499 2.484 1
0.0 -0.0 3.0 0
0.0 -0.0 3.0 0
0.0 -0.0 3.0 0
0.0 -0.0 3.0 0
-1.577 -1.057 2.529 0
-1.513 -1.006 2.531 0
0.0 -0.0 3.0 0
-1.518 -0.993 2.494 0
0.0 -0.0 3.0 0
-1.448 -0.935 2.482 0
-1.405 -0.901 2.48 0
-1.332 -0.85 2.489 0
-1.31 -0.831 2.481 0
-1.323 -0.835 2.458 19
-1.307 -0.821 2.446 6
-1.294 -0.81 2.433 4
-1.271 -0.792 2.425 3
-1.225 -0.761 2.426 6
-1.217 -0.754 2.411 1
-1.219 -0.752 2.391 5
-1.207 -0.743 2.377 29
-1.198 -0.735 2.361 80
-1.891 -1.512 2.733 13
-1.881 -1.483 2.712 3
-1.864 -1.448 2.692 13
-1.837 -1.406 2.675 11
-1.768 -1.335 2.667 0
-1.748 -1.303 2.651 2
0.0 -0.0 3.0 0
-1.831 -1.331 2.593 0
-1.829 -1.314 2.573 0
-2.14 -1.519 2.477 1
-1.756 -1.233 2.551 0
0.0 -0.0 3.0 0
0.0 -0.0 3.0 0
0.0 -0.0 3.0 0
-1.538 -1.038 2.538 0
-1.509 -1.01 2.529 0
-1.496 -0.994 2.515 0
-1.483 -0.976 2.502 0
-1.456 -0.952 2.494 0
-1.416 -0.92 2.49 0
-1.395 -0.901 2.48 0
-1.325 -0.851 2.488 0
-1.294 -0.826 2.484 0
-1.32 -0.839 2.455 18
-1.301 -0.823 2.445 5
-1.284 -0.809 2.433 5
-1.264 -0.793 2.424 2
-1.225 -0.766 2.423 1
-1.193 -0.743 2.42 5
-1.21 -0.75 2.392 12
-1.204 -0.745 2.375 43
-1.198 -0.74 2.357 36
-1.883 -1.515 2.733 7
-1.867 -1.481 2.712 6
-1.856 -1.45 2.692 10
-1.835 -1.415 2.673 13
-1.757 -1.336 2.667 0
-1.731 -1.298 2.652 3
0.0 -0.0 3.0 0
0.0 -0.0 3.0 0
0.0 -0.0 3.0 0
-2.142 -1.529 2.473 1
0.0 -0.0 3.0 0
0.0 -0.0 3.0 0
0.0 -0.0 3.0 0
-1.588 -1.089 2.538 0
-1.547 -1.051 2.532 0
-1.506 -1.014 2.527 0
0.0 -0.0 3.0 0
-1.466 -0.972 2.505 0
-1.433 -0.944 2.498 0
-1.419 -0.928 2.485 0
-1.389 -0.902 2.479 0
-1.297 -0.838 2.496 0
-1.291 -0.829 2.482 0
-1.311 -0.838 2.456 15
-1.295 -0.823 2.445 4
-1.275 -0.808 2.434 3
-1.243 -0.785 2.43 4
-1.213 -0.763 2.425 1
-1.199 -0.751 2.413 3
-1.21 -0.756 2.388 21
-1.204 -0.75 2.371 46
-1.186 -0.736 2.36 18
-1.876 -1.517 2.732 5
-1.86 -1.483 2.712 14
-1.855 -1.458 2.69 8
-1.831 -1.419 2.672 6
-1.722 -1.317 2.672 0
-1.721 -1.299 2.652 5
0.0 -0.0 3.0 0
-1.775 -1.306 2.601 0
-1.748 -1.271 2.587 0
-2.13 -1.531 2.473 1
-1.694 -1.204 2.562 0
0.0 -0.0 3.0 0
0.0 -0.0 3.0 0
0.0 -0.0 3.0 0
-1.54 -1.054 2.531 0
-1.486 -1.008 2.53 0
0.0 -0.0 3.0 0
-1.434 -0.958 2.512 0
-1.408 -0.932 2.504 0
-1.39 -0.915 2.493 0
-1.392 -0.91 2.474 0
-1.303 -0.848 2.491 0
-1.291 -0.835 2.478 0
-1.298 -0.836 2.457 12
-1.288 -0.825 2.443 4
-1.266 -0.807 2.435 2
-1.23 -0.781 2.433 2
-1.217 -0.77 2.42 2
-1.203 -0.758 2.408 8
-1.207 -0.758 2.386 25
-1.199 -0.751 2.37 33
-1.19 -0.743 2.354 14
-1.872 -1.523 2.731 3
-1.855 -1.488 2.711 15
-1.841 -1.456 2.69 12
-1.824 -1.423 2.672 1
-1.705 -1.312 2.673 0
-1.714 -1.301 2.651 8
0.0 -0.0 3.0 0
-1.8 -1.333 2.593 0
0.0 -0.0 3.0 0
-2.125 -1.538 2.471 1
0.0 -0.0 3.0 0
0.0 -0.0 3.0 0
0.0 -0.0 3.0 0
-1.558 -1.082 2.541 0
-1.537 -1.057 2.529 0
-1.489 -1.016 2.526 0
-1.463 -0.991 2.517 0
-1.444 -0.97 2.506 0
-1.392 -0.928 2.507 0
-1.397 -0.925 2.487 0
-1.379 -0.908 2.476 0
-1.313 -0.86 2.483 0
-1.272 -0.828 2.482 0
-1.295 -0.839 2.455 10
-1.276 -0.822 2.445 3
-1.253 -0.804 2.437 3
-1.218 -0.778 2.435 1
-1.204 -0.767 2.422 4
-1.2 -0.761 2.406 18
-1.195 -0.755 2.389 33
-1.193 -0.751 2.37 16
-1.187 -0.745 2.352 12
-1.861 -1.524 2.731 6
-1.854 -1.496 2.709 10
-1.84 -1.464 2.689 11
-1.807 -1.418 2.673 1
-1.692 -1.31 2.673 0
-1.704 -1.302 2.651 11
0.0 -0.0 3.0 0
-1.795 -1.338 2.591 0
0.0 -0.0 3.0 0
-2.133 -1.553 2.465 2
0.0 -0.0 3.0 0
0.0 -0.0 3.0 0
0.0 -0.0 3.0 0
-1.574 -1.1 2.533 0
0.0 -0.0 3.0 0
-1.47 -1.01 2.529 0
-1.463 -0.997 2.514 0
-1.434 -0.969 2.506 0
-1.395 -0.936 2.502 0
-1.368 -0.912 2.494 0
-1.36 -0.9 2.48 0
-1.269 -0.836 2.498 0
-1.26 -0.826 2.484 0
-1.289 -0.84 2.455 9
-1.27 -0.824 2.444 2
-1.222 -0.789 2.447 5
-1.209 -0.777 2.435 1
-1.214 -0.777 2.414 3
-1.203 -0.768 2.4 20
-1.195 -0.76 2.385 27
-1.19 -0.754 2.368 15
-1.181 -0.745 2.352 10
-1.86 -1.531 2.73 14
-1.846 -1.499 2.709 13
-1.83 -1.464 2.689 3
-1.781 -1.406 2.675 1
-1.684 -1.312 2.673 0
-1.693 -1.302 2.651 14
0.0 -0.0 3.0 0
-1.788 -1.341 2.59 0
0.0 -0.0 3.0 0
-2.112 -1.548 2.467 1
0.0 -0.0 3.0 0
0.0 -0.0 3.0 0
0.0 -0.0 3.0 0
-1.551 -1.092 2.537 0
-1.497 -1.045 2.535 0
-1.463 -1.011 2.528 0
0.0 -0.0 3.0 0
-1.408 -0.959 2.512 0
-1.385 -0.936 2.502 0
-1.352 -0.908 2.497 0
-1.36 -0.907 2.477 0
-1.285 -0.852 2.488 0
-1.26 -0.831 2.481 0
-1.276 -0.837 2.457 9
-1.26 -0.823 2.445 2
-1.222 -0.794 2.444 1
-1.206 -0.78 2.433 5
-1.214 -0.782 2.411 14
-1.2 -0.77 2.398 23
-1.189 -0.761 2.384 17
-1.187 -0.757 2.365 11
-1.184 -0.752 2.346 4
-1.852 -1.534 2.73 13
-1.839 -1.502 2.708 14
-1.834 -1.477 2.686 1
-1.714 -1.362 2.686 0
-1.68 -1.317 2.672 0
-1.683 -1.302 2.651 17
0.0 -0.0 3.0 0
-1.749 -1.32 2.596 0
-1.712 -1.278 2.585 0
-2.104 -1.551 2.466 1
0.0 -0.0 3.0 0
0.0 -0.0 3.0 0
-1.666 -1.191 2.519 0
-1.515 -1.073 2.544 0
-1.491 -1.046 2.534 0
-1.463 -1.018 2.525 0
0.0 -0.0 3.0 0
-1.414 -0.969 2.506 0
-1.372 -0.933 2.504 0
-1.361 -0.92 2.49 0
-1.36 -0.913 2.473 0
-1.259 -0.84 2.495 1
-1.254 -0.831 2.48 0
-1.267 -0.836 2.457 5
-1.229 -0.807 2.456 4
-1.216 -0.795 2.443 1
-1.212 -0.789 2.427 3
-1.208 -0.783 2.41 21
-1.194 -0.771 2.398 24
-1.186 -0.763 2.382 16
-1.184 -0.759 2.363 10
-1.182 -0.755 2.344 1
-1.848 -1.539 2.729 8
-1.837 -1.509 2.707 10
-1.821 -1.475 2.686 1
-1.72 -1.374 2.683 0
-1.648 -1.3 2.676 0
-1.669 -1.3 2.652 18
0.0 -0.0 3.0 0
-1.717 -1.304 2.601 0
0.0 -0.0 3.0 0
-2.102 -1.56 2.463 1
0.0 -0.0 3.0 0
0.0 -0.0 3.0 0
0.0 -0.0 3.0 0
0.0 -0.0 3.0 0
-1.49 -1.053 2.531 0
-1.434 -1.004 2.532 0
-1.43 -0.994 2.515 0
-1.386 -0.956 2.513 0
-1.372 -0.939 2.501 0
-1.342 -0.913 2.494 0
-1.331 -0.899 2.481 0
-1.253 -0.842 2.494 1
-1.254 -0.837 2.477 0
-1.267 -0.842 2.453 4
-1.223 -0.809 2.455 1
-1.201 -0.789 2.447 3
-1.21 -0.792 2.424 12
-1.208 -0.788 2.406 21
-1.191 -0.774 2.395 18
-1.187 -0.767 2.379 12
-1.181 -0.761 2.361 7
-1.164 -0.747 2.351 0
-1.843 -1.545 2.728 13
-1.833 -1.515 2.706 3
-1.819 -1.483 2.685 0
-1.678 -1.349 2.688 0
-1.626 -1.289 2.678 0
-1.662 -1.301 2.651 18
0.0 -0.0 3.0 0
0.0 -0.0 3.0 0
0.0 -0.0 3.0 0
-2.1 -1.568 2.46 1
0.0 -0.0 3.0 0
0.0 -0.0 3.0 0
0.0 -0.0 3.0 0
-1.508 -1.082 2.541 0
-1.461 -1.039 2.537 0
-1.443 -1.017 2.526 0
-1.421 -0.994 2.515 0
-1.379 -0.957 2.513 0
-1.375 -0.947 2.496 0
-1.364 -0.933 2.483 0
-1.325 -0.9 2.48 0
-1.263 -0.853 2.487 0
-1.238 -0.832 2.48 0
-1.236 -0.826 2.464 5
-1.22 -0.811 2.453 1
-1.207 -0.799 2.441 2
-1.203 -0.793 2.424 21
-1.208 -0.793 2.403 19
-1.185 -0.775 2.395 12
-1.184 -0.77 2.376 10
-1.178 -0.764 2.359 1
0.0 -0.0 3.0 0
-1.835 -1.547 2.727 13
-1.828 -1.52 2.704 1
0.0 -0.0 3.0 0
-1.662 -1.345 2.69 0
-1.643 -1.312 2.673 0
-1.652 -1.302 2.651 20
0.0 -0.0 3.0 0
-1.68 -1.292 2.605 0
0.0 -0.0 3.0 0
-2.076 -1.56 2.463 0
0.0 -0.0 3.0 0
-1.577 -1.16 2.555 0
0.0 -0.0 3.0 0
-1.501 -1.084 2.54 0
-1.461 -1.046 2.535 0
-1.43 -1.015 2.527 0
-1.408 -0.991 2.517 0
-1.379 -0.963 2.509 0
-1.362 -0.945 2.498 0
-1.329 -0.915 2.493 0
-1.312 -0.897 2.482 0
-1.253 -0.852 2.488 0
-1.223 -0.827 2.483 0
-1.229 -0.827 2.463 1
-1.205 -0.806 2.456 2
-1.207 -0.804 2.437 8
-1.213 -0.804 2.416 20
-1.199 -0.792 2.403 20
-1.18 -0.775 2.394 10
-1.178 -0.772 2.375 8
-1.182 -0.771 2.353 0
0.0 -0.0 3.0 0
-1.825 -1.547 2.727 7
-1.827 -1.528 2.703 1
0.0 -0.0 3.0 0
-1.667 -1.357 2.687 0
-1.605 -1.29 2.678 0
-1.642 -1.302 2.651 20
0.0 -0.0 3.0 0
-1.67 -1.292 2.605 0
0.0 -0.0 3.0 0
-2.055 -1.555 2.465 0
-2.018 -1.511 2.45 0
0.0 -0.0 3.0 0
0.0 -0.0 3.0 0
-1.469 -1.068 2.547 0
-1.451 -1.046 2.535 0
-1.401 -1.001 2.533 0
-1.401 -0.993 2.516 0
-1.382 -0.971 2.505 0
-1.346 -0.939 2.501 0
-1.342 -0.93 2.484 0
-1.271 -0.876 2.494 0
-1.238 -0.847 2.491 1
-1.22 -0.83 2.481 1
-1.223 -0.828 2.462 0
-1.202 -0.809 2.455 2
-1.198 -0.803 2.438 17
-1.201 -0.801 2.418 17
-1.193 -0.792 2.403 14
-1.183 -0.782 2.389 9
-1.178 -0.776 2.372 2
-1.161 -0.761 2.361 0
0.0 -0.0 3.0 0
-1.823 -1.555 2.726 1
-1.81 -1.523 2.704 0
0.0 -0.0 3.0 0
-1.654 -1.354 2.687 0
-1.608 -1.299 2.676 0
-1.632 -1.301 2.651 18
0.0 -0.0 3.0 0
-1.653 -1.287 2.606 0
0.0 -0.0 3.0 0
-2.044 -1.556 2.464 0
0.0 -0.0 3.0 0
0.0 -0.0 3.0 0
0.0 -0.0 3.0 0
0.0 -0.0 3.0 0
-1.441 -1.045 2.535 0
-1.42 -1.021 2.524 0
-1.366 -0.975 2.525 0
-1.363 -0.964 2.509 0
-1.355 -0.952 2.494 0
-1.298 -0.906 2.498 0
-1.277 -0.885 2.489 0
-1.232 -0.848 2.49 0
-1.223 -0.838 2.477 1
-1.202 -0.819 2.468 1
-1.208 -0.818 2.448 6
-1.208 -0.814 2.43 17
-1.201 -0.805 2.415 21
-1.187 -0.794 2.402 10
-1.174 -0.781 2.39 9
-1.172 -0.777 2.371 0
-1.152 -0.76 2.362 0
0.0 -0.0 3.0 0
-1.828 -1.568 2.724 1
0.0 -0.0 3.0 0
0.0 -0.0 3.0 0
-1.625 -1.339 2.691 0
-1.597 -1.299 2.676 0
-1.621 -1.302 2.651 17
0.0 -0.0 3.0 0
-1.655 -1.297 2.604 0
0.0 -0.0 3.0 0
0.0 -0.0 3.0 0
-2.023 -1.534 2.442 0
0.0 -0.0 3.0 0
0.0 -0.0 3.0 0
-1.468 -1.081 2.541 0
-1.444 -1.054 2.531 0
-1.422 -1.029 2.52 0
-1.366 -0.98 2.522 0
-1.353 -0.964 2.509 0
-1.33 -0.94 2.5 0
-1.291 -0.907 2.497 0
-1.265 -0.882 2.491 0
-1.216 -0.843 2.493 1
-1.217 -0.838 2.476 1
-1.202 -0.824 2.465 2
-1.202 -0.819 2.447 14
-1.201 -0.815 2.43 16
-1.195 -0.807 2.414 15
-1.184 -0.796 2.4 10
-1.171 -0.783 2.388 3
-1.145 -0.763 2.382 0
0.0 -0.0 3.0 0
0.0 -0.0 3.0 0
-1.817 -1.568 2.724 1
0.0 -0.0 3.0 0
0.0 -0.0 3.0 0
-2.651 -2.197 2.493 4
-1.59 -1.301 2.676 0
-1.614 -1.303 2.651 14
-1.637 -1.307 2.625 0
-1.633 -1.288 2.606 0
0.0 -0.0 3.0 0
-1.786 -1.377 2.526 0
0.0 -0.0 3.0 0
0.0 -0.0 3.0 0
0.0 -0.0 3.0 0
-1.464 -1.085 2.539 0
-1.437 -1.056 2.53 0
-1.397 -1.017 2.526 0
-1.375 -0.994 2.515 0
-1.346 -0.965 2.508 0
-1.318 -0.937 2.502 0
-1.26 -0.891 2.506 0
-1.255 -0.881 2.491 0
-1.232 -0.86 2.484 3
-1.205 -0.835 2.478 1
-1.211 -0.835 2.457 5
-1.202 -0.824 2.444 15
-1.195 -0.816 2.429 17
-1.189 -0.807 2.413 11
-1.184 -0.801 2.396 10
-1.162 -0.782 2.389 0
-1.172 -0.785 2.364 0
0.0 -0.0 3.0 0
0.0 -0.0 3.0 0
0.0 -0.0 3.0 0
0.0 -0.0 3.0 0
0.0 -0.0 3.0 0
-2.626 -2.19 2.495 5
-1.586 -1.305 2.675 0
-1.607 -1.306 2.65 12
0.0 -0.0 3.0 0
-1.622 -1.287 2.606 0
0.0 -0.0 3.0 0
0.0 -0.0 3.0 0
-2.063 -1.584 2.423 1
-1.489 -1.132 2.566 0
0.0 -0.0 3.0 0
-1.433 -1.068 2.546 0
-1.43 -1.057 2.529 0
-1.387 -1.017 2.526 0
-1.365 -0.993 2.516 0
-1.343 -0.969 2.506 0
-1.292 -0.925 2.508 0
-1.279 -0.909 2.496 0
-1.237 -0.873 2.496 0
-1.213 -0.852 2.488 1
-1.202 -0.838 2.476 2
-1.208 -0.838 2.456 12
-1.199 -0.828 2.442 13
-1.189 -0.817 2.428 13
-1.189 -0.812 2.41 12
-1.181 -0.804 2.394 5
-1.141 -0.772 2.397 0
-1.16 -0.782 2.367 0
0.0 -0.0 3.0 0
0.0 -0.0 3.0 0
0.0 -0.0 3.0 0
0.0 -0.0 3.0 0
0.0 -0.0 3.0 0
-1.598 -1.339 2.691 0
-1.585 -1.313 2.673 0
-1.597 -1.306 2.65 8
0.0 -0.0 3.0 0
0.0 -0.0 3.0 0
-1.637 -1.292 2.58 0
0.0 -0.0 3.0 0
-2.064 -1.595 2.42 0
-1.513 -1.157 2.556 0
0.0 -0.0 3.0 0
-1.392 -1.045 2.557 0
-1.396 -1.038 2.538 0
-1.374 -1.014 2.527 0
-1.362 -0.996 2.514 0
-1.312 -0.952 2.515 0
-1.283 -0.924 2.509 0
-1.251 -0.895 2.504 0
-1.218 -0.866 2.5 1
-1.222 -0.864 2.481 1
-1.214 -0.853 2.467 3
-1.208 -0.844 2.452 15
-1.19 -0.827 2.442 14
-1.186 -0.82 2.426 10
-1.186 -0.815 2.408 11
-1.172 -0.802 2.395 0
-1.147 -0.781 2.39 0
-1.124 -0.762 2.383 0
0.0 -0.0 3.0 0
0.0 -0.0 3.0 0
0.0 -0.0 3.0 0
0.0 -0.0 3.0 0
0.0 -0.0 3.0 0
-1.572 -1.326 2.694 0
-1.584 -1.319 2.671 0
-1.59 -1.307 2.65 5
-1.619 -1.316 2.623 0
-1.55 -1.245 2.619 0
-1.596 -1.268 2.588 0
0.0 -0.0 3.0 0
-2.04 -1.587 2.422 0
-1.481 -1.14 2.562 0
0.0 -0.0 3.0 0
-1.416 -1.069 2.546 0
-1.411 -1.056 2.53 0
-1.368 -1.015 2.527 0
-1.361 -1.003 2.511 0
-1.274 -0.931 2.526 0
-1.27 -0.921 2.51 0
-1.229 -0.885 2.509 0
-1.221 -0.873 2.496 1
-1.201 -0.853 2.487 2
-1.208 -0.854 2.467 10
-1.205 -0.847 2.45 14
-1.193 -0.833 2.438 13
-1.186 -0.825 2.422 12
-1.18 -0.816 2.407 8
-1.166 -0.803 2.395 0
-1.153 -0.79 2.383 0
-1.127 -0.769 2.377 0
-1.122 -0.763 2.36 0
0.0 -0.0 3.0 0
0.0 -0.0 3.0 0
0.0 -0.0 3.0 0
0.0 -0.0 3.0 0
-1.568 -1.331 2.693 0
-1.589 -1.332 2.668 0
-1.579 -1.307 2.65 3
-1.624 -1.328 2.619 0
0.0 -0.0 3.0 0
-1.577 -1.261 2.59 0
0.0 -0.0 3.0 0
-2.056 -1.61 2.414 0
-1.456 -1.128 2.567 0
-1.417 -1.088 2.561 0
-1.406 -1.069 2.546 0
-1.389 -1.046 2.534 0
-1.355 -1.012 2.528 0
-1.308 -0.97 2.527 0
-1.28 -0.941 2.52 0
-1.243 -0.907 2.518 0
-1.213 -0.88 2.512 1
-1.221 -0.879 2.492 1
-1.204 -0.861 2.483 2
-1.208 -0.859 2.464 15
-1.199 -0.848 2.449 14
-1.187 -0.835 2.437 10
-1.18 -0.826 2.422 12
-1.18 -0.821 2.404 1
-1.166 -0.808 2.391 0
-1.117 -0.77 2.399 0
-1.13 -0.776 2.372 0
0.0 -0.0 3.0 0
-1.114 -0.758 2.341 0
0.0 -0.0 3.0 0
0.0 -0.0 3.0 0
0.0 -0.0 3.0 0
-1.603 -1.369 2.684 0
0.0 -0.0 3.0 0
-1.575 -1.312 2.649 2
-1.598 -1.315 2.623 0
-1.56 -1.269 2.612 0
0.0 -0.0 3.0 0
0.0 -0.0 3.0 0
-2.051 -1.615 2.412 0
-2.075 -1.618 2.379 0
-1.414 -1.092 2.559 0
-1.409 -1.078 2.543 0
-1.366 -1.036 2.539 0
-1.358 -1.021 2.524 0
-1.311 -0.978 2.523 0
-1.271 -0.941 2.521 0
-1.242 -0.913 2.515 0
-1.216 -0.887 2.508 1
-1.206 -0.873 2.496 1
-1.207 -0.869 2.478 9
-1.202 -0.859 2.463 13
-1.193 -0.849 2.449 13
-1.181 -0.835 2.436 12
-1.171 -0.824 2.423 9
-1.174 -0.822 2.403 0
-1.139 -0.794 2.402 0
-1.138 -0.789 2.383 0
-1.101 -0.759 2.385 0
-1.125 -0.774 2.351 0
0.0 -0.0 3.0 0
0.0 -0.0 3.0 0
0.0 -0.0 3.0 0
0.0 -0.0 3.0 0
-2.493 -2.142 2.505 4
0.0 -0.0 3.0 0
-1.571 -1.316 2.647 2
-1.585 -1.313 2.624 0
-1.55 -1.269 2.612 0
-1.532 -1.24 2.597 0
0.0 -0.0 3.0 0
-2.03 -1.609 2.414 0
-1.433 -1.124 2.568 0
-2.14 -1.663 2.328 0
-1.387 -1.068 2.547 0
-1.369 -1.045 2.535 0
-1.342 -1.015 2.527 0
-1.289 -0.968 2.528 0
-1.255 -0.935 2.524 0
-1.224 -0.905 2.519 1
-1.213 -0.89 2.506 1
-1.215 -0.885 2.489 2
-1.207 -0.874 2.475 14
-1.198 -0.863 2.461 12
-1.187 -0.849 2.449 10
-1.181 -0.84 2.433 12
-1.174 -0.832 2.418 1
-1.155 -0.814 2.409 0
-1.151 -0.807 2.392 0
0.0 -0.0 3.0 0
-1.122 -0.779 2.369 0
-1.111 -0.768 2.355 0
0.0 -0.0 3.0 0
0.0 -0.0 3.0 0
0.0 -0.0 3.0 0
0.0 -0.0 3.0 0
-2.493 -2.155 2.503 3
0.0 -0.0 3.0 0
-1.552 -1.308 2.65 1
-1.578 -1.315 2.623 0
-1.54 -1.269 2.612 0
-1.525 -1.242 2.596 0
-1.486 -1.198 2.588 0
-1.988 -1.586 2.423 0
-1.432 -1.131 2.566 0
-1.425 -1.114 2.55 0
-1.374 -1.065 2.548 0
-1.353 -1.039 2.537 0
-1.302 -0.992 2.538 0
-1.274 -0.962 2.531 0
-1.243 -0.932 2.525 0
-1.214 -0.904 2.52 0
-1.21 -0.894 2.505 2
-1.209 -0.887 2.488 7
-1.204 -0.877 2.473 13
-1.189 -0.862 2.462 13
-1.186 -0.855 2.445 12
-1.177 -0.843 2.431 11
-1.177 -0.838 2.413 0
-1.149 -0.815 2.408 0
-1.148 -0.81 2.389 0
0.0 -0.0 3.0 0
-1.107 -0.773 2.374 0
-1.116 -0.777 2.348 0
0.0 -0.0 3.0 0
0.0 -0.0 3.0 0
0.0 -0.0 3.0 0
0.0 -0.0 3.0 0
-1.519 -1.321 2.695 0
0.0 -0.0 3.0 0
-1.548 -1.313 2.648 0
-1.543 -1.294 2.629 0
-1.505 -1.248 2.619 0
-1.506 -1.234 2.599 0
-1.482 -1.201 2.586 0
-1.466 -1.177 2.572 0
-2.086 -1.658 2.363 1
-1.424 -1.121 2.547 0
-1.37 -1.068 2.546 0
-1.356 -1.048 2.533 0
-1.301 -0.997 2.535 0
-1.273 -0.968 2.528 0
-1.224 -0.924 2.529 0
-1.217 -0.912 2.515 1
-1.207 -0.897 2.503 2
-1.208 -0.892 2.485 12
-1.197 -0.878 2.472 11
-1.189 -0.867 2.458 10
-1.183 -0.858 2.443 13
-1.177 -0.849 2.428 2
-1.183 -0.848 2.406 0
-1.137 -0.811 2.411 0
-1.151 -0.817 2.385 0
-1.099 -0.776 2.394 0
-1.107 -0.777 2.37 0
-1.099 -0.769 2.355 0
0.0 -0.0 3.0 0
0.0 -0.0 3.0 0
0.0 -0.0 3.0 0
0.0 -0.0 3.0 0
-1.533 -1.341 2.69 0
-1.521 -1.314 2.672 0
-1.529 -1.304 2.651 0
-1.545 -1.303 2.626 0
-1.498 -1.25 2.618 0
-1.493 -1.231 2.6 0
-1.447 -1.181 2.593 0
-1.577 -1.274 2.536 0
-1.422 -1.137 2.563 0
-1.417 -1.123 2.546 0
-1.376 -1.079 2.542 0
-1.325 -1.031 2.541 0
-1.292 -0.996 2.536 0
-1.24 -0.949 2.537 0
-1.215 -0.923 2.53 0
-1.211 -0.912 2.515 1
-1.204 -0.901 2.501 8
-1.208 -0.898 2.482 13
-1.194 -0.881 2.47 13
-1.183 -0.868 2.458 10
-1.18 -0.861 2.441 11
-1.153 -0.836 2.436 0
-1.162 -0.838 2.413 0
-1.149 -0.824 2.401 0
-1.124 -0.803 2.395 0
-1.114 -0.791 2.382 0
-1.095 -0.774 2.373 0
-1.122 -0.79 2.337 0
0.0 -0.0 3.0 0
0.0 -0.0 3.0 0
0.0 -0.0 3.0 0
0.0 -0.0 3.0 0
-2.443 -2.15 2.504 5
-1.514 -1.315 2.672 0
0.0 -0.0 3.0 0
-1.553 -1.319 2.622 0
-1.491 -1.251 2.617 0
-1.483 -1.231 2.6 0
-1.438 -1.181 2.593 0
-1.437 -1.168 2.575 0
-1.448 -1.165 2.553 0
-1.377 -1.098 2.557 0
-1.339 -1.057 2.551 0
-1.294 -1.013 2.549 0
-1.267 -0.983 2.541 0
-1.227 -0.945 2.539 0
-1.218 -0.931 2.526 1
-1.205 -0.913 2.514 2
-1.21 -0.91 2.495 13
-1.205 -0.901 2.48 10
-1.191 -0.885 2.468 10
-1.18 -0.871 2.456 13
-1.183 -0.868 2.436 3
-1.159 -0.846 2.43 0
-1.15 -0.834 2.416 0
-1.122 -0.81 2.412 0
-1.109 -0.797 2.4 0
-1.093 -0.781 2.39 0
-1.113 -0.791 2.36 0
-1.096 -0.776 2.349 0
0.0 -0.0 3.0 0
0.0 -0.0 3.0 0
0.0 -0.0 3.0 0
0.0 -0.0 3.0 0
-1.483 -1.314 2.697 0
-1.509 -1.32 2.671 1
0.0 -0.0 3.0 0
-1.534 -1.311 2.624 0
-1.478 -1.248 2.618 0
0.0 -0.0 3.0 0
-1.461 -1.207 2.584 0
-1.409 -1.153 2.58 0
-1.411 -1.143 2.561 0
-2.093 -1.679 2.322 0
-1.314 -1.044 2.557 0
-1.281 -1.01 2.55 0
-1.254 -0.98 2.543 0
-1.224 -0.949 2.537 0
-1.211 -0.932 2.525 1
-1.208 -0.921 2.51 7
-1.209 -0.917 2.492 14
-1.196 -0.9 2.48 13
-1.179 -0.881 2.471 9
-1.18 -0.876 2.453 12
-1.171 -0.865 2.438 0
-1.141 -0.838 2.435 0
-1.117 -0.816 2.429 0
-1.116 -0.81 2.411 0
-1.13 -0.817 2.385 0
-1.096 -0.788 2.384 0
-1.101 -0.787 2.363 0
-1.084 -0.772 2.352 0
0.0 -0.0 3.0 0
0.0 -0.0 3.0 0
0.0 -0.0 3.0 0
0.0 -0.0 3.0 0
-1.479 -1.317 2.696 0
-1.494 -1.314 2.672 1
0.0 -0.0 3.0 0
-1.521 -1.307 2.625 0
-1.456 -1.237 2.622 0
-1.445 -1.214 2.605 0
-1.418 -1.179 2.594 0
-1.387 -1.141 2.585 0
-1.386 -1.129 2.566 0
-1.391 -1.123 2.546 0
-1.313 -1.051 2.554 0
-1.296 -1.027 2.543 0
-1.239 -0.974 2.546 0
-1.211 -0.945 2.539 0
-1.214 -0.94 2.521 2
-1.207 -0.927 2.507 11
-1.2 -0.915 2.493 12
-1.19 -0.901 2.48 10
-1.182 -0.889 2.466 14
-1.179 -0.882 2.449 5
-1.174 -0.872 2.434 0
-1.147 -0.847 2.429 0
-1.126 -0.827 2.421 0
-1.125 -0.822 2.403 0
-1.118 -0.813 2.388 0
-1.09 -0.789 2.384 0
-1.098 -0.79 2.36 0
0.0 -0.0 3.0 0
0.0 -0.0 3.0 0
0.0 -0.0 3.0 0
0.0 -0.0 3.0 0
0.0 -0.0 3.0 0
-1.457 -1.306 2.699 0
-1.478 -1.308 2.674 3
0.0 -0.0 3.0 0
-1.502 -1.298 2.628 0
-1.458 -1.247 2.619 0
-1.453 -1.229 2.601 0
-1.423 -1.19 2.59 0
-1.383 -1.146 2.583 0
-1.382 -1.134 2.565 0
-1.387 -1.127 2.545 0
-1.295 -1.043 2.557 0
-1.253 -1.0 2.555 0
-1.229 -0.972 2.547 0
-1.223 -0.96 2.532 1
-1.214 -0.945 2.519 6
-1.204 -0.93 2.505 13
-1.194 -0.916 2.492 14
-1.186 -0.903 2.478 8
-1.184 -0.897 2.461 13
-1.158 -0.871 2.455 0
-1.147 -0.858 2.443 0
-1.114 -0.828 2.441 0
-1.129 -0.834 2.416 0
-1.125 -0.827 2.399 0
-1.103 -0.807 2.392 0
-1.102 -0.802 2.374 0
-1.101 -0.796 2.355 0
-1.093 -0.787 2.34 0
0.0 -0.0 3.0 0
0.0 -0.0 3.0 0
0.0 -0.0 3.0 0
-1.518 -1.385 2.706 0
-1.459 -1.315 2.696 0
-1.468 -1.307 2.674 4
0.0 -0.0 3.0 0
-1.501 -1.306 2.626 0
-1.475 -1.269 2.612 0
-1.44 -1.226 2.602 0
-1.413 -1.19 2.59 0
-1.355 -1.13 2.589 0
-1.346 -1.111 2.574 0
-1.302 -1.065 2.57 0
-1.279 -1.036 2.56 0
-1.235 -0.992 2.559 0
-1.211 -0.964 2.55 1
-1.214 -0.958 2.533 1
-1.21 -0.948 2.517 11
-1.201 -0.934 2.504 10
-1.19 -0.919 2.491 13
-1.183 -0.907 2.476 13
-1.178 -0.898 2.461 7
-1.161 -0.878 2.451 0
-1.173 -0.882 2.427 0
-1.126 -0.842 2.432 0
-1.125 -0.837 2.414 0
-1.113 -0.823 2.402 0
-1.109 -0.816 2.385 0
-1.093 -0.8 2.375 0
-1.083 -0.789 2.361 0
-1.069 -0.775 2.35 0
0.0 -0.0 3.0 0
0.0 -0.0 3.0 0
0.0 -0.0 3.0 0
-1.496 -1.373 2.708 0
-1.461 -1.325 2.694 0
-1.461 -1.308 2.674 8
0.0 -0.0 3.0 0
-1.494 -1.308 2.625 0
-1.465 -1.268 2.612 0
-1.427 -1.222 2.603 0
-1.391 -1.178 2.594 0
-1.385 -1.161 2.577 0
-1.33 -1.105 2.576 0
-1.28 -1.054 2.574 0
-1.24 -1.01 2.571 0
-1.228 -0.992 2.558 0
-1.223 -0.98 2.543 1
-1.213 -0.965 2.529 5
-1.21 -0.955 2.514 12
-1.194 -0.934 2.503 13
-1.181 -0.918 2.491 10
-1.186 -0.915 2.472 13
-1.169 -0.896 2.462 0
-1.146 -0.873 2.455 0
-1.14 -0.863 2.439 0
-1.126 -0.847 2.429 0
-1.111 -0.831 2.418 0
-1.113 -0.828 2.398 0
-1.121 -0.83 2.375 0
-1.084 -0.798 2.377 0
-1.086 -0.795 2.356 0
0.0 -0.0 3.0 0
0.0 -0.0 3.0 0
0.0 -0.0 3.0 0
0.0 -0.0 3.0 0
-1.478 -1.364 2.71 0
-1.445 -1.319 2.696 0
-1.454 -1.31 2.673 11
0.0 -0.0 3.0 0
-1.478 -1.301 2.627 0
-1.443 -1.257 2.616 0
-1.426 -1.228 2.601 0
-1.402 -1.196 2.588 0
-1.366 -1.153 2.581 0
-1.314 -1.098 2.578 0
-1.286 -1.065 2.57 0
-1.236 -1.014 2.57 0
-1.225 -0.996 2.557 1
-1.213 -0.978 2.544 1
-1.21 -0.968 2.528 9
-1.204 -0.956 2.513 10
-1.188 -0.935 2.503 12
-1.181 -0.923 2.488 16
-1.182 -0.918 2.47 8
-1.16 -0.895 2.462 0
-1.131 -0.867 2.458 0
-1.14 -0.868 2.436 0
-1.125 -0.852 2.425 0
-1.107 -0.834 2.416 0
-1.101 -0.824 2.401 0
-1.1 -0.819 2.383 0
-1.079 -0.798 2.376 0
-1.089 -0.802 2.351 0
0.0 -0.0 3.0 0
0.0 -0.0 3.0 0
0.0 -0.0 3.0 0
0.0 -0.0 3.0 0
-1.473 -1.369 2.709 0
-1.424 -1.307 2.698 0
-1.441 -1.307 2.674 13
0.0 -0.0 3.0 0
-1.476 -1.308 2.625 0
-1.427 -1.251 2.618 0
-1.401 -1.215 2.605 0
-1.372 -1.176 2.595 0
-1.344 -1.142 2.584 0
-1.287 -1.082 2.585 0
-1.255 -1.046 2.577 0
-1.224 -1.01 2.571 0
-1.224 -1.003 2.554 1
-1.213 -0.984 2.541 3
-1.207 -0.971 2.526 11
-1.2 -0.958 2.512 12
-1.185 -0.939 2.501 9
-1.178 -0.927 2.486 15
-1.167 -0.912 2.474 1
-1.153 -0.896 2.462 0
-1.145 -0.883 2.448 0
-1.128 -0.865 2.438 0
-1.111 -0.846 2.429 0
-1.128 -0.854 2.402 0
-1.098 -0.827 2.399 0
-1.103 -0.826 2.378 0
-1.081 -0.806 2.371 0
-1.094 -0.811 2.343 0
-1.075 -0.793 2.335 0
0.0 -0.0 3.0 0
0.0 -0.0 3.0 0
0.0 -0.0 3.0 0
-1.449 -1.354 2.712 0
-1.414 -1.305 2.699 0
-1.434 -1.308 2.674 16
0.0 -0.0 3.0 0
-1.458 -1.3 2.627 0
-1.426 -1.258 2.616 0
-1.382 -1.206 2.608 0
-1.368 -1.181 2.593 0
-1.32 -1.128 2.59 0
-1.265 -1.071 2.589 0
-1.24 -1.04 2.58 0
-1.223 -1.017 2.568 0
-1.212 -0.998 2.556 1
-1.209 -0.988 2.539 8
-1.203 -0.975 2.525 9
-1.191 -0.957 2.512 12
-1.178 -0.94 2.5 13
-1.177 -0.932 2.483 13
-1.158 -0.91 2.475 0
-1.156 -0.903 2.457 0
-1.124 -0.873 2.455 0
-1.11 -0.856 2.444 0
-1.107 -0.849 2.428 0
-1.113 -0.848 2.406 0
-1.118 -0.847 2.385 0
-1.091 -0.822 2.38 0
-1.084 -0.812 2.365 0
-1.074 -0.8 2.352 0
-1.075 -0.797 2.331 0
0.0 -0.0 3.0 0
0.0 -0.0 3.0 0
0.0 -0.0 3.0 0
-2.336 -2.196 2.533 3
-1.413 -1.312 2.697 0
-1.427 -1.31 2.673 19
0.0 -0.0 3.0 0
-1.468 -1.316 2.623 0
-1.419 -1.259 2.615 0
-1.381 -1.212 2.606 0
-1.352 -1.174 2.596 0
-1.307 -1.124 2.591 0
-1.25 -1.064 2.591 0
-1.225 -1.033 2.583 0
-1.226 -1.025 2.565 0
-1.212 -1.004 2.553 2
-1.206 -0.992 2.538 11
-1.2 -0.978 2.523 11
-1.188 -0.961 2.51 9
-1.181 -0.948 2.496 14
-1.177 -0.937 2.48 1
-1.152 -0.911 2.474 0
-1.138 -0.894 2.463 0
-1.127 -0.88 2.45 0
-1.133 -0.879 2.429 0
-1.107 -0.854 2.424 0
-1.107 -0.849 2.406 0
-1.095 -0.835 2.394 0
-1.091 -0.827 2.377 0
-1.078 -0.813 2.365 0
-1.065 -0.798 2.353 0
0.0 -0.0 3.0 0
0.0 -0.0 3.0 0
0.0 -0.0 3.0 0
0.0 -0.0 3.0 0
-1.449 -1.371 2.709 0
-1.394 -1.304 2.699 0
-1.417 -1.309 2.674 20
0.0 -0.0 3.0 0
-1.449 -1.308 2.625 0
-1.398 -1.247 2.619 0
-1.386 -1.225 2.602 0
-1.348 -1.178 2.594 0
-1.283 -1.111 2.596 0
-1.258 -1.078 2.586 0
-1.227 -1.042 2.579 0
-1.213 -1.021 2.566 1
-1.211 -1.01 2.55 8
-1.206 -0.997 2.535 10
-1.194 -0.979 2.522 11
-1.181 -0.962 2.51 13
-1.175 -0.948 2.496 12
-1.159 -0.929 2.485 0
-1.146 -0.912 2.474 0
-1.135 -0.897 2.461 0
-1.109 -0.871 2.455 0
-1.121 -0.876 2.431 0
-1.113 -0.863 2.418 0
-1.124 -0.867 2.393 0
-1.086 -0.833 2.395 0
-1.076 -0.821 2.382 0
-1.081 -0.82 2.36 0
-1.074 -0.81 2.344 0
0.0 -0.0 3.0 0
-1.098 -0.82 2.287 0
0.0 -0.0 3.0 0
0.0 -0.0 3.0 0
-1.417 -1.348 2.714 0
-1.385 -1.302 2.699 0
-1.407 -1.307 2.674 21
0.0 -0.0 3.0 0
-1.436 -1.304 2.626 0
-1.388 -1.246 2.619 0
-1.368 -1.216 2.605 0
-1.324 -1.164 2.599 0
-1.267 -1.104 2.598 0
-1.225 -1.057 2.594 0
-1.229 -1.051 2.575 1
-1.219 -1.032 2.562 2
-1.213 -1.019 2.546 11
-1.196 -0.995 2.536 10
-1.187 -0.98 2.522 9
-1.184 -0.97 2.506 14
-1.177 -0.956 2.491 2
-1.155 -0.932 2.483 0
-1.133 -0.908 2.476 0
-1.123 -0.893 2.463 0
-1.112 -0.879 2.451 0
-1.106 -0.869 2.435 0
-1.098 -0.857 2.422 0
-1.074 -0.834 2.416 0
-1.071 -0.827 2.399 0
-1.088 -0.835 2.371 0
-1.066 -0.814 2.364 0
-1.065 -0.808 2.346 0
0.0 -0.0 3.0 0
0.0 -0.0 3.0 0
0.0 -0.0 3.0 0
0.0 -0.0 3.0 0
-1.415 -1.354 2.712 0
-1.383 -1.309 2.698 0
-1.397 -1.306 2.674 21
0.0 -0.0 3.0 0
-1.421 -1.298 2.628 0
-1.378 -1.245 2.619 0
-1.358 -1.215 2.605 0
-1.291 -1.142 2.607 0
-1.243 -1.09 2.603 0
-1.222 -1.06 2.593 0
-1.211 -1.042 2.579 1
-1.206 -1.028 2.564 8
-1.207 -1.02 2.546 11
-1.196 -1.001 2.533 12
-1.184 -0.984 2.52 11
-1.178 -0.971 2.505 13
-1.165 -0.953 2.493 0
-1.143 -0.929 2.485 0
-1.133 -0.913 2.473 0
-1.125 -0.901 2.458 0
-1.115 -0.887 2.446 0
-1.112 -0.879 2.429 0
-1.092 -0.857 2.422 0
-1.094 -0.855 2.401 0
-1.08 -0.838 2.391 0
-1.073 -0.828 2.376 0
-1.089 -0.836 2.347 0
-1.05 -0.802 2.351 0
-1.085 -0.824 2.309 0
-1.103 -0.833 2.276 0
0.0 -0.0 3.0 0
0.0 -0.0 3.0 0
-1.411 -1.359 2.711 0
-1.365 -1.299 2.7 0
-1.39 -1.307 2.674 22
0.0 -0.0 3.0 0
-1.414 -1.3 2.627 0
-1.354 -1.231 2.624 0
-1.299 -1.168 2.62 0
-1.299 -1.157 2.602 0
-1.245 -1.098 2.6 0
-1.215 -1.061 2.593 0
-1.211 -1.048 2.577 1
-1.209 -1.036 2.56 9
-1.201 -1.021 2.546 10
-1.189 -1.002 2.533 10
-1.18 -0.987 2.519 14
-1.18 -0.979 2.501 3
-1.15 -0.947 2.497 0
-1.122 -0.917 2.492 0
-1.136 -0.921 2.468 0
-1.09 -0.879 2.472 0
-1.114 -0.892 2.443 0
-1.109 -0.882 2.427 0
-1.095 -0.865 2.417 0
-1.097 -0.861 2.397 0
-1.065 -0.831 2.396 0
-1.067 -0.828 2.376 0
-1.063 -0.821 2.359 0
-1.053 -0.808 2.346 0
-1.06 -0.809 2.321 0
0.0 -0.0 3.0 0
0.0 -0.0 3.0 0
0.0 -0.0 3.0 0
-1.384 -1.341 2.715 0
-1.361 -1.303 2.699 0
-1.383 -1.308 2.674 20
0.0 -0.0 3.0 0
-1.401 -1.296 2.629 0
-1.376 -1.258 2.615 0
-1.321 -1.196 2.611 0
-1.251 -1.121 2.614 0
-1.221 -1.084 2.606 0
-1.215 -1.067 2.59 1
-1.207 -1.051 2.575 6
-1.205 -1.04 2.559 10
-1.197 -1.024 2.544 12
-1.183 -1.003 2.532 10
-1.183 -0.995 2.515 12
-1.159 -0.967 2.507 0
-1.144 -0.948 2.496 0
-1.125 -0.925 2.487 0
-1.132 -0.925 2.466 0
-1.101 -0.893 2.463 0
-1.105 -0.89 2.444 0
-1.106 -0.885 2.426 0
-1.088 -0.866 2.416 0
-1.085 -0.858 2.399 0
-1.079 -0.848 2.384 0
-1.064 -0.831 2.374 0
-1.06 -0.823 2.357 0
-1.041 -0.804 2.349 0
-1.096 -0.842 2.293 0
0.0 -0.0 3.0 0
0.0 -0.0 3.0 0
0.0 -0.0 3.0 0
-2.264 -2.206 2.531 5
-1.36 -1.31 2.698 0
-1.374 -1.307 2.674 18
0.0 -0.0 3.0 0
-1.408 -1.31 2.624 0
-1.311 -1.207 2.631 0
-1.291 -1.177 2.618 0
-1.242 -1.12 2.614 0
-1.218 -1.087 2.604 0
-1.214 -1.074 2.588 1
-1.209 -1.06 2.572 9
-1.199 -1.041 2.558 9
-1.188 -1.023 2.545 10
-1.182 -1.009 2.53 14
-1.179 -0.998 2.513 5
-1.153 -0.968 2.507 0
-1.149 -0.957 2.491 0
-1.119 -0.926 2.487 0
-1.117 -0.918 2.47 0
-1.124 -0.917 2.449 0
-1.111 -0.899 2.438 0
-1.114 -0.896 2.418 0
-1.062 -0.85 2.427 0
-1.073 -0.854 2.402 0
-1.084 -0.857 2.377 0
-1.046 -0.822 2.381 0
-1.045 -0.817 2.362 0
0.0 -0.0 3.0 0
-1.045 -0.807 2.323 0
0.0 -0.0 3.0 0
0.0 -0.0 3.0 0
0.0 -0.0 3.0 0
-1.376 -1.348 2.713 0
-1.35 -1.308 2.698 0
-1.372 -1.314 2.672 16
0.0 -0.0 3.0 0
-1.401 -1.312 2.624 0
-1.299 -1.203 2.632 0
-1.27 -1.164 2.622 0
-1.235 -1.121 2.614 0
-1.214 -1.091 2.603 1
-1.219 -1.085 2.584 5
-1.206 -1.063 2.571 10
-1.195 -1.044 2.557 11
-1.176 -1.018 2.547 9
-1.176 -1.01 2.529 13
-1.155 -0.985 2.52 0
-1.135 -0.959 2.511 0
-1.134 -0.951 2.494 0
-1.098 -0.914 2.493 0
-1.123 -0.928 2.464 0
-1.115 -0.916 2.45 0
-1.099 -0.896 2.44 0
-1.088 -0.881 2.428 0
-1.071 -0.862 2.419 0
-1.067 -0.854 2.402 0
-1.073 -0.853 2.381 0
-1.058 -0.836 2.37 0
-1.076 -0.846 2.339 0
0.0 -0.0 3.0 0
0.0 -0.0 3.0 0
0.0 -0.0 3.0 0
0.0 -0.0 3.0 0
0.0 -0.0 3.0 0
-1.364 -1.345 2.714 0
-1.338 -1.304 2.699 0
-1.365 -1.315 2.672 13
-1.367 -1.302 2.651 0
-1.348 -1.27 2.636 0
-1.289 -1.201 2.633 0
-1.243 -1.147 2.627 0
-1.22 -1.114 2.616 0
-1.213 -1.097 2.601 1
-1.212 -1.086 2.583 9
-1.202 -1.067 2.569 9
-1.195 -1.051 2.554 10
-1.184 -1.032 2.541 13
-1.172 -1.013 2.528 6
-1.169 -1.002 2.511 0
-1.128 -0.96 2.511 0
-1.122 -0.947 2.497 0
-1.106 -0.927 2.486 0
-1.108 -0.921 2.468 0
-1.097 -0.906 2.456 0
-1.09 -0.894 2.441 0
-1.081 -0.882 2.427 0
-1.073 -0.869 2.414 0
-1.053 -0.847 2.407 0
-1.075 -0.86 2.375 0
-1.063 -0.845 2.363 0
-1.065 -0.842 2.342 0
0.0 -0.0 3.0 0
-1.044 -0.816 2.315 0
0.0 -0.0 3.0 0
0.0 -0.0 3.0 0
0.0 -0.0 3.0 0
-1.365 -1.354 2.712 0
-1.331 -1.305 2.699 0
-1.353 -1.311 2.673 10
-1.377 -1.32 2.646 0
-1.307 -1.239 2.645 0
-1.271 -1.191 2.636 0
-1.222 -1.135 2.631 0
-1.219 -1.12 2.614 0
-1.216 -1.106 2.597 3
-1.212 -1.092 2.581 11
-1.199 -1.07 2.568 11
-1.182 -1.046 2.556 8
-1.18 -1.035 2.539 13
-1.169 -1.017 2.526 0
-1.151 -0.993 2.515 0
-1.119 -0.958 2.512 0
-1.116 -0.947 2.496 0
-1.097 -0.925 2.487 0
-1.11 -0.929 2.464 0
-1.1 -0.914 2.451 0
-1.095 -0.903 2.435 0
-1.081 -0.887 2.424 0
-1.078 -0.879 2.407 0
-1.07 -0.866 2.393 0
-1.061 -0.854 2.38 0
-1.04 -0.832 2.373 0
-1.064 -0.847 2.339 0
0.0 -0.0 3.0 0
-1.052 -0.827 2.306 0
0.0 -0.0 3.0 0
0.0 -0.0 3.0 0
0.0 -0.0 3.0 0
-1.344 -1.341 2.715 0
-1.349 -1.331 2.693 0
-1.349 -1.315 2.672 8
-1.362 -1.312 2.648 0
-1.298 -1.237 2.645 0
-1.244 -1.174 2.641 0
-1.222 -1.141 2.629 0
-1.218 -1.126 2.612 1
-1.209 -1.107 2.597 8
-1.202 -1.09 2.581 8
-1.192 -1.071 2.567 10
-1.185 -1.054 2.552 12
-1.176 -1.038 2.538 8
-1.16 -1.015 2.527 0
-1.148 -0.997 2.514 0
-1.116 -0.961 2.51 0
-1.115 -0.953 2.493 0
-1.085 -0.92 2.49 0
-1.11 -0.935 2.46 0
-1.074 -0.898 2.46 0
-1.089 -0.904 2.435 0
-1.086 -0.897 2.418 0
-1.058 -0.867 2.415 0
-1.066 -0.869 2.392 0
-1.072 -0.868 2.37 0
-1.087 -0.875 2.34 0
-1.041 -0.833 2.349 0
0.0 -0.0 3.0 0
-1.024 -0.81 2.321 0
0.0 -0.0 3.0 0
0.0 -0.0 3.0 0
0.0 -0.0 3.0 0
-1.326 -1.331 2.717 0
-1.328 -1.318 2.696 0
-1.342 -1.316 2.672 5
-1.318 -1.278 2.658 0
-1.297 -1.244 2.643 0
-1.226 -1.164 2.644 0
-1.218 -1.144 2.628 0
-1.212 -1.127 2.612 2
-1.205 -1.111 2.596 10
-1.199 -1.094 2.58 10
-1.186 -1.072 2.567 8
-1.178 -1.055 2.552 11
-1.17 -1.039 2.537 0
-1.13 -0.995 2.536 0
-1.136 -0.993 2.516 0
-1.113 -0.964 2.509 0
-1.095 -0.941 2.5 0
-1.091 -0.931 2.484 0
-1.089 -0.923 2.467 0
-1.082 -0.91 2.453 0
-1.066 -0.89 2.444 0
-1.089 -0.904 2.413 0
-1.055 -0.87 2.413 0
-1.06 -0.869 2.391 0
-1.065 -0.868 2.37 0
-1.065 -0.862 2.351 0
-1.035 -0.834 2.349 0
0.0 -0.0 3.0 0
-1.027 -0.817 2.315 0
0.0 -0.0 3.0 0
0.0 -0.0 3.0 0
0.0 -0.0 3.0 0
-1.322 -1.335 2.716 0
-1.322 -1.32 2.695 0
-1.338 -1.32 2.671 4
-1.294 -1.263 2.662 0
-1.262 -1.218 2.651 0
-1.225 -1.17 2.642 0
-1.223 -1.156 2.624 1
-1.211 -1.133 2.61 8
-1.204 -1.116 2.594 8
-1.192 -1.095 2.58 10
-1.182 -1.076 2.565 10
-1.174 -1.059 2.55 8
-1.155 -1.033 2.54 0
-1.135 -1.006 2.531 0
-1.129 -0.993 2.515 0
-1.115 -0.972 2.505 0
-1.091 -0.944 2.498 0
-1.084 -0.932 2.484 0
-1.086 -0.926 2.465 0
-1.081 -0.915 2.45 0
-1.057 -0.889 2.445 0
-1.071 -0.895 2.419 0
-1.063 -0.882 2.405 0
-1.049 -0.865 2.394 0
-1.068 -0.875 2.364 0
-1.047 -0.853 2.357 0
-1.041 -0.843 2.342 0
0.0 -0.0 3.0 0
0.0 -0.0 3.0 0
0.0 -0.0 3.0 0
0.0 -0.0 3.0 0
0.0 -0.0 3.0 0
-1.318 -1.338 2.716 0
-1.315 -1.32 2.695 0
-1.322 -1.313 2.673 3
-1.29 -1.267 2.661 0
-1.244 -1.208 2.654 0
-1.216 -1.168 2.643 1
-1.216 -1.157 2.624 1
-1.207 -1.137 2.609 10
-1.201 -1.12 2.592 9
-1.183 -1.093 2.58 8
-1.178 -1.079 2.564 11
-1.165 -1.057 2.551 0
-1.154 -1.038 2.538 0
-1.132 -1.01 2.529 0
-1.129 -0.999 2.513 0
-1.111 -0.975 2.503 0
-1.111 -0.967 2.486 0
-1.095 -0.947 2.475 0
-1.08 -0.927 2.465 0
-1.075 -0.916 2.45 0
-1.076 -0.91 2.431 0
-1.071 -0.9 2.416 0
-1.054 -0.88 2.407 0
-1.057 -0.877 2.386 0
0.0 -0.0 3.0 0
-1.061 -0.87 2.345 0
-1.037 -0.845 2.34 0
0.0 -0.0 3.0 0
0.0 -0.0 3.0 0
0.0 -0.0 3.0 0
0.0 -0.0 3.0 0
0.0 -0.0 3.0 0
-1.3 -1.329 2.718 0
-1.313 -1.327 2.694 0
-1.316 -1.314 2.672 2
-1.272 -1.257 2.663 0
-1.229 -1.201 2.656 0
-1.218 -1.178 2.64 1
-1.215 -1.163 2.622 8
-1.204 -1.14 2.607 9
-1.191 -1.118 2.593 11
-1.185 -1.101 2.577 11
-1.175 -1.082 2.563 9
-1.162 -1.061 2.55 0
-1.151 -1.042 2.536 0
-1.128 -1.012 2.528 0
-1.105 -0.984 2.52 0
-1.082 -0.956 2.513 0
-1.093 -0.958 2.491 0
-1.089 -0.947 2.475 0
-1.096 -0.947 2.453 0
-1.092 -0.936 2.438 0
-1.076 -0.916 2.428 0
-1.079 -0.913 2.407 0
-1.031 -0.866 2.416 0
-1.073 -0.896 2.373 0
-1.014 -0.841 2.389 0
-1.055 -0.869 2.345 0
-0.998 -0.818 2.361 0
0.0 -0.0 3.0 0
0.0 -0.0 3.0 0
0.0 -0.0 3.0 0
0.0 -0.0 3.0 0
0.0 -0.0 3.0 0
-1.299 -1.335 2.716 0
-1.298 -1.32 2.695 0
-1.303 -1.309 2.674 1
-1.249 -1.241 2.667 0
-1.222 -1.202 2.655 0
-1.214 -1.182 2.639 1
-1.206 -1.161 2.623 9
-1.194 -1.138 2.608 8
-1.188 -1.122 2.592 8
-1.181 -1.105 2.576 12
-1.168 -1.083 2.562 1
-1.158 -1.064 2.549 0
-1.139 -1.037 2.538 0
-1.139 -1.029 2.52 0
-1.102 -0.987 2.519 0
-1.082 -0.962 2.51 0
-1.098 -0.969 2.485 0
-1.08 -0.946 2.476 0
-1.065 -0.925 2.466 0
-1.069 -0.922 2.446 0
-1.061 -0.909 2.432 0
-1.073 -0.913 2.407 0
-1.025 -0.867 2.415 0
-1.053 -0.884 2.381 0
-1.039 -0.867 2.37 0
-1.046 -0.868 2.346 0
-1.006 -0.829 2.352 0
0.0 -0.0 3.0 0
0.0 -0.0 3.0 0
0.0 -0.0 3.0 0
0.0 -0.0 3.0 0
0.0 -0.0 3.0 0
-1.289 -1.333 2.717 0
-1.275 -1.304 2.699 0
-1.28 -1.294 2.677 0
-1.22 -1.22 2.673 0
-1.221 -1.208 2.654 0
-1.213 -1.188 2.637 6
-1.202 -1.165 2.621 9
-1.19 -1.142 2.607 11
-1.181 -1.123 2.591 9
-1.172 -1.103 2.577 10
-1.156 -1.078 2.564 0
-1.14 -1.054 2.552 0
-1.138 -1.043 2.536 0
-1.127 -1.024 2.522 0
-1.121 -1.011 2.507 0
-1.107 -0.989 2.496 0
-1.089 -0.966 2.486 0
-1.085 -0.955 2.47 0
-1.081 -0.945 2.454 0
-1.068 -0.927 2.443 0
-1.055 -0.909 2.432 0
-1.069 -0.916 2.405 0
-1.03 -0.876 2.409 0
-1.038 -0.878 2.385 0
-1.002 -0.842 2.389 0
-1.059 -0.884 2.334 0
-1.003 -0.832 2.35 0
0.0 -0.0 3.0 0
0.0 -0.0 3.0 0
0.0 -0.0 3.0 0
0.0 -0.0 3.0 0
-1.334 -1.404 2.727 0
-1.28 -1.331 2.717 0
-1.279 -1.316 2.696 0
-1.251 -1.273 2.683 0
-1.219 -1.226 2.671 0
-1.211 -1.206 2.654 1
-1.209 -1.191 2.636 9
-1.201 -1.171 2.62 8
-1.187 -1.146 2.605 9
-1.18 -1.129 2.589 11
-1.174 -1.112 2.573 2
-1.172 -1.101 2.555 0
0.0 -0.0 3.0 0
-1.112 -1.025 2.543 0
-1.112 -1.017 2.526 0
-1.098 -0.996 2.514 0
-1.078 -0.97 2.506 0
-1.066 -0.952 2.494 0
-1.054 -0.933 2.483 0
-1.069 -0.941 2.457 0
-1.065 -0.93 2.441 0
-1.057 -0.917 2.427 0
-1.052 -0.906 2.411 0
-1.013 -0.867 2.415 0
-1.049 -0.892 2.375 0
0.0 -0.0 3.0 0
-1.05 -0.882 2.335 0
0.0 -0.0 3.0 0
0.0 -0.0 3.0 0
0.0 -0.0 3.0 0
0.0 -0.0 3.0 0
0.0 -0.0 3.0 0
-1.284 -1.359 2.736 0
-1.281 -1.341 2.715 0
-1.248 -1.291 2.702 0
-1.227 -1.256 2.687 0
-1.215 -1.23 2.67 0
-1.216 -1.218 2.651 4
-1.208 -1.198 2.634 10
-1.197 -1.175 2.618 11
-1.18 -1.147 2.605 8
-1.174 -1.129 2.589 9
-1.148 -1.094 2.58 0
-1.154 -1.091 2.559 0
-1.139 -1.066 2.547 0
-1.119 -1.039 2.537 0
-1.117 -1.028 2.521 0
-1.086 -0.992 2.516 0
-1.108 -1.004 2.489 0
-1.079 -0.969 2.485 0
-1.042 -0.929 2.485 0
-1.071 -0.948 2.452 0
-1.07 -0.94 2.435 0
-1.045 -0.912 2.43 0
-1.051 -0.911 2.408 0
-1.029 -0.886 2.403 0
-1.046 -0.895 2.374 0
-1.02 -0.867 2.37 0
-1.033 -0.873 2.342 0
0.0 -0.0 3.0 0
0.0 -0.0 3.0 0
0.0 -0.0 3.0 0
0.0 -0.0 3.0 0
0.0 -0.0 3.0 0
-1.282 -1.366 2.734 0
-1.277 -1.344 2.714 0
-1.254 -1.306 2.698 0
-1.218 -1.254 2.687 0
-1.206 -1.228 2.671 1
-1.209 -1.219 2.651 9
-1.204 -1.201 2.633 8
-1.185 -1.17 2.62 10
-1.179 -1.153 2.603 10
-1.181 -1.144 2.584 2
-1.141 -1.095 2.58 0
-1.128 -1.073 2.567 0
-1.132 -1.066 2.547 0
-1.124 -1.05 2.533 0
-1.113 -1.031 2.519 0
-1.111 -1.02 2.502 0
-1.088 -0.991 2.495 0
-1.079 -0.976 2.481 0
-1.069 -0.96 2.468 0
-1.065 -0.948 2.452 0
-1.049 -0.928 2.442 0
-1.056 -0.928 2.42 0
-1.034 -0.902 2.414 0
-0.99 -0.858 2.421 0
-1.02 -0.878 2.385 0
0.0 -0.0 3.0 0
-0.989 -0.84 2.367 0
0.0 -0.0 3.0 0
0.0 -0.0 3.0 0
0.0 -0.0 3.0 0
0.0 -0.0 3.0 0
0.0 -0.0 3.0 0
-1.267 -1.358 2.736 1
-1.248 -1.322 2.719 0
-1.248 -1.307 2.698 0
-1.214 -1.258 2.686 0
-1.213 -1.242 2.667 3
-1.205 -1.223 2.649 10
-1.195 -1.199 2.634 12
-1.181 -1.173 2.619 8
-1.173 -1.153 2.603 9
-1.158 -1.128 2.589 0
-1.14 -1.1 2.578 0
-1.127 -1.078 2.564 0
-1.123 -1.064 2.548 0
-1.107 -1.04 2.537 0
-1.096 -1.021 2.524 0
-1.099 -1.016 2.504 0
-1.079 -0.989 2.496 0
-1.07 -0.973 2.483 0
-1.063 -0.96 2.468 0
-1.065 -0.955 2.449 0
-1.029 -0.917 2.449 0
-1.058 -0.935 2.416 0
-1.056 -0.927 2.398 0
-1.015 -0.884 2.404 0
-1.039 -0.9 2.37 0
-0.992 -0.853 2.38 0
-0.988 -0.845 2.363 0
0.0 -0.0 3.0 0
0.0 -0.0 3.0 0
0.0 -0.0 3.0 0
0.0 -0.0 3.0 0
0.0 -0.0 3.0 0
-1.274 -1.373 2.733 0
-1.242 -1.323 2.719 0
-1.227 -1.293 2.701 1
-1.216 -1.267 2.684 1
-1.209 -1.246 2.666 9
-1.204 -1.228 2.648 8
-1.191 -1.202 2.632 11
-1.177 -1.177 2.618 9
-1.174 -1.162 2.6 3
-1.16 -1.137 2.586 0
-1.134 -1.101 2.577 0
-1.132 -1.09 2.56 0
0.0 -0.0 3.0 0
-1.075 -1.017 2.547 0
-1.087 -1.02 2.525 0
-1.07 -0.995 2.515 0
-1.086 -1.003 2.489 0
-1.072 -0.981 2.478 0
-1.054 -0.958 2.469 0
-1.056 -0.952 2.45 0
-1.048 -0.939 2.436 0
-1.03 -0.915 2.428 0
-1.052 -0.929 2.397 0
-0.995 -0.873 2.411 0
-1.047 -0.912 2.362 0
0.0 -0.0 3.0 0
0.0 -0.0 3.0 0
0.0 -0.0 3.0 0
0.0 -0.0 3.0 0
0.0 -0.0 3.0 0
0.0 -0.0 3.0 0
0.0 -0.0 3.0 0
-1.254 -1.359 2.736 0
-1.246 -1.335 2.716 0
-1.234 -1.308 2.698 2
-1.217 -1.276 2.682 2
-1.208 -1.253 2.664 11
-1.195 -1.226 2.648 10
-1.187 -1.206 2.631 7
-1.176 -1.183 2.616 9
-1.17 -1.166 2.599 0
-1.134 -1.119 2.593 0
-1.119 -1.094 2.58 0
-1.131 -1.096 2.557 0
-1.113 -1.068 2.547 0
-1.066 -1.015 2.548 0
-1.089 -1.028 2.521 0
-1.083 -1.014 2.505 0
0.0 -0.0 3.0 0
-1.066 -0.982 2.478 0
-1.045 -0.956 2.47 0
-1.058 -0.96 2.446 0
-1.045 -0.942 2.434 0
-1.032 -0.923 2.423 0
-1.041 -0.925 2.4 0
-0.983 -0.868 2.415 0
-0.994 -0.871 2.39 0
-0.977 -0.851 2.381 0
0.0 -0.0 3.0 0
0.0 -0.0 3.0 0
0.0 -0.0 3.0 0
0.0 -0.0 3.0 0
0.0 -0.0 3.0 0
0.0 -0.0 3.0 0
-1.244 -1.357 2.736 0
-1.231 -1.327 2.718 0
-1.225 -1.307 2.698 3
-1.208 -1.274 2.682 10
-1.204 -1.257 2.663 10
-1.191 -1.23 2.647 11
-1.183 -1.21 2.63 8
-1.175 -1.189 2.614 5
-1.15 -1.152 2.603 0
-1.122 -1.114 2.595 0
-1.132 -1.113 2.573 0
-1.136 -1.107 2.553 0
-1.115 -1.077 2.543 0
-1.082 -1.036 2.539 0
-1.094 -1.039 2.516 0
-1.088 -1.025 2.5 0
-1.043 -0.975 2.503 0
-1.062 -0.984 2.477 0
-1.022 -0.941 2.478 0
-1.051 -0.96 2.445 0
-1.014 -0.919 2.448 0
-1.04 -0.936 2.415 0
-1.024 -0.915 2.406 0
-0.996 -0.884 2.404 0
-0.996 -0.879 2.385 0
-0.961 -0.842 2.388 0
-0.995 -0.867 2.347 0
0.0 -0.0 3.0 0
0.0 -0.0 3.0 0
0.0 -0.0 3.0 0
0.0 -0.0 3.0 0
-1.941 -2.154 2.62 0
-1.235 -1.355 2.737 0
-1.221 -1.325 2.718 0
-1.215 -1.305 2.699 11
-1.206 -1.281 2.681 11
-1.2 -1.259 2.663 11
-1.19 -1.237 2.645 9
-1.177 -1.21 2.63 8
-1.174 -1.196 2.611 0
-1.149 -1.159 2.601 0
-1.102 -1.101 2.599 0
-1.106 -1.094 2.58 0
-1.107 -1.086 2.561 0
