# .PCD v0.7 - Point Cloud Data file format
VERSION 0.7
FIELDS x y z intensity
SIZE 4 4 4 4
TYPE F F F F
COUNT 1 1 1 1
WIDTH 2222
HEIGHT 1
VIEWPOINT 0 0 0 1 0 0 0
POINTS 2222
DATA ascii
-4.975 -0.321 2.822 40
-4.904 -0.384 2.778 29
-4.82 -0.445 2.733 44
-4.854 -0.514 2.679 41
-4.621 -0.552 2.641 13
-1.627 -0.216 2.854 8
-1.65 -0.24 2.832 21
-1.657 -0.262 2.809 30
-1.694 -0.289 2.782 28
-1.711 -0.313 2.756 0
-1.292 -0.251 2.797 0
-1.441 -0.297 2.751 23
-1.284 -0.279 2.758 5
0.0 -0.0 3.0 0
0.0 -0.0 3.0 0
0.0 -0.0 3.0 0
0.0 -0.0 3.0 0
0.0 -0.0 3.0 0
0.0 -0.0 3.0 0
0.0 -0.0 3.0 0
0.0 -0.0 3.0 0
0.0 -0.0 3.0 0
-69.102 -7.094 0.557 37
0.0 -0.0 3.0 0
-71.332 -4.991 1.084 12
-72.782 -3.976 1.393 15
-4.751 -0.192 2.918 5
-4.782 -0.139 2.938 1
-4.85 -0.117 2.945 4
-4.882 -0.14 2.932 20
-5.059 -0.197 2.899 46
-5.039 -0.261 2.861 20
-4.902 -0.32 2.823 28
-4.86 -0.384 2.778 25
-4.84 -0.449 2.73 36
-4.759 -0.506 2.684 29
-4.661 -0.558 2.637 15
-1.631 -0.217 2.854 10
-1.642 -0.24 2.832 26
-1.656 -0.263 2.809 30
-1.69 -0.289 2.782 28
-6.721 -1.23 2.039 7
-1.37 -0.267 2.784 0
-1.475 -0.304 2.745 30
-1.276 -0.277 2.759 5
0.0 -0.0 3.0 0
0.0 -0.0 3.0 0
0.0 -0.0 3.0 0
0.0 -0.0 3.0 0
0.0 -0.0 3.0 0
0.0 -0.0 3.0 0
0.0 -0.0 3.0 0
0.0 -0.0 3.0 0
0.0 -0.0 3.0 0
0.0 -0.0 3.0 0
-17.071 -1.485 2.459 2
-71.808 -5.104 1.041 11
-73.262 -4.104 1.342 13
-4.751 -0.201 2.915 1
-82.039 -2.592 1.846 19
-4.858 -0.131 2.939 5
-4.877 -0.151 2.926 25
-4.823 -0.196 2.9 36
-5.095 -0.27 2.856 39
-4.926 -0.327 2.819 26
-4.8 -0.383 2.779 22
-4.867 -0.455 2.726 34
-4.675 -0.5 2.688 26
-4.779 -0.575 2.626 5
-1.631 -0.217 2.853 15
-1.642 -0.241 2.831 28
-1.656 -0.263 2.809 31
-1.69 -0.289 2.782 28
-6.58 -1.207 2.057 7
-1.428 -0.278 2.775 1
-1.506 -0.311 2.739 26
-1.314 -0.286 2.751 7
0.0 -0.0 3.0 0
0.0 -0.0 3.0 0
0.0 -0.0 3.0 0
0.0 -0.0 3.0 0
0.0 -0.0 3.0 0
0.0 -0.0 3.0 0
0.0 -0.0 3.0 0
0.0 -0.0 3.0 0
-69.09 -8.368 0.281 3
0.0 -0.0 3.0 0
-16.779 -1.477 2.462 2
-72.782 -5.261 0.981 25
-73.746 -4.242 1.286 15
-75.777 -3.353 1.577 5
-82.087 -2.8 1.753 42
-4.865 -0.145 2.932 1
-4.881 -0.163 2.921 30
-4.811 -0.205 2.896 41
-4.875 -0.266 2.859 28
-4.897 -0.331 2.817 25
-4.803 -0.388 2.776 32
-4.918 -0.464 2.721 28
-4.651 -0.5 2.687 25
-4.771 -0.577 2.625 0
-1.631 -0.218 2.853 19
-1.642 -0.241 2.831 28
-1.656 -0.264 2.808 30
-1.689 -0.29 2.782 29
-6.451 -1.185 2.074 7
-1.474 -0.288 2.767 2
-1.522 -0.315 2.736 27
-1.33 -0.289 2.749 13
0.0 -0.0 3.0 0
0.0 -0.0 3.0 0
0.0 -0.0 3.0 0
0.0 -0.0 3.0 0
0.0 -0.0 3.0 0
0.0 -0.0 3.0 0
0.0 -0.0 3.0 0
0.0 -0.0 3.0 0
-69.134 -8.43 0.261 13
0.0 -0.0 3.0 0
-16.522 -1.472 2.464 2
0.0 -0.0 3.0 0
-74.217 -4.389 1.227 12
-76.308 -3.531 1.501 19
-83.117 -3.048 1.643 9
-4.861 -0.159 2.926 3
-4.876 -0.175 2.915 28
-4.802 -0.214 2.891 39
-1.701 -0.095 2.949 1
-4.897 -0.336 2.814 25
-4.838 -0.396 2.771 36
-4.894 -0.466 2.72 19
-4.654 -0.505 2.685 22
-9.323 -1.134 2.264 20
-1.623 -0.218 2.853 20
-1.634 -0.24 2.832 29
-1.656 -0.265 2.808 29
-1.689 -0.291 2.781 27
-6.33 -1.165 2.09 7
-1.478 -0.289 2.766 3
-1.518 -0.314 2.736 30
-1.283 -0.28 2.757 7
0.0 -0.0 3.0 0
0.0 -0.0 3.0 0
0.0 -0.0 3.0 0
0.0 -0.0 3.0 0
0.0 -0.0 3.0 0
0.0 -0.0 3.0 0
0.0 -0.0 3.0 0
0.0 -0.0 3.0 0
0.0 -0.0 3.0 0
-14.155 -1.504 2.482 2
-16.285 -1.471 2.465 2
0.0 -0.0 3.0 0
-74.743 -4.549 1.162 15
-76.846 -3.72 1.421 31
-83.591 -3.283 1.538 15
-4.856 -0.172 2.92 21
-4.872 -0.188 2.908 23
-4.781 -0.223 2.887 25
-1.692 -0.098 2.948 2
-4.821 -0.337 2.813 29
-4.858 -0.402 2.768 40
-4.854 -0.466 2.72 13
-4.669 -0.51 2.681 15
-9.238 -1.129 2.267 11
-1.627 -0.22 2.852 22
-1.638 -0.242 2.83 29
-1.652 -0.265 2.808 29
-1.689 -0.291 2.781 27
-6.204 -1.144 2.106 8
-1.482 -0.291 2.764 5
-1.517 -0.315 2.736 28
-1.191 -0.26 2.774 6
0.0 -0.0 3.0 0
0.0 -0.0 3.0 0
0.0 -0.0 3.0 0
0.0 -0.0 3.0 0
0.0 -0.0 3.0 0
0.0 -0.0 3.0 0
0.0 -0.0 3.0 0
0.0 -0.0 3.0 0
0.0 -0.0 3.0 0
-13.966 -1.5 2.484 2
-16.12 -1.477 2.462 3
0.0 -0.0 3.0 0
-75.228 -4.714 1.095 14
-77.255 -3.909 1.341 16
-84.103 -3.526 1.43 14
-4.876 -0.187 2.913 18
-4.859 -0.199 2.903 18
-4.765 -0.233 2.881 34
-1.676 -0.099 2.947 3
-4.92 -0.351 2.806 24
-4.881 -0.41 2.763 43
-4.833 -0.469 2.718 13
-4.685 -0.516 2.678 23
-9.035 -1.112 2.278 11
-1.618 -0.22 2.851 26
-1.629 -0.242 2.83 29
-1.648 -0.265 2.807 29
-1.685 -0.291 2.781 28
-6.091 -1.126 2.12 8
-1.481 -0.291 2.764 6
-1.482 -0.308 2.741 21
-1.172 -0.256 2.777 7
0.0 -0.0 3.0 0
0.0 -0.0 3.0 0
0.0 -0.0 3.0 0
0.0 -0.0 3.0 0
0.0 -0.0 3.0 0
0.0 -0.0 3.0 0
0.0 -0.0 3.0 0
0.0 -0.0 3.0 0
-12.16 -1.519 2.507 0
-13.789 -1.497 2.485 2
-15.918 -1.479 2.462 2
-74.635 -5.827 0.763 28
-15.407 -0.994 2.598 0
-77.305 -4.088 1.265 8
-4.79 -0.213 2.905 0
-4.887 -0.201 2.906 34
-4.81 -0.21 2.898 11
-4.748 -0.242 2.877 32
-1.664 -0.101 2.946 3
-4.943 -0.36 2.8 17
-4.992 -0.425 2.754 36
-4.825 -0.474 2.715 16
-4.68 -0.519 2.676 26
-8.678 -1.074 2.302 9
-1.61 -0.22 2.852 27
-1.617 -0.241 2.831 28
-1.648 -0.266 2.807 27
-1.677 -0.291 2.781 28
-5.992 -1.111 2.132 8
-1.493 -0.294 2.762 9
-1.343 -0.279 2.766 23
-1.156 -0.254 2.78 10
0.0 -0.0 3.0 0
0.0 -0.0 3.0 0
0.0 -0.0 3.0 0
0.0 -0.0 3.0 0
0.0 -0.0 3.0 0
0.0 -0.0 3.0 0
0.0 -0.0 3.0 0
0.0 -0.0 3.0 0
-12.019 -1.514 2.508 2
-13.624 -1.496 2.485 2
-15.721 -1.483 2.46 2
0.0 -0.0 3.0 0
-13.789 -0.916 2.63 0
-15.452 -0.853 2.638 10
-4.786 -0.226 2.899 6
-4.886 -0.215 2.9 37
-4.762 -0.221 2.892 33
-4.752 -0.253 2.871 31
-1.672 -0.106 2.944 4
-1.686 -0.125 2.931 0
-5.075 -0.439 2.747 37
-4.824 -0.479 2.712 26
-4.687 -0.524 2.672 26
-8.677 -1.082 2.298 18
-1.602 -0.22 2.852 26
-1.598 -0.239 2.832 23
-1.639 -0.266 2.807 24
-1.677 -0.292 2.78 27
-5.98 -1.112 2.131 12
-1.489 -0.294 2.762 12
-1.328 -0.277 2.768 22
-1.141 -0.25 2.783 6
0.0 -0.0 3.0 0
0.0 -0.0 3.0 0
0.0 -0.0 3.0 0
0.0 -0.0 3.0 0
0.0 -0.0 3.0 0
0.0 -0.0 3.0 0
0.0 -0.0 3.0 0
0.0 -0.0 3.0 0
-11.894 -1.511 2.509 2
-13.531 -1.503 2.482 2
-15.551 -1.49 2.458 2
0.0 -0.0 3.0 0
-13.739 -0.941 2.62 21
-13.829 -0.796 2.662 0
-4.789 -0.239 2.894 3
-4.869 -0.228 2.894 44
-4.737 -0.232 2.887 34
-4.747 -0.264 2.866 29
-1.672 -0.109 2.942 4
-1.65 -0.126 2.93 2
-5.086 -0.447 2.742 36
-4.823 -0.484 2.709 25
-4.699 -0.531 2.668 24
-8.624 -1.083 2.297 4
-1.511 -0.209 2.859 26
-1.389 -0.209 2.854 35
-1.498 -0.244 2.823 28
-1.68 -0.294 2.779 27
-5.971 -1.113 2.13 9
-1.488 -0.295 2.761 13
-1.316 -0.275 2.769 19
-1.121 -0.247 2.786 10
0.0 -0.0 3.0 0
0.0 -0.0 3.0 0
0.0 -0.0 3.0 0
0.0 -0.0 3.0 0
0.0 -0.0 3.0 0
0.0 -0.0 3.0 0
0.0 -0.0 3.0 0
-10.532 -1.524 2.534 2
-11.765 -1.51 2.509 2
-13.338 -1.5 2.483 4
-15.362 -1.496 2.455 2
-76.473 -6.367 0.556 16
-13.66 -0.965 2.61 24
-13.815 -0.829 2.648 33
-16.237 -0.857 2.618 1
-4.813 -0.239 2.888 33
-4.732 -0.245 2.88 35
-4.802 -0.278 2.858 27
-1.667 -0.112 2.941 5
-1.646 -0.128 2.929 2
-5.097 -0.455 2.737 3
-4.818 -0.489 2.706 25
-4.868 -0.555 2.653 26
-8.559 -1.083 2.297 4
-1.503 -0.208 2.859 25
-1.408 -0.213 2.851 32
-1.404 -0.229 2.833 29
-1.668 -0.292 2.78 24
-5.888 -1.101 2.14 1
-1.484 -0.295 2.761 13
-1.242 -0.26 2.782 15
-1.121 -0.247 2.785 10
0.0 -0.0 3.0 0
0.0 -0.0 3.0 0
0.0 -0.0 3.0 0
0.0 -0.0 3.0 0
0.0 -0.0 3.0 0
0.0 -0.0 3.0 0
0.0 -0.0 3.0 0
-10.427 -1.521 2.535 2
-11.64 -1.509 2.51 2
-13.244 -1.508 2.481 4
-15.164 -1.502 2.453 2
0.0 -0.0 3.0 0
-13.642 -0.993 2.599 45
-15.417 -0.963 2.591 9
-16.206 -0.899 2.6 8
-4.768 -0.251 2.883 43
-4.719 -0.257 2.874 37
-4.825 -0.291 2.852 28
-1.671 -0.115 2.939 8
-1.558 -0.124 2.931 6
-1.567 -0.142 2.918 0
-4.817 -0.495 2.702 25
-4.935 -0.568 2.645 37
-8.127 -1.036 2.327 0
-1.499 -0.21 2.858 24
-1.428 -0.217 2.848 28
-1.399 -0.229 2.833 27
-1.59 -0.28 2.789 19
-5.845 -1.097 2.143 13
-1.472 -0.293 2.763 13
-1.215 -0.255 2.786 14
-1.06 -0.234 2.797 10
0.0 -0.0 3.0 0
0.0 -0.0 3.0 0
0.0 -0.0 3.0 0
0.0 -0.0 3.0 0
0.0 -0.0 3.0 0
-13.183 -2.384 2.361 6
-9.33 -1.528 2.562 0
-10.327 -1.519 2.536 2
-11.575 -1.516 2.507 5
-13.059 -1.507 2.481 4
-14.966 -1.507 2.451 2
-17.118 -1.49 2.428 6
-12.132 -0.91 2.633 5
-12.154 -0.79 2.665 4
-16.203 -0.944 2.58 8
-4.763 -0.264 2.877 44
-4.73 -0.27 2.868 30
-4.82 -0.302 2.846 13
-1.655 -0.118 2.937 8
-1.573 -0.128 2.929 8
-1.559 -0.144 2.917 2
-4.825 -0.503 2.698 23
-4.962 -0.576 2.64 16
-7.951 -1.022 2.336 0
-1.506 -0.212 2.857 17
-1.357 -0.208 2.855 20
-1.38 -0.228 2.835 20
-1.426 -0.252 2.81 32
-1.638 -0.308 2.759 4
-1.468 -0.293 2.762 13
-1.23 -0.259 2.783 14
-1.044 -0.231 2.799 11
0.0 -0.0 3.0 0
0.0 -0.0 3.0 0
0.0 -0.0 3.0 0
0.0 -0.0 3.0 0
0.0 -0.0 3.0 0
-13.18 -2.398 2.358 85
-9.265 -1.528 2.562 2
-10.23 -1.518 2.536 2
-11.473 -1.519 2.507 7
-12.945 -1.513 2.479 4
-14.776 -1.514 2.449 2
-17.011 -1.514 2.419 2
-12.07 -0.933 2.623 19
-12.143 -0.82 2.652 20
-16.0 -0.977 2.565 5
-4.754 -0.277 2.871 42
-4.745 -0.284 2.861 22
-4.843 -0.315 2.839 3
-1.654 -0.121 2.936 6
-1.597 -0.132 2.927 10
-1.539 -0.144 2.917 6
-1.58 -0.167 2.9 3
-4.957 -0.582 2.636 1
-7.784 -1.009 2.345 0
-1.451 -0.205 2.861 11
-1.337 -0.205 2.856 19
-1.281 -0.213 2.846 13
-1.433 -0.254 2.808 33
-1.626 -0.307 2.76 8
-1.453 -0.291 2.764 12
-1.141 -0.241 2.798 11
-1.048 -0.233 2.798 12
0.0 -0.0 3.0 0
0.0 -0.0 3.0 0
0.0 -0.0 3.0 0
0.0 -0.0 3.0 0
-11.838 -2.372 2.409 0
-13.181 -2.413 2.353 86
-9.18 -1.525 2.563 2
-10.125 -1.515 2.537 2
-11.352 -1.519 2.506 10
-12.804 -1.518 2.477 3
-14.618 -1.524 2.445 2
-10.474 -0.953 2.634 0
-12.012 -0.956 2.614 21
-10.518 -0.737 2.687 1
-15.893 -1.014 2.548 9
-4.757 -0.291 2.864 36
-4.756 -0.298 2.855 26
-4.822 -0.326 2.834 0
-1.642 -0.123 2.934 4
-1.593 -0.135 2.925 10
-1.543 -0.147 2.915 7
-1.572 -0.168 2.899 3
-1.581 -0.188 2.882 0
-7.62 -0.996 2.353 0
-1.435 -0.205 2.862 11
-1.325 -0.205 2.857 17
-1.269 -0.211 2.847 12
-1.429 -0.254 2.808 30
-1.622 -0.307 2.76 7
-1.445 -0.29 2.765 11
-1.076 -0.228 2.809 10
-1.047 -0.233 2.797 11
0.0 -0.0 3.0 0
0.0 -0.0 3.0 0
0.0 -0.0 3.0 0
0.0 -0.0 3.0 0
-11.792 -2.376 2.408 69
-8.314 -1.532 2.59 4
-9.103 -1.523 2.563 2
-10.067 -1.52 2.535 3
-11.247 -1.521 2.506 10
-12.658 -1.522 2.476 4
-14.424 -1.531 2.443 2
-10.444 -0.972 2.627 53
-11.985 -0.982 2.603 18
-10.511 -0.764 2.676 31
-15.814 -1.054 2.531 30
-4.772 -0.305 2.858 32
-4.775 -0.312 2.848 6
-9.531 -0.668 2.66 0
-1.638 -0.127 2.933 1
-1.564 -0.136 2.925 14
-1.53 -0.149 2.914 8
-1.548 -0.168 2.899 7
-1.592 -0.191 2.881 3
-7.448 -0.982 2.362 0
-1.375 -0.197 2.867 9
-1.261 -0.196 2.862 16
-1.246 -0.209 2.848 11
-1.311 -0.234 2.823 13
-1.563 -0.298 2.767 4
-1.409 -0.284 2.77 11
-1.079 -0.229 2.807 10
-1.047 -0.234 2.797 13
0.0 -0.0 3.0 0
0.0 -0.0 3.0 0
0.0 -0.0 3.0 0
-10.382 -2.286 2.472 0
-11.782 -2.387 2.405 86
-8.257 -1.531 2.59 3
-9.034 -1.524 2.563 2
-9.998 -1.524 2.534 5
-11.133 -1.524 2.505 7
-12.52 -1.527 2.474 4
-14.25 -1.539 2.44 2
-10.41 -0.992 2.619 103
-10.505 -0.885 2.642 6
-15.983 -1.204 2.489 5
-15.196 -1.055 2.53 39
-4.827 -0.323 2.85 26
-4.766 -0.325 2.841 2
-9.485 -0.689 2.649 10
-9.386 -0.748 2.602 9
-1.568 -0.139 2.923 13
-1.534 -0.152 2.912 11
-1.547 -0.17 2.898 7
-1.58 -0.192 2.88 6
-7.285 -0.97 2.37 0
-1.367 -0.198 2.866 11
-1.261 -0.198 2.862 16
-1.23 -0.207 2.85 15
-1.26 -0.227 2.829 12
-1.493 -0.286 2.777 10
-1.374 -0.278 2.775 9
-1.087 -0.232 2.806 11
-1.058 -0.236 2.794 13
0.0 -0.0 3.0 0
0.0 -0.0 3.0 0
0.0 -0.0 3.0 0
-10.177 -2.252 2.48 56
-7.598 -1.548 2.614 0
-8.192 -1.529 2.59 2
-8.965 -1.524 2.563 2
-9.909 -1.525 2.534 10
-11.024 -1.527 2.504 10
-12.414 -1.536 2.471 4
-14.088 -1.549 2.436 3
-10.376 -1.011 2.612 105
-10.47 -0.907 2.634 15
-15.891 -1.24 2.474 9
-15.153 -1.095 2.512 44
-4.814 -0.335 2.844 6
-12.569 -0.891 2.565 19
-9.442 -0.71 2.638 11
-9.368 -0.769 2.591 15
-1.556 -0.141 2.922 14
-1.538 -0.155 2.91 16
-1.551 -0.173 2.896 10
-1.564 -0.192 2.88 6
-7.153 -0.961 2.376 0
-1.402 -0.205 2.862 11
-1.277 -0.201 2.859 16
-1.245 -0.211 2.847 15
-1.245 -0.225 2.831 11
-1.407 -0.27 2.789 12
-1.355 -0.275 2.777 8
-1.09 -0.233 2.804 10
-1.058 -0.237 2.794 12
0.0 -0.0 3.0 0
0.0 -0.0 3.0 0
-9.432 -2.265 2.519 0
-10.085 -2.243 2.482 60
-7.542 -1.546 2.615 3
-8.139 -1.53 2.59 2
-8.892 -1.524 2.563 2
-9.819 -1.525 2.534 8
-10.954 -1.534 2.501 5
-12.268 -1.54 2.47 2
-13.826 -1.549 2.436 6
-10.345 -1.031 2.604 58
-10.42 -0.928 2.625 20
-15.823 -1.275 2.459 26
-15.013 -1.127 2.498 13
-4.833 -0.351 2.836 1
-9.524 -0.702 2.658 0
-9.416 -0.733 2.627 12
-9.33 -0.787 2.582 99
-1.559 -0.144 2.92 18
-1.561 -0.16 2.908 19
-1.539 -0.174 2.896 11
-1.551 -0.193 2.88 8
-1.587 -0.216 2.86 0
-1.548 -0.228 2.846 9
-1.316 -0.209 2.854 14
-1.245 -0.212 2.846 16
-1.217 -0.221 2.834 16
-1.364 -0.263 2.794 12
-1.323 -0.27 2.782 8
-1.09 -0.234 2.804 11
-1.058 -0.238 2.793 12
0.0 -0.0 3.0 0
0.0 -0.0 3.0 0
-9.406 -2.269 2.518 26
-10.07 -2.251 2.48 57
-7.489 -1.544 2.615 3
-8.078 -1.529 2.59 2
-8.901 -1.539 2.559 8
-9.769 -1.533 2.531 11
-10.805 -1.532 2.502 5
-12.115 -1.543 2.469 4
-13.755 -1.569 2.429 13
-10.343 -1.054 2.595 33
-10.445 -0.956 2.614 18
-15.238 -1.27 2.461 57
-14.009 -1.091 2.514 1
-12.728 -0.961 2.552 26
-9.482 -0.726 2.646 10
-9.394 -0.755 2.615 13
-9.295 -0.806 2.571 255
-1.579 -0.15 2.917 13
-1.549 -0.162 2.907 18
-1.542 -0.178 2.893 18
-1.551 -0.195 2.878 11
-1.567 -0.215 2.861 3
-1.63 -0.242 2.837 10
-1.323 -0.211 2.852 13
-1.248 -0.214 2.845 16
-1.224 -0.224 2.832 15
-1.336 -0.259 2.797 15
-1.277 -0.261 2.789 7
-1.097 -0.236 2.802 11
-1.062 -0.239 2.792 12
0.0 -0.0 3.0 0
0.0 -0.0 3.0 0
-9.376 -2.273 2.517 29
-6.938 -1.559 2.64 3
-7.444 -1.544 2.615 3
-8.021 -1.529 2.59 2
-8.804 -1.535 2.56 17
-9.68 -1.535 2.531 14
-10.734 -1.541 2.499 7
-11.992 -1.55 2.466 8
-8.865 -1.029 2.625 4
-8.837 -0.921 2.647 0
-10.462 -0.984 2.602 16
-8.857 -0.762 2.677 8
-12.774 -1.031 2.541 6
-12.533 -0.982 2.542 12
-9.439 -0.748 2.635 10
-9.379 -0.778 2.604 12
-9.138 -0.814 2.567 255
-1.594 -0.155 2.914 11
-1.529 -0.162 2.906 20
-1.538 -0.179 2.892 21
-1.547 -0.197 2.877 12
-1.523 -0.211 2.863 6
-1.63 -0.244 2.836 13
-1.354 -0.218 2.847 25
-1.256 -0.216 2.843 16
-1.236 -0.227 2.829 14
-1.266 -0.246 2.808 12
-1.23 -0.253 2.795 11
-1.101 -0.238 2.8 11
-1.069 -0.242 2.789 12
0.0 -0.0 3.0 0
-8.952 -2.341 2.545 0
-9.339 -2.274 2.517 31
-6.897 -1.559 2.64 3
-7.391 -1.544 2.615 3
-7.972 -1.531 2.59 3
-8.751 -1.539 2.559 5
-9.582 -1.535 2.531 7
-10.637 -1.546 2.498 6
-11.886 -1.559 2.463 4
-8.791 -1.039 2.622 20
-8.831 -0.94 2.639 17
-8.848 -0.855 2.654 0
-14.863 -1.318 2.44 21
-12.759 -1.066 2.525 49
-9.538 -0.775 2.639 1
-9.413 -0.772 2.623 11
-9.349 -0.8 2.592 19
-8.765 -0.802 2.574 255
-1.594 -0.158 2.912 7
-1.524 -0.165 2.905 19
-1.533 -0.182 2.891 20
-1.53 -0.197 2.877 19
-1.507 -0.211 2.863 7
-1.59 -0.24 2.838 13
-1.369 -0.222 2.845 27
-1.263 -0.219 2.841 16
-1.232 -0.227 2.829 15
-1.238 -0.242 2.811 13
-1.276 -0.263 2.787 10
-1.101 -0.239 2.8 11
-1.069 -0.243 2.789 12
-7.99 -2.243 2.604 0
-8.911 -2.34 2.545 42
-6.43 -1.574 2.666 1
-6.852 -1.558 2.64 3
-7.342 -1.543 2.615 3
-7.97 -1.542 2.587 4
-8.689 -1.542 2.558 17
-9.521 -1.542 2.529 6
-10.523 -1.549 2.497 6
-11.752 -1.565 2.461 8
-8.76 -1.055 2.616 14
-8.784 -0.957 2.633 25
-8.846 -0.878 2.645 22
-14.019 -1.282 2.456 2
-12.719 -1.099 2.511 16
-9.487 -0.798 2.628 10
-9.398 -0.798 2.611 12
-9.318 -0.822 2.581 66
-8.675 -0.815 2.567 255
-1.577 -0.16 2.911 0
-1.536 -0.17 2.902 19
-1.533 -0.184 2.889 21
-1.522 -0.199 2.876 22
-1.499 -0.212 2.862 8
-1.574 -0.24 2.838 18
-1.393 -0.228 2.84 26
-1.294 -0.226 2.836 19
-1.243 -0.23 2.826 16
-1.215 -0.239 2.813 13
-1.287 -0.267 2.784 12
-1.104 -0.24 2.798 12
-1.08 -0.246 2.786 12
-7.979 -2.25 2.603 2
-8.885 -2.344 2.544 75
-6.381 -1.57 2.666 3
-6.807 -1.556 2.641 3
-7.289 -1.542 2.616 3
-7.912 -1.543 2.587 20
-8.608 -1.541 2.558 5
-9.451 -1.546 2.527 8
-10.448 -1.557 2.494 12
-11.638 -1.574 2.458 8
-8.738 -1.072 2.61 14
-8.75 -0.974 2.626 20
-8.839 -0.899 2.637 6
-12.948 -1.22 2.482 2
-12.516 -1.117 2.503 7
-9.445 -0.821 2.617 11
-9.379 -0.822 2.599 14
-9.292 -0.845 2.57 255
-8.665 -0.835 2.556 255
-8.087 -0.839 2.535 0
-1.531 -0.172 2.901 15
-1.529 -0.186 2.888 20
-1.51 -0.199 2.875 21
-1.51 -0.216 2.86 11
-1.557 -0.239 2.839 23
-1.427 -0.235 2.835 24
-1.313 -0.23 2.833 23
-1.25 -0.233 2.824 16
-1.218 -0.241 2.812 16
-1.283 -0.267 2.784 13
-1.112 -0.243 2.796 12
-1.072 -0.245 2.787 12
-7.969 -2.256 2.602 80
-8.886 -2.355 2.542 63
-6.341 -1.568 2.667 2
-6.762 -1.556 2.641 3
-7.244 -1.543 2.615 3
-7.871 -1.547 2.585 3
-8.574 -1.549 2.556 13
-9.361 -1.548 2.527 9
-10.339 -1.561 2.493 6
-7.169 -0.984 2.661 0
-8.707 -1.088 2.604 22
-8.72 -0.991 2.619 18
-8.9 -0.929 2.625 1
-12.61 -1.222 2.481 6
-9.528 -0.878 2.609 1
-9.414 -0.846 2.606 11
-9.353 -0.846 2.587 26
-8.704 -0.814 2.585 44
-8.654 -0.856 2.545 77
-7.91 -0.838 2.535 1
-1.551 -0.177 2.898 11
-1.52 -0.189 2.887 22
-1.501 -0.201 2.874 24
-1.49 -0.215 2.86 14
-1.553 -0.241 2.838 21
-1.509 -0.25 2.825 22
-1.325 -0.234 2.83 23
-1.262 -0.237 2.822 18
-1.222 -0.242 2.811 17
-1.275 -0.266 2.784 13
-1.107 -0.243 2.796 12
-1.079 -0.248 2.785 13
-7.974 -2.267 2.6 80
-5.934 -1.58 2.693 2
-6.307 -1.568 2.667 2
-6.721 -1.555 2.641 3
-7.257 -1.556 2.612 19
-7.802 -1.546 2.586 19
-8.485 -1.547 2.556 9
-9.275 -1.55 2.526 7
-10.241 -1.566 2.491 9
-7.147 -0.996 2.657 1
-8.709 -1.107 2.597 18
-8.697 -1.01 2.612 31
-7.192 -0.769 2.689 5
-12.069 -1.204 2.489 3
-9.489 -0.901 2.599 9
-9.399 -0.871 2.594 12
-9.302 -0.867 2.577 36
-8.674 -0.835 2.575 42
-8.604 -0.872 2.537 20
-7.733 -0.837 2.536 0
-1.574 -0.183 2.894 10
-1.532 -0.193 2.884 29
-1.481 -0.201 2.875 22
-1.501 -0.219 2.858 18
-1.533 -0.24 2.838 21
-1.517 -0.254 2.822 24
-1.324 -0.236 2.829 24
-1.288 -0.243 2.817 23
-1.241 -0.247 2.807 18
-1.301 -0.273 2.779 13
-1.119 -0.246 2.793 12
-1.079 -0.249 2.784 13
-7.972 -2.276 2.599 78
-5.897 -1.578 2.693 2
-6.271 -1.567 2.667 2
-6.68 -1.555 2.641 3
-7.192 -1.554 2.613 3
-7.779 -1.553 2.584 4
-8.466 -1.558 2.553 8
-9.237 -1.561 2.523 12
-10.17 -1.575 2.488 6
-7.18 -1.016 2.65 22
-8.718 -1.128 2.589 14
-8.698 -1.032 2.604 22
-7.202 -0.789 2.681 38
-11.664 -1.195 2.493 3
-9.434 -0.923 2.589 10
-9.376 -0.896 2.582 13
-9.16 -0.88 2.571 8
-8.675 -0.858 2.563 253
-8.12 -0.843 2.552 0
-7.564 -0.837 2.536 0
-1.546 -0.183 2.894 8
-1.535 -0.196 2.882 27
-1.473 -0.202 2.874 23
-1.497 -0.221 2.856 25
-1.513 -0.239 2.839 23
-1.508 -0.254 2.822 26
-1.34 -0.24 2.825 26
-1.311 -0.249 2.812 26
-1.283 -0.257 2.799 28
-1.258 -0.265 2.785 15
-1.13 -0.25 2.79 13
-1.082 -0.25 2.783 13
-5.523 -1.584 2.721 1
-5.868 -1.578 2.693 2
-6.237 -1.568 2.667 2
-6.639 -1.555 2.641 3
-7.15 -1.555 2.612 13
-7.702 -1.551 2.584 14
-8.365 -1.555 2.554 13
-9.139 -1.562 2.523 10
-10.084 -1.583 2.486 9
-7.114 -1.022 2.648 145
-7.186 -0.946 2.656 4
-8.691 -1.052 2.596 24
-7.172 -0.805 2.675 0
-9.53 -1.003 2.574 1
-9.415 -0.948 2.578 11
-9.349 -0.921 2.571 19
-8.688 -0.86 2.581 25
-8.644 -0.879 2.552 15
-7.903 -0.841 2.553 0
-7.403 -0.836 2.536 0
-1.541 -0.187 2.892 11
-1.531 -0.198 2.881 23
-1.472 -0.205 2.872 24
-1.477 -0.22 2.857 23
-1.508 -0.241 2.838 24
-1.524 -0.259 2.819 30
-1.347 -0.243 2.823 28
-1.307 -0.25 2.812 25
-1.283 -0.259 2.798 28
-1.25 -0.265 2.785 16
-1.141 -0.253 2.788 17
-1.082 -0.251 2.782 12
-5.494 -1.582 2.721 2
-5.823 -1.573 2.694 2
-6.185 -1.563 2.668 2
-6.644 -1.566 2.638 4
-7.132 -1.563 2.61 8
-7.672 -1.558 2.583 6
-8.319 -1.561 2.552 5
-9.081 -1.569 2.52 6
-10.001 -1.59 2.484 11
-7.088 -1.034 2.644 178
-7.171 -0.962 2.65 10
-7.205 -0.891 2.658 1
-12.643 -1.453 2.413 9
-9.483 -1.025 2.565 10
-9.396 -0.973 2.567 13
-9.318 -0.944 2.56 37
-8.673 -0.882 2.57 22
-8.601 -0.897 2.543 6
-7.729 -0.842 2.552 0
-7.249 -0.836 2.537 0
-1.537 -0.189 2.891 12
-1.546 -0.203 2.878 20
-1.46 -0.205 2.872 23
-1.476 -0.223 2.855 27
-1.488 -0.239 2.839 24
-1.515 -0.26 2.818 27
-1.362 -0.247 2.82 27
-1.318 -0.254 2.809 25
-1.29 -0.262 2.795 26
-1.261 -0.268 2.783 13
-1.148 -0.257 2.785 16
-1.082 -0.252 2.781 12
-5.48 -1.585 2.72 3
-5.79 -1.572 2.694 2
-6.156 -1.565 2.667 2
-6.576 -1.56 2.64 16
-5.929 -1.309 2.674 0
-7.595 -1.555 2.583 9
-8.253 -1.564 2.552 17
-9.011 -1.575 2.518 12
-9.903 -1.595 2.482 12
-7.062 -1.046 2.64 90
-7.169 -0.978 2.644 16
-7.21 -0.91 2.651 7
-12.178 -1.432 2.421 4
-9.44 -1.046 2.556 11
-9.377 -0.998 2.556 13
-9.235 -0.962 2.551 41
-8.674 -0.906 2.558 73
-8.07 -0.864 2.56 0
-7.552 -0.842 2.553 0
-1.542 -0.182 2.899 0
-1.54 -0.193 2.889 17
-1.537 -0.206 2.876 23
-1.448 -0.206 2.871 24
-1.468 -0.224 2.854 25
-1.484 -0.241 2.837 26
-1.515 -0.262 2.817 28
-1.389 -0.254 2.815 31
-1.337 -0.259 2.805 26
-1.317 -0.269 2.79 29
-1.284 -0.275 2.778 12
-1.163 -0.261 2.781 16
-1.089 -0.255 2.779 12
-5.432 -1.579 2.722 3
-5.75 -1.57 2.695 3
-6.126 -1.566 2.667 2
-6.566 -1.568 2.638 9
-7.037 -1.565 2.61 24
-7.577 -1.564 2.581 9
-8.191 -1.567 2.551 4
-8.925 -1.577 2.518 8
-9.817 -1.602 2.48 8
-7.051 -1.06 2.635 105
-7.099 -0.986 2.641 31
-7.251 -0.934 2.642 10
-9.536 -1.147 2.537 1
-9.416 -1.071 2.546 11
-9.349 -1.022 2.545 18
-8.692 -0.931 2.566 24
-8.623 -0.926 2.548 9
-7.888 -0.865 2.559 0
-7.391 -0.843 2.552 0
-1.546 -0.186 2.897 2
-1.532 -0.195 2.888 22
-1.541 -0.209 2.875 23
-1.443 -0.209 2.87 24
-1.467 -0.226 2.853 25
-1.479 -0.243 2.836 27
-1.573 -0.274 2.808 21
-1.384 -0.255 2.814 34
-1.348 -0.263 2.802 28
-1.324 -0.272 2.788 28
-1.257 -0.27 2.781 12
-1.174 -0.265 2.778 18
-1.085 -0.255 2.779 11
-5.411 -1.58 2.721 3
-5.728 -1.572 2.694 3
-6.132 -1.577 2.665 4
-6.532 -1.571 2.637 4
-5.815 -1.303 2.675 0
-5.787 -1.205 2.677 0
-8.141 -1.573 2.549 14
-8.874 -1.586 2.515 7
-9.758 -1.613 2.476 9
-7.037 -1.074 2.63 49
-7.084 -1.001 2.635 35
-7.217 -0.947 2.636 12
-9.481 -1.166 2.529 9
-9.397 -1.094 2.535 12
-9.314 -1.045 2.535 29
-8.68 -0.955 2.555 16
-8.58 -0.945 2.539 2
-7.715 -0.867 2.558 0
-7.237 -0.844 2.551 0
-1.525 -0.187 2.896 6
-1.531 -0.198 2.885 23
-1.54 -0.212 2.873 36
-1.435 -0.21 2.869 23
-1.463 -0.228 2.852 25
-1.479 -0.245 2.835 26
-1.615 -0.284 2.801 22
-1.384 -0.257 2.813 34
-1.375 -0.269 2.797 24
-1.308 -0.27 2.789 18
-1.229 -0.266 2.785 15
-1.197 -0.271 2.773 16
-1.088 -0.256 2.777 11
-5.378 -1.578 2.722 3
-5.695 -1.571 2.695 2
-6.091 -1.576 2.665 4
-6.495 -1.572 2.637 15
-6.946 -1.569 2.609 7
-7.469 -1.569 2.58 15
-8.064 -1.574 2.549 4
-8.8 -1.591 2.514 15
-9.679 -1.621 2.473 14
-7.026 -1.089 2.625 33
-7.062 -1.015 2.63 15
-7.175 -0.961 2.631 7
-9.434 -1.186 2.521 10
-9.378 -1.119 2.525 13
-9.227 -1.062 2.527 40
-8.669 -0.979 2.544 37
-8.057 -0.91 2.556 0
-7.537 -0.868 2.558 0
-7.096 -0.845 2.55 0
-1.521 -0.19 2.895 8
-1.522 -0.201 2.884 24
-1.54 -0.215 2.871 40
-1.43 -0.212 2.867 22
-1.451 -0.229 2.851 25
-1.47 -0.246 2.834 25
-1.626 -0.288 2.798 22
-1.383 -0.259 2.812 23
-1.406 -0.278 2.791 22
-1.381 -0.286 2.776 12
-1.21 -0.263 2.787 17
-1.223 -0.278 2.767 17
-1.091 -0.258 2.775 11
-5.345 -1.576 2.722 3
-5.666 -1.572 2.694 3
-6.049 -1.574 2.665 23
-6.484 -1.58 2.635 11
-6.92 -1.574 2.607 12
-7.404 -1.569 2.58 4
-8.029 -1.583 2.546 12
-8.726 -1.596 2.512 5
-9.553 -1.621 2.473 5
-7.019 -1.104 2.62 23
-7.051 -1.032 2.624 21
-7.247 -0.989 2.62 7
-9.414 -1.209 2.511 11
-9.35 -1.142 2.515 18
-8.7 -1.026 2.543 19
-8.61 -0.997 2.535 6
-7.871 -0.912 2.555 0
-7.392 -0.872 2.556 0
-6.95 -0.846 2.55 0
-1.52 -0.194 2.893 11
-1.53 -0.205 2.881 39
-1.535 -0.218 2.869 40
-1.367 -0.206 2.871 21
-1.395 -0.223 2.855 23
-1.474 -0.249 2.832 22
-1.63 -0.292 2.796 18
-1.383 -0.261 2.81 21
-1.401 -0.279 2.79 22
-1.454 -0.303 2.763 19
-1.217 -0.266 2.784 17
-1.192 -0.272 2.771 21
-1.087 -0.259 2.775 11
-5.313 -1.575 2.722 4
-5.652 -1.577 2.693 4
-6.035 -1.58 2.664 7
-6.419 -1.575 2.636 4
-6.851 -1.571 2.608 4
-7.362 -1.574 2.578 20
-7.943 -1.581 2.547 5
-8.683 -1.606 2.509 13
-5.601 -0.963 2.687 0
-7.009 -1.119 2.615 35
-7.04 -1.048 2.619 21
-7.185 -1.0 2.616 6
-9.398 -1.233 2.502 12
-9.319 -1.165 2.506 41
-8.684 -1.05 2.533 13
-8.527 -1.012 2.528 1
-7.701 -0.914 2.554 0
-7.234 -0.873 2.555 0
-6.817 -0.848 2.549 0
-1.519 -0.197 2.891 18
-1.529 -0.208 2.88 41
-1.531 -0.221 2.867 39
-1.37 -0.209 2.87 20
-1.379 -0.223 2.855 24
-1.363 -0.233 2.843 26
-1.602 -0.289 2.798 13
-1.378 -0.262 2.81 22
-1.401 -0.28 2.789 20
-1.407 -0.296 2.769 15
-1.197 -0.263 2.787 17
-1.188 -0.273 2.771 20
-1.106 -0.265 2.77 11
-5.307 -1.581 2.721 3
-5.627 -1.579 2.693 12
-5.99 -1.579 2.664 3
-6.378 -1.576 2.636 16
-6.821 -1.577 2.607 19
-7.324 -1.58 2.577 4
-7.917 -1.592 2.543 13
-8.601 -1.61 2.508 7
-5.532 -0.963 2.687 0
-7.018 -1.137 2.608 21
-7.029 -1.064 2.613 42
-9.444 -1.339 2.486 9
-9.371 -1.256 2.493 11
-9.263 -1.184 2.498 6
-8.669 -1.073 2.522 24
-8.048 -0.979 2.544 0
-7.539 -0.917 2.553 0
-7.076 -0.873 2.555 0
-6.687 -0.85 2.548 0
-1.511 -0.2 2.889 24
-1.529 -0.212 2.878 42
-1.514 -0.221 2.867 37
-1.369 -0.212 2.868 21
-1.378 -0.225 2.854 24
-1.363 -0.235 2.841 26
-1.386 -0.253 2.823 20
-1.382 -0.265 2.807 21
-1.4 -0.282 2.788 16
-1.383 -0.292 2.772 11
-1.193 -0.264 2.787 18
-1.21 -0.279 2.766 13
-1.136 -0.273 2.763 12
-5.258 -1.574 2.722 3
-5.605 -1.582 2.693 21
-5.953 -1.579 2.664 12
-6.368 -1.584 2.634 10
-6.791 -1.583 2.605 7
-7.262 -1.581 2.576 9
-7.835 -1.592 2.543 5
-5.513 -1.043 2.681 0
-5.557 -0.981 2.681 5
-5.576 -0.918 2.684 0
-7.03 -1.082 2.606 48
-5.554 -0.802 2.692 0
-9.351 -1.279 2.483 15
-8.693 -1.135 2.518 14
-8.602 -1.09 2.515 6
-7.866 -0.979 2.544 0
-7.37 -0.917 2.553 0
-6.935 -0.875 2.554 0
-6.542 -0.848 2.549 0
-1.514 -0.204 2.887 25
-1.524 -0.215 2.876 41
-1.517 -0.225 2.865 34
-1.353 -0.212 2.868 19
-1.374 -0.227 2.852 19
-1.374 -0.239 2.839 25
-1.339 -0.246 2.828 18
-1.373 -0.265 2.807 13
-1.403 -0.285 2.785 12
-1.352 -0.287 2.775 9
-1.188 -0.264 2.786 13
-1.271 -0.295 2.752 11
-1.162 -0.28 2.756 13
-5.256 -1.581 2.721 7
-5.587 -1.585 2.692 6
-5.939 -1.585 2.663 13
-6.314 -1.583 2.635 4
-6.737 -1.583 2.605 4
-7.251 -1.592 2.573 10
-7.808 -1.602 2.541 16
-5.538 -1.06 2.676 2
-5.531 -0.989 2.679 36
-5.558 -0.928 2.681 1
-7.039 -1.101 2.599 128
-5.54 -0.815 2.687 1
-9.331 -1.302 2.474 16
-8.677 -1.159 2.508 11
-8.408 -1.089 2.515 1
-7.688 -0.98 2.543 0
-7.224 -0.919 2.552 0
-6.797 -0.877 2.553 0
-1.511 -0.2 2.894 0
-1.513 -0.208 2.885 26
-1.527 -0.219 2.873 41
-1.529 -0.23 2.862 35
-1.329 -0.211 2.868 15
-1.318 -0.22 2.857 15
-1.35 -0.238 2.84 22
-1.291 -0.239 2.832 11
-1.369 -0.267 2.806 13
-1.395 -0.285 2.785 10
-1.204 -0.258 2.798 10
-1.172 -0.262 2.788 9
-1.309 -0.305 2.744 11
-1.15 -0.279 2.758 13
-5.235 -1.584 2.721 6
-5.546 -1.583 2.692 4
-5.894 -1.584 2.663 4
-6.277 -1.585 2.634 14
-6.707 -1.588 2.604 19
-7.17 -1.589 2.574 6
-7.73 -1.603 2.54 4
-5.492 -1.064 2.675 29
-5.474 -0.991 2.678 15
-5.548 -0.939 2.677 8
-7.044 -1.12 2.592 153
-5.541 -0.83 2.682 24
-9.307 -1.325 2.465 27
-8.665 -1.182 2.498 15
-8.04 -1.065 2.526 0
-7.515 -0.979 2.544 0
-7.066 -0.92 2.551 0
-6.664 -0.878 2.553 0
-1.526 -0.206 2.89 0
-1.509 -0.211 2.883 32
-1.519 -0.221 2.872 41
-1.528 -0.233 2.86 32
-1.336 -0.215 2.866 17
-1.318 -0.222 2.856 15
-1.306 -0.233 2.843 20
-1.267 -0.237 2.834 10
-1.345 -0.264 2.808 8
-1.383 -0.285 2.786 5
-1.188 -0.256 2.8 13
-1.168 -0.262 2.788 15
-1.316 -0.308 2.742 12
-1.157 -0.281 2.755 12
-5.202 -1.582 2.721 6
-5.513 -1.583 2.692 9
-5.852 -1.583 2.664 6
-6.258 -1.592 2.633 12
-6.673 -1.593 2.603 4
-7.139 -1.596 2.572 22
-7.695 -1.612 2.538 18
-5.462 -1.071 2.673 17
-5.448 -0.999 2.675 13
-5.51 -0.947 2.674 9
-7.06 -1.141 2.585 54
-5.535 -0.844 2.676 5
-8.694 -1.262 2.49 7
-8.618 -1.2 2.491 5
-7.842 -1.062 2.527 0
-7.353 -0.98 2.543 0
-6.932 -0.922 2.55 0
-6.554 -0.882 2.551 0
-1.522 -0.209 2.889 1
-1.512 -0.216 2.881 42
-1.522 -0.226 2.87 41
-1.511 -0.234 2.859 29
-1.281 -0.208 2.87 13
-1.25 -0.214 2.861 13
-1.294 -0.232 2.843 17
-1.24 -0.234 2.836 11
-1.193 -0.236 2.829 3
-1.251 -0.259 2.805 0
-1.199 -0.26 2.797 12
-1.175 -0.266 2.785 22
-1.373 -0.324 2.729 11
-1.206 -0.295 2.743 14
-5.176 -1.583 2.721 12
-5.487 -1.585 2.692 18
-5.823 -1.586 2.663 23
-6.205 -1.59 2.633 4
-6.616 -1.593 2.603 6
-7.089 -1.6 2.571 3
-7.633 -1.616 2.537 3
-5.444 -1.079 2.67 17
-5.421 -1.007 2.673 22
-5.452 -0.951 2.672 15
-5.564 -0.913 2.668 0
-5.536 -0.859 2.67 0
-8.631 -1.277 2.484 7
-8.254 -1.173 2.502 0
-7.657 -1.059 2.529 0
-7.191 -0.979 2.544 0
-6.791 -0.923 2.55 0
-6.215 -0.853 2.565 0
-1.521 -0.214 2.886 2
-1.511 -0.219 2.879 44
-1.525 -0.229 2.868 38
-1.527 -0.24 2.856 27
-1.245 -0.205 2.872 10
-1.222 -0.212 2.862 11
-1.203 -0.219 2.852 14
-1.204 -0.23 2.839 9
-1.188 -0.237 2.828 4
-1.192 -0.249 2.812 3
-1.195 -0.261 2.796 11
-1.175 -0.267 2.784 20
-1.506 -0.357 2.701 5
-1.301 -0.32 2.722 15
-5.162 -1.587 2.72 21
-5.473 -1.59 2.691 6
-5.816 -1.594 2.661 7
-6.171 -1.592 2.632 12
-6.589 -1.599 2.601 24
-7.039 -1.604 2.57 12
-7.587 -1.622 2.535 14
-5.426 -1.088 2.667 17
-5.407 -1.018 2.669 19
-5.449 -0.964 2.668 17
-5.557 -0.927 2.663 4
-9.3 -1.47 2.436 28
-8.417 -1.269 2.487 2
-8.021 -1.164 2.506 0
-7.495 -1.058 2.529 0
-7.054 -0.981 2.543 0
-6.661 -0.925 2.549 0
-6.168 -0.864 2.56 1
-1.516 -0.217 2.885 3
-1.511 -0.223 2.877 45
-1.52 -0.232 2.866 37
-1.53 -0.244 2.853 27
-1.244 -0.208 2.87 7
-1.233 -0.215 2.86 11
-1.203 -0.22 2.851 13
-1.184 -0.228 2.841 15
-1.188 -0.239 2.826 7
-1.18 -0.249 2.813 10
-1.194 -0.262 2.795 13
-1.17 -0.268 2.783 12
-1.402 -0.334 2.72 4
-1.334 -0.33 2.713 6
-5.148 -1.592 2.719 7
-5.432 -1.588 2.691 5
-5.771 -1.592 2.662 4
-6.145 -1.598 2.631 15
-6.547 -1.601 2.601 4
-7.028 -1.616 2.567 10
-7.544 -1.63 2.533 3
-5.408 -1.097 2.665 27
-5.393 -1.028 2.666 17
-5.463 -0.98 2.663 16
-5.594 -0.948 2.655 6
-8.688 -1.397 2.464 11
-8.023 -1.232 2.502 4
-7.824 -1.158 2.509 0
-7.341 -1.058 2.529 0
-6.92 -0.982 2.542 0
-6.535 -0.925 2.549 0
-5.916 -0.845 2.569 8
-1.5 -0.218 2.884 4
-1.506 -0.226 2.875 44
-1.52 -0.236 2.864 37
-1.537 -0.249 2.851 20
-1.251 -0.212 2.868 7
-1.237 -0.219 2.858 10
-1.21 -0.224 2.849 12
-1.187 -0.23 2.839 16
-1.195 -0.242 2.824 8
-1.175 -0.249 2.812 3
-1.186 -0.262 2.795 12
-1.212 -0.279 2.774 10
-1.306 -0.313 2.738 12
-1.322 -0.329 2.714 13
-5.1 -1.585 2.72 7
-5.399 -1.588 2.691 11
-5.73 -1.592 2.662 10
-6.103 -1.599 2.631 4
-6.505 -1.605 2.6 7
-6.954 -1.614 2.567 4
-7.478 -1.633 2.532 14
-5.397 -1.107 2.662 23
-5.382 -1.039 2.662 18
-5.515 -1.003 2.655 15
-5.575 -0.96 2.651 10
-8.684 -1.42 2.455 14
-7.829 -1.225 2.505 5
-7.662 -1.156 2.509 0
-7.191 -1.058 2.529 0
-6.778 -0.982 2.542 0
-6.319 -0.913 2.555 0
-5.898 -0.859 2.562 19
-1.507 -0.223 2.881 5
-1.509 -0.231 2.872 44
-1.519 -0.24 2.861 34
-1.536 -0.252 2.848 17
-1.255 -0.215 2.866 6
-1.248 -0.224 2.855 11
-1.217 -0.227 2.847 11
-1.194 -0.234 2.836 16
-1.191 -0.243 2.823 9
-1.171 -0.25 2.812 0
-1.213 -0.269 2.789 9
-1.215 -0.281 2.772 12
-1.286 -0.31 2.74 10
-1.325 -0.331 2.712 14
-5.082 -1.589 2.72 7
-5.381 -1.593 2.69 19
-5.715 -1.598 2.66 18
-6.062 -1.6 2.631 8
-6.478 -1.611 2.598 24
-6.923 -1.622 2.565 20
-7.232 -1.595 2.543 7
-5.398 -1.12 2.657 20
-5.372 -1.051 2.659 33
-5.508 -1.017 2.65 16
-5.529 -0.966 2.648 10
-8.648 -1.438 2.448 10
-7.652 -1.219 2.508 6
-7.488 -1.151 2.511 0
-7.05 -1.058 2.529 0
-6.64 -0.982 2.542 0
-6.17 -0.909 2.556 1
-5.91 -0.878 2.553 24
-1.498 -0.227 2.879 7
-1.504 -0.234 2.87 42
-1.522 -0.244 2.859 31
-1.539 -0.256 2.846 14
-1.262 -0.219 2.863 6
-1.243 -0.225 2.854 9
-1.221 -0.231 2.844 13
-1.202 -0.238 2.834 16
-1.19 -0.245 2.822 11
-1.17 -0.252 2.81 5
-1.17 -0.262 2.795 15
-1.199 -0.28 2.774 14
-1.285 -0.311 2.739 10
-1.332 -0.334 2.71 16
-5.064 -1.592 2.719 17
-5.359 -1.596 2.69 6
-5.677 -1.598 2.66 5
-6.039 -1.607 2.629 22
-6.432 -1.614 2.598 4
-6.881 -1.626 2.564 4
-7.349 -1.638 2.53 7
-5.392 -1.131 2.654 19
-5.365 -1.063 2.655 60
-5.454 -1.021 2.648 26
-5.534 -0.982 2.642 2
-8.525 -1.441 2.447 5
-7.478 -1.212 2.51 6
-7.323 -1.147 2.513 0
-6.908 -1.056 2.53 0
-6.522 -0.982 2.542 0
-5.91 -0.889 2.567 10
-5.9 -0.893 2.545 97
-1.505 -0.232 2.877 9
-1.504 -0.237 2.869 40
-1.517 -0.247 2.857 29
-1.535 -0.259 2.845 10
-1.265 -0.222 2.861 6
-1.247 -0.228 2.852 8
-1.228 -0.235 2.842 12
-1.201 -0.24 2.832 15
-1.182 -0.246 2.821 16
-1.166 -0.253 2.809 2
-1.169 -0.264 2.794 23
-1.214 -0.285 2.769 16
-1.281 -0.312 2.738 17
-1.29 -0.325 2.717 14
-5.054 -1.598 2.718 15
-5.329 -1.597 2.69 5
-5.644 -1.6 2.66 5
-5.993 -1.606 2.629 4
-6.39 -1.617 2.597 8
-6.827 -1.629 2.564 10
-7.361 -1.657 2.525 12
-5.389 -1.144 2.65 17
-5.358 -1.075 2.651 75
-5.424 -1.029 2.646 33
-5.586 -1.007 2.633 2
-8.194 -1.408 2.459 1
-7.333 -1.211 2.511 4
-7.181 -1.145 2.514 0
-6.774 -1.055 2.53 0
-6.345 -0.975 2.545 0
-5.907 -0.905 2.559 13
-5.892 -0.909 2.537 7
-1.497 -0.234 2.875 12
-1.503 -0.241 2.866 37
-1.517 -0.251 2.855 25
-1.538 -0.263 2.842 7
-1.268 -0.226 2.859 4
-1.242 -0.23 2.85 9
-1.227 -0.237 2.84 13
-1.204 -0.242 2.83 15
-1.189 -0.249 2.819 18
-1.165 -0.254 2.808 2
-1.18 -0.268 2.791 17
-1.225 -0.289 2.766 18
-1.28 -0.313 2.737 17
-1.297 -0.329 2.714 15
-5.028 -1.6 2.718 7
-5.296 -1.597 2.69 7
-5.61 -1.602 2.66 14
-5.959 -1.61 2.628 7
-6.368 -1.624 2.595 23
-6.804 -1.639 2.561 16
-7.283 -1.657 2.525 4
-5.39 -1.158 2.646 16
-5.355 -1.088 2.647 162
-5.421 -1.043 2.641 28
-5.552 -1.016 2.63 4
-8.009 -1.398 2.463 1
-7.223 -1.212 2.51 1
-7.027 -1.142 2.515 0
-6.636 -1.054 2.531 0
-6.169 -0.966 2.549 1
-5.908 -0.922 2.55 16
-5.87 -0.921 2.531 5
-1.5 -0.239 2.873 12
-1.502 -0.245 2.864 36
-1.52 -0.255 2.853 18
-1.545 -0.268 2.839 6
-1.268 -0.228 2.857 1
-1.253 -0.235 2.847 8
-1.227 -0.239 2.839 13
-1.204 -0.244 2.829 18
-1.188 -0.251 2.818 19
-1.176 -0.259 2.805 8
-1.229 -0.281 2.78 9
-1.22 -0.29 2.765 16
-1.276 -0.314 2.736 20
-1.292 -0.329 2.714 16
-4.987 -1.595 2.719 8
-5.274 -1.6 2.689 25
-5.603 -1.611 2.658 10
-5.933 -1.615 2.627 31
-6.318 -1.626 2.595 4
-6.753 -1.641 2.56 4
-7.256 -1.667 2.522 14
-5.383 -1.169 2.643 17
-5.348 -1.1 2.643 166
-5.414 -1.056 2.636 14
-8.535 -1.584 2.423 3
-7.828 -1.389 2.467 1
-7.116 -1.216 2.509 0
-6.898 -1.141 2.516 0
-6.515 -1.054 2.531 0
-5.905 -0.942 2.561 11
-5.908 -0.939 2.542 51
-5.736 -0.916 2.533 1
-1.495 -0.243 2.871 12
-1.501 -0.249 2.862 32
-1.523 -0.259 2.85 15
-1.559 -0.275 2.835 3
0.0 -0.0 3.0 0
-1.252 -0.237 2.846 7
-1.23 -0.242 2.837 10
-1.211 -0.249 2.826 16
-1.191 -0.254 2.816 21
-1.172 -0.26 2.804 5
-1.248 -0.287 2.776 10
-1.216 -0.291 2.765 17
-1.275 -0.316 2.735 32
-1.273 -0.326 2.717 21
-4.966 -1.598 2.718 8
-5.267 -1.608 2.687 9
-5.554 -1.608 2.658 4
-5.91 -1.621 2.626 6
-6.279 -1.629 2.594 8
-6.703 -1.645 2.559 14
-7.189 -1.669 2.521 3
-5.395 -1.185 2.638 17
-5.349 -1.113 2.638 90
-5.407 -1.069 2.632 16
-8.197 -1.544 2.438 1
-7.647 -1.378 2.471 1
-7.038 -1.222 2.506 0
-6.768 -1.139 2.516 0
-6.326 -1.042 2.536 0
-5.906 -0.959 2.553 13
-5.885 -0.953 2.535 4
-5.552 -0.903 2.54 0
-1.494 -0.246 2.869 11
-1.493 -0.251 2.861 25
-1.522 -0.263 2.848 13
-1.566 -0.279 2.832 0
0.0 -0.0 3.0 0
-1.256 -0.24 2.844 5
-1.229 -0.245 2.835 9
-1.214 -0.251 2.824 16
-1.187 -0.255 2.815 18
-7.758 -1.734 1.693 0
-1.255 -0.291 2.773 10
-1.208 -0.291 2.765 19
-1.267 -0.316 2.735 34
-1.264 -0.326 2.717 25
-4.94 -1.599 2.718 17
-5.222 -1.605 2.688 5
-5.528 -1.612 2.657 5
-5.868 -1.622 2.626 5
-6.256 -1.637 2.592 21
-6.692 -1.658 2.556 10
-7.146 -1.676 2.519 14
-5.42 -1.204 2.632 15
-5.362 -1.13 2.633 52
-5.412 -1.084 2.627 13
-8.004 -1.531 2.443 1
-7.474 -1.368 2.475 1
-6.959 -1.229 2.504 1
-6.634 -1.137 2.518 0
-6.145 -1.03 2.541 0
-5.906 -0.977 2.544 17
-5.862 -0.966 2.529 3
-5.435 -0.9 2.542 0
-1.486 -0.248 2.868 8
-1.5 -0.256 2.858 24
-1.525 -0.267 2.846 10
-4.587 -0.829 2.502 0
0.0 -0.0 3.0 0
-1.267 -0.245 2.841 2
-1.232 -0.248 2.833 8
-1.264 -0.264 2.815 21
-1.186 -0.257 2.813 13
0.0 -0.0 3.0 0
-1.262 -0.295 2.77 11
-1.184 -0.286 2.768 17
-1.266 -0.317 2.734 33
-1.264 -0.327 2.716 27
-4.941 -1.609 2.716 13
-5.2 -1.609 2.687 5
-5.501 -1.616 2.657 16
-5.834 -1.625 2.625 12
-6.214 -1.64 2.591 4
-3.946 -0.986 2.736 3
-7.123 -1.688 2.516 5
-5.448 -1.224 2.626 13
-5.359 -1.143 2.628 41
-5.409 -1.098 2.622 25
-7.827 -1.519 2.447 1
-7.324 -1.362 2.477 1
-6.837 -1.227 2.504 2
-6.501 -1.132 2.519 0
-5.902 -1.007 2.552 12
-5.895 -0.992 2.537 32
-5.753 -0.964 2.53 1
-5.334 -0.898 2.542 0
-1.485 -0.253 2.866 6
-1.495 -0.259 2.856 23
-1.524 -0.271 2.843 7
-4.561 -0.836 2.498 0
0.0 -0.0 3.0 0
-1.266 -0.248 2.839 0
-1.235 -0.251 2.831 6
-1.271 -0.268 2.812 21
-1.189 -0.26 2.811 12
-10.912 -2.477 1.133 0
-1.261 -0.297 2.768 12
-1.149 -0.28 2.773 18
-1.265 -0.319 2.732 34
-1.263 -0.328 2.715 29
-4.904 -1.607 2.717 7
-5.166 -1.609 2.687 16
-5.487 -1.623 2.655 9
-5.819 -1.633 2.623 15
-3.95 -1.052 2.738 1
-3.917 -0.989 2.735 1
-5.55 -1.329 2.619 0
-5.444 -1.237 2.622 9
-5.363 -1.158 2.624 23
-5.409 -1.113 2.617 37
-7.65 -1.505 2.452 1
-7.179 -1.355 2.48 1
-6.731 -1.227 2.504 3
-6.355 -1.126 2.522 0
-5.902 -1.024 2.544 9
-5.872 -1.006 2.531 4
-5.518 -0.942 2.541 0
-5.256 -0.899 2.542 0
-1.488 -0.258 2.863 5
-1.506 -0.265 2.853 14
-1.531 -0.276 2.841 5
-4.476 -0.831 2.501 0
0.0 -0.0 3.0 0
0.0 -0.0 3.0 0
-1.239 -0.255 2.828 4
-1.266 -0.269 2.811 15
-1.192 -0.263 2.809 11
0.0 -0.0 3.0 0
-1.264 -0.299 2.766 14
-1.148 -0.281 2.772 16
-1.257 -0.319 2.732 33
-1.266 -0.331 2.712 30
-4.874 -1.606 2.717 8
-5.159 -1.617 2.686 13
-5.445 -1.621 2.655 4
-5.777 -1.635 2.623 4
-3.855 -1.035 2.742 4
-3.879 -0.988 2.735 10
-5.547 -1.342 2.615 5
-5.461 -1.255 2.616 7
-5.38 -1.177 2.618 18
-3.906 -0.814 2.72 5
-7.481 -1.493 2.457 1
-7.029 -1.348 2.483 1
-6.625 -1.228 2.504 1
-6.151 -1.107 2.53 0
-5.907 -1.042 2.536 15
-5.861 -1.021 2.524 3
-5.42 -0.941 2.541 0
-5.162 -0.898 2.542 0
-1.487 -0.261 2.861 2
-1.501 -0.269 2.851 9
-1.538 -0.282 2.837 1
0.0 -0.0 3.0 0
0.0 -0.0 3.0 0
0.0 -0.0 3.0 0
-1.246 -0.258 2.826 2
-1.254 -0.269 2.811 11
-1.196 -0.267 2.806 8
-5.3 -1.222 2.079 0
-1.267 -0.303 2.764 15
-1.14 -0.281 2.773 12
-1.245 -0.317 2.734 32
-1.265 -0.333 2.711 31
-4.852 -1.609 2.716 8
-5.122 -1.617 2.686 5
-5.415 -1.624 2.655 6
-5.735 -1.635 2.623 6
-3.899 -1.055 2.737 6
-3.881 -0.998 2.733 8
-3.985 -0.974 2.721 1
-5.461 -1.268 2.612 6
-3.923 -0.869 2.718 0
-3.912 -0.826 2.715 7
-7.324 -1.482 2.46 1
-6.884 -1.339 2.486 1
-6.531 -1.229 2.503 0
-5.9 -1.08 2.542 10
-5.903 -1.059 2.528 20
-5.684 -1.007 2.53 1
0.0 -0.0 3.0 0
-5.085 -0.899 2.542 0
-1.486 -0.265 2.859 0
-1.504 -0.273 2.849 8
0.0 -0.0 3.0 0
-4.381 -0.835 2.498 0
0.0 -0.0 3.0 0
0.0 -0.0 3.0 0
-1.253 -0.263 2.823 0
-1.307 -0.283 2.802 10
-1.191 -0.268 2.805 7
-5.262 -1.223 2.079 1
-1.274 -0.306 2.761 14
-1.162 -0.288 2.767 9
-1.237 -0.318 2.734 30
-1.261 -0.333 2.71 32
-4.834 -1.613 2.716 17
-5.096 -1.619 2.685 5
-5.385 -1.627 2.654 19
-5.709 -1.64 2.621 22
-3.843 -1.05 2.738 13
-3.855 -1.001 2.732 18
-3.913 -0.966 2.723 1
-3.873 -0.909 2.722 1
-3.921 -0.878 2.715 5
-3.901 -0.834 2.713 13
-7.167 -1.47 2.465 1
-6.759 -1.335 2.488 1
-6.335 -1.211 2.511 0
-5.909 -1.099 2.534 8
-5.86 -1.069 2.524 3
-5.508 -0.992 2.537 0
-5.256 -0.943 2.54 0
-5.007 -0.9 2.542 0
0.0 -0.0 3.0 0
-1.507 -0.278 2.846 7
0.0 -0.0 3.0 0
0.0 -0.0 3.0 0
0.0 -0.0 3.0 0
0.0 -0.0 3.0 0
-7.41 -1.569 1.942 0
-1.349 -0.295 2.793 11
-1.194 -0.271 2.803 6
-5.243 -1.228 2.075 2
-1.266 -0.307 2.761 13
-1.158 -0.289 2.766 8
-1.232 -0.318 2.733 29
-1.252 -0.333 2.71 34
-4.827 -1.62 2.714 13
-5.074 -1.622 2.685 8
-5.378 -1.637 2.652 10
-5.686 -1.647 2.62 7
-3.833 -1.055 2.737 17
-3.834 -1.004 2.731 16
-3.938 -0.982 2.719 3
-3.882 -0.922 2.718 2
-3.914 -0.887 2.712 13
-3.899 -0.845 2.709 14
-7.026 -1.461 2.468 1
-6.59 -1.32 2.493 1
-6.092 -1.183 2.522 0
-5.909 -1.117 2.526 16
-5.837 -1.082 2.518 2
-5.415 -0.992 2.538 0
-5.186 -0.946 2.539 0
-4.937 -0.901 2.541 0
0.0 -0.0 3.0 0
-1.518 -0.284 2.843 0
0.0 -0.0 3.0 0
0.0 -0.0 3.0 0
0.0 -0.0 3.0 0
0.0 -0.0 3.0 0
-7.386 -1.579 1.935 0
-1.487 -0.328 2.77 7
-1.205 -0.275 2.8 3
-5.228 -1.234 2.07 2
-1.272 -0.31 2.758 12
-1.191 -0.3 2.757 7
-1.22 -0.317 2.734 25
-1.252 -0.335 2.709 36
-4.794 -1.619 2.714 7
-5.047 -1.625 2.684 20
-5.332 -1.634 2.653 4
-5.644 -1.648 2.62 5
-3.822 -1.062 2.735 17
-3.812 -1.008 2.73 22
-3.893 -0.981 2.719 6
-3.876 -0.93 2.716 7
-3.912 -0.897 2.709 18
-3.9 -0.856 2.705 11
-6.881 -1.451 2.472 1
-6.308 -1.282 2.508 1
-5.904 -1.163 2.53 7
-5.901 -1.132 2.519 12
-5.637 -1.062 2.527 0
-5.321 -0.99 2.539 0
-5.109 -0.946 2.538 0
-4.872 -0.904 2.54 0
0.0 -0.0 3.0 0
0.0 -0.0 3.0 0
0.0 -0.0 3.0 0
0.0 -0.0 3.0 0
0.0 -0.0 3.0 0
0.0 -0.0 3.0 0
-3.766 -0.814 2.451 0
-1.54 -0.344 2.759 7
-1.212 -0.279 2.798 0
-5.168 -1.229 2.074 1
-1.279 -0.314 2.755 10
-1.282 -0.325 2.737 10
-1.204 -0.314 2.736 20
-1.243 -0.335 2.709 32
-4.761 -1.618 2.715 8
-5.044 -1.635 2.682 8
-5.302 -1.637 2.652 5
-5.61 -1.65 2.619 10
-3.801 -1.065 2.734 16
-3.798 -1.013 2.729 19
-3.933 -1.001 2.713 10
-3.858 -0.936 2.714 11
-3.902 -0.905 2.706 28
-3.894 -0.865 2.702 6
-6.752 -1.443 2.475 1
-6.132 -1.264 2.515 0
-5.912 -1.182 2.522 6
-5.858 -1.142 2.515 2
-5.489 -1.051 2.532 0
-5.259 -0.994 2.536 0
-5.011 -0.943 2.54 0
0.0 -0.0 3.0 0
0.0 -0.0 3.0 0
0.0 -0.0 3.0 0
0.0 -0.0 3.0 0
0.0 -0.0 3.0 0
0.0 -0.0 3.0 0
0.0 -0.0 3.0 0
0.0 -0.0 3.0 0
-1.539 -0.347 2.757 7
-6.836 -1.588 1.846 2
-5.126 -1.229 2.074 1
-1.278 -0.316 2.753 10
-1.311 -0.335 2.729 10
-1.165 -0.306 2.743 18
-1.231 -0.334 2.71 30
-4.75 -1.624 2.714 8
-4.999 -1.631 2.683 6
-5.279 -1.642 2.651 15
-3.853 -1.142 2.736 0
-3.779 -1.068 2.734 17
-3.784 -1.019 2.727 21
-3.915 -1.006 2.711 12
-3.851 -0.945 2.711 14
-3.903 -0.917 2.702 29
-3.891 -0.875 2.699 0
-6.619 -1.434 2.478 1
-5.96 -1.246 2.522 1
-5.904 -1.198 2.516 17
-5.807 -1.149 2.512 1
-5.384 -1.046 2.534 0
0.0 -0.0 3.0 0
-4.957 -0.947 2.538 0
-4.728 -0.905 2.539 0
0.0 -0.0 3.0 0
0.0 -0.0 3.0 0
0.0 -0.0 3.0 0
0.0 -0.0 3.0 0
0.0 -0.0 3.0 0
0.0 -0.0 3.0 0
0.0 -0.0 3.0 0
-1.534 -0.349 2.756 3
-6.835 -1.601 1.837 3
-3.247 -0.784 2.409 0
-1.274 -0.318 2.752 8
-1.341 -0.344 2.721 11
-1.119 -0.296 2.752 11
-1.223 -0.333 2.711 29
-4.72 -1.624 2.714 14
-4.977 -1.635 2.682 6
-5.268 -1.65 2.649 10
-3.855 -1.152 2.734 2
-3.769 -1.074 2.732 17
-3.77 -1.025 2.725 21
-3.854 -1.0 2.713 16
-3.841 -0.952 2.709 15
-3.896 -0.925 2.699 19
-6.879 -1.568 2.46 0
-6.497 -1.426 2.481 1
-5.906 -1.252 2.519 12
-5.889 -1.213 2.51 8
-5.588 -1.123 2.523 0
-5.302 -1.046 2.534 0
0.0 -0.0 3.0 0
-4.891 -0.949 2.537 0
0.0 -0.0 3.0 0
-4.507 -0.881 2.532 0
0.0 -0.0 3.0 0
0.0 -0.0 3.0 0
0.0 -0.0 3.0 0
0.0 -0.0 3.0 0
0.0 -0.0 3.0 0
0.0 -0.0 3.0 0
-1.533 -0.351 2.754 1
0.0 -0.0 3.0 0
-3.183 -0.775 2.416 0
-1.281 -0.321 2.749 6
-1.382 -0.357 2.711 11
-1.115 -0.296 2.751 11
-1.207 -0.331 2.713 28
-4.709 -1.63 2.713 16
-4.954 -1.639 2.682 12
-5.223 -1.649 2.65 5
-3.848 -1.159 2.732 6
-3.755 -1.079 2.731 32
-3.771 -1.035 2.723 24
-3.84 -1.007 2.711 18
-3.838 -0.962 2.706 17
-3.898 -0.936 2.696 10
-6.754 -1.558 2.463 1
-6.368 -1.415 2.485 1
-5.816 -1.249 2.52 1
-5.853 -1.223 2.506 2
-5.467 -1.115 2.527 0
-5.22 -1.046 2.534 0
-5.045 -0.999 2.534 0
-4.81 -0.947 2.538 0
0.0 -0.0 3.0 0
-52.524 -10.413 -2.537 2
0.0 -0.0 3.0 0
0.0 -0.0 3.0 0
0.0 -0.0 3.0 0
0.0 -0.0 3.0 0
0.0 -0.0 3.0 0
0.0 -0.0 3.0 0
-6.786 -1.571 1.9 0
-3.396 -0.809 2.412 0
-3.154 -0.774 2.417 1
-1.272 -0.322 2.749 3
-1.422 -0.37 2.7 12
-1.118 -0.299 2.749 12
-1.195 -0.329 2.714 22
-4.695 -1.636 2.712 7
-4.94 -1.645 2.68 16
-5.208 -1.656 2.648 4
-3.849 -1.169 2.73 8
-3.748 -1.086 2.729 21
-3.749 -1.038 2.722 22
-3.822 -1.012 2.71 24
-3.847 -0.975 2.702 16
-3.926 -0.954 2.69 2
-6.633 -1.549 2.467 1
-6.189 -1.393 2.493 1
-5.699 -1.242 2.523 1
-5.795 -1.228 2.504 1
-5.397 -1.117 2.526 0
-5.162 -1.049 2.533 0
-4.928 -0.991 2.538 0
0.0 -0.0 3.0 0
0.0 -0.0 3.0 0
0.0 -0.0 3.0 0
0.0 -0.0 3.0 0
0.0 -0.0 3.0 0
0.0 -0.0 3.0 0
0.0 -0.0 3.0 0
0.0 -0.0 3.0 0
-122.471 -27.816 -15.762 17
0.0 -0.0 3.0 0
-3.278 -0.788 2.427 0
-3.083 -0.763 2.425 7
-1.286 -0.328 2.744 0
-1.444 -0.379 2.693 10
-1.121 -0.302 2.747 11
-1.168 -0.323 2.719 18
-4.661 -1.635 2.712 8
-4.917 -1.649 2.68 6
-5.174 -1.658 2.648 10
-3.854 -1.18 2.728 7
-3.746 -1.095 2.727 22
-3.746 -1.047 2.72 22
-3.804 -1.017 2.708 27
-3.852 -0.987 2.698 18
-3.927 -0.965 2.687 2
-6.496 -1.535 2.471 0
-5.912 -1.348 2.509 7
-5.605 -1.237 2.525 0
-5.631 -1.21 2.511 0
-5.28 -1.108 2.53 0
-5.072 -1.047 2.534 0
-4.87 -0.993 2.537 0
-4.667 -0.947 2.538 0
0.0 -0.0 3.0 0
0.0 -0.0 3.0 0
0.0 -0.0 3.0 0
0.0 -0.0 3.0 0
0.0 -0.0 3.0 0
0.0 -0.0 3.0 0
0.0 -0.0 3.0 0
0.0 -0.0 3.0 0
0.0 -0.0 3.0 0
-3.192 -0.774 2.438 0
-3.081 -0.769 2.421 7
-3.062 -0.785 2.386 33
-1.515 -0.4 2.676 7
-1.135 -0.308 2.741 11
-1.118 -0.312 2.729 13
-4.632 -1.634 2.712 8
-4.887 -1.649 2.679 6
-5.159 -1.664 2.646 15
-3.859 -1.191 2.725 5
-3.735 -1.102 2.725 18
-3.732 -1.052 2.718 28
-3.797 -1.025 2.706 34
-3.834 -0.992 2.697 14
-3.947 -0.981 2.681 1
-6.371 -1.524 2.475 0
-5.92 -1.368 2.502 5
-5.496 -1.23 2.528 0
-5.498 -1.197 2.516 0
-5.214 -1.11 2.529 0
-4.998 -1.046 2.534 0
-4.804 -0.994 2.536 0
0.0 -0.0 3.0 0
-49.973 -10.281 -2.238 4
0.0 -0.0 3.0 0
0.0 -0.0 3.0 0
0.0 -0.0 3.0 0
0.0 -0.0 3.0 0
0.0 -0.0 3.0 0
0.0 -0.0 3.0 0
0.0 -0.0 3.0 0
-3.38 -0.805 2.437 0
-3.144 -0.769 2.441 1
-3.075 -0.773 2.417 8
-3.056 -0.79 2.383 8
-1.544 -0.41 2.668 8
-1.149 -0.314 2.737 12
-1.095 -0.307 2.733 13
-4.617 -1.639 2.711 11
-4.861 -1.652 2.679 6
-5.136 -1.669 2.645 5
-3.86 -1.2 2.723 4
-3.736 -1.111 2.723 19
-3.729 -1.061 2.716 27
-3.779 -1.031 2.704 25
-3.831 -1.002 2.694 16
-3.917 -0.985 2.68 1
-6.208 -1.503 2.483 1
-5.904 -1.381 2.497 21
-5.422 -1.229 2.528 0
-5.37 -1.186 2.521 0
-5.121 -1.106 2.531 0
-4.901 -1.041 2.537 0
-4.719 -0.991 2.538 0
0.0 -0.0 3.0 0
-49.995 -10.432 -2.315 3
-51.384 -10.771 -2.727 2
-50.338 -10.66 -2.909 3
0.0 -0.0 3.0 0
0.0 -0.0 3.0 0
0.0 -0.0 3.0 0
0.0 -0.0 3.0 0
0.0 -0.0 3.0 0
-3.251 -0.781 2.453 0
-3.084 -0.761 2.447 8
-3.073 -0.778 2.413 12
-3.057 -0.796 2.378 3
-1.543 -0.413 2.666 8
-1.152 -0.317 2.734 13
-1.087 -0.306 2.734 13
-4.602 -1.645 2.71 18
-4.842 -1.657 2.678 15
-5.098 -1.669 2.645 5
-3.869 -1.213 2.72 7
-3.726 -1.117 2.721 17
-3.723 -1.069 2.714 44
-3.772 -1.039 2.702 19
-3.817 -1.008 2.692 15
-3.911 -0.994 2.677 1
-5.917 -1.449 2.501 5
-5.872 -1.391 2.494 2
-5.349 -1.228 2.529 0
-5.288 -1.183 2.522 0
-5.059 -1.107 2.53 0
-4.839 -1.043 2.536 0
-49.22 -10.48 -1.887 1
-48.36 -10.241 -1.995 2
-50.087 -10.597 -2.4 3
0.0 -0.0 3.0 0
-50.277 -10.786 -2.979 3
0.0 -0.0 3.0 0
0.0 -0.0 3.0 0
0.0 -0.0 3.0 0
0.0 -0.0 3.0 0
-3.428 -0.81 2.454 0
-3.199 -0.775 2.457 0
-3.082 -0.767 2.443 8
-3.067 -0.783 2.41 46
-3.059 -0.802 2.373 0
-1.542 -0.415 2.664 4
-1.14 -0.315 2.735 12
-1.097 -0.311 2.73 12
-4.588 -1.65 2.709 9
-4.831 -1.665 2.676 14
-5.075 -1.675 2.644 7
-3.851 -1.217 2.719 6
-3.723 -1.126 2.719 21
-3.716 -1.078 2.711 38
-3.762 -1.047 2.7 17
-3.81 -1.018 2.689 15
-3.916 -1.007 2.673 1
-5.924 -1.468 2.494 3
-5.821 -1.396 2.492 2
-9.051 -2.106 2.192 0
-5.207 -1.181 2.523 0
-4.97 -1.103 2.532 0
-7.143 -1.56 2.305 2
0.0 -0.0 3.0 0
-48.028 -10.313 -2.03 2
-50.155 -10.758 -2.481 4
-50.333 -10.838 -2.763 4
-50.007 -10.868 -3.024 2
0.0 -0.0 3.0 0
0.0 -0.0 3.0 0
0.0 -0.0 3.0 0
0.0 -0.0 3.0 0
0.0 -0.0 3.0 0
-3.112 -0.762 2.467 1
-3.072 -0.77 2.44 10
-3.065 -0.789 2.405 8
-3.061 -0.809 2.368 0
-1.533 -0.416 2.663 4
-1.12 -0.312 2.738 10
-1.093 -0.311 2.729 12
-4.562 -1.652 2.709 7
-4.793 -1.663 2.677 6
-5.045 -1.677 2.644 19
-3.832 -1.22 2.718 9
-3.717 -1.134 2.717 17
-3.713 -1.086 2.709 46
-3.759 -1.056 2.697 18
-3.834 -1.034 2.684 14
-7.273 -1.89 2.386 1
-5.9 -1.479 2.491 17
-5.658 -1.373 2.5 0
0.0 -0.0 3.0 0
-5.125 -1.178 2.524 0
-4.919 -1.107 2.53 0
-7.172 -1.588 2.293 1
0.0 -0.0 3.0 0
-47.743 -10.394 -2.07 2
0.0 -0.0 3.0 0
-50.303 -10.976 -2.836 3
-49.721 -10.945 -3.067 2
0.0 -0.0 3.0 0
0.0 -0.0 3.0 0
0.0 -0.0 3.0 0
0.0 -0.0 3.0 0
-3.219 -0.776 2.477 0
-3.083 -0.761 2.467 5
-3.073 -0.777 2.435 28
-3.066 -0.795 2.401 3
-1.224 -0.326 2.745 0
-1.517 -0.414 2.665 1
-1.138 -0.319 2.733 10
-1.099 -0.315 2.726 11
-4.536 -1.652 2.709 9
-4.771 -1.666 2.676 6
-5.041 -1.688 2.641 8
-3.822 -1.227 2.717 9
-3.718 -1.144 2.715 27
-3.714 -1.096 2.706 46
-3.748 -1.062 2.695 24
-3.835 -1.046 2.68 17
-5.914 -1.554 2.495 4
-5.861 -1.486 2.488 2
-5.549 -1.363 2.504 0
-5.15 -1.229 2.528 0
-5.036 -1.173 2.526 0
-4.838 -1.103 2.532 0
-4.665 -1.047 2.534 0
0.0 -0.0 3.0 0
0.0 -0.0 3.0 0
0.0 -0.0 3.0 0
-50.218 -11.102 -2.903 2
-49.486 -11.032 -3.115 2
0.0 -0.0 3.0 0
0.0 -0.0 3.0 0
0.0 -0.0 3.0 0
0.0 -0.0 3.0 0
-3.167 -0.77 2.481 0
-3.069 -0.765 2.465 9
-3.067 -0.783 2.431 72
-3.064 -0.801 2.396 1
-1.197 -0.32 2.75 2
-1.177 -0.323 2.738 1
-1.201 -0.338 2.716 11
-1.106 -0.319 2.723 11
-4.513 -1.655 2.708 9
