# .PCD v0.7 - Point Cloud Data file format
VERSION 0.7
FIELDS x y z intensity
SIZE 4 4 4 4
TYPE F F F F
COUNT 1 1 1 1
WIDTH 2046
HEIGHT 1
VIEWPOINT 0 0 0 1 0 0 0
POINTS 2046
DATA ascii
2.001 -19.516 -4.491 9
1.936 -18.736 -4.57 8
1.874 -17.955 -4.622 5
1.813 -17.234 -4.673 45
1.762 -16.581 -4.732 7
1.707 -15.935 -4.772 9
1.661 -15.354 -4.823 6
1.616 -14.786 -4.862 9
1.571 -14.249 -4.899 43
1.536 -13.792 -4.963 8
1.497 -13.324 -5.006 8
1.456 -12.831 -5.018 9
1.421 -12.409 -5.059 10
1.388 -11.993 -5.089 9
1.355 -11.598 -5.121 10
1.325 -11.217 -5.15 12
1.293 -10.848 -5.174 12
1.265 -10.493 -5.198 49
1.238 -10.154 -5.222 14
1.21 -9.823 -5.242 13
1.185 -9.51 -5.267 13
3.365 -37.418 -3.598 19
2.991 -33.002 -3.415 10
0.0 -0.0 3.0 0
2.289 -24.824 -2.731 1
2.065 -22.179 -2.53 0
0.0 -0.0 3.0 0
0.0 -0.0 3.0 0
0.0 -0.0 3.0 0
2.158 -22.377 -4.271 26
2.079 -21.35 -4.352 6
1.997 -20.38 -4.418 17
1.934 -19.51 -4.489 9
1.872 -18.738 -4.571 8
1.813 -17.965 -4.626 5
1.753 -17.232 -4.672 43
1.704 -16.583 -4.733 7
1.651 -15.941 -4.775 9
1.607 -15.359 -4.826 6
1.564 -14.79 -4.864 8
1.519 -14.247 -4.897 45
1.486 -13.793 -4.964 8
1.448 -13.328 -5.008 7
1.409 -12.835 -5.02 8
1.375 -12.416 -5.063 10
1.343 -11.996 -5.091 10
1.311 -11.599 -5.122 11
1.282 -11.224 -5.154 11
1.252 -10.854 -5.179 12
1.224 -10.493 -5.198 43
1.198 -10.157 -5.225 12
1.171 -9.826 -5.245 13
1.147 -9.509 -5.266 14
3.251 -37.448 -3.603 16
2.887 -32.994 -3.413 14
0.0 -0.0 3.0 0
2.208 -24.792 -2.724 9
1.996 -22.198 -2.535 0
0.0 -0.0 3.0 0
0.0 -0.0 3.0 0
0.0 -0.0 3.0 0
2.085 -22.384 -4.273 29
2.008 -21.345 -4.35 6
1.928 -20.378 -4.417 10
1.868 -19.512 -4.49 9
1.808 -18.739 -4.571 7
1.751 -17.963 -4.625 7
1.693 -17.233 -4.673 46
1.646 -16.58 -4.731 7
1.595 -15.942 -4.775 9
1.552 -15.353 -4.823 7
1.511 -14.791 -4.865 8
1.468 -14.251 -4.899 50
1.436 -13.797 -4.966 8
1.398 -13.321 -5.004 8
1.362 -12.838 -5.022 8
1.329 -12.416 -5.063 9
1.298 -11.996 -5.091 10
1.266 -11.599 -5.122 10
1.239 -11.224 -5.154 11
1.21 -10.854 -5.179 10
1.183 -10.496 -5.2 39
1.158 -10.156 -5.224 12
1.132 -9.826 -5.245 15
1.108 -9.508 -5.266 15
3.134 -37.434 -3.601 8
2.785 -33.007 -3.416 14
0.0 -0.0 3.0 0
2.131 -24.815 -2.729 2
1.927 -22.219 -2.54 0
0.0 -0.0 3.0 0
0.0 -0.0 3.0 0
0.0 -0.0 3.0 0
2.011 -22.383 -4.273 29
1.935 -21.332 -4.345 6
1.861 -20.388 -4.421 9
1.802 -19.514 -4.491 9
1.745 -18.741 -4.572 8
1.689 -17.964 -4.625 7
1.634 -17.238 -4.675 44
1.587 -16.577 -4.73 7
1.539 -15.939 -4.774 10
1.498 -15.36 -4.826 5
1.458 -14.796 -4.867 8
1.417 -14.255 -4.902 47
1.385 -13.794 -4.964 8
1.35 -13.329 -5.009 8
1.315 -12.838 -5.022 7
1.283 -12.419 -5.065 10
1.253 -11.999 -5.094 10
1.223 -11.602 -5.124 9
1.196 -11.22 -5.152 9
1.167 -10.854 -5.179 45
1.142 -10.495 -5.2 51
1.118 -10.156 -5.224 12
1.093 -9.831 -5.249 14
1.071 -9.515 -5.271 13
3.017 -37.419 -3.598 7
2.682 -33.008 -3.416 12
2.62 -31.926 -3.786 12
2.053 -24.82 -2.73 60
1.858 -22.244 -2.546 0
0.0 -0.0 3.0 0
0.0 -0.0 3.0 0
0.0 -0.0 3.0 0
1.937 -22.381 -4.272 29
1.864 -21.33 -4.345 6
1.792 -20.386 -4.42 9
1.736 -19.516 -4.491 9
1.681 -18.738 -4.571 8
1.627 -17.961 -4.624 8
1.574 -17.236 -4.674 44
1.53 -16.582 -4.732 7
1.483 -15.943 -4.776 9
1.444 -15.361 -4.827 4
1.405 -14.789 -4.863 8
1.365 -14.255 -4.902 49
1.336 -13.798 -4.966 8
1.301 -13.329 -5.009 7
1.267 -12.835 -5.02 8
1.236 -12.416 -5.063 10
1.208 -11.999 -5.093 10
1.178 -11.601 -5.123 10
1.153 -11.22 -5.152 12
1.126 -10.856 -5.181 47
1.101 -10.498 -5.202 50
1.078 -10.159 -5.226 11
1.054 -9.831 -5.249 12
1.032 -9.514 -5.27 15
2.9 -37.412 -3.597 8
2.578 -32.996 -3.414 11
2.52 -31.933 -3.788 9
1.976 -24.846 -2.736 51
0.0 -0.0 3.0 0
0.0 -0.0 3.0 0
0.0 -0.0 3.0 0
0.0 -0.0 3.0 0
1.863 -22.383 -4.273 29
1.793 -21.325 -4.343 6
1.724 -20.391 -4.422 8
1.671 -19.52 -4.493 9
1.617 -18.744 -4.573 7
1.566 -17.965 -4.626 8
1.514 -17.236 -4.674 42
1.471 -16.575 -4.729 7
1.428 -15.951 -4.78 9
1.39 -15.365 -4.829 6
1.352 -14.789 -4.863 8
1.314 -14.252 -4.9 48
1.285 -13.798 -4.966 8
1.253 -13.332 -5.011 7
1.219 -12.835 -5.02 7
1.19 -12.419 -5.065 10
1.163 -12.002 -5.096 11
1.134 -11.601 -5.123 11
1.11 -11.226 -5.156 12
1.084 -10.856 -5.18 48
1.06 -10.498 -5.202 47
1.038 -10.161 -5.228 12
1.015 -9.833 -5.251 13
0.994 -9.513 -5.269 13
2.784 -37.413 -3.597 17
2.475 -32.999 -3.414 12
2.419 -31.933 -3.788 11
1.907 -24.972 -2.765 4
0.0 -0.0 3.0 0
0.0 -0.0 3.0 0
0.0 -0.0 3.0 0
0.0 -0.0 3.0 0
1.789 -22.385 -4.273 28
1.722 -21.325 -4.343 6
1.656 -20.392 -4.422 8
1.604 -19.514 -4.491 10
1.554 -18.748 -4.575 8
1.505 -17.97 -4.628 8
1.455 -17.237 -4.674 38
1.414 -16.579 -4.731 7
1.372 -15.951 -4.78 10
1.335 -15.365 -4.829 6
1.299 -14.793 -4.866 8
1.263 -14.262 -4.906 50
1.235 -13.798 -4.966 8
1.203 -13.329 -5.009 8
1.172 -12.838 -5.022 8
1.144 -12.419 -5.065 10
1.117 -11.999 -5.093 10
1.091 -11.604 -5.126 10
1.067 -11.225 -5.156 11
1.042 -10.855 -5.18 42
1.019 -10.501 -5.204 45
0.999 -10.163 -5.23 12
0.976 -9.832 -5.25 13
0.955 -9.512 -5.269 14
2.666 -37.374 -3.59 20
2.369 -32.959 -3.407 17
2.319 -31.937 -3.788 13
1.839 -25.126 -2.801 1
1.832 -24.784 -3.179 31
0.0 -0.0 3.0 0
1.648 -21.894 -3.278 0
0.0 -0.0 3.0 0
1.716 -22.385 -4.273 28
1.651 -21.323 -4.342 7
1.588 -20.393 -4.423 9
1.539 -19.515 -4.491 9
1.49 -18.745 -4.573 7
1.443 -17.971 -4.628 8
1.395 -17.238 -4.675 39
1.356 -16.576 -4.73 7
1.315 -15.948 -4.778 9
1.281 -15.369 -4.831 7
1.246 -14.793 -4.866 9
1.211 -14.259 -4.904 47
1.185 -13.801 -4.968 8
1.155 -13.335 -5.012 7
1.124 -12.838 -5.022 8
1.098 -12.422 -5.067 10
1.072 -12.001 -5.095 9
1.046 -11.604 -5.125 11
1.025 -11.231 -5.16 11
1.0 -10.858 -5.182 46
0.978 -10.5 -5.203 46
0.959 -10.166 -5.232 13
0.937 -9.838 -5.255 14
0.918 -9.52 -5.276 13
2.548 -37.346 -3.585 12
2.268 -32.982 -3.411 16
2.219 -31.947 -3.791 14
0.0 -0.0 3.0 0
1.754 -24.789 -3.181 63
0.0 -0.0 3.0 0
0.0 -0.0 3.0 0
0.0 -0.0 3.0 0
1.642 -22.39 -4.275 25
1.58 -21.328 -4.344 6
1.519 -20.39 -4.421 9
1.473 -19.516 -4.491 9
1.426 -18.742 -4.572 8
1.381 -17.967 -4.627 7
1.336 -17.238 -4.675 39
1.298 -16.58 -4.731 7
1.259 -15.948 -4.778 9
1.226 -15.365 -4.829 6
1.194 -14.799 -4.869 8
1.161 -14.266 -4.908 41
1.135 -13.801 -4.968 8
1.106 -13.335 -5.012 7
1.077 -12.837 -5.022 8
1.051 -12.418 -5.064 9
1.028 -12.014 -5.103 9
1.003 -11.606 -5.127 10
0.981 -11.227 -5.157 12
0.958 -10.86 -5.184 45
0.938 -10.502 -5.205 45
0.919 -10.168 -5.234 11
0.898 -9.84 -5.257 14
0.88 -9.519 -5.275 14
2.434 -37.366 -3.589 7
2.165 -32.985 -3.412 15
2.119 -31.946 -3.79 14
1.695 -25.35 -2.853 0
1.675 -24.798 -3.183 63
1.528 -22.454 -3.016 0
0.0 -0.0 3.0 0
0.0 -0.0 3.0 0
1.568 -22.388 -4.274 22
1.509 -21.321 -4.341 7
1.451 -20.391 -4.422 9
1.407 -19.517 -4.492 9
1.363 -18.753 -4.577 8
1.319 -17.965 -4.625 7
1.277 -17.241 -4.676 39
1.241 -16.58 -4.731 7
1.203 -15.952 -4.78 9
1.172 -15.361 -4.827 5
1.141 -14.792 -4.865 9
1.109 -14.261 -4.905 43
1.085 -13.803 -4.969 8
1.057 -13.334 -5.012 7
1.03 -12.844 -5.026 8
1.005 -12.424 -5.068 9
0.982 -12.004 -5.097 10
0.959 -11.608 -5.128 10
0.938 -11.229 -5.159 12
0.916 -10.859 -5.183 49
0.897 -10.504 -5.207 44
0.878 -10.164 -5.23 13
0.859 -9.842 -5.258 13
0.841 -9.521 -5.277 14
2.318 -37.357 -3.587 6
2.062 -32.984 -3.411 13
2.019 -31.956 -3.792 13
1.623 -25.491 -2.885 3
1.41 -21.906 -2.462 0
1.457 -22.47 -3.021 0
0.0 -0.0 3.0 0
0.0 -0.0 3.0 0
1.495 -22.396 -4.277 23
1.439 -21.325 -4.343 6
1.382 -20.384 -4.419 9
1.341 -19.509 -4.489 9
1.299 -18.747 -4.574 8
1.258 -17.968 -4.627 8
1.217 -17.245 -4.678 41
1.183 -16.584 -4.733 8
1.147 -15.947 -4.778 9
1.117 -15.364 -4.828 5
1.088 -14.796 -4.867 8
1.058 -14.261 -4.905 47
1.035 -13.8 -4.967 8
1.009 -13.334 -5.012 7
0.983 -12.843 -5.025 8
0.959 -12.423 -5.068 10
0.937 -12.006 -5.098 9
0.915 -11.608 -5.128 10
0.895 -11.228 -5.158 11
0.874 -10.859 -5.183 46
0.856 -10.506 -5.208 45
0.838 -10.166 -5.232 12
0.819 -9.837 -5.254 14
0.803 -9.524 -5.279 14
2.203 -37.372 -3.59 7
1.96 -32.985 -3.412 18
1.919 -31.957 -3.793 14
1.538 -25.418 -2.868 10
1.519 -24.831 -3.191 63
0.0 -0.0 3.0 0
0.0 -0.0 3.0 0
0.0 -0.0 3.0 0
1.422 -22.4 -4.278 19
1.368 -21.33 -4.344 7
1.314 -20.387 -4.42 9
1.275 -19.517 -4.492 10
1.235 -18.749 -4.575 6
1.197 -17.971 -4.628 8
1.158 -17.245 -4.678 37
1.126 -16.583 -4.733 7
1.091 -15.947 -4.778 10
1.064 -15.375 -4.834 7
1.035 -14.795 -4.866 8
1.006 -14.264 -4.907 47
0.985 -13.799 -4.967 8
0.96 -13.336 -5.013 7
0.935 -12.842 -5.025 8
0.913 -12.429 -5.071 9
0.892 -12.005 -5.098 9
0.871 -11.61 -5.129 11
0.852 -11.231 -5.16 10
0.832 -10.86 -5.184 49
0.815 -10.505 -5.207 44
0.798 -10.165 -5.231 12
0.78 -9.839 -5.256 15
0.765 -9.522 -5.277 15
1.932 -34.593 -3.1 3
1.857 -32.984 -3.411 21
1.819 -31.967 -3.795 14
1.462 -25.497 -2.886 12
1.44 -24.843 -3.194 63
1.328 -22.721 -3.088 0
0.0 -0.0 3.0 0
1.312 -21.982 -3.721 0
1.349 -22.412 -4.282 17
1.298 -21.33 -4.344 6
1.246 -20.391 -4.422 9
1.21 -19.513 -4.49 10
1.171 -18.746 -4.574 8
1.135 -17.964 -4.625 8
1.098 -17.248 -4.679 39
1.068 -16.59 -4.736 7
1.035 -15.95 -4.779 12
1.009 -15.37 -4.832 7
0.982 -14.794 -4.866 9
0.956 -14.27 -4.91 48
0.935 -13.809 -4.972 8
0.911 -13.335 -5.013 7
0.888 -12.845 -5.026 9
0.867 -12.428 -5.071 10
0.848 -12.01 -5.101 10
0.827 -11.612 -5.131 10
0.81 -11.232 -5.161 9
0.791 -10.866 -5.188 47
0.774 -10.507 -5.209 45
0.759 -10.17 -5.235 11
0.742 -9.844 -5.26 13
0.727 -9.524 -5.279 15
1.816 -34.406 -3.067 2
1.753 -32.965 -3.408 20
1.719 -31.973 -3.796 14
1.388 -25.621 -2.915 10
1.362 -24.863 -3.199 21
0.0 -0.0 3.0 0
0.0 -0.0 3.0 0
1.236 -21.894 -3.694 1
1.275 -22.416 -4.283 13
1.227 -21.33 -4.344 7
1.178 -20.384 -4.419 9
1.144 -19.517 -4.492 9
1.108 -18.753 -4.577 7
1.074 -17.975 -4.63 8
1.039 -17.248 -4.679 32
1.01 -16.585 -4.734 7
0.979 -15.945 -4.777 38
0.955 -15.369 -4.831 8
0.93 -14.793 -4.866 9
0.904 -14.269 -4.91 47
0.885 -13.804 -4.97 8
0.862 -13.335 -5.012 8
0.841 -12.846 -5.027 9
0.82 -12.427 -5.07 10
0.802 -12.009 -5.1 9
0.783 -11.611 -5.13 11
0.767 -11.231 -5.16 7
0.748 -10.861 -5.184 46
0.733 -10.506 -5.208 44
0.719 -10.171 -5.237 13
0.702 -9.843 -5.259 13
0.689 -9.522 -5.278 16
1.856 -37.35 -3.586 7
1.65 -32.963 -3.407 20
1.619 -31.974 -3.796 14
1.314 -25.758 -2.947 8
1.285 -24.897 -3.208 101
0.0 -0.0 3.0 0
0.0 -0.0 3.0 0
1.162 -21.852 -3.681 1
1.202 -22.419 -4.285 14
1.156 -21.326 -4.343 7
1.11 -20.391 -4.422 9
1.078 -19.516 -4.491 13
1.044 -18.752 -4.576 7
1.012 -17.966 -4.626 8
0.979 -17.247 -4.679 35
0.953 -16.588 -4.735 7
0.923 -15.944 -4.777 39
0.901 -15.372 -4.832 8
0.877 -14.799 -4.869 8
0.853 -14.272 -4.911 43
0.835 -13.806 -4.971 8
0.813 -13.333 -5.011 7
0.793 -12.846 -5.027 8
0.774 -12.429 -5.071 10
0.757 -12.008 -5.099 10
0.739 -11.61 -5.129 11
0.724 -11.233 -5.161 12
0.707 -10.863 -5.186 42
0.692 -10.51 -5.212 44
0.679 -10.176 -5.24 13
0.664 -9.844 -5.26 14
0.65 -9.521 -5.276 42
1.739 -37.329 -3.582 6
1.546 -32.924 -3.4 28
1.519 -31.978 -3.797 14
1.242 -25.945 -2.99 5
1.211 -25.01 -3.236 2
0.0 -0.0 3.0 0
0.0 -0.0 3.0 0
1.114 -22.322 -3.824 11
1.128 -22.416 -4.283 12
1.085 -21.325 -4.343 7
1.042 -20.39 -4.421 9
1.013 -19.518 -4.492 23
0.981 -18.755 -4.577 8
0.951 -17.973 -4.629 7
0.92 -17.257 -4.683 30
0.896 -16.594 -4.738 7
0.868 -15.951 -4.78 39
0.847 -15.382 -4.837 8
0.824 -14.798 -4.868 9
0.802 -14.267 -4.908 39
0.785 -13.812 -4.974 8
0.765 -13.339 -5.015 7
0.746 -12.851 -5.03 8
0.728 -12.428 -5.071 9
0.712 -12.01 -5.101 10
0.695 -11.611 -5.13 11
0.681 -11.235 -5.163 10
0.665 -10.865 -5.187 22
0.651 -10.509 -5.21 46
0.639 -10.169 -5.234 12
0.625 -9.846 -5.262 14
0.612 -9.525 -5.28 40
1.624 -37.333 -3.583 7
1.445 -32.948 -3.405 21
1.419 -31.983 -3.798 15
1.336 -29.873 -3.897 22
1.136 -25.111 -3.261 0
0.0 -0.0 3.0 0
1.017 -22.049 -3.323 0
1.043 -22.348 -3.832 4
1.053 -22.385 -4.273 5
1.015 -21.324 -4.342 7
0.974 -20.393 -4.422 9
0.946 -19.503 -4.487 41
0.917 -18.75 -4.576 8
0.89 -17.976 -4.63 8
0.861 -17.263 -4.686 27
0.838 -16.594 -4.738 8
0.812 -15.95 -4.779 39
0.792 -15.373 -4.833 8
0.772 -14.804 -4.871 8
0.75 -14.269 -4.91 39
0.735 -13.807 -4.971 8
0.716 -13.341 -5.016 7
0.699 -12.85 -5.029 7
0.682 -12.43 -5.072 9
0.667 -12.012 -5.102 9
0.651 -11.613 -5.131 11
0.638 -11.234 -5.162 11
0.623 -10.866 -5.188 12
0.611 -10.51 -5.212 52
0.599 -10.177 -5.241 13
0.585 -9.844 -5.26 13
0.574 -9.521 -5.276 44
1.509 -37.326 -3.582 6
1.342 -32.937 -3.402 20
1.318 -31.979 -3.797 14
1.241 -29.869 -3.896 25
1.059 -25.192 -3.281 20
0.0 -0.0 3.0 0
0.944 -22.021 -3.314 1
0.95 -21.884 -3.691 2
0.957 -21.878 -4.109 2
0.944 -21.331 -4.345 7
0.906 -20.392 -4.422 9
0.881 -19.505 -4.487 37
0.854 -18.753 -4.577 7
0.828 -17.975 -4.63 8
0.802 -17.265 -4.687 25
0.781 -16.603 -4.742 8
0.756 -15.952 -4.78 39
0.738 -15.379 -4.836 8
0.719 -14.796 -4.867 9
0.699 -14.264 -4.907 30
0.685 -13.812 -4.974 8
0.668 -13.342 -5.017 7
0.652 -12.855 -5.033 8
0.636 -12.431 -5.073 10
0.622 -12.013 -5.103 10
0.607 -11.615 -5.133 11
0.596 -11.241 -5.167 11
0.581 -10.874 -5.194 11
0.57 -10.512 -5.213 55
0.559 -10.172 -5.237 11
0.547 -9.851 -5.266 13
0.536 -9.528 -5.283 41
1.206 -32.296 -2.695 11
1.239 -32.937 -3.402 18
1.218 -31.979 -3.797 14
1.147 -29.877 -3.898 25
0.987 -25.388 -3.33 1
0.0 -0.0 3.0 0
0.873 -22.02 -3.314 2
0.878 -21.872 -3.687 4
0.886 -21.892 -4.113 2
0.874 -21.33 -4.344 9
0.838 -20.391 -4.422 9
0.815 -19.504 -4.487 21
0.79 -18.756 -4.578 7
0.767 -17.976 -4.631 8
0.743 -17.268 -4.688 16
0.723 -16.598 -4.74 8
0.7 -15.95 -4.779 43
0.683 -15.37 -4.832 8
0.667 -14.804 -4.872 9
0.648 -14.273 -4.912 20
0.635 -13.808 -4.972 8
0.619 -13.34 -5.016 7
0.604 -12.853 -5.032 8
0.589 -12.429 -5.072 9
0.577 -12.008 -5.1 10
0.563 -11.616 -5.134 12
0.552 -11.236 -5.163 11
0.539 -10.869 -5.19 12
0.529 -10.51 -5.211 56
0.519 -10.176 -5.24 13
0.507 -9.85 -5.265 14
0.498 -9.526 -5.281 39
1.278 -37.326 -3.582 7
1.137 -32.928 -3.401 20
1.118 -31.99 -3.8 14
1.052 -29.872 -3.896 28
0.999 -28.006 -3.983 6
0.0 -0.0 3.0 0
0.802 -22.011 -3.312 2
0.807 -21.874 -3.688 2
0.814 -21.91 -4.119 4
0.803 -21.333 -4.345 7
0.77 -20.394 -4.423 9
0.75 -19.518 -4.492 10
0.727 -18.758 -4.579 6
0.705 -17.975 -4.63 8
0.683 -17.262 -4.686 14
0.665 -16.604 -4.742 8
0.644 -15.949 -4.779 39
0.629 -15.372 -4.832 8
0.614 -14.806 -4.873 9
0.597 -14.278 -4.914 15
0.586 -13.815 -4.976 8
0.57 -13.346 -5.019 7
0.557 -12.855 -5.033 8
0.543 -12.435 -5.075 10
0.532 -12.017 -5.105 11
0.519 -11.615 -5.133 10
0.51 -11.238 -5.165 12
0.498 -10.873 -5.194 11
0.488 -10.515 -5.215 47
0.479 -10.18 -5.244 11
0.468 -9.848 -5.263 14
0.46 -9.527 -5.282 43
1.163 -37.33 -3.582 7
1.035 -32.951 -3.405 20
1.018 -31.977 -3.797 23
0.958 -29.879 -3.898 28
0.91 -28.009 -3.983 6
0.0 -0.0 3.0 0
0.731 -22.04 -3.32 2
0.736 -21.884 -3.691 5
0.743 -21.924 -4.123 14
0.733 -21.338 -4.347 9
0.702 -20.399 -4.425 9
0.685 -19.52 -4.493 10
0.663 -18.759 -4.579 7
0.644 -17.973 -4.629 7
0.624 -17.264 -4.686 10
0.608 -16.605 -4.743 8
0.589 -15.951 -4.78 38
0.575 -15.37 -4.832 8
0.561 -14.808 -4.874 8
0.546 -14.28 -4.915 10
0.536 -13.817 -4.977 8
0.522 -13.344 -5.018 7
0.509 -12.849 -5.029 8
0.497 -12.429 -5.071 10
0.487 -12.017 -5.106 10
0.475 -11.612 -5.131 11
0.467 -11.239 -5.166 13
0.456 -10.872 -5.192 12
0.447 -10.512 -5.213 50
0.439 -10.181 -5.244 13
0.429 -9.852 -5.267 14
0.422 -9.528 -5.283 38
1.048 -37.322 -3.581 7
0.933 -32.954 -3.406 21
0.918 -32.008 -3.804 13
0.864 -29.882 -3.899 31
0.821 -27.992 -3.979 6
0.0 -0.0 3.0 0
0.661 -22.058 -3.325 2
0.665 -21.905 -3.697 7
0.672 -21.949 -4.132 6
0.662 -21.337 -4.347 9
0.634 -20.405 -4.427 9
0.619 -19.526 -4.495 9
0.6 -18.758 -4.579 7
0.583 -17.975 -4.63 8
0.564 -17.259 -4.684 9
0.55 -16.611 -4.746 8
0.533 -15.952 -4.78 37
0.521 -15.376 -4.834 7
0.509 -14.809 -4.874 8
0.495 -14.278 -4.914 9
0.485 -13.809 -4.972 8
0.473 -13.345 -5.018 8
0.462 -12.857 -5.034 8
0.451 -12.43 -5.072 9
0.442 -12.012 -5.102 10
0.432 -11.617 -5.134 10
0.424 -11.24 -5.166 12
0.414 -10.876 -5.195 11
0.406 -10.516 -5.216 46
0.399 -10.176 -5.24 25
0.39 -9.853 -5.267 14
0.384 -9.529 -5.284 40
0.842 -33.674 -2.938 33
0.83 -32.945 -3.404 18
0.818 -31.987 -3.799 17
0.77 -29.885 -3.899 27
0.732 -27.997 -3.981 6
0.0 -0.0 3.0 0
0.589 -22.056 -3.324 2
0.594 -21.903 -3.697 4
0.599 -21.935 -4.127 13
0.592 -21.335 -4.346 9
0.566 -20.399 -4.425 10
0.553 -19.52 -4.493 9
0.536 -18.759 -4.579 7
0.521 -17.976 -4.631 8
0.505 -17.267 -4.688 9
0.492 -16.601 -4.741 7
0.477 -15.953 -4.781 39
0.467 -15.373 -4.833 8
0.456 -14.807 -4.873 9
0.444 -14.289 -4.921 8
0.436 -13.813 -4.975 8
0.425 -13.35 -5.021 7
0.415 -12.855 -5.033 9
0.405 -12.434 -5.075 10
0.397 -12.02 -5.108 10
0.388 -11.614 -5.132 11
0.381 -11.241 -5.167 13
0.372 -10.873 -5.194 11
0.366 -10.518 -5.218 46
0.36 -10.186 -5.248 13
0.351 -9.854 -5.268 13
0.345 -9.53 -5.284 41
0.735 -33.526 -2.912 18
0.727 -32.932 -3.401 16
0.718 -31.993 -3.8 13
0.676 -29.887 -3.9 27
0.643 -27.995 -3.98 6
0.0 -0.0 3.0 0
0.519 -22.076 -3.33 2
0.523 -21.913 -3.699 3
0.528 -21.941 -4.129 6
0.521 -21.336 -4.347 9
0.498 -20.401 -4.425 10
0.488 -19.525 -4.495 9
0.473 -18.758 -4.579 8
0.46 -17.975 -4.63 7
0.445 -17.258 -4.684 8
0.435 -16.603 -4.742 8
0.421 -15.954 -4.781 36
0.413 -15.378 -4.836 8
0.403 -14.808 -4.874 9
0.393 -14.287 -4.919 9
0.386 -13.818 -4.978 7
0.376 -13.344 -5.018 8
0.368 -12.856 -5.033 8
0.359 -12.432 -5.073 10
0.352 -12.014 -5.104 10
0.344 -11.619 -5.135 11
0.338 -11.242 -5.168 11
0.33 -10.874 -5.194 12
0.325 -10.519 -5.218 46
0.32 -10.184 -5.247 15
0.312 -9.855 -5.269 14
0.307 -9.534 -5.288 32
0.63 -33.45 -2.898 36
0.626 -32.965 -3.408 19
0.618 -32.003 -3.802 18
0.581 -29.888 -3.9 28
0.554 -28.001 -3.982 6
0.0 -0.0 3.0 0
0.447 -22.074 -3.33 2
0.452 -21.914 -3.7 3
0.455 -21.931 -4.126 4
0.45 -21.331 -4.345 7
0.43 -20.391 -4.422 9
0.422 -19.527 -4.496 9
0.409 -18.762 -4.58 8
0.399 -17.976 -4.63 5
0.386 -17.262 -4.686 7
0.377 -16.604 -4.742 7
0.366 -15.956 -4.782 38
0.358 -15.379 -4.836 7
0.351 -14.812 -4.876 8
0.341 -14.285 -4.918 9
0.336 -13.815 -4.976 8
0.327 -13.348 -5.02 7
0.32 -12.857 -5.034 8
0.313 -12.433 -5.074 9
0.307 -12.018 -5.106 9
0.3 -11.616 -5.134 10
0.295 -11.242 -5.168 13
0.288 -10.875 -5.195 11
0.284 -10.519 -5.219 48
0.28 -10.185 -5.248 13
0.273 -9.852 -5.267 14
0.269 -9.528 -5.283 43
0.526 -33.393 -2.888 12
0.523 -32.971 -3.409 20
0.517 -32.001 -3.802 15
0.487 -29.882 -3.899 30
0.465 -28.007 -3.983 7
0.0 -0.0 3.0 0
0.377 -22.099 -3.337 2
0.381 -21.946 -3.709 2
0.384 -21.959 -4.135 2
0.38 -21.332 -4.345 9
0.362 -20.399 -4.425 10
0.357 -19.52 -4.493 10
0.346 -18.759 -4.579 8
0.337 -17.98 -4.632 7
0.326 -17.26 -4.684 8
0.32 -16.604 -4.743 8
0.31 -15.957 -4.783 39
0.304 -15.377 -4.835 8
0.298 -14.81 -4.874 8
0.29 -14.286 -4.919 9
0.286 -13.823 -4.981 8
0.278 -13.346 -5.019 7
0.273 -12.855 -5.033 9
0.267 -12.434 -5.074 10
0.263 -12.022 -5.109 10
0.256 -11.623 -5.139 10
0.252 -11.247 -5.171 11
0.246 -10.876 -5.195 12
0.243 -10.52 -5.219 48
0.24 -10.185 -5.248 11
0.234 -9.855 -5.27 13
0.231 -9.532 -5.286 35
0.426 -33.619 -2.928 13
0.421 -33.004 -3.415 17
0.417 -32.007 -3.803 14
0.393 -29.871 -3.896 28
0.376 -28.016 -3.985 7
0.356 -26.306 -4.049 8
0.306 -22.137 -3.348 1
0.32 -22.724 -3.947 2
0.318 -22.412 -4.282 4
0.309 -21.329 -4.344 7
0.294 -20.397 -4.424 10
0.291 -19.529 -4.496 10
0.282 -18.757 -4.578 7
0.276 -17.974 -4.629 8
0.267 -17.257 -4.683 8
0.262 -16.598 -4.74 7
0.254 -15.95 -4.779 35
0.25 -15.377 -4.835 8
0.246 -14.814 -4.877 8
0.239 -14.282 -4.917 9
0.236 -13.817 -4.977 8
0.23 -13.35 -5.021 8
0.226 -12.862 -5.037 8
0.22 -12.438 -5.077 10
0.217 -12.017 -5.105 10
0.212 -11.618 -5.135 11
0.21 -11.247 -5.172 12
0.205 -10.883 -5.201 12
0.202 -10.523 -5.222 32
0.2 -10.186 -5.248 13
0.195 -9.856 -5.27 14
0.193 -9.532 -5.286 44
0.358 -37.303 -3.578 7
0.319 -33.02 -3.418 18
0.317 -31.996 -3.801 14
0.298 -29.861 -3.894 20
0.287 -28.013 -3.984 6
0.272 -26.333 -4.056 6
0.244 -23.088 -3.62 2
0.241 -22.228 -3.796 1
0.245 -22.409 -4.281 4
0.239 -21.333 -4.346 9
0.226 -20.394 -4.423 9
0.226 -19.522 -4.494 10
0.219 -18.758 -4.579 7
0.215 -17.982 -4.633 8
0.208 -17.265 -4.687 8
0.205 -16.603 -4.742 8
0.198 -15.954 -4.781 36
0.196 -15.377 -4.835 8
0.193 -14.815 -4.877 8
0.188 -14.287 -4.919 9
0.186 -13.817 -4.977 7
0.181 -13.351 -5.022 7
0.179 -12.862 -5.037 8
0.174 -12.439 -5.078 10
0.172 -12.02 -5.107 9
0.168 -11.618 -5.135 10
0.167 -11.241 -5.167 12
0.163 -10.88 -5.198 11
0.161 -10.524 -5.222 12
0.16 -10.183 -5.246 11
0.156 -9.857 -5.271 13
0.155 -9.533 -5.287 43
0.243 -37.32 -3.58 7
0.217 -33.025 -3.419 19
0.217 -32.016 -3.805 17
0.204 -29.889 -3.9 7
0.198 -28.006 -3.983 7
0.188 -26.354 -4.062 6
0.169 -22.939 -3.578 1
0.167 -22.002 -3.727 1
0.171 -22.41 -4.282 5
0.168 -21.33 -4.345 9
0.159 -20.402 -4.426 10
0.16 -19.53 -4.497 9
0.155 -18.762 -4.58 7
0.153 -17.979 -4.632 7
0.148 -17.262 -4.686 8
0.147 -16.603 -4.742 7
0.142 -15.955 -4.782 37
0.141 -15.378 -4.836 7
0.14 -14.815 -4.877 8
0.137 -14.288 -4.92 9
0.136 -13.815 -4.976 8
0.132 -13.351 -5.022 7
0.131 -12.856 -5.033 9
0.128 -12.435 -5.076 9
0.128 -12.024 -5.11 10
0.124 -11.625 -5.14 10
0.124 -11.248 -5.172 11
0.121 -10.88 -5.199 11
0.12 -10.524 -5.222 12
0.12 -10.19 -5.251 14
0.117 -9.857 -5.271 14
0.117 -9.533 -5.287 41
0.128 -37.316 -3.58 7
0.114 -33.029 -3.42 18
0.117 -32.017 -3.805 15
0.11 -29.897 -3.902 7
0.109 -28.01 -3.984 7
0.103 -26.342 -4.058 5
0.095 -22.936 -3.577 1
0.096 -22.052 -3.742 1
0.098 -22.403 -4.279 5
0.098 -21.33 -4.345 9
0.091 -20.406 -4.427 10
0.095 -19.53 -4.497 9
0.092 -18.762 -4.58 7
0.092 -17.976 -4.63 7
0.089 -17.262 -4.686 7
0.09 -16.6 -4.741 7
0.087 -15.962 -4.785 37
0.087 -15.378 -4.836 8
0.088 -14.812 -4.876 8
0.085 -14.284 -4.918 9
0.086 -13.815 -4.976 8
0.084 -13.351 -5.022 7
0.084 -12.863 -5.038 12
0.082 -12.439 -5.078 10
0.082 -12.021 -5.108 11
0.08 -11.625 -5.14 11
0.081 -11.251 -5.175 12
0.079 -10.877 -5.197 12
0.079 -10.524 -5.222 11
0.08 -10.19 -5.251 13
0.078 -9.86 -5.274 14
0.078 -9.533 -5.287 32
0.013 -37.312 -3.579 7
0.011 -33.033 -3.421 20
0.017 -32.017 -3.805 15
0.016 -29.901 -3.903 6
0.02 -28.018 -3.986 7
0.019 -26.351 -4.061 5
0.021 -23.005 -3.596 1
0.024 -22.19 -3.784 0
0.024 -22.414 -4.283 5
0.027 -21.338 -4.347 7
0.023 -20.406 -4.427 18
0.029 -19.53 -4.497 9
0.028 -18.762 -4.58 8
0.031 -17.979 -4.632 7
0.03 -17.273 -4.691 8
0.032 -16.604 -4.742 7
0.031 -15.959 -4.784 37
0.033 -15.382 -4.837 7
0.035 -14.819 -4.88 8
0.034 -14.288 -4.92 9
0.036 -13.822 -4.98 7
0.035 -13.355 -5.024 7
0.037 -12.86 -5.036 11
0.036 -12.439 -5.078 10
0.038 -12.027 -5.113 11
0.037 -11.625 -5.14 11
0.038 -11.246 -5.17 13
0.037 -10.88 -5.199 12
0.039 -10.528 -5.225 10
0.04 -10.193 -5.254 13
0.039 -9.86 -5.274 13
0.04 -9.536 -5.29 42
-0.102 -37.316 -3.58 7
-0.091 -33.061 -3.426 17
-0.084 -32.029 -3.808 17
-0.079 -29.905 -3.904 6
-0.069 -28.011 -3.984 7
-0.066 -26.358 -4.063 5
-0.058 -24.877 -4.133 6
-0.051 -23.59 -4.212 5
-0.049 -22.41 -4.282 5
-0.043 -21.334 -4.346 9
-0.045 -20.398 -4.424 31
-0.036 -19.538 -4.5 9
-0.035 -18.766 -4.582 8
-0.031 -17.979 -4.632 5
-0.03 -17.273 -4.691 8
-0.026 -16.596 -4.739 8
-0.025 -15.959 -4.784 35
-0.021 -15.382 -4.837 7
-0.018 -14.812 -4.876 8
-0.017 -14.284 -4.918 9
-0.014 -13.818 -4.978 8
-0.014 -13.352 -5.022 8
-0.011 -12.86 -5.036 11
-0.01 -12.439 -5.078 9
-0.007 -12.021 -5.108 10
-0.007 -11.628 -5.142 10
-0.005 -11.251 -5.175 10
-0.005 -10.884 -5.201 12
-0.002 -10.528 -5.225 11
0.0 -10.19 -5.252 11
0.0 -9.863 -5.276 13
0.002 -9.537 -5.29 39
-0.217 -37.336 -3.583 7
-0.194 -33.084 -3.431 19
-0.184 -32.013 -3.804 24
-0.173 -29.901 -3.903 7
-0.158 -28.026 -3.988 7
-0.15 -26.35 -4.06 5
-0.138 -24.873 -4.132 6
-0.128 -23.598 -4.215 5
-0.122 -22.41 -4.282 5
-0.114 -21.338 -4.347 9
-0.113 -20.391 -4.422 32
-0.102 -19.53 -4.497 10
-0.099 -18.762 -4.58 8
-0.092 -17.983 -4.633 7
-0.089 -17.273 -4.691 8
-0.083 -16.6 -4.741 7
-0.081 -15.959 -4.784 31
-0.075 -15.385 -4.839 8
-0.07 -14.816 -4.878 8
-0.068 -14.288 -4.92 9
-0.064 -13.825 -4.982 7
-0.062 -13.352 -5.022 7
-0.058 -12.863 -5.038 9
-0.056 -12.443 -5.08 9
-0.053 -12.024 -5.11 10
-0.051 -11.628 -5.142 10
-0.048 -11.248 -5.172 13
-0.047 -10.884 -5.201 12
-0.043 -10.528 -5.225 13
-0.04 -10.193 -5.254 13
-0.039 -9.86 -5.274 14
-0.036 -9.536 -5.29 44
-0.332 -37.327 -3.582 7
-0.297 -33.087 -3.431 19
-0.284 -32.024 -3.807 13
-0.267 -29.908 -3.905 6
-0.247 -28.025 -3.987 7
-0.235 -26.357 -4.062 5
-0.219 -24.872 -4.132 7
-0.205 -23.601 -4.216 5
-0.196 -22.414 -4.283 4
-0.184 -21.346 -4.35 9
-0.181 -20.391 -4.422 29
-0.168 -19.526 -4.495 10
-0.162 -18.762 -4.58 8
-0.153 -17.986 -4.634 8
-0.148 -17.273 -4.691 8
-0.141 -16.599 -4.74 8
-0.136 -15.962 -4.785 36
-0.13 -15.385 -4.839 8
-0.123 -14.816 -4.878 7
-0.12 -14.298 -4.926 7
-0.114 -13.822 -4.98 8
-0.111 -13.351 -5.022 7
-0.105 -12.863 -5.038 8
-0.103 -12.439 -5.078 10
-0.098 -12.027 -5.113 10
-0.095 -11.628 -5.142 10
-0.091 -11.251 -5.175 11
-0.088 -10.884 -5.201 13
-0.084 -10.527 -5.225 12
-0.08 -10.19 -5.251 12
-0.078 -9.867 -5.279 14
-0.074 -9.536 -5.29 42
-0.447 -37.333 -3.583 8
-0.4 -33.11 -3.436 15
-0.384 -32.023 -3.807 13
-0.362 -29.915 -3.906 6
-0.336 -28.024 -3.987 7
-0.319 -26.364 -4.064 6
-0.299 -24.88 -4.134 7
-0.282 -23.608 -4.218 5
-0.269 -22.409 -4.281 5
-0.255 -21.341 -4.348 9
-0.249 -20.39 -4.421 21
-0.233 -19.533 -4.498 9
-0.226 -18.769 -4.583 8
-0.215 -17.982 -4.633 7
-0.208 -17.272 -4.69 8
-0.198 -16.603 -4.742 7
-0.192 -15.961 -4.785 35
-0.184 -15.388 -4.841 7
-0.175 -14.811 -4.875 8
-0.171 -14.287 -4.919 9
-0.164 -13.824 -4.981 8
-0.16 -13.354 -5.024 7
-0.152 -12.862 -5.037 8
-0.149 -12.442 -5.08 10
-0.143 -12.027 -5.113 9
-0.139 -11.628 -5.142 11
-0.133 -11.255 -5.177 12
-0.13 -10.884 -5.201 12
-0.125 -10.531 -5.227 12
-0.12 -10.19 -5.251 13
-0.117 -9.863 -5.276 13
-0.112 -9.542 -5.295 42
-0.563 -37.343 -3.585 7
-0.503 -33.124 -3.439 17
-0.484 -32.025 -3.807 13
-0.456 -29.917 -3.907 7
-0.426 -28.031 -3.989 7
-0.403 -26.359 -4.063 5
-0.379 -24.879 -4.134 7
-0.358 -23.603 -4.216 5
-0.343 -22.416 -4.283 5
-0.325 -21.348 -4.351 10
-0.317 -20.408 -4.428 10
-0.299 -19.529 -4.496 9
-0.289 -18.772 -4.584 8
-0.276 -17.988 -4.636 7
-0.267 -17.275 -4.691 8
-0.256 -16.598 -4.74 7
-0.248 -15.961 -4.785 37
-0.238 -15.381 -4.837 7
-0.228 -14.818 -4.879 8
-0.222 -14.294 -4.923 9
-0.214 -13.817 -4.977 8
-0.208 -13.35 -5.021 7
-0.2 -12.862 -5.037 10
-0.195 -12.445 -5.082 10
-0.187 -12.02 -5.107 10
-0.183 -11.628 -5.142 10
-0.176 -11.251 -5.174 11
-0.172 -10.883 -5.201 11
-0.166 -10.53 -5.227 12
-0.16 -10.192 -5.253 12
-0.156 -9.863 -5.276 13
-0.151 -9.539 -5.292 42
-0.678 -37.35 -3.586 7
-0.606 -33.135 -3.441 14
-0.585 -32.02 -3.806 12
-0.55 -29.916 -3.907 6
-0.515 -28.029 -3.988 7
-0.488 -26.362 -4.064 5
-0.46 -24.877 -4.133 7
-0.435 -23.598 -4.215 5
-0.416 -22.411 -4.282 5
-0.396 -21.335 -4.346 9
-0.385 -20.407 -4.428 10
-0.364 -19.531 -4.497 9
-0.353 -18.771 -4.584 8
-0.337 -17.987 -4.635 5
-0.327 -17.27 -4.689 8
-0.313 -16.601 -4.741 8
-0.304 -15.964 -4.786 37
-0.292 -15.377 -4.835 5
-0.281 -14.818 -4.879 8
-0.273 -14.293 -4.923 9
-0.264 -13.823 -4.981 8
-0.257 -13.356 -5.025 8
-0.247 -12.862 -5.037 7
-0.241 -12.448 -5.084 10
-0.233 -12.029 -5.114 10
-0.227 -11.63 -5.144 10
-0.219 -11.254 -5.177 12
-0.214 -10.885 -5.203 12
-0.207 -10.527 -5.224 13
-0.2 -10.195 -5.256 13
-0.195 -9.866 -5.278 14
-0.189 -9.535 -5.289 40
-0.793 -37.363 -3.588 7
-0.709 -33.144 -3.443 14
-0.685 -32.037 -3.81 14
-0.645 -29.91 -3.905 7
-0.604 -28.032 -3.989 7
-0.572 -26.356 -4.062 5
-0.54 -24.88 -4.134 7
-0.512 -23.6 -4.215 5
-0.49 -22.417 -4.284 5
-0.466 -21.338 -4.347 10
-0.453 -20.41 -4.429 10
-0.43 -19.538 -4.5 9
-0.416 -18.77 -4.583 8
-0.399 -17.987 -4.635 7
-0.386 -17.27 -4.689 8
-0.371 -16.6 -4.741 8
-0.36 -15.963 -4.786 37
-0.346 -15.383 -4.838 7
-0.333 -14.817 -4.878 8
-0.324 -14.289 -4.92 9
-0.314 -13.819 -4.978 8
-0.306 -13.359 -5.027 7
-0.294 -12.864 -5.038 9
-0.287 -12.44 -5.079 10
-0.278 -12.026 -5.111 10
-0.271 -11.63 -5.144 10
-0.262 -11.26 -5.181 11
-0.256 -10.889 -5.205 11
-0.248 -10.532 -5.229 13
-0.24 -10.194 -5.255 13
-0.234 -9.865 -5.278 14
-0.227 -9.541 -5.294 41
-0.909 -37.368 -3.589 6
-0.812 -33.146 -3.443 18
-0.786 -32.039 -3.81 13
-0.739 -29.908 -3.905 6
-0.693 -28.03 -3.989 7
-0.657 -26.362 -4.064 5
-0.62 -24.878 -4.134 7
-0.589 -23.607 -4.217 5
-0.564 -22.419 -4.284 5
-0.537 -21.332 -4.345 11
-0.521 -20.412 -4.429 9
-0.496 -19.532 -4.498 9
-0.48 -18.776 -4.586 8
-0.46 -17.986 -4.634 8
-0.445 -17.272 -4.69 7
-0.429 -16.603 -4.742 8
-0.415 -15.961 -4.785 35
-0.401 -15.382 -4.837 8
-0.386 -14.823 -4.882 8
-0.376 -14.291 -4.922 8
-0.364 -13.825 -4.982 8
-0.354 -13.352 -5.022 7
-0.342 -12.867 -5.04 9
-0.333 -12.446 -5.083 9
-0.323 -12.028 -5.113 10
-0.315 -11.629 -5.143 11
-0.305 -11.252 -5.175 11
-0.298 -10.888 -5.205 12
-0.289 -10.535 -5.231 12
-0.28 -10.194 -5.255 12
-0.274 -9.864 -5.277 13
-0.265 -9.54 -5.293 42
-1.024 -37.37 -3.589 7
-0.916 -33.159 -3.445 15
-0.886 -32.036 -3.81 16
-0.834 -29.917 -3.907 6
-0.782 -28.035 -3.99 7
-0.742 -26.368 -4.065 5
-0.701 -24.888 -4.137 7
-0.666 -23.609 -4.218 5
-0.637 -22.418 -4.284 5
-0.607 -21.331 -4.345 12
-0.589 -20.406 -4.427 9
-0.561 -19.538 -4.5 9
-0.543 -18.767 -4.582 8
-0.522 -17.987 -4.635 7
-0.505 -17.274 -4.691 8
-0.486 -16.613 -4.747 7
-0.471 -15.961 -4.784 36
-0.455 -15.377 -4.835 7
-0.439 -14.818 -4.879 8
-0.427 -14.297 -4.925 9
-0.414 -13.824 -4.981 8
-0.403 -13.36 -5.028 8
-0.389 -12.866 -5.039 8
-0.38 -12.442 -5.08 10
-0.368 -12.027 -5.113 9
-0.359 -11.632 -5.145 11
-0.348 -11.252 -5.175 11
-0.34 -10.887 -5.204 12
-0.33 -10.534 -5.23 11
-0.32 -10.193 -5.254 11
-0.313 -9.867 -5.279 16
-0.303 -9.539 -5.293 44
-1.139 -37.382 -3.591 7
-1.018 -33.156 -3.445 15
-0.986 -32.046 -3.811 14
-0.928 -29.931 -3.91 6
-0.872 -28.036 -3.99 7
-0.826 -26.373 -4.067 5
-0.782 -24.897 -4.139 7
-0.742 -23.598 -4.215 5
-0.711 -22.423 -4.286 5
-0.678 -21.329 -4.344 13
-0.657 -20.408 -4.428 9
-0.627 -19.541 -4.501 9
-0.607 -18.772 -4.585 8
-0.583 -17.986 -4.634 6
-0.564 -17.273 -4.691 8
-0.544 -16.607 -4.744 8
-0.527 -15.962 -4.785 34
-0.509 -15.39 -4.842 7
-0.492 -14.82 -4.88 9
-0.478 -14.292 -4.922 9
-0.463 -13.819 -4.978 8
-0.452 -13.356 -5.025 8
-0.436 -12.865 -5.039 8
-0.426 -12.447 -5.083 10
-0.413 -12.029 -5.114 9
-0.403 -11.63 -5.144 10
-0.391 -11.257 -5.179 11
-0.382 -10.886 -5.203 12
-0.371 -10.533 -5.229 9
-0.36 -10.192 -5.253 11
-0.352 -9.866 -5.279 13
-0.342 -9.542 -5.295 42
-1.255 -37.39 -3.593 7
-1.123 -33.204 -3.454 12
-1.087 -32.062 -3.815 13
-1.023 -29.932 -3.91 6
-0.961 -28.049 -3.993 7
-0.911 -26.378 -4.068 5
-0.862 -24.898 -4.139 7
-0.819 -23.604 -4.216 5
-0.784 -22.421 -4.285 4
-0.748 -21.331 -4.345 14
-0.725 -20.41 -4.429 9
-0.693 -19.539 -4.5 9
-0.671 -18.774 -4.585 8
-0.644 -17.987 -4.635 7
-0.624 -17.279 -4.693 8
-0.602 -16.609 -4.745 8
-0.583 -15.961 -4.785 37
-0.563 -15.385 -4.839 8
-0.544 -14.819 -4.879 9
-0.529 -14.295 -4.924 8
-0.514 -13.829 -4.984 8
-0.501 -13.359 -5.027 7
-0.484 -12.87 -5.042 8
-0.472 -12.443 -5.081 9
-0.458 -12.032 -5.115 10
-0.447 -11.633 -5.145 11
-0.434 -11.252 -5.175 10
-0.424 -10.888 -5.205 12
-0.412 -10.536 -5.231 10
-0.4 -10.198 -5.258 12
-0.391 -9.865 -5.278 13
-0.38 -9.541 -5.294 41
-1.371 -37.399 -3.594 7
-1.226 -33.193 -3.452 13
-1.188 -32.074 -3.818 14
-1.118 -29.948 -3.914 6
-1.051 -28.054 -3.995 7
-0.996 -26.383 -4.069 5
-0.943 -24.9 -4.14 7
-0.896 -23.601 -4.216 5
-0.858 -22.43 -4.288 5
-0.819 -21.332 -4.345 15
-0.793 -20.412 -4.429 10
-0.758 -19.536 -4.499 9
-0.735 -18.78 -4.588 8
-0.706 -17.989 -4.636 7
-0.683 -17.277 -4.692 8
-0.659 -16.611 -4.746 8
-0.639 -15.963 -4.786 34
-0.618 -15.383 -4.838 7
-0.597 -14.824 -4.882 8
-0.581 -14.296 -4.925 9
-0.564 -13.827 -4.983 8
-0.549 -13.353 -5.023 7
-0.531 -12.865 -5.039 8
-0.518 -12.448 -5.084 10
-0.503 -12.033 -5.117 10
-0.491 -11.634 -5.147 11
-0.477 -11.255 -5.177 11
-0.466 -10.887 -5.204 12
-0.453 -10.534 -5.23 10
-0.44 -10.203 -5.262 13
-0.43 -9.867 -5.279 13
-0.418 -9.544 -5.296 42
-1.486 -37.394 -3.594 7
-1.331 -33.228 -3.459 10
-1.289 -32.078 -3.818 14
-1.213 -29.948 -3.914 6
-1.14 -28.051 -3.994 7
-1.081 -26.396 -4.073 6
-1.023 -24.904 -4.141 7
-0.973 -23.594 -4.214 5
-0.932 -22.428 -4.287 5
-0.889 -21.33 -4.344 16
-0.861 -20.409 -4.428 10
-0.824 -19.542 -4.501 9
-0.798 -18.781 -4.588 8
-0.768 -17.995 -4.638 7
-0.743 -17.279 -4.693 8
-0.717 -16.609 -4.745 7
-0.695 -15.969 -4.788 36
-0.672 -15.388 -4.841 7
-0.65 -14.819 -4.879 8
-0.632 -14.291 -4.922 9
-0.614 -13.825 -4.982 8
-0.598 -13.359 -5.027 8
-0.579 -12.871 -5.043 8
-0.565 -12.447 -5.083 10
-0.548 -12.033 -5.116 10
-0.535 -11.637 -5.148 11
-0.52 -11.257 -5.178 11
-0.508 -10.892 -5.208 11
-0.494 -10.537 -5.232 12
-0.48 -10.196 -5.256 12
-0.469 -9.869 -5.281 13
-0.456 -9.542 -5.295 36
-1.602 -37.413 -3.597 7
-1.435 -33.255 -3.464 11
-1.389 -32.074 -3.818 14
-1.308 -29.956 -3.916 6
-1.229 -28.059 -3.996 7
-1.165 -26.388 -4.071 5
-1.104 -24.905 -4.141 6
-1.05 -23.599 -4.215 5
-1.006 -22.432 -4.289 5
-0.96 -21.331 -4.345 23
-0.93 -20.414 -4.43 9
-0.89 -19.539 -4.5 9
-0.862 -18.783 -4.589 8
-0.829 -17.993 -4.638 8
-0.803 -17.28 -4.693 8
-0.774 -16.607 -4.744 8
-0.75 -15.962 -4.785 37
-0.727 -15.39 -4.842 7
-0.703 -14.82 -4.88 8
-0.683 -14.296 -4.925 8
-0.664 -13.827 -4.983 8
-0.647 -13.357 -5.026 7
-0.626 -12.873 -5.044 13
-0.611 -12.446 -5.082 10
-0.593 -12.034 -5.117 9
-0.579 -11.632 -5.145 11
-0.563 -11.256 -5.178 12
-0.55 -10.894 -5.209 11
-0.535 -10.538 -5.233 10
-0.52 -10.197 -5.258 13
-0.508 -9.868 -5.28 14
-0.494 -9.541 -5.294 42
-1.718 -37.416 -3.597 7
-1.539 -33.27 -3.467 12
-1.491 -32.093 -3.822 14
-1.403 -29.968 -3.919 6
-1.319 -28.066 -3.998 7
-1.25 -26.389 -4.071 5
-1.185 -24.913 -4.144 7
-1.127 -23.597 -4.214 5
-1.079 -22.429 -4.288 5
-1.031 -21.332 -4.345 24
-0.998 -20.411 -4.429 9
-0.955 -19.536 -4.499 12
-0.925 -18.773 -4.585 8
-0.891 -17.998 -4.64 8
-0.862 -17.284 -4.695 8
-0.832 -16.608 -4.744 8
-0.806 -15.964 -4.786 35
-0.781 -15.385 -4.839 7
-0.755 -14.819 -4.879 8
-0.735 -14.302 -4.928 9
-0.714 -13.829 -4.984 8
-0.696 -13.359 -5.027 7
-0.673 -12.864 -5.038 20
-0.657 -12.447 -5.083 10
-0.639 -12.036 -5.118 10
-0.623 -11.637 -5.148 10
-0.606 -11.261 -5.181 12
-0.592 -10.89 -5.206 12
-0.576 -10.537 -5.232 11
-0.561 -10.202 -5.262 13
-0.548 -9.87 -5.282 14
-0.533 -9.546 -5.298 39
-1.835 -37.442 -3.602 7
-1.643 -33.278 -3.469 14
-1.591 -32.093 -3.822 14
-1.498 -29.971 -3.919 6
-1.409 -28.067 -3.998 7
-1.335 -26.404 -4.075 4
-1.265 -24.905 -4.141 7
-1.204 -23.597 -4.214 5
-1.153 -22.434 -4.289 5
-1.101 -21.336 -4.346 24
-1.066 -20.416 -4.431 9
-1.021 -19.541 -4.501 14
-0.989 -18.773 -4.585 8
-0.952 -17.995 -4.638 7
-0.922 -17.282 -4.695 8
-0.89 -16.605 -4.743 7
-0.862 -15.965 -4.787 34
-0.835 -15.389 -4.841 7
-0.808 -14.827 -4.883 8
-0.786 -14.299 -4.926 9
-0.764 -13.827 -4.983 8
-0.745 -13.36 -5.028 7
-0.721 -12.872 -5.043 20
-0.703 -12.449 -5.084 9
-0.684 -12.034 -5.117 10
-0.667 -11.635 -5.147 10
-0.649 -11.256 -5.178 12
-0.634 -10.891 -5.207 11
-0.617 -10.542 -5.236 12
-0.601 -10.201 -5.261 11
-0.587 -9.872 -5.284 13
-0.571 -9.542 -5.294 43
-1.95 -37.449 -3.603 8
-1.746 -33.272 -3.467 13
-1.693 -32.103 -3.824 13
-1.592 -29.971 -3.919 6
-1.498 -28.062 -3.997 6
-1.42 -26.404 -4.075 5
-1.346 -24.921 -4.146 6
-1.28 -23.593 -4.213 5
-1.227 -22.438 -4.29 5
-1.172 -21.34 -4.348 26
-1.134 -20.417 -4.431 9
-1.087 -19.546 -4.503 15
-1.053 -18.782 -4.588 8
-1.013 -17.992 -4.637 9
-0.981 -17.28 -4.693 8
-0.948 -16.611 -4.746 7
-0.919 -15.97 -4.789 34
-0.89 -15.391 -4.842 7
-0.861 -14.818 -4.879 8
-0.838 -14.301 -4.927 9
-0.814 -13.831 -4.985 8
-0.793 -13.358 -5.026 7
-0.768 -12.87 -5.042 12
-0.75 -12.447 -5.083 10
-0.729 -12.033 -5.116 10
-0.711 -11.637 -5.148 10
-0.692 -11.258 -5.179 12
-0.676 -10.892 -5.208 11
-0.658 -10.54 -5.235 12
-0.641 -10.2 -5.26 13
-0.626 -9.874 -5.285 13
-0.609 -9.543 -5.296 42
-2.067 -37.462 -3.606 7
-1.85 -33.278 -3.469 15
-1.794 -32.109 -3.825 13
-1.687 -29.973 -3.92 6
-1.587 -28.065 -3.997 5
-1.505 -26.399 -4.074 5
-1.427 -24.917 -4.145 6
-1.358 -23.608 -4.218 5
-1.301 -22.442 -4.292 5
-1.243 -21.34 -4.348 23
-1.202 -20.413 -4.43 9
-1.153 -19.546 -4.503 13
-1.117 -18.782 -4.588 8
-1.075 -17.999 -4.64 7
-1.041 -17.28 -4.693 8
-1.005 -16.607 -4.744 7
-0.974 -15.968 -4.788 35
-0.944 -15.395 -4.844 7
-0.914 -14.822 -4.881 8
-0.889 -14.298 -4.926 8
-0.864 -13.826 -4.982 8
-0.842 -13.359 -5.027 7
-0.816 -12.869 -5.041 27
-0.796 -12.448 -5.084 10
-0.774 -12.03 -5.115 9
-0.755 -11.632 -5.145 10
-0.735 -11.259 -5.18 12
-0.718 -10.894 -5.209 10
-0.699 -10.542 -5.236 13
-0.681 -10.204 -5.263 12
-0.665 -9.872 -5.284 13
-0.648 -9.545 -5.297 43
-2.183 -37.472 -3.607 7
-1.953 -33.265 -3.466 20
-1.895 -32.12 -3.827 15
-1.783 -29.984 -3.922 6
-1.678 -28.088 -4.003 7
-1.59 -26.406 -4.076 5
-1.508 -24.92 -4.146 6
-1.435 -23.607 -4.217 5
-1.375 -22.438 -4.29 5
-1.314 -21.337 -4.347 31
-1.271 -20.417 -4.431 9
-1.219 -19.549 -4.504 31
-1.181 -18.783 -4.589 8
-1.137 -17.997 -4.639 8
-1.101 -17.284 -4.695 8
-1.063 -16.608 -4.744 7
-1.031 -15.971 -4.79 36
-0.998 -15.389 -4.841 8
-0.966 -14.819 -4.88 8
-0.94 -14.296 -4.924 9
-0.915 -13.83 -4.985 7
-0.891 -13.36 -5.028 8
-0.863 -12.869 -5.042 19
-0.842 -12.446 -5.082 10
-0.819 -12.035 -5.118 10
-0.799 -11.633 -5.146 11
-0.778 -11.257 -5.179 12
-0.76 -10.889 -5.206 12
-0.74 -10.543 -5.237 11
-0.721 -10.203 -5.262 13
-0.705 -9.873 -5.285 13
-0.686 -9.547 -5.299 38
-2.299 -37.465 -3.606 7
-2.058 -33.279 -3.469 16
-1.997 -32.133 -3.83 13
-1.877 -29.978 -3.921 6
-1.769 -28.106 -4.008 7
-1.675 -26.409 -4.076 4
-1.588 -24.919 -4.145 6
-1.513 -23.618 -4.221 5
-1.449 -22.444 -4.293 5
-1.385 -21.347 -4.35 32
-1.339 -20.417 -4.431 9
-1.284 -19.534 -4.499 41
-1.245 -18.786 -4.59 8
-1.199 -18.0 -4.641 7
-1.16 -17.285 -4.696 8
-1.121 -16.613 -4.747 8
-1.087 -15.972 -4.79 31
-1.053 -15.389 -4.841 7
-1.019 -14.82 -4.88 7
-0.992 -14.3 -4.927 9
-0.964 -13.824 -4.981 8
-0.94 -13.354 -5.024 7
-0.91 -12.864 -5.038 13
-0.889 -12.45 -5.085 10
-0.864 -12.033 -5.116 10
-0.843 -11.634 -5.146 10
-0.821 -11.258 -5.179 12
-0.802 -10.894 -5.209 11
-0.781 -10.544 -5.238 14
-0.761 -10.204 -5.263 12
-0.744 -9.872 -5.283 13
-0.724 -9.542 -5.295 46
-2.417 -37.505 -3.613 7
-2.161 -33.272 -3.467 12
-2.098 -32.143 -3.832 14
-1.973 -29.992 -3.924 6
-1.858 -28.104 -4.007 6
-1.761 -26.423 -4.08 4
-1.67 -24.93 -4.149 6
-1.591 -23.629 -4.224 5
-1.523 -22.444 -4.292 5
-1.456 -21.343 -4.349 31
-1.407 -20.42 -4.432 10
-1.35 -19.538 -4.5 39
-1.309 -18.79 -4.592 8
-1.26 -18.0 -4.641 8
-1.22 -17.289 -4.697 8
-1.179 -16.616 -4.748 8
-1.143 -15.97 -4.789 38
-1.107 -15.39 -4.842 8
-1.072 -14.814 -4.877 8
-1.043 -14.297 -4.925 8
-1.015 -13.829 -4.984 8
-0.989 -13.362 -5.029 7
-0.958 -12.868 -5.041 25
-0.935 -12.452 -5.086 10
-0.909 -12.031 -5.115 9
-0.888 -11.639 -5.15 10
-0.864 -11.262 -5.182 12
-0.844 -10.892 -5.208 12
-0.822 -10.543 -5.237 12
-0.802 -10.205 -5.264 12
-0.783 -9.876 -5.287 14
-0.763 -9.546 -5.298 42
-2.313 -34.239 -3.037 7
-2.264 -33.266 -3.466 17
-2.201 -32.168 -3.838 18
-2.068 -29.994 -3.925 6
-1.949 -28.11 -4.009 7
-1.846 -26.425 -4.081 4
-1.751 -24.94 -4.151 6
-1.668 -23.632 -4.225 5
-1.597 -22.447 -4.293 5
-1.527 -21.35 -4.351 31
-1.476 -20.42 -4.432 9
-1.416 -19.534 -4.499 25
-1.372 -18.787 -4.59 8
-1.322 -18.0 -4.641 7
-1.28 -17.289 -4.697 8
-1.236 -16.605 -4.743 8
-1.199 -15.97 -4.789 36
-1.162 -15.397 -4.845 8
-1.125 -14.818 -4.879 8
-1.095 -14.297 -4.925 9
-1.065 -13.826 -4.982 8
-1.038 -13.36 -5.027 7
-1.005 -12.865 -5.039 8
-0.982 -12.455 -5.088 10
-0.955 -12.035 -5.118 9
-0.932 -11.637 -5.148 10
-0.907 -11.26 -5.181 12
-0.886 -10.89 -5.206 12
-0.864 -10.544 -5.238 11
-0.841 -10.2 -5.26 11
-0.822 -9.874 -5.286 13
-0.801 -9.548 -5.3 40
-2.426 -34.338 -3.055 36
-2.368 -33.263 -3.466 15
-2.302 -32.165 -3.837 16
-2.165 -30.022 -3.931 7
-2.039 -28.123 -4.012 7
-1.93 -26.416 -4.078 5
-1.832 -24.938 -4.151 6
-1.745 -23.631 -4.225 5
-1.671 -22.45 -4.294 5
-1.598 -21.345 -4.35 32
-1.544 -20.419 -4.432 9
-1.482 -19.545 -4.503 11
-1.437 -18.793 -4.593 8
-1.384 -18.0 -4.641 7
-1.339 -17.285 -4.696 8
-1.295 -16.613 -4.747 8
-1.255 -15.973 -4.791 40
-1.216 -15.394 -4.844 8
-1.178 -14.822 -4.881 8
-1.146 -14.295 -4.924 9
-1.115 -13.826 -4.983 8
-1.087 -13.363 -5.029 7
-1.053 -12.866 -5.04 8
-1.028 -12.456 -5.089 10
-1.0 -12.039 -5.12 10
-0.976 -11.634 -5.146 11
-0.95 -11.255 -5.177 11
-0.928 -10.894 -5.209 10
-0.905 -10.545 -5.238 11
-0.882 -10.205 -5.264 12
-0.862 -9.872 -5.284 14
-0.84 -9.552 -5.303 41
-2.522 -34.209 -3.032 25
-2.471 -33.255 -3.464 18
-2.404 -32.181 -3.84 18
-2.26 -30.019 -3.931 6
-2.129 -28.125 -4.012 7
-2.016 -26.422 -4.08 3
-1.913 -24.94 -4.151 6
-1.823 -23.633 -4.225 5
-1.745 -22.452 -4.295 5
-1.668 -21.341 -4.348 32
-1.613 -20.422 -4.433 9
-1.549 -19.552 -4.505 9
-1.5 -18.786 -4.59 7
-1.445 -18.0 -4.641 8
-1.399 -17.281 -4.694 8
-1.353 -16.613 -4.747 8
-1.311 -15.973 -4.791 39
-1.271 -15.391 -4.842 8
-1.231 -14.822 -4.881 8
-1.198 -14.298 -4.926 9
-1.165 -13.826 -4.983 8
-1.136 -13.361 -5.028 7
-1.1 -12.863 -5.038 8
-1.074 -12.443 -5.081 10
-1.045 -12.037 -5.119 10
-1.02 -11.641 -5.151 9
-0.993 -11.256 -5.178 12
-0.97 -10.891 -5.207 11
-0.946 -10.542 -5.237 13
-0.922 -10.206 -5.264 12
-0.901 -9.873 -5.284 13
-0.878 -9.55 -5.301 44
-2.621 -34.115 -3.015 28
-2.575 -33.252 -3.464 15
-2.507 -32.197 -3.844 14
-2.357 -30.043 -3.936 7
-2.219 -28.13 -4.014 6
-2.101 -26.427 -4.081 4
-1.994 -24.934 -4.15 6
-1.9 -23.635 -4.226 5
-1.819 -22.451 -4.295 6
-1.739 -21.344 -4.349 31
-1.681 -20.424 -4.434 9
-1.615 -19.551 -4.505 9
-1.564 -18.788 -4.591 8
-1.507 -18.0 -4.64 8
-1.459 -17.284 -4.695 8
-1.41 -16.613 -4.747 8
-1.367 -15.973 -4.791 41
-1.326 -15.398 -4.846 8
-1.284 -14.819 -4.879 8
-1.249 -14.298 -4.926 9
-1.215 -13.824 -4.981 8
-1.185 -13.361 -5.028 7
-1.148 -12.871 -5.042 8
-1.121 -12.454 -5.088 10
-1.09 -12.03 -5.114 9
-1.064 -11.639 -5.149 10
-1.037 -11.259 -5.18 12
-1.012 -10.892 -5.208 10
-0.987 -10.54 -5.235 12
-0.962 -10.2 -5.26 12
-0.94 -9.874 -5.285 15
-0.916 -9.548 -5.3 41
-2.718 -34.008 -2.997 28
-2.677 -33.236 -3.46 14
-2.608 -32.198 -3.844 14
-2.453 -30.048 -3.937 6
-2.31 -28.139 -4.016 7
-2.186 -26.424 -4.08 5
-2.075 -24.94 -4.152 6
-1.977 -23.633 -4.225 6
-1.894 -22.464 -4.299 5
-1.81 -21.338 -4.347 30
-1.75 -20.43 -4.436 8
-1.681 -19.553 -4.506 9
-1.629 -18.799 -4.595 8
-1.569 -18.002 -4.642 8
-1.519 -17.291 -4.698 8
-1.469 -16.615 -4.748 7
-1.423 -15.969 -4.788 39
-1.38 -15.397 -4.845 8
-1.337 -14.822 -4.881 8
-1.3 -14.295 -4.924 9
-1.266 -13.834 -4.987 8
-1.233 -13.357 -5.026 7
-1.196 -12.871 -5.042 9
-1.168 -12.455 -5.088 10
-1.136 -12.034 -5.117 8
-1.108 -11.636 -5.148 10
-1.08 -11.26 -5.181 12
-1.055 -10.892 -5.208 11
-1.028 -10.544 -5.238 12
-1.002 -10.203 -5.263 13
-0.979 -9.869 -5.281 13
-0.955 -9.549 -5.3 39
-2.826 -34.032 -3.001 29
-2.784 -33.267 -3.466 23
-2.71 -32.205 -3.845 14
-2.55 -30.068 -3.942 6
-2.401 -28.147 -4.018 7
-2.272 -26.429 -4.082 6
-2.156 -24.934 -4.15 6
-2.055 -23.638 -4.227 6
-1.969 -22.47 -4.301 4
-1.882 -21.347 -4.351 30
-1.818 -20.422 -4.433 6
-1.747 -19.552 -4.505 9
-1.693 -18.793 -4.593 7
-1.631 -18.001 -4.641 7
-1.579 -17.29 -4.698 8
-1.527 -16.615 -4.748 7
-1.479 -15.965 -4.787 38
-1.435 -15.401 -4.847 7
-1.39 -14.825 -4.883 8
-1.352 -14.298 -4.926 8
-1.316 -13.827 -4.983 8
-1.283 -13.361 -5.028 8
-1.243 -12.867 -5.04 8
-1.213 -12.448 -5.084 9
-1.181 -12.031 -5.115 10
-1.152 -11.633 -5.145 11
-1.123 -11.257 -5.179 12
-1.097 -10.893 -5.209 11
-1.069 -10.545 -5.238 11
-1.042 -10.198 -5.258 12
-1.019 -9.873 -5.284 13
-0.993 -9.549 -5.301 40
-2.931 -34.027 -3.0 28
-2.884 -33.227 -3.459 36
-2.812 -32.205 -3.845 14
-2.645 -30.065 -3.941 6
-2.492 -28.163 -4.022 7
-2.358 -26.442 -4.085 5
-2.238 -24.95 -4.154 7
-2.134 -23.648 -4.23 6
-2.043 -22.467 -4.3 5
-1.954 -21.361 -4.355 32
-1.887 -20.427 -4.435 6
-1.814 -19.558 -4.508 9
-1.757 -18.8 -4.596 7
-1.693 -18.0 -4.641 7
-1.639 -17.285 -4.696 7
-1.585 -16.618 -4.749 7
-1.536 -15.979 -4.793 9
-1.489 -15.393 -4.843 8
-1.444 -14.828 -4.884 8
-1.404 -14.302 -4.928 9
-1.366 -13.826 -4.983 8
-1.332 -13.361 -5.028 7
-1.291 -12.867 -5.04 8
-1.26 -12.451 -5.086 10
-1.226 -12.031 -5.115 10
-1.197 -11.64 -5.15 11
-1.166 -11.261 -5.182 10
-1.138 -10.888 -5.205 8
-1.11 -10.539 -5.234 12
-1.083 -10.202 -5.262 11
-1.058 -9.871 -5.282 13
-1.032 -9.55 -5.301 40
-3.034 -33.998 -2.995 30
-2.991 -33.258 -3.465 38
-2.915 -32.227 -3.85 14
-2.742 -30.079 -3.944 7
-2.582 -28.156 -4.02 7
-2.445 -26.458 -4.089 6
-2.319 -24.948 -4.154 7
-2.211 -23.649 -4.23 6
-2.117 -22.469 -4.301 5
-2.025 -21.367 -4.357 29
-1.955 -20.426 -4.434 8
-1.879 -19.549 -4.504 9
-1.822 -18.801 -4.596 7
-1.755 -18.002 -4.642 8
-1.698 -17.284 -4.695 7
-1.643 -16.621 -4.75 8
-1.593 -15.978 -4.793 9
-1.544 -15.396 -4.845 8
-1.496 -14.824 -4.882 8
-1.455 -14.298 -4.925 9
-1.417 -13.826 -4.983 8
-1.381 -13.364 -5.03 8
-1.339 -12.867 -5.04 9
-1.307 -12.448 -5.084 10
-1.271 -12.028 -5.113 9
-1.241 -11.636 -5.148 10
-1.209 -11.258 -5.179 11
-1.181 -10.895 -5.21 11
-1.152 -10.542 -5.237 14
-1.123 -10.202 -5.262 12
-1.097 -9.871 -5.283 13
-0.96 -8.57 -4.45 11
-3.148 -34.092 -3.011 26
-3.086 -33.162 -3.446 37
-3.017 -32.23 -3.851 14
-2.838 -30.082 -3.945 7
-2.674 -28.175 -4.025 7
-2.531 -26.458 -4.09 6
-2.401 -24.956 -4.156 7
-2.289 -23.65 -4.231 6
-2.193 -22.478 -4.304 5
-2.097 -21.375 -4.36 32
-2.024 -20.431 -4.436 9
-1.946 -19.554 -4.506 8
-1.886 -18.8 -4.596 7
-1.817 -18.009 -4.644 7
-1.758 -17.287 -4.697 7
-1.701 -16.619 -4.75 8
-1.649 -15.977 -4.792 10
-1.598 -15.392 -4.843 4
-1.549 -14.82 -4.88 8
-1.507 -14.298 -4.925 9
-1.467 -13.829 -4.984 7
-1.429 -13.356 -5.025 8
-1.387 -12.871 -5.043 10
-1.353 -12.452 -5.086 10
-1.317 -12.031 -5.115 9
-1.285 -11.637 -5.148 11
-1.253 -11.261 -5.182 11
-1.223 -10.891 -5.207 11
-1.193 -10.539 -5.234 12
-1.164 -10.206 -5.264 12
-1.137 -9.871 -5.283 13
-0.985 -8.487 -4.377 12
-3.254 -34.093 -3.012 29
-3.186 -33.118 -3.438 41
-3.12 -32.24 -3.853 14
-2.935 -30.089 -3.947 7
-2.765 -28.178 -4.026 7
-2.616 -26.458 -4.089 5
-2.483 -24.96 -4.157 6
-2.366 -23.646 -4.229 6
-2.267 -22.483 -4.305 5
-2.169 -21.376 -4.36 27
-2.093 -20.432 -4.437 18
-2.013 -19.564 -4.51 8
-1.949 -18.794 -4.593 5
-1.879 -18.007 -4.643 8
-1.819 -17.289 -4.697 8
-1.759 -16.618 -4.749 8
-1.705 -15.979 -4.794 9
-1.654 -15.397 -4.845 6
-1.602 -14.816 -4.878 8
-1.559 -14.297 -4.925 9
-1.517 -13.826 -4.982 8
-1.479 -13.36 -5.027 8
-1.434 -12.87 -5.042 9
-1.4 -12.451 -5.086 9
-1.363 -12.035 -5.117 10
-1.33 -11.643 -5.153 9
-1.296 -11.258 -5.18 12
-1.265 -10.888 -5.205 11
-1.234 -10.543 -5.237 11
-1.204 -10.2 -5.26 12
-1.177 -9.874 -5.285 13
-1.009 -8.401 -4.303 11
-3.342 -33.911 -2.979 15
-3.292 -33.143 -3.442 37
-3.22 -32.227 -3.85 24
-3.032 -30.108 -3.951 6
-2.857 -28.197 -4.03 7
-2.701 -26.454 -4.088 5
-2.565 -24.972 -4.161 6
-2.445 -23.654 -4.232 5
-2.341 -22.479 -4.304 4
-2.241 -21.385 -4.363 25
-2.162 -20.429 -4.436 22
-2.079 -19.566 -4.511 8
-2.013 -18.792 -4.593 6
-1.941 -18.005 -4.643 7
-1.878 -17.287 -4.697 7
-1.818 -16.623 -4.752 8
-1.762 -15.978 -4.793 9
-1.708 -15.396 -4.845 6
-1.655 -14.818 -4.879 7
-1.61 -14.296 -4.924 9
-1.568 -13.825 -4.982 8
-1.528 -13.356 -5.025 8
-1.482 -12.87 -5.042 8
-1.446 -12.447 -5.083 9
-1.408 -12.031 -5.115 10
-1.374 -11.637 -5.148 10
-1.34 -11.262 -5.182 11
-1.307 -10.888 -5.205 12
-1.275 -10.536 -5.232 11
-1.244 -10.2 -5.26 12
-1.051 -8.533 -4.16 11
-1.032 -8.311 -4.224 9
-3.464 -34.069 -3.007 30
-3.389 -33.079 -3.43 38
-3.326 -32.26 -3.857 28
-3.13 -30.125 -3.955 7
-2.948 -28.199 -4.031 6
-2.79 -26.481 -4.095 6
-2.648 -24.983 -4.164 6
-2.523 -23.662 -4.234 6
-2.416 -22.48 -4.304 5
-2.312 -21.382 -4.362 23
-2.229 -20.419 -4.432 34
-2.146 -19.57 -4.512 9
-2.077 -18.794 -4.593 5
-2.003 -18.003 -4.642 7
-1.939 -17.292 -4.699 7
-1.876 -16.622 -4.751 8
-1.818 -15.977 -4.792 9
-1.764 -15.399 -4.846 7
-1.708 -14.813 -4.876 8
-1.662 -14.295 -4.924 9
-1.618 -13.827 -4.983 8
-1.577 -13.355 -5.024 7
-1.529 -12.866 -5.04 8
-1.493 -12.453 -5.087 10
-1.453 -12.03 -5.115 10
-1.418 -11.633 -5.145 9
-1.383 -11.261 -5.182 12
-1.35 -10.891 -5.207 11
-1.317 -10.546 -5.24 12
-1.284 -10.2 -5.26 13
-1.073 -8.436 -4.078 10
-1.052 -8.206 -4.133 8
-3.557 -33.946 -2.986 16
-3.491 -33.06 -3.426 32
-3.428 -32.262 -3.857 20
-3.226 -30.132 -3.956 6
-3.039 -28.21 -4.034 6
-2.875 -26.476 -4.094 5
-2.729 -24.979 -4.163 6
-2.601 -23.666 -4.235 5
-2.492 -22.492 -4.308 5
