# .PCD v0.7 - Point Cloud Data file format
VERSION 0.7
FIELDS x y z intensity
SIZE 4 4 4 4
TYPE F F F F
COUNT 1 1 1 1
WIDTH 2081
HEIGHT 1
VIEWPOINT 0 0 0 1 0 0 0
POINTS 2081
DATA ascii
4.765 -11.84 -4.986 8
4.645 -11.442 -5.012 7
4.536 -11.067 -5.04 8
4.419 -10.686 -5.053 8
4.31 -10.321 -5.064 8
4.207 -9.975 -5.078 9
4.106 -9.646 -5.094 11
4.011 -9.329 -5.11 16
12.804 -39.434 -3.953 7
10.97 -33.509 -3.514 20
10.424 -31.565 -3.709 29
10.233 -30.733 -4.095 13
9.603 -28.591 -4.129 6
9.053 -26.738 -4.164 6
8.598 -25.174 -4.219 6
8.194 -23.786 -4.272 7
7.849 -22.602 -4.344 5
7.518 -21.462 -4.39 5
7.216 -20.447 -4.442 9
6.966 -19.557 -4.507 10
6.737 -18.762 -4.58 8
6.499 -17.944 -4.617 8
6.28 -17.2 -4.658 7
6.078 -16.502 -4.695 7
5.884 -15.844 -4.728 47
5.718 -15.263 -4.777 6
5.553 -14.694 -4.813 6
5.394 -14.156 -4.847 9
5.253 -13.663 -4.888 5
5.111 -13.18 -4.92 6
4.977 -12.721 -4.949 7
4.844 -12.274 -4.971 7
4.721 -11.852 -4.994 7
4.597 -11.441 -5.011 7
4.489 -11.066 -5.04 8
4.376 -10.691 -5.057 8
4.266 -10.322 -5.064 9
4.164 -9.976 -5.079 9
4.065 -9.649 -5.096 11
3.973 -9.336 -5.115 15
12.657 -39.389 -3.945 8
10.847 -33.482 -3.508 25
10.313 -31.555 -3.707 31
10.121 -30.719 -4.092 15
9.495 -28.568 -4.123 6
8.955 -26.728 -4.162 6
8.504 -25.164 -4.216 5
8.107 -23.781 -4.271 6
7.763 -22.589 -4.34 5
7.441 -21.467 -4.392 5
7.142 -20.449 -4.443 9
6.893 -19.556 -4.507 10
6.667 -18.764 -4.581 8
6.433 -17.948 -4.619 8
6.215 -17.201 -4.659 8
6.016 -16.506 -4.697 7
5.823 -15.847 -4.729 42
5.658 -15.263 -4.777 6
5.496 -14.696 -4.814 4
5.341 -14.163 -4.851 7
5.2 -13.667 -4.891 6
5.056 -13.178 -4.918 7
4.927 -12.724 -4.951 8
4.795 -12.277 -4.973 7
4.672 -11.852 -4.994 7
4.55 -11.443 -5.013 7
4.443 -11.068 -5.042 8
4.332 -10.696 -5.06 9
4.226 -10.332 -5.072 9
4.125 -9.987 -5.087 10
4.023 -9.65 -5.097 9
3.933 -9.339 -5.118 18
12.507 -39.337 -3.936 9
10.718 -33.436 -3.499 23
10.196 -31.53 -3.702 33
10.009 -30.701 -4.088 15
9.388 -28.548 -4.118 6
8.858 -26.718 -4.159 6
8.412 -25.155 -4.213 6
8.017 -23.769 -4.267 6
7.678 -22.58 -4.337 5
7.36 -21.46 -4.389 5
7.066 -20.449 -4.443 9
6.82 -19.554 -4.506 10
6.595 -18.759 -4.579 8
6.364 -17.945 -4.617 8
6.148 -17.198 -4.657 7
5.951 -16.502 -4.695 7
5.762 -15.846 -4.728 39
5.6 -15.268 -4.779 6
5.438 -14.694 -4.813 6
5.288 -14.171 -4.855 7
5.147 -13.671 -4.893 6
5.007 -13.188 -4.924 6
4.876 -12.727 -4.953 7
4.746 -12.28 -4.975 6
4.621 -11.848 -4.992 7
4.505 -11.448 -5.016 7
4.398 -11.073 -5.045 9
4.288 -10.697 -5.061 11
4.182 -10.333 -5.073 10
4.082 -9.987 -5.087 10
3.984 -9.656 -5.103 10
3.899 -9.354 -5.131 17
12.359 -39.287 -3.927 11
10.591 -33.392 -3.491 30
10.082 -31.512 -3.698 29
9.892 -30.668 -4.08 16
9.281 -28.524 -4.112 5
8.759 -26.704 -4.155 6
8.321 -25.151 -4.212 6
7.932 -23.767 -4.266 7
7.596 -22.58 -4.337 5
7.28 -21.453 -4.387 5
6.989 -20.445 -4.441 7
6.744 -19.546 -4.503 10
6.527 -18.764 -4.581 6
6.297 -17.946 -4.618 8
6.083 -17.198 -4.657 7
5.889 -16.505 -4.696 7
5.702 -15.852 -4.732 45
5.542 -15.271 -4.781 6
5.382 -14.7 -4.816 6
5.231 -14.169 -4.854 7
5.092 -13.669 -4.892 4
4.954 -13.188 -4.924 6
4.825 -12.727 -4.953 8
4.698 -12.286 -4.979 6
4.574 -11.854 -4.995 7
4.457 -11.447 -5.015 7
4.352 -11.075 -5.046 8
4.243 -10.699 -5.062 9
4.138 -10.334 -5.074 9
4.039 -9.988 -5.088 9
3.944 -9.66 -5.105 11
3.858 -9.354 -5.131 16
12.218 -39.26 -3.923 12
10.489 -33.427 -3.498 25
9.978 -31.522 -3.7 29
9.776 -30.637 -4.073 13
9.179 -28.515 -4.11 5
8.659 -26.685 -4.15 6
8.228 -25.139 -4.208 6
7.844 -23.758 -4.263 6
7.508 -22.56 -4.33 5
7.2 -21.449 -4.385 5
6.914 -20.444 -4.441 9
6.672 -19.547 -4.504 10
6.453 -18.755 -4.577 8
6.227 -17.94 -4.615 8
6.019 -17.201 -4.659 8
5.827 -16.508 -4.698 7
5.642 -15.855 -4.733 42
5.484 -15.276 -4.783 7
5.323 -14.697 -4.814 6
5.177 -14.174 -4.857 8
5.04 -13.676 -4.896 6
4.901 -13.188 -4.924 6
4.774 -12.73 -4.955 7
4.648 -12.288 -4.98 6
4.525 -11.853 -4.995 7
4.411 -11.452 -5.019 6
4.308 -11.079 -5.05 16
4.199 -10.703 -5.066 9
4.095 -10.335 -5.075 10
3.999 -9.995 -5.093 10
3.904 -9.666 -5.111 12
3.818 -9.357 -5.134 19
12.073 -39.217 -3.915 13
10.391 -33.478 -3.507 31
9.879 -31.553 -3.707 29
9.662 -30.61 -4.067 13
9.068 -28.479 -4.101 5
8.558 -26.663 -4.144 6
8.138 -25.134 -4.207 6
7.758 -23.755 -4.263 7
7.426 -22.556 -4.329 5
7.122 -21.449 -4.385 5
6.839 -20.442 -4.44 9
6.598 -19.543 -4.502 9
6.383 -18.752 -4.576 6
6.162 -17.947 -4.618 8
5.954 -17.201 -4.659 8
5.764 -16.507 -4.698 7
5.582 -15.856 -4.734 41
5.426 -15.278 -4.784 6
5.266 -14.699 -4.815 6
5.121 -14.174 -4.857 8
4.987 -13.679 -4.898 6
4.85 -13.192 -4.926 6
4.725 -12.736 -4.958 7
4.598 -12.288 -4.98 7
4.476 -11.851 -4.994 7
4.365 -11.457 -5.022 7
4.263 -11.084 -5.053 44
4.156 -10.707 -5.068 10
4.054 -10.342 -5.08 9
3.957 -9.995 -5.094 8
3.864 -9.669 -5.113 15
3.775 -9.35 -5.128 18
11.937 -39.2 -3.912 15
10.274 -33.467 -3.505 22
9.778 -31.574 -3.711 30
9.55 -30.587 -4.061 13
8.968 -28.476 -4.1 6
8.466 -26.666 -4.145 6
8.045 -25.121 -4.203 6
7.67 -23.746 -4.26 7
7.345 -22.556 -4.329 5
7.047 -21.455 -4.388 5
6.765 -20.445 -4.441 9
6.526 -19.54 -4.501 9
6.313 -18.753 -4.577 8
6.095 -17.948 -4.618 8
5.889 -17.2 -4.658 8
5.702 -16.51 -4.699 7
5.522 -15.858 -4.735 43
5.366 -15.275 -4.783 6
5.209 -14.699 -4.816 6
5.067 -14.178 -4.859 8
4.931 -13.676 -4.896 6
4.798 -13.195 -4.928 6
4.673 -12.736 -4.958 7
4.549 -12.29 -4.981 6
4.431 -11.86 -4.999 7
4.317 -11.456 -5.021 7
4.216 -11.082 -5.051 41
4.115 -10.717 -5.076 9
4.01 -10.343 -5.081 9
3.915 -9.998 -5.096 10
3.823 -9.672 -5.115 21
3.731 -9.342 -5.121 16
11.791 -39.152 -3.904 14
10.148 -33.422 -3.497 25
9.669 -31.569 -3.71 28
9.439 -30.57 -4.058 13
8.866 -28.466 -4.097 6
8.367 -26.647 -4.14 6
7.952 -25.109 -4.2 5
7.585 -23.742 -4.259 7
7.26 -22.545 -4.325 5
6.967 -21.45 -4.386 5
6.692 -20.45 -4.443 9
6.455 -19.545 -4.503 9
6.244 -18.754 -4.577 8
6.027 -17.944 -4.617 8
5.824 -17.2 -4.658 7
5.64 -16.512 -4.7 7
5.461 -15.86 -4.735 42
5.307 -15.277 -4.784 6
5.154 -14.704 -4.818 7
5.012 -14.182 -4.861 8
4.882 -13.689 -4.903 6
4.746 -13.198 -4.93 6
4.623 -12.738 -4.96 7
4.5 -12.293 -4.983 7
4.382 -11.858 -4.999 7
4.273 -11.464 -5.027 7
4.172 -11.086 -5.055 42
4.069 -10.715 -5.074 8
3.966 -10.343 -5.081 8
3.872 -9.998 -5.096 8
3.783 -9.675 -5.118 24
3.697 -9.359 -5.136 16
11.643 -39.093 -3.893 8
10.017 -33.362 -3.485 22
9.563 -31.572 -3.711 29
9.326 -30.543 -4.051 13
8.761 -28.444 -4.092 6
8.268 -26.628 -4.135 6
7.863 -25.106 -4.199 6
7.498 -23.735 -4.257 7
7.178 -22.541 -4.324 6
6.888 -21.445 -4.384 5
6.613 -20.437 -4.438 10
6.383 -19.542 -4.502 10
6.176 -18.757 -4.578 8
5.959 -17.943 -4.617 8
5.759 -17.199 -4.658 8
5.578 -16.514 -4.701 7
5.401 -15.862 -4.736 46
5.251 -15.285 -4.788 6
5.099 -14.711 -4.822 6
4.957 -14.182 -4.861 8
4.825 -13.683 -4.9 6
4.694 -13.197 -4.93 7
4.572 -12.737 -4.959 7
4.452 -12.297 -4.986 7
4.336 -11.866 -5.004 7
4.226 -11.465 -5.028 6
4.126 -11.087 -5.055 41
4.025 -10.718 -5.077 7
3.923 -10.343 -5.081 8
3.832 -10.005 -5.102 8
3.741 -9.675 -5.118 29
3.657 -9.362 -5.138 16
11.5 -39.052 -3.886 7
9.881 -33.282 -3.469 22
9.452 -31.559 -3.708 31
9.212 -30.511 -4.044 14
8.661 -28.436 -4.09 6
8.177 -26.633 -4.136 6
7.772 -25.097 -4.196 5
7.411 -23.725 -4.253 7
7.097 -22.541 -4.324 6
6.812 -21.448 -4.385 6
6.537 -20.431 -4.436 11
6.31 -19.539 -4.501 9
6.105 -18.753 -4.577 8
5.89 -17.936 -4.613 8
5.694 -17.199 -4.657 8
5.516 -16.517 -4.702 7
5.34 -15.86 -4.735 44
5.19 -15.278 -4.785 6
5.041 -14.708 -4.82 6
4.901 -14.182 -4.861 8
4.774 -13.689 -4.903 6
4.643 -13.203 -4.933 7
4.522 -12.743 -4.963 7
4.402 -12.296 -4.985 7
4.287 -11.865 -5.003 7
4.182 -11.472 -5.033 7
4.08 -11.085 -5.053 37
3.981 -10.72 -5.078 7
3.882 -10.35 -5.086 9
3.79 -10.005 -5.102 8
3.703 -9.683 -5.125 32
3.618 -9.364 -5.14 15
11.355 -38.999 -3.877 7
9.763 -33.259 -3.465 24
9.341 -31.546 -3.705 30
9.105 -30.5 -4.042 14
8.556 -28.414 -4.084 6
8.081 -26.625 -4.134 6
7.681 -25.086 -4.193 6
7.326 -23.721 -4.252 7
7.014 -22.532 -4.321 6
6.732 -21.439 -4.382 5
6.46 -20.421 -4.433 13
6.239 -19.539 -4.5 10
6.038 -18.761 -4.58 8
5.827 -17.946 -4.618 8
5.63 -17.2 -4.658 8
5.454 -16.517 -4.702 7
5.281 -15.865 -4.738 42
5.134 -15.286 -4.789 6
4.987 -14.719 -4.826 6
4.847 -14.186 -4.863 8
4.722 -13.696 -4.907 6
4.593 -13.209 -4.937 6
4.473 -12.749 -4.966 7
4.354 -12.301 -4.988 7
4.241 -11.869 -5.006 7
4.135 -11.473 -5.034 7
4.037 -11.095 -5.061 34
3.936 -10.72 -5.078 9
3.839 -10.354 -5.089 10
3.749 -10.011 -5.107 9
3.662 -9.686 -5.128 32
3.579 -9.369 -5.145 12
11.213 -38.956 -3.869 7
9.643 -33.232 -3.46 23
9.238 -31.559 -3.708 31
8.999 -30.494 -4.04 13
8.452 -28.395 -4.08 6
7.984 -26.607 -4.129 6
7.594 -25.091 -4.195 5
7.24 -23.713 -4.25 6
6.934 -22.53 -4.321 6
6.654 -21.437 -4.381 5
6.385 -20.418 -4.432 16
6.166 -19.536 -4.499 10
5.968 -18.757 -4.578 8
5.76 -17.945 -4.617 7
5.566 -17.202 -4.659 8
5.392 -16.519 -4.703 7
5.221 -15.865 -4.738 44
5.074 -15.284 -4.787 6
4.931 -14.719 -4.826 6
4.794 -14.192 -4.867 8
4.667 -13.691 -4.905 6
4.539 -13.204 -4.934 6
4.422 -12.747 -4.965 6
4.304 -12.299 -4.987 7
4.192 -11.867 -5.005 7
4.09 -11.477 -5.037 7
3.992 -11.095 -5.061 30
3.893 -10.724 -5.081 8
3.798 -10.36 -5.094 9
3.709 -10.017 -5.111 8
3.622 -9.689 -5.13 31
3.542 -9.377 -5.152 14
11.07 -38.907 -3.86 7
9.535 -33.241 -3.461 24
9.132 -31.559 -3.708 26
8.889 -30.476 -4.036 13
8.354 -28.394 -4.079 6
7.89 -26.602 -4.128 6
7.5 -25.069 -4.188 5
7.155 -23.709 -4.249 7
6.853 -22.529 -4.32 5
6.579 -21.441 -4.383 5
6.313 -20.423 -4.433 21
6.095 -19.536 -4.499 10
5.897 -18.75 -4.575 6
5.692 -17.941 -4.615 8
5.501 -17.201 -4.658 8
5.33 -16.521 -4.704 7
5.161 -15.866 -4.739 40
5.016 -15.284 -4.787 6
4.873 -14.716 -4.825 6
4.737 -14.189 -4.865 9
4.617 -13.704 -4.912 6
4.489 -13.21 -4.938 6
4.372 -12.749 -4.967 7
4.255 -12.301 -4.989 7
4.145 -11.872 -5.008 7
4.043 -11.478 -5.037 7
3.945 -11.093 -5.06 23
3.85 -10.726 -5.083 8
3.753 -10.357 -5.092 9
3.667 -10.016 -5.111 9
3.583 -9.694 -5.134 10
3.501 -9.377 -5.151 16
10.928 -38.859 -3.852 7
9.418 -33.221 -3.457 30
9.023 -31.552 -3.707 27
8.78 -30.457 -4.032 12
8.252 -28.378 -4.075 6
7.791 -26.576 -4.121 6
7.411 -25.065 -4.187 5
7.073 -23.715 -4.251 6
6.772 -22.524 -4.318 5
6.498 -21.428 -4.378 5
6.238 -20.42 -4.432 16
6.024 -19.536 -4.499 9
5.828 -18.749 -4.575 8
5.625 -17.94 -4.615 8
5.439 -17.206 -4.661 8
5.266 -16.515 -4.701 6
5.1 -15.864 -4.737 39
4.96 -15.291 -4.791 7
4.818 -14.722 -4.828 7
4.683 -14.191 -4.866 9
4.563 -13.703 -4.912 6
4.438 -13.215 -4.941 5
4.323 -12.754 -4.97 7
4.208 -12.309 -4.993 8
4.098 -11.876 -5.01 7
3.996 -11.479 -5.038 6
3.901 -11.097 -5.062 22
3.806 -10.73 -5.086 7
3.713 -10.366 -5.099 9
3.626 -10.022 -5.116 9
3.541 -9.693 -5.134 10
3.459 -9.373 -5.148 17
10.789 -38.823 -3.846 7
9.293 -33.169 -3.447 23
8.92 -31.561 -3.708 28
8.677 -30.457 -4.032 11
8.152 -28.368 -4.073 6
7.7 -26.581 -4.122 6
7.32 -25.05 -4.183 5
6.99 -23.714 -4.25 6
6.688 -22.511 -4.314 6
6.423 -21.432 -4.38 5
6.169 -20.434 -4.437 12
5.953 -19.536 -4.499 10
5.759 -18.748 -4.575 8
5.561 -17.945 -4.617 8
5.374 -17.204 -4.66 8
5.207 -16.523 -4.705 7
5.041 -15.867 -4.739 42
4.902 -15.291 -4.791 7
4.761 -14.722 -4.828 7
4.629 -14.194 -4.868 35
4.51 -13.706 -4.913 6
4.386 -13.214 -4.94 6
4.273 -12.756 -4.971 7
4.157 -12.304 -4.99 7
4.05 -11.874 -5.009 6
3.951 -11.483 -5.04 7
3.856 -11.1 -5.064 19
3.762 -10.73 -5.085 7
3.668 -10.359 -5.093 9
3.585 -10.025 -5.118 10
3.502 -9.699 -5.138 10
3.421 -9.378 -5.152 13
10.647 -38.771 -3.836 7
9.176 -33.147 -3.443 30
8.815 -31.564 -3.709 28
8.567 -30.434 -4.026 11
8.051 -28.351 -4.069 6
7.602 -26.559 -4.116 6
7.231 -25.045 -4.182 5
6.9 -23.69 -4.243 6
6.607 -22.505 -4.312 6
6.344 -21.422 -4.376 5
6.093 -20.427 -4.435 12
5.882 -19.535 -4.499 10
5.692 -18.753 -4.577 8
5.495 -17.947 -4.618 7
5.312 -17.209 -4.662 8
5.144 -16.52 -4.703 6
4.982 -15.868 -4.739 44
4.843 -15.291 -4.791 6
4.706 -14.725 -4.829 6
4.573 -14.19 -4.865 35
4.457 -13.704 -4.912 6
4.334 -13.216 -4.941 6
4.222 -12.757 -4.972 7
4.111 -12.314 -4.997 6
4.004 -11.881 -5.014 7
3.904 -11.483 -5.041 6
3.812 -11.104 -5.067 17
3.718 -10.733 -5.088 7
3.626 -10.365 -5.098 8
3.544 -10.027 -5.12 8
3.46 -9.698 -5.137 13
3.383 -9.383 -5.156 12
10.513 -38.749 -3.833 6
9.056 -33.11 -3.436 29
8.71 -31.568 -3.71 28
8.461 -30.422 -4.023 10
7.952 -28.345 -4.067 6
7.51 -26.556 -4.116 6
7.144 -25.045 -4.181 5
6.818 -23.697 -4.245 6
6.527 -22.503 -4.312 6
6.27 -21.43 -4.379 5
6.018 -20.42 -4.432 27
5.811 -19.534 -4.498 9
5.623 -18.752 -4.576 8
5.429 -17.948 -4.618 7
5.246 -17.203 -4.659 8
5.081 -16.514 -4.701 7
4.923 -15.872 -4.741 44
4.787 -15.298 -4.795 7
4.648 -14.721 -4.827 6
4.521 -14.199 -4.871 38
4.405 -13.71 -4.915 6
4.284 -13.221 -4.944 6
4.17 -12.752 -4.968 7
4.064 -12.318 -5.0 7
3.956 -11.882 -5.014 7
3.857 -11.481 -5.039 6
3.767 -11.106 -5.069 15
3.675 -10.736 -5.09 10
3.585 -10.371 -5.102 8
3.503 -10.032 -5.124 9
3.423 -9.709 -5.147 15
3.341 -9.379 -5.153 13
10.37 -38.69 -3.822 6
8.932 -33.057 -3.426 29
8.605 -31.571 -3.711 27
8.352 -30.398 -4.018 9
7.849 -28.32 -4.061 6
7.418 -26.552 -4.114 6
7.056 -25.04 -4.18 5
6.733 -23.687 -4.242 6
6.443 -22.488 -4.307 6
6.192 -21.427 -4.378 5
5.945 -20.419 -4.432 26
5.74 -19.533 -4.498 9
5.554 -18.747 -4.574 8
5.364 -17.95 -4.619 7
5.185 -17.21 -4.663 7
5.021 -16.521 -4.704 7
4.864 -15.875 -4.743 43
4.728 -15.293 -4.792 6
4.593 -14.724 -4.829 6
4.466 -14.197 -4.87 37
4.352 -13.712 -4.916 6
4.232 -13.219 -4.943 5
4.12 -12.753 -4.969 7
4.015 -12.32 -5.001 7
3.909 -11.882 -5.015 7
3.812 -11.487 -5.043 6
3.723 -11.109 -5.072 13
3.632 -10.739 -5.092 10
3.543 -10.373 -5.104 7
3.462 -10.034 -5.126 10
3.381 -9.708 -5.146 13
3.304 -9.386 -5.159 13
10.233 -38.656 -3.816 6
8.816 -33.034 -3.421 31
8.501 -31.578 -3.712 25
8.246 -30.385 -4.015 9
7.75 -28.31 -4.058 6
7.321 -26.533 -4.11 6
6.968 -25.035 -4.179 5
6.649 -23.681 -4.24 7
6.365 -22.493 -4.308 6
6.116 -21.427 -4.378 5
5.87 -20.415 -4.43 30
5.669 -19.532 -4.498 9
5.485 -18.745 -4.573 8
5.296 -17.944 -4.617 8
5.12 -17.208 -4.661 7
4.959 -16.518 -4.703 7
4.805 -15.874 -4.742 43
4.673 -15.303 -4.797 6
4.538 -14.729 -4.832 6
4.413 -14.203 -4.873 37
4.299 -13.713 -4.917 6
4.18 -13.221 -4.944 6
4.071 -12.757 -4.971 6
3.967 -12.323 -5.003 6
3.863 -11.889 -5.019 6
3.765 -11.484 -5.041 6
3.678 -11.11 -5.072 12
3.589 -10.744 -5.096 7
3.502 -10.379 -5.109 10
3.421 -10.037 -5.128 11
3.342 -9.712 -5.15 13
3.264 -9.388 -5.161 13
10.09 -38.59 -3.804 6
8.705 -33.026 -3.42 29
8.397 -31.585 -3.714 26
8.139 -30.368 -4.011 8
7.653 -28.307 -4.058 6
7.228 -26.525 -4.107 6
6.879 -25.025 -4.176 5
6.565 -23.678 -4.239 7
6.288 -22.497 -4.31 5
6.042 -21.43 -4.379 5
5.799 -20.421 -4.433 32
5.598 -19.526 -4.495 10
5.417 -18.746 -4.574 8
5.231 -17.945 -4.617 7
5.058 -17.212 -4.663 8
4.898 -16.521 -4.704 7
4.746 -15.878 -4.744 42
4.614 -15.3 -4.796 7
4.482 -14.728 -4.831 6
4.358 -14.202 -4.872 36
4.247 -13.715 -4.918 6
4.13 -13.225 -4.946 6
4.022 -12.762 -4.974 7
3.918 -12.324 -5.003 6
3.816 -11.889 -5.019 6
3.721 -11.49 -5.046 6
3.633 -11.112 -5.073 18
3.545 -10.744 -5.096 8
3.459 -10.381 -5.11 9
3.378 -10.035 -5.127 12
3.301 -9.712 -5.149 12
3.226 -9.393 -5.165 14
9.955 -38.559 -3.799 6
8.588 -32.998 -3.414 24
8.296 -31.598 -3.716 18
8.03 -30.343 -4.005 8
7.554 -28.295 -4.055 6
7.138 -26.528 -4.108 6
6.792 -25.024 -4.176 5
6.482 -23.676 -4.238 7
6.207 -22.49 -4.307 6
5.965 -21.425 -4.377 5
5.727 -20.424 -4.434 34
5.528 -19.528 -4.496 10
5.349 -18.745 -4.573 8
5.166 -17.946 -4.618 8
4.996 -17.216 -4.665 7
4.837 -16.521 -4.704 5
4.686 -15.877 -4.744 42
4.557 -15.301 -4.796 6
4.426 -14.73 -4.832 6
4.304 -14.203 -4.873 38
4.191 -13.706 -4.913 6
4.078 -13.223 -4.945 6
3.972 -12.762 -4.975 6
3.869 -12.324 -5.003 6
3.767 -11.887 -5.018 7
3.675 -11.493 -5.048 6
3.588 -11.112 -5.073 10
3.502 -10.747 -5.098 9
3.415 -10.377 -5.107 9
3.338 -10.041 -5.131 12
3.26 -9.713 -5.15 13
3.187 -9.396 -5.168 14
9.82 -38.524 -3.793 6
8.488 -33.032 -3.421 29
8.192 -31.604 -3.718 18
7.925 -30.329 -4.002 7
6.574 -24.941 -3.218 2
6.559 -24.689 -3.615 1
6.707 -25.025 -4.176 5
6.401 -23.68 -4.24 6
6.126 -22.482 -4.305 6
5.889 -21.425 -4.377 6
5.652 -20.415 -4.43 23
5.458 -19.53 -4.497 11
5.282 -18.749 -4.575 8
5.099 -17.942 -4.616 8
4.934 -17.219 -4.667 7
4.775 -16.521 -4.704 8
4.628 -15.88 -4.745 46
4.5 -15.304 -4.798 7
4.372 -14.735 -4.835 6
4.249 -14.201 -4.872 37
4.138 -13.708 -4.914 6
4.028 -13.231 -4.95 6
3.923 -12.766 -4.977 6
3.821 -12.325 -5.004 7
3.721 -11.89 -5.02 7
3.629 -11.493 -5.048 7
3.546 -11.121 -5.08 8
3.458 -10.749 -5.1 9
3.374 -10.382 -5.111 12
3.297 -10.042 -5.132 11
3.221 -9.718 -5.154 10
3.149 -9.401 -5.172 13
9.684 -38.484 -3.786 6
8.391 -33.08 -3.43 24
8.088 -31.609 -3.719 17
7.819 -30.311 -3.998 7
6.408 -24.629 -3.141 5
6.435 -24.536 -3.574 22
6.621 -25.027 -4.176 5
6.315 -23.665 -4.235 7
6.046 -22.478 -4.304 6
5.812 -21.42 -4.376 6
5.58 -20.417 -4.431 29
5.388 -19.528 -4.496 23
5.212 -18.739 -4.571 8
5.035 -17.947 -4.618 8
4.869 -17.216 -4.665 8
4.715 -16.524 -4.705 7
4.569 -15.882 -4.746 44
4.441 -15.3 -4.796 6
4.316 -14.737 -4.836 6
4.196 -14.207 -4.875 35
4.086 -13.709 -4.915 5
3.976 -13.228 -4.948 6
3.871 -12.759 -4.973 6
3.774 -12.331 -5.008 6
3.675 -11.895 -5.023 6
3.585 -11.502 -5.054 6
3.5 -11.12 -5.079 8
3.414 -10.747 -5.099 11
3.334 -10.39 -5.117 12
3.256 -10.047 -5.136 12
3.18 -9.719 -5.155 13
3.108 -9.399 -5.171 14
9.548 -38.44 -3.778 6
8.28 -33.07 -3.428 31
7.99 -31.634 -3.724 15
7.712 -30.293 -3.994 8
0.0 -0.0 3.0 0
6.339 -24.488 -3.561 51
6.53 -25.005 -4.17 5
6.235 -23.673 -4.237 6
5.968 -22.478 -4.303 6
5.735 -21.415 -4.374 6
5.507 -20.415 -4.43 29
5.313 -19.511 -4.49 39
5.145 -18.743 -4.573 8
4.969 -17.943 -4.616 6
4.807 -17.219 -4.667 7
4.654 -16.523 -4.705 8
4.51 -15.882 -4.746 43
4.386 -15.309 -4.8 6
4.262 -14.742 -4.838 6
4.141 -14.204 -4.873 36
4.034 -13.713 -4.917 6
3.926 -13.232 -4.951 6
3.823 -12.767 -4.978 7
3.724 -12.328 -5.006 6
3.63 -11.902 -5.028 6
3.538 -11.498 -5.051 7
3.455 -11.12 -5.079 11
3.371 -10.75 -5.101 10
3.29 -10.389 -5.116 11
3.215 -10.049 -5.137 12
3.14 -9.721 -5.157 13
3.07 -9.403 -5.174 14
9.417 -38.419 -3.774 6
8.167 -33.053 -3.425 32
7.887 -31.641 -3.726 15
6.384 -25.409 -2.866 4
0.0 -0.0 3.0 0
6.25 -24.465 -3.555 49
6.445 -25.01 -4.172 6
6.15 -23.658 -4.233 8
5.888 -22.473 -4.302 6
5.661 -21.418 -4.375 5
5.436 -20.419 -4.432 24
5.245 -19.516 -4.491 37
5.077 -18.741 -4.572 8
4.904 -17.943 -4.616 8
4.742 -17.211 -4.663 7
4.593 -16.522 -4.704 7
4.451 -15.883 -4.747 46
4.327 -15.303 -4.797 6
4.204 -14.733 -4.834 6
4.086 -14.202 -4.872 35
3.983 -13.717 -4.92 6
3.877 -13.239 -4.955 6
3.774 -12.767 -4.978 7
3.677 -12.331 -5.008 5
3.581 -11.898 -5.025 7
3.494 -11.504 -5.055 7
3.412 -11.125 -5.083 11
3.328 -10.751 -5.102 11
3.248 -10.391 -5.118 12
3.175 -10.053 -5.141 11
3.101 -9.725 -5.16 12
3.031 -9.407 -5.178 14
7.954 -32.886 -2.799 9
8.066 -33.081 -3.43 30
7.783 -31.646 -3.727 17
6.184 -24.943 -2.759 0
6.129 -24.508 -3.111 51
6.162 -24.446 -3.55 49
6.359 -25.007 -4.171 5
6.063 -23.639 -4.227 35
5.811 -22.475 -4.303 5
5.584 -21.412 -4.373 6
5.365 -20.425 -4.434 22
5.174 -19.509 -4.489 32
5.011 -18.744 -4.573 8
4.84 -17.947 -4.618 8
4.677 -17.204 -4.66 8
4.533 -16.525 -4.706 8
4.393 -15.885 -4.748 47
4.27 -15.305 -4.798 6
4.149 -14.735 -4.835 6
4.033 -14.206 -4.875 35
3.93 -13.718 -4.92 6
3.825 -13.236 -4.953 6
3.726 -12.773 -4.982 7
3.627 -12.327 -5.006 6
3.537 -11.907 -5.031 6
3.448 -11.507 -5.057 8
3.366 -11.124 -5.082 10
3.286 -10.76 -5.108 11
3.206 -10.392 -5.119 12
3.134 -10.055 -5.142 12
3.06 -9.726 -5.161 13
2.993 -9.411 -5.181 14
7.921 -33.194 -2.853 19
7.956 -33.074 -3.429 23
7.682 -31.658 -3.729 16
6.079 -24.856 -2.738 0
6.047 -24.508 -3.11 60
6.079 -24.446 -3.55 2
6.272 -25.002 -4.169 5
5.98 -23.631 -4.225 38
5.727 -22.452 -4.295 5
5.51 -21.414 -4.373 5
5.293 -20.426 -4.434 20
5.104 -19.51 -4.489 14
4.942 -18.737 -4.57 8
4.775 -17.946 -4.618 8
4.617 -17.214 -4.664 8
4.473 -16.53 -4.708 8
4.333 -15.881 -4.746 46
4.215 -15.31 -4.801 7
4.094 -14.739 -4.837 6
3.979 -14.204 -4.873 37
3.879 -13.721 -4.922 6
3.775 -13.24 -4.955 6
3.675 -12.77 -4.98 7
3.579 -12.331 -5.008 7
3.49 -11.91 -5.034 7
3.402 -11.506 -5.057 10
3.322 -11.126 -5.084 11
3.241 -10.756 -5.105 11
3.165 -10.397 -5.123 12
3.092 -10.056 -5.143 13
3.02 -9.727 -5.162 14
2.953 -9.412 -5.182 14
7.807 -33.168 -2.848 44
7.843 -33.056 -3.425 23
7.577 -31.657 -3.729 17
0.0 -0.0 3.0 0
5.965 -24.511 -3.111 59
6.056 -24.685 -3.614 3
6.055 -24.468 -4.016 3
5.898 -23.631 -4.225 37
5.651 -22.461 -4.298 5
5.435 -21.415 -4.374 5
5.221 -20.423 -4.433 17
5.037 -19.517 -4.492 9
4.874 -18.737 -4.57 8
4.711 -17.949 -4.619 8
4.554 -17.212 -4.663 8
4.412 -16.529 -4.708 8
4.276 -15.889 -4.749 44
4.157 -15.308 -4.8 6
4.037 -14.733 -4.834 6
3.927 -14.211 -4.877 36
3.826 -13.722 -4.922 5
3.722 -13.233 -4.951 6
3.626 -12.773 -4.982 7
3.534 -12.34 -5.014 7
3.445 -11.916 -5.037 9
3.358 -11.511 -5.06 9
3.278 -11.128 -5.085 11
3.2 -10.763 -5.111 10
3.122 -10.398 -5.124 11
3.051 -10.057 -5.144 11
2.981 -9.731 -5.165 14
2.914 -9.413 -5.182 15
7.635 -32.891 -2.8 19
7.737 -33.064 -3.427 19
7.474 -31.661 -3.73 19
5.897 -24.781 -2.721 0
5.885 -24.517 -3.113 58
5.925 -24.489 -3.562 4
5.977 -24.493 -4.023 4
5.819 -23.636 -4.226 36
5.573 -22.459 -4.297 6
5.359 -21.408 -4.372 6
5.149 -20.424 -4.434 15
4.969 -19.521 -4.493 10
4.807 -18.737 -4.57 8
4.645 -17.945 -4.617 7
4.492 -17.215 -4.665 8
4.352 -16.531 -4.709 8
4.218 -15.891 -4.75 40
4.102 -15.316 -4.804 7
3.981 -14.73 -4.832 6
3.871 -14.205 -4.874 36
3.774 -13.722 -4.922 5
3.674 -13.246 -4.959 6
3.576 -12.773 -4.981 7
3.484 -12.336 -5.011 6
3.398 -11.915 -5.037 9
3.312 -11.513 -5.061 9
3.236 -11.139 -5.093 11
3.158 -10.768 -5.114 12
3.079 -10.397 -5.123 12
3.009 -10.055 -5.142 11
2.941 -9.735 -5.168 13
2.874 -9.414 -5.183 14
7.577 -33.102 -2.837 10
7.628 -33.06 -3.426 23
7.369 -31.657 -3.729 16
5.81 -24.761 -2.717 0
5.803 -24.519 -3.113 59
5.842 -24.488 -3.562 4
5.908 -24.552 -4.04 4
5.737 -23.635 -4.226 34
5.495 -22.458 -4.297 6
5.285 -21.414 -4.373 5
5.077 -20.424 -4.434 12
4.898 -19.517 -4.492 10
4.74 -18.736 -4.57 8
4.58 -17.944 -4.617 7
4.428 -17.21 -4.663 8
4.292 -16.533 -4.709 8
4.159 -15.891 -4.751 9
4.044 -15.314 -4.803 7
3.926 -14.731 -4.833 6
3.818 -14.209 -4.876 38
3.722 -13.722 -4.922 5
3.623 -13.246 -4.959 6
3.527 -12.772 -4.981 7
3.437 -12.339 -5.013 8
3.351 -11.917 -5.038 8
3.268 -11.518 -5.065 9
3.191 -11.138 -5.092 11
3.114 -10.769 -5.115 11
3.039 -10.404 -5.128 11
2.969 -10.059 -5.146 12
2.902 -9.739 -5.172 14
2.835 -9.414 -5.184 15
7.463 -33.071 -2.831 35
7.527 -33.087 -3.431 29
7.262 -31.643 -3.726 15
5.724 -24.744 -2.713 1
5.724 -24.53 -3.116 60
5.762 -24.497 -3.564 5
5.835 -24.596 -4.053 2
5.657 -23.637 -4.227 31
5.417 -22.455 -4.296 6
5.21 -21.411 -4.372 6
5.005 -20.421 -4.432 12
4.831 -19.525 -4.495 10
4.675 -18.742 -4.572 8
4.515 -17.942 -4.616 8
4.368 -17.219 -4.666 8
4.231 -16.531 -4.709 8
4.101 -15.893 -4.752 9
3.988 -15.314 -4.803 7
3.871 -14.732 -4.833 6
3.765 -14.209 -4.876 37
3.669 -13.722 -4.922 6
3.573 -13.249 -4.961 7
3.476 -12.768 -4.979 7
3.388 -12.338 -5.012 9
3.306 -11.922 -5.041 10
3.223 -11.52 -5.066 10
3.146 -11.136 -5.091 11
3.071 -10.771 -5.117 12
2.997 -10.405 -5.129 10
2.928 -10.063 -5.149 11
2.861 -9.737 -5.17 12
2.797 -9.417 -5.186 15
7.473 -33.593 -2.923 16
7.422 -33.097 -3.433 32
7.155 -31.631 -3.723 11
5.646 -24.761 -2.716 2
5.642 -24.531 -3.116 63
5.681 -24.507 -3.567 5
5.735 -24.523 -4.032 6
5.577 -23.643 -4.228 27
5.339 -22.453 -4.295 6
5.137 -21.415 -4.374 6
4.933 -20.42 -4.432 10
4.762 -19.524 -4.494 9
4.607 -18.738 -4.57 8
4.451 -17.945 -4.617 8
4.304 -17.214 -4.664 8
4.173 -16.539 -4.712 7
4.044 -15.898 -4.754 9
3.931 -15.315 -4.803 6
3.815 -14.729 -4.831 6
3.711 -14.209 -4.876 38
3.619 -13.729 -4.926 6
3.523 -13.252 -4.963 7
3.426 -12.764 -4.976 7
3.342 -12.343 -5.016 8
3.259 -11.921 -5.041 9
3.178 -11.525 -5.07 10
3.104 -11.144 -5.097 11
3.029 -10.775 -5.12 11
2.956 -10.409 -5.133 12
2.887 -10.064 -5.15 11
2.821 -9.74 -5.173 13
2.758 -9.421 -5.189 14
7.366 -33.599 -2.924 5
7.314 -33.096 -3.433 29
7.048 -31.614 -3.72 11
5.564 -24.763 -2.717 1
5.563 -24.54 -3.119 62
5.603 -24.524 -3.571 3
5.656 -24.54 -4.037 3
5.497 -23.644 -4.229 23
5.261 -22.449 -4.294 6
5.062 -21.415 -4.374 6
4.859 -20.409 -4.428 9
4.692 -19.519 -4.493 10
4.541 -18.74 -4.572 8
4.386 -17.943 -4.616 8
4.243 -17.219 -4.666 8
4.113 -16.54 -4.713 7
3.985 -15.895 -4.753 9
3.873 -15.312 -4.802 6
3.761 -14.732 -4.833 6
3.658 -14.212 -4.878 39
3.568 -13.731 -4.928 6
3.472 -13.251 -4.962 7
3.377 -12.766 -4.977 8
3.293 -12.342 -5.015 10
3.211 -11.92 -5.04 10
3.132 -11.52 -5.066 10
3.059 -11.142 -5.095 11
2.986 -10.776 -5.121 12
2.914 -10.41 -5.133 11
2.848 -10.071 -5.155 11
2.781 -9.741 -5.173 13
2.719 -9.421 -5.19 16
8.237 -38.133 -3.724 7
7.206 -33.095 -3.433 28
6.94 -31.593 -3.715 13
5.486 -24.779 -2.721 1
5.483 -24.549 -3.121 59
5.546 -24.635 -3.601 2
5.572 -24.538 -4.036 6
5.418 -23.649 -4.23 20
5.183 -22.446 -4.293 5
4.987 -21.411 -4.373 6
4.789 -20.416 -4.431 9
4.624 -19.522 -4.494 9
4.474 -18.739 -4.571 8
4.323 -17.948 -4.619 8
4.182 -17.22 -4.667 8
4.052 -16.538 -4.712 7
3.927 -15.899 -4.754 9
3.819 -15.319 -4.805 7
3.707 -14.736 -4.835 6
3.605 -14.211 -4.877 38
3.517 -13.737 -4.931 6
3.422 -13.253 -4.963 7
3.329 -12.772 -4.981 9
3.246 -12.344 -5.016 8
3.166 -11.925 -5.043 10
3.089 -11.531 -5.074 11
3.015 -11.146 -5.098 11
2.942 -10.774 -5.119 12
2.871 -10.411 -5.134 11
2.806 -10.068 -5.153 12
2.743 -9.747 -5.179 14
2.68 -9.424 -5.192 15
8.109 -38.104 -3.719 7
7.094 -33.074 -3.429 28
6.838 -31.599 -3.716 15
5.402 -24.768 -2.718 1
5.403 -24.558 -3.123 61
5.438 -24.52 -3.57 2
5.582 -24.953 -4.155 5
5.337 -23.65 -4.231 17
5.105 -22.443 -4.292 5
4.914 -21.415 -4.374 5
4.717 -20.412 -4.429 9
4.554 -19.517 -4.492 10
4.407 -18.737 -4.57 8
4.259 -17.947 -4.618 7
4.119 -17.218 -4.666 7
3.991 -16.536 -4.711 7
3.869 -15.9 -4.755 9
3.76 -15.312 -4.802 7
3.651 -14.732 -4.833 6
3.552 -14.215 -4.879 36
3.465 -13.737 -4.931 7
3.373 -13.259 -4.967 8
3.281 -12.777 -4.984 9
3.199 -12.349 -5.019 9
3.12 -11.929 -5.047 10
3.043 -11.53 -5.073 10
2.973 -11.154 -5.104 11
2.899 -10.778 -5.122 11
2.831 -10.418 -5.139 12
2.766 -10.072 -5.156 12
2.702 -9.748 -5.179 14
2.643 -9.433 -5.2 20
7.978 -38.062 -3.711 6
6.986 -33.068 -3.428 28
6.739 -31.619 -3.721 13
5.324 -24.785 -2.722 3
5.324 -24.566 -3.125 59
5.358 -24.532 -3.573 58
5.503 -24.977 -4.162 5
5.258 -23.655 -4.232 15
5.026 -22.436 -4.29 6
4.837 -21.4 -4.368 6
4.646 -20.411 -4.429 9
4.485 -19.516 -4.491 10
4.341 -18.736 -4.57 8
4.194 -17.944 -4.617 8
4.057 -17.219 -4.666 7
3.931 -16.532 -4.709 7
3.812 -15.903 -4.756 9
3.705 -15.315 -4.804 6
3.598 -14.739 -4.837 6
3.497 -14.207 -4.875 40
3.414 -13.74 -4.933 7
3.322 -13.258 -4.966 8
3.233 -12.78 -4.986 9
3.152 -12.351 -5.021 9
3.074 -11.931 -5.048 10
2.998 -11.531 -5.074 10
2.929 -11.155 -5.104 11
2.856 -10.779 -5.123 10
2.789 -10.418 -5.14 11
2.726 -10.078 -5.161 10
2.663 -9.75 -5.181 14
2.604 -9.434 -5.2 22
7.855 -38.059 -3.711 7
6.872 -33.032 -3.421 21
6.639 -31.635 -3.724 15
5.248 -24.809 -2.728 4
5.244 -24.574 -3.127 60
5.279 -24.544 -3.577 58
5.417 -24.967 -4.159 5
5.176 -23.648 -4.23 13
4.95 -22.44 -4.291 5
4.763 -21.399 -4.368 5
4.577 -20.421 -4.433 9
4.416 -19.514 -4.491 10
4.275 -18.737 -4.57 8
4.131 -17.949 -4.619 8
3.996 -17.219 -4.667 8
3.873 -16.544 -4.714 7
3.754 -15.903 -4.756 8
3.65 -15.323 -4.807 7
3.544 -14.742 -4.838 7
3.445 -14.21 -4.877 40
3.361 -13.739 -4.932 7
3.272 -13.26 -4.967 7
3.184 -12.781 -4.987 9
3.104 -12.353 -5.022 9
3.026 -11.926 -5.044 10
2.952 -11.532 -5.074 10
2.884 -11.153 -5.103 12
2.815 -10.786 -5.128 12
2.748 -10.422 -5.143 9
2.686 -10.082 -5.164 11
2.623 -9.751 -5.182 13
2.563 -9.428 -5.195 25
7.724 -38.016 -3.703 7
6.759 -33.002 -3.415 12
6.541 -31.659 -3.729 13
5.17 -24.828 -2.732 4
5.165 -24.586 -3.13 60
5.2 -24.559 -3.581 58
5.332 -24.964 -4.158 5
5.095 -23.644 -4.229 10
4.872 -22.432 -4.289 5
4.689 -21.402 -4.369 5
4.504 -20.412 -4.429 11
4.347 -19.509 -4.489 11
4.207 -18.732 -4.568 8
4.067 -17.947 -4.618 8
3.934 -17.22 -4.667 8
3.813 -16.54 -4.713 7
3.695 -15.899 -4.755 7
3.593 -15.319 -4.805 7
3.487 -14.735 -4.834 8
3.391 -14.209 -4.876 40
3.309 -13.737 -4.931 8
3.222 -13.262 -4.969 8
3.135 -12.779 -4.985 9
3.057 -12.357 -5.025 8
2.982 -11.936 -5.051 10
2.908 -11.536 -5.078 10
2.84 -11.153 -5.103 11
2.771 -10.784 -5.126 12
2.706 -10.423 -5.143 12
2.645 -10.082 -5.165 13
2.583 -9.754 -5.185 13
2.525 -9.43 -5.198 27
7.601 -38.009 -3.702 6
6.652 -32.999 -3.414 13
6.434 -31.639 -3.725 14
5.089 -24.828 -2.732 5
5.085 -24.59 -3.131 61
5.121 -24.571 -3.584 59
5.247 -24.957 -4.156 5
5.014 -23.64 -4.228 8
4.795 -22.431 -4.288 4
4.612 -21.386 -4.364 6
4.431 -20.399 -4.425 29
4.28 -19.514 -4.491 10
4.142 -18.736 -4.57 8
4.002 -17.944 -4.617 8
3.872 -17.22 -4.667 7
3.751 -16.533 -4.709 7
3.639 -15.907 -4.758 8
3.537 -15.322 -4.807 7
3.433 -14.737 -4.836 7
3.339 -14.211 -4.877 40
3.258 -13.739 -4.932 7
3.173 -13.268 -4.972 8
3.087 -12.784 -4.989 8
3.009 -12.355 -5.023 9
2.936 -11.938 -5.052 10
2.862 -11.534 -5.076 10
2.797 -11.16 -5.109 10
2.73 -10.793 -5.133 11
2.664 -10.425 -5.145 10
2.603 -10.079 -5.162 12
2.542 -9.75 -5.182 14
2.487 -9.436 -5.203 32
7.472 -37.969 -3.695 7
6.543 -32.987 -3.412 10
6.331 -31.639 -3.725 13
5.012 -24.85 -2.737 5
5.006 -24.601 -3.134 61
5.041 -24.583 -3.587 59
5.163 -24.958 -4.156 5
4.931 -23.626 -4.223 7
4.72 -22.438 -4.291 4
4.539 -21.389 -4.365 6
4.359 -20.394 -4.423 28
4.21 -19.508 -4.488 10
4.076 -18.734 -4.569 9
3.938 -17.941 -4.615 10
3.811 -17.221 -4.667 6
3.693 -16.54 -4.713 7
3.582 -15.91 -4.76 7
3.479 -15.315 -4.803 8
3.379 -14.736 -4.835 8
3.285 -14.21 -4.877 40
3.207 -13.741 -4.933 7
3.121 -13.259 -4.967 7
3.038 -12.786 -4.99 8
2.964 -12.366 -5.031 8
2.891 -11.942 -5.055 9
2.819 -11.544 -5.083 10
2.753 -11.161 -5.109 11
2.686 -10.79 -5.131 10
2.622 -10.423 -5.143 12
2.563 -10.086 -5.167 12
2.504 -9.756 -5.187 13
2.447 -9.433 -5.2 33
7.35 -37.964 -3.694 6
6.436 -32.984 -3.411 9
6.232 -31.658 -3.729 10
4.932 -24.854 -2.738 4
4.927 -24.612 -3.137 61
4.962 -24.593 -3.59 60
5.08 -24.958 -4.157 5
4.851 -23.624 -4.223 7
4.643 -22.433 -4.289 4
4.465 -21.384 -4.363 6
4.289 -20.399 -4.425 35
4.145 -19.52 -4.493 9
4.01 -18.734 -4.569 9
3.873 -17.934 -4.612 16
3.749 -17.221 -4.667 5
3.633 -16.536 -4.711 7
3.524 -15.909 -4.76 9
3.425 -15.323 -4.808 8
3.324 -14.734 -4.834 8
3.233 -14.212 -4.878 39
3.156 -13.746 -4.936 8
3.072 -13.267 -4.972 7
2.989 -12.784 -4.988 8
2.915 -12.36 -5.027 10
2.845 -11.946 -5.058 10
2.773 -11.538 -5.079 10
2.709 -11.162 -5.109 10
2.644 -10.794 -5.134 11
2.581 -10.429 -5.148 12
2.522 -10.085 -5.167 11
2.465 -9.762 -5.191 13
2.409 -9.438 -5.205 37
7.22 -37.916 -3.686 7
6.328 -32.972 -3.409 10
6.131 -31.666 -3.731 11
4.844 -24.822 -2.731 1
4.847 -24.62 -3.138 61
4.882 -24.604 -3.593 59
4.995 -24.95 -4.154 5
4.77 -23.616 -4.22 7
4.565 -22.424 -4.286 5
4.393 -21.389 -4.365 6
4.217 -20.389 -4.421 22
4.075 -19.511 -4.489 10
3.944 -18.735 -4.57 8
3.81 -17.938 -4.614 29
3.688 -17.225 -4.669 5
3.574 -16.539 -4.712 7
3.465 -15.905 -4.757 9
3.369 -15.326 -4.809 8
3.27 -14.737 -4.836 8
3.18 -14.214 -4.879 41
3.105 -13.748 -4.937 8
3.023 -13.269 -4.973 7
2.941 -12.788 -4.991 9
2.868 -12.362 -5.028 10
2.797 -11.941 -5.054 9
2.729 -11.545 -5.084 10
2.665 -11.162 -5.11 10
2.602 -10.797 -5.136 11
2.538 -10.426 -5.146 12
2.481 -10.085 -5.167 12
2.426 -9.765 -5.194 14
2.371 -9.441 -5.207 35
7.096 -37.899 -3.683 7
6.222 -32.971 -3.409 10
6.031 -31.676 -3.733 13
0.0 -0.0 3.0 0
4.769 -24.634 -3.142 60
4.803 -24.615 -3.595 60
4.912 -24.954 -4.155 5
4.691 -23.619 -4.221 6
4.488 -22.422 -4.285 5
4.318 -21.383 -4.363 6
4.149 -20.402 -4.426 10
4.007 -19.512 -4.49 10
3.879 -18.739 -4.571 8
3.747 -17.938 -4.614 38
3.628 -17.228 -4.67 5
3.516 -16.546 -4.716 7
3.408 -15.911 -4.76 10
3.313 -15.325 -4.809 8
3.217 -14.742 -4.839 8
3.128 -14.216 -4.88 33
3.054 -13.75 -4.938 8
2.973 -13.273 -4.975 8
2.892 -12.786 -4.99 9
2.822 -12.369 -5.033 9
2.753 -11.948 -5.059 10
2.685 -11.549 -5.087 10
2.622 -11.165 -5.112 11
2.558 -10.794 -5.134 11
2.498 -10.432 -5.151 10
2.442 -10.091 -5.171 12
2.387 -9.768 -5.196 13
2.332 -9.444 -5.209 39
6.973 -37.885 -3.68 7
6.116 -32.967 -3.408 9
4.868 -26.009 -2.528 0
0.0 -0.0 3.0 0
4.688 -24.636 -3.143 62
4.723 -24.625 -3.598 60
4.83 -24.961 -4.157 5
4.609 -23.611 -4.219 6
4.411 -22.417 -4.284 5
4.245 -21.385 -4.363 5
4.078 -20.399 -4.425 9
3.939 -19.512 -4.49 10
3.814 -18.74 -4.571 9
3.684 -17.942 -4.616 43
3.566 -17.228 -4.67 7
3.457 -16.549 -4.717 7
3.351 -15.91 -4.76 9
3.257 -15.323 -4.808 8
3.163 -14.744 -4.84 8
3.076 -14.221 -4.883 38
3.004 -13.755 -4.941 7
2.923 -13.271 -4.974 8
2.845 -12.794 -4.995 9
2.775 -12.37 -5.033 10
2.706 -11.948 -5.059 10
2.639 -11.546 -5.084 10
2.578 -11.166 -5.112 10
2.516 -10.797 -5.136 10
2.457 -10.438 -5.155 12
2.401 -10.094 -5.174 13
2.346 -9.767 -5.195 15
2.294 -9.445 -5.211 39
6.85 -37.87 -3.678 7
6.012 -32.977 -3.41 8
4.783 -26.004 -2.527 1
0.0 -0.0 3.0 0
4.609 -24.643 -3.144 62
4.643 -24.631 -3.6 58
4.747 -24.96 -4.157 5
4.53 -23.61 -4.218 6
4.333 -22.408 -4.281 5
4.172 -21.386 -4.364 6
4.008 -20.4 -4.425 9
3.873 -19.52 -4.493 10
3.747 -18.736 -4.57 8
3.62 -17.937 -4.614 49
3.505 -17.227 -4.67 7
3.396 -16.545 -4.715 7
3.294 -15.916 -4.763 9
3.201 -15.326 -4.809 8
3.108 -14.74 -4.837 8
3.023 -14.219 -4.882 40
2.952 -13.753 -4.94 8
2.874 -13.279 -4.979 8
2.796 -12.795 -4.995 9
2.728 -12.373 -5.035 9
2.661 -11.952 -5.062 10
2.595 -11.553 -5.089 9
2.535 -11.172 -5.117 11
2.473 -10.797 -5.136 11
2.415 -10.438 -5.155 10
2.361 -10.096 -5.175 11
2.308 -9.776 -5.203 14
2.256 -9.451 -5.215 36
6.725 -37.848 -3.674 7
5.907 -32.979 -3.41 8
4.699 -26.007 -2.528 2
0.0 -0.0 3.0 0
4.53 -24.656 -3.147 63
4.563 -24.638 -3.602 60
4.662 -24.951 -4.155 5
4.451 -23.615 -4.22 6
4.26 -22.424 -4.286 4
4.099 -21.384 -4.363 5
3.937 -20.397 -4.424 9
3.804 -19.516 -4.492 10
3.682 -18.74 -4.571 8
3.558 -17.945 -4.617 59
3.443 -17.226 -4.669 8
3.338 -16.546 -4.716 8
3.236 -15.911 -4.76 9
3.145 -15.324 -4.808 8
3.054 -14.744 -4.84 8
2.971 -14.224 -4.884 40
2.9 -13.754 -4.941 8
2.824 -13.276 -4.977 7
2.749 -12.799 -4.998 8
2.681 -12.374 -5.036 9
2.615 -11.952 -5.062 10
2.55 -11.549 -5.087 10
2.491 -11.169 -5.114 10
2.431 -10.803 -5.141 11
2.374 -10.44 -5.157 12
2.322 -10.102 -5.18 11
2.267 -9.769 -5.197 13
2.217 -9.45 -5.215 39
6.599 -37.813 -3.668 7
5.802 -32.985 -3.412 8
4.617 -26.017 -2.53 2
0.0 -0.0 3.0 0
4.451 -24.666 -3.15 60
4.484 -24.651 -3.605 58
4.579 -24.954 -4.155 5
4.371 -23.609 -4.218 6
4.182 -22.411 -4.282 4
4.026 -21.385 -4.363 6
3.867 -20.397 -4.424 9
3.737 -19.516 -4.492 10
3.618 -18.746 -4.574 8
3.495 -17.944 -4.617 52
3.383 -17.229 -4.671 8
3.279 -16.549 -4.717 7
3.179 -15.913 -4.761 9
3.091 -15.33 -4.811 8
3.0 -14.742 -4.839 8
2.92 -14.228 -4.887 41
2.85 -13.758 -4.943 7
2.775 -13.284 -4.982 7
2.699 -12.795 -4.995 9
2.633 -12.375 -5.036 9
2.569 -11.956 -5.064 10
2.506 -11.556 -5.092 9
2.448 -11.175 -5.119 11
2.388 -10.8 -5.138 11
2.333 -10.443 -5.159 11
2.281 -10.101 -5.179 11
2.228 -9.774 -5.201 11
2.179 -9.455 -5.219 39
6.475 -37.786 -3.663 8
5.695 -32.976 -3.41 9
5.529 -31.727 -3.744 14
0.0 -0.0 3.0 0
4.372 -24.672 -3.151 60
4.404 -24.661 -3.608 59
4.495 -24.945 -4.153 5
4.292 -23.611 -4.219 6
4.107 -22.416 -4.283 4
3.954 -21.388 -4.365 6
3.798 -20.405 -4.427 9
3.668 -19.509 -4.489 9
3.552 -18.743 -4.573 8
3.432 -17.946 -4.618 44
3.321 -17.228 -4.67 7
3.22 -16.551 -4.718 7
3.122 -15.915 -4.762 9
3.035 -15.331 -4.812 8
2.947 -14.747 -4.841 8
2.867 -14.226 -4.885 38
2.798 -13.755 -4.942 8
2.725 -13.281 -4.98 8
2.651 -12.796 -4.996 8
2.587 -12.378 -5.038 10
2.523 -11.956 -5.064 9
2.461 -11.556 -5.091 11
2.404 -11.175 -5.119 12
2.346 -10.803 -5.14 12
2.292 -10.445 -5.161 11
2.24 -10.103 -5.182 12
2.188 -9.773 -5.2 12
2.14 -9.454 -5.218 39
6.35 -37.751 -3.657 10
5.586 -32.953 -3.405 9
5.429 -31.74 -3.747 13
4.288 -24.873 -2.742 0
4.293 -24.684 -3.154 60
4.325 -24.67 -3.61 57
4.413 -24.954 -4.156 5
4.212 -23.605 -4.217 6
4.031 -22.412 -4.282 5
3.88 -21.381 -4.362 5
3.728 -20.405 -4.427 9
3.602 -19.516 -4.491 9
3.487 -18.742 -4.572 8
3.367 -17.938 -4.614 44
3.26 -17.226 -4.669 8
3.161 -16.549 -4.717 7
3.065 -15.92 -4.765 10
2.98 -15.332 -4.812 8
2.893 -14.748 -4.842 8
2.814 -14.227 -4.886 41
2.749 -13.763 -4.946 8
2.676 -13.285 -4.982 7
2.604 -12.803 -5.0 8
2.54 -12.378 -5.038 10
2.478 -11.959 -5.066 10
2.417 -11.559 -5.094 10
2.361 -11.18 -5.123 12
2.303 -10.805 -5.142 12
2.251 -10.448 -5.163 11
2.2 -10.106 -5.183 11
2.15 -9.778 -5.205 14
2.102 -9.458 -5.222 37
6.226 -37.723 -3.652 16
5.483 -32.962 -3.407 11
5.329 -31.752 -3.749 17
4.21 -24.889 -2.746 2
4.214 -24.694 -3.157 61
4.246 -24.683 -3.614 57
4.33 -24.952 -4.155 5
4.133 -23.602 -4.216 6
3.955 -22.413 -4.282 4
3.808 -21.385 -4.363 6
3.658 -20.401 -4.425 9
3.533 -19.507 -4.488 9
3.422 -18.744 -4.573 8
3.305 -17.941 -4.615 42
3.199 -17.229 -4.671 7
3.103 -16.555 -4.72 6
3.008 -15.918 -4.764 9
2.924 -15.334 -4.813 8
2.839 -14.749 -4.842 8
2.762 -14.227 -4.886 40
2.697 -13.763 -4.946 8
2.626 -13.286 -4.983 7
2.556 -12.806 -5.002 9
2.492 -12.378 -5.038 9
2.432 -11.959 -5.066 10
2.372 -11.559 -5.093 10
2.317 -11.18 -5.123 12
2.262 -10.81 -5.146 8
2.209 -10.447 -5.162 11
2.16 -10.108 -5.185 11
2.11 -9.78 -5.207 12
2.064 -9.46 -5.224 37
6.103 -37.703 -3.648 16
5.38 -32.975 -3.41 10
5.228 -31.76 -3.751 17
4.129 -24.886 -2.745 2
4.135 -24.702 -3.159 61
4.167 -24.696 -3.617 57
4.247 -24.95 -4.154 5
4.053 -23.599 -4.215 6
3.88 -22.413 -4.282 4
3.735 -21.381 -4.362 6
3.588 -20.401 -4.425 9
3.467 -19.514 -4.491 9
3.355 -18.736 -4.57 8
3.242 -17.943 -4.616 37
3.137 -17.219 -4.667 8
3.043 -16.553 -4.719 7
2.951 -15.919 -4.764 10
2.869 -15.335 -4.814 8
2.786 -14.754 -4.845 8
2.71 -14.228 -4.887 41
2.646 -13.764 -4.947 8
2.578 -13.292 -4.987 7
2.507 -12.804 -5.001 8
2.446 -12.381 -5.04 9
2.386 -11.958 -5.066 10
2.327 -11.561 -5.095 10
2.274 -11.182 -5.124 11
2.22 -10.813 -5.148 11
2.168 -10.452 -5.166 11
2.119 -10.107 -5.184 11
2.072 -9.785 -5.21 14
2.025 -9.462 -5.225 38
5.982 -37.69 -3.646 20
5.276 -32.979 -3.41 9
5.126 -31.761 -3.751 17
4.049 -24.891 -2.746 0
4.057 -24.718 -3.163 61
4.086 -24.7 -3.618 56
4.165 -24.954 -4.156 5
3.975 -23.603 -4.216 6
3.806 -22.42 -4.285 4
3.662 -21.381 -4.362 6
3.519 -20.407 -4.428 9
3.399 -19.509 -4.489 9
3.29 -18.738 -4.571 8
3.18 -17.948 -4.619 36
3.078 -17.228 -4.671 8
2.984 -16.551 -4.718 7
2.894 -15.924 -4.767 9
2.814 -15.336 -4.814 8
2.734 -14.761 -4.848 9
2.658 -14.232 -4.889 39
2.596 -13.767 -4.949 8
2.527 -13.289 -4.985 7
2.459 -12.803 -5.0 8
2.399 -12.381 -5.04 10
2.34 -11.961 -5.068 10
2.282 -11.561 -5.095 10
2.231 -11.184 -5.126 12
2.177 -10.815 -5.15 11
2.126 -10.451 -5.165 13
2.079 -10.111 -5.188 11
2.032 -9.783 -5.209 12
1.986 -9.461 -5.224 38
5.864 -37.692 -3.646 20
5.172 -32.983 -3.411 10
5.026 -31.768 -3.752 17
0.0 -0.0 3.0 0
3.979 -24.731 -3.166 61
4.008 -24.716 -3.623 56
4.082 -24.948 -4.154 5
3.895 -23.592 -4.213 6
3.729 -22.414 -4.283 3
3.589 -21.377 -4.361 5
3.448 -20.399 -4.424 9
3.332 -19.516 -4.491 9
3.224 -18.733 -4.569 8
3.116 -17.939 -4.615 36
3.018 -17.237 -4.674 8
2.925 -16.548 -4.717 7
2.836 -15.918 -4.764 9
2.759 -15.34 -4.816 8
2.679 -14.758 -4.847 9
2.606 -14.232 -4.889 40
2.546 -13.771 -4.951 8
2.479 -13.299 -4.991 4
2.41 -12.802 -5.0 7
2.352 -12.383 -5.042 10
2.297 -11.973 -5.076 10
2.239 -11.566 -5.099 10
2.188 -11.187 -5.128 11
2.135 -10.814 -5.149 11
2.086 -10.456 -5.169 12
2.04 -10.116 -5.192 12
1.993 -9.788 -5.213 13
1.949 -9.465 -5.228 38
5.742 -37.67 -3.642 21
5.07 -33.006 -3.416 10
4.925 -31.775 -3.754 18
0.0 -0.0 3.0 0
3.899 -24.734 -3.167 62
3.927 -24.72 -3.624 56
4.0 -24.956 -4.156 5
3.816 -23.593 -4.213 6
3.654 -22.413 -4.283 4
3.515 -21.366 -4.357 5
3.379 -20.401 -4.425 9
3.266 -19.518 -4.492 12
3.16 -18.739 -4.571 8
3.054 -17.944 -4.617 30
2.957 -17.231 -4.672 7
2.866 -16.549 -4.717 8
2.78 -15.922 -4.766 9
2.703 -15.337 -4.814 8
2.626 -14.762 -4.849 9
2.554 -14.236 -4.891 39
2.495 -13.772 -4.951 8
2.431 -13.306 -4.995 6
2.363 -12.806 -5.002 9
2.305 -12.386 -5.044 10
2.249 -11.963 -5.069 10
2.193 -11.562 -5.096 10
2.144 -11.189 -5.129 11
2.093 -10.819 -5.153 11
2.044 -10.455 -5.168 11
1.999 -10.118 -5.193 12
1.952 -9.784 -5.209 13
1.909 -9.463 -5.226 39
5.62 -37.653 -3.639 23
4.965 -33.002 -3.415 11
4.824 -31.778 -3.755 18
0.0 -0.0 3.0 0
3.821 -24.75 -3.171 61
3.848 -24.732 -3.627 57
3.917 -24.948 -4.154 6
3.736 -23.585 -4.211 6
3.578 -22.408 -4.281 3
3.444 -21.375 -4.36 6
3.308 -20.397 -4.424 9
3.197 -19.509 -4.489 28
3.095 -18.737 -4.57 8
2.99 -17.935 -4.613 21
2.896 -17.232 -4.672 7
2.808 -16.554 -4.719 7
2.723 -15.923 -4.766 9
2.648 -15.341 -4.817 7
2.573 -14.762 -4.849 9
2.502 -14.236 -4.891 39
2.444 -13.771 -4.95 8
2.379 -13.295 -4.989 7
2.315 -12.808 -5.003 8
2.259 -12.389 -5.046 9
2.204 -11.969 -5.073 10
2.15 -11.571 -5.102 10
2.101 -11.188 -5.128 11
2.052 -10.827 -5.159 11
2.003 -10.46 -5.172 11
1.959 -10.12 -5.195 12
1.914 -9.791 -5.216 14
1.872 -9.468 -5.23 38
5.5 -37.641 -3.637 22
4.861 -33.008 -3.416 14
4.725 -31.793 -3.758 15
0.0 -0.0 3.0 0
3.742 -24.761 -3.174 62
3.77 -24.747 -3.631 56
3.834 -24.945 -4.153 5
3.657 -23.577 -4.208 6
3.502 -22.401 -4.278 3
3.372 -21.374 -4.36 5
3.24 -20.402 -4.426 9
3.129 -19.5 -4.485 40
3.03 -18.735 -4.569 8
2.928 -17.94 -4.615 12
2.834 -17.226 -4.669 8
2.75 -16.558 -4.721 7
2.667 -15.927 -4.768 10
2.593 -15.338 -4.815 8
2.519 -14.762 -4.849 9
2.45 -14.236 -4.891 38
2.393 -13.771 -4.95 8
2.33 -13.298 -4.99 7
2.268 -12.815 -5.008 8
2.212 -12.391 -5.047 10
2.159 -11.971 -5.075 10
2.106 -11.572 -5.103 10
2.057 -11.19 -5.13 12
2.008 -10.823 -5.156 11
1.962 -10.461 -5.173 11
1.919 -10.124 -5.199 9
1.875 -9.792 -5.217 14
1.833 -9.469 -5.231 38
5.378 -37.614 -3.632 19
4.656 -32.308 -3.28 4
4.624 -31.795 -3.758 15
0.0 -0.0 3.0 0
3.664 -24.772 -3.176 62
3.689 -24.75 -3.632 55
3.754 -24.96 -4.157 5
3.579 -23.584 -4.21 6
3.427 -22.403 -4.279 4
3.299 -21.373 -4.359 5
3.169 -20.393 -4.422 9
3.062 -19.502 -4.486 36
2.966 -18.74 -4.571 8
2.867 -17.948 -4.619 9
2.775 -17.234 -4.673 7
2.69 -16.552 -4.718 7
2.61 -15.927 -4.768 10
2.538 -15.341 -4.817 7
2.465 -14.762 -4.849 9
2.398 -14.236 -4.891 40
2.342 -13.771 -4.95 8
2.281 -13.297 -4.99 8
2.22 -12.818 -5.009 8
2.165 -12.39 -5.046 9
2.112 -11.967 -5.072 9
2.061 -11.572 -5.102 10
2.015 -11.195 -5.134 11
1.967 -10.828 -5.159 11
1.921 -10.463 -5.174 11
1.879 -10.122 -5.197 12
1.836 -9.797 -5.221 12
1.795 -9.47 -5.232 33
5.259 -37.607 -3.631 24
4.645 -32.959 -3.407 22
4.523 -31.8 -3.759 18
0.0 -0.0 3.0 0
3.586 -24.791 -3.181 58
3.609 -24.754 -3.633 56
3.67 -24.945 -4.153 5
3.501 -23.583 -4.21 5
3.352 -22.402 -4.279 4
3.226 -21.368 -4.358 6
3.101 -20.398 -4.424 9
2.994 -19.496 -4.484 24
2.901 -18.738 -4.571 8
2.805 -17.953 -4.62 7
2.715 -17.235 -4.673 7
2.632 -16.556 -4.72 8
2.554 -15.931 -4.77 9
2.482 -15.338 -4.815 7
2.412 -14.765 -4.851 9
2.347 -14.245 -4.896 39
2.291 -13.77 -4.95 8
2.232 -13.304 -4.994 7
2.171 -12.813 -5.007 7
2.119 -12.393 -5.048 9
2.067 -11.972 -5.075 10
2.017 -11.574 -5.104 10
1.972 -11.197 -5.135 11
1.924 -10.823 -5.156 11
1.88 -10.467 -5.178 10
1.839 -10.127 -5.201 11
1.797 -9.801 -5.224 15
1.756 -9.472 -5.233 32
5.14 -37.596 -3.629 23
4.533 -32.899 -3.395 34
4.423 -31.81 -3.761 16
0.0 -0.0 3.0 0
3.507 -24.797 -3.183 62
3.529 -24.764 -3.636 5
3.587 -24.944 -4.153 5
3.424 -23.59 -4.212 6
3.275 -22.389 -4.275 4
3.153 -21.358 -4.354 6
3.032 -20.4 -4.425 9
2.93 -19.512 -4.49 10
2.836 -18.735 -4.569 8
2.744 -17.961 -4.624 7
2.655 -17.239 -4.675 7
2.574 -16.556 -4.72 7
2.496 -15.927 -4.768 9
2.428 -15.345 -4.818 8
2.358 -14.761 -4.849 9
2.294 -14.242 -4.894 38
2.242 -13.779 -4.955 8
2.183 -13.306 -4.995 8
2.124 -12.816 -5.008 8
2.071 -12.389 -5.045 9
2.023 -11.977 -5.079 10
1.973 -11.575 -5.105 11
1.928 -11.199 -5.136 11
1.882 -10.828 -5.159 11
1.838 -10.462 -5.174 11
1.799 -10.128 -5.202 11
1.758 -9.802 -5.225 13
1.718 -9.475 -5.237 38
5.02 -37.583 -3.627 24
4.433 -32.932 -3.401 29
4.322 -31.815 -3.762 16
0.0 -0.0 3.0 0
3.428 -24.808 -3.185 63
3.48 -24.99 -3.696 1
3.505 -24.943 -4.152 5
3.345 -23.589 -4.212 6
3.202 -22.399 -4.278 4
3.082 -21.368 -4.358 5
2.962 -20.398 -4.424 9
2.863 -19.513 -4.49 9
2.772 -18.74 -4.571 8
2.681 -17.958 -4.623 7
2.594 -17.236 -4.674 7
2.515 -16.556 -4.72 7
2.439 -15.924 -4.767 9
2.373 -15.345 -4.818 8
2.305 -14.764 -4.85 8
2.242 -14.237 -4.892 38
2.19 -13.775 -4.953 8
2.134 -13.308 -4.996 8
2.077 -12.821 -5.011 8
2.026 -12.397 -5.051 9
1.977 -11.976 -5.078 10
1.928 -11.574 -5.104 13
1.885 -11.2 -5.137 10
1.84 -10.833 -5.163 11
1.797 -10.467 -5.178 12
1.758 -10.126 -5.2 11
1.719 -9.803 -5.226 13
1.681 -9.482 -5.242 14
4.902 -37.578 -3.626 24
4.331 -32.941 -3.403 27
4.222 -31.82 -3.764 15
3.487 -26.08 -3.021 0
3.349 -24.818 -3.188 63
3.371 -24.785 -3.641 2
3.422 -24.934 -4.15 4
3.267 -23.587 -4.211 6
3.127 -22.401 -4.278 5
3.009 -21.358 -4.354 6
2.893 -20.399 -4.425 9
2.797 -19.514 -4.491 9
2.707 -18.736 -4.57 8
2.618 -17.951 -4.62 5
2.534 -17.239 -4.675 7
2.457 -16.556 -4.72 8
2.383 -15.927 -4.768 9
2.318 -15.344 -4.818 8
2.252 -14.768 -4.852 8
2.19 -14.24 -4.893 39
2.14 -13.777 -4.954 8
2.085 -13.311 -4.998 7
2.028 -12.82 -5.011 8
1.979 -12.399 -5.052 9
1.932 -11.981 -5.081 11
1.884 -11.575 -5.105 10
1.841 -11.198 -5.136 10
1.798 -10.831 -5.162 11
1.757 -10.475 -5.184 12
1.719 -10.133 -5.206 11
1.678 -9.798 -5.222 14
1.642 -9.477 -5.238 16
4.783 -37.566 -3.624 23
4.229 -32.958 -3.406 28
4.121 -31.825 -3.765 16
3.438 -26.342 -3.081 8
3.27 -24.828 -3.19 63
3.293 -24.807 -3.647 7
3.337 -24.91 -4.143 4
3.188 -23.581 -4.21 6
3.051 -22.391 -4.275 5
2.937 -21.355 -4.353 6
2.823 -20.396 -4.424 9
2.73 -19.511 -4.489 9
2.643 -18.74 -4.572 9
2.555 -17.951 -4.62 7
2.474 -17.239 -4.675 8
2.399 -16.559 -4.722 7
2.327 -15.934 -4.771 8
2.263 -15.343 -4.818 7
2.199 -14.767 -4.852 8
2.138 -14.239 -4.893 39
2.089 -13.78 -4.956 8
2.036 -13.31 -4.997 7
1.981 -12.825 -5.014 9
1.932 -12.394 -5.049 9
1.887 -11.982 -5.082 10
1.84 -11.583 -5.111 10
1.799 -11.203 -5.139 11
1.756 -10.835 -5.164 11
1.715 -10.47 -5.18 11
1.678 -10.135 -5.207 10
1.64 -9.808 -5.23 12
1.605 -9.49 -5.249 15
4.662 -37.541 -3.619 20
4.124 -32.947 -3.404 35
4.022 -31.837 -3.767 14
3.323 -26.1 -3.026 8
3.191 -24.837 -3.193 61
3.237 -25.0 -3.699 4
3.244 -24.821 -4.117 2
3.111 -23.587 -4.211 6
2.977 -22.392 -4.276 5
2.864 -21.349 -4.351 6
2.754 -20.397 -4.424 9
2.663 -19.511 -4.489 9
2.578 -18.74 -4.572 8
2.495 -17.962 -4.624 7
2.414 -17.242 -4.677 7
2.341 -16.559 -4.722 8
2.271 -15.933 -4.771 9
2.209 -15.349 -4.821 7
2.146 -14.773 -4.855 8
2.087 -14.245 -4.896 31
2.039 -13.778 -4.955 8
1.987 -13.311 -4.998 7
1.934 -12.83 -5.017 8
1.886 -12.403 -5.054 10
1.841 -11.984 -5.083 10
1.796 -11.581 -5.109 10
1.755 -11.205 -5.141 12
1.714 -10.836 -5.166 11
1.675 -10.477 -5.185 12
1.638 -10.135 -5.207 12
1.601 -9.805 -5.228 13
1.566 -9.487 -5.247 13
4.546 -37.547 -3.621 22
4.018 -32.928 -3.4 28
3.921 -31.837 -3.767 15
3.243 -26.129 -3.032 8
3.113 -24.855 -3.197 60
3.131 -24.803 -3.646 255
3.162 -24.818 -4.117 2
3.032 -23.581 -4.209 6
2.9 -22.375 -4.27 5
2.793 -21.349 -4.351 6
2.686 -20.398 -4.424 9
2.597 -19.515 -4.491 9
2.514 -18.74 -4.572 8
2.432 -17.958 -4.623 7
2.354 -17.246 -4.678 8
2.283 -16.562 -4.723 8
2.214 -15.933 -4.771 8
2.154 -15.352 -4.822 8
2.093 -14.771 -4.854 8
2.034 -14.24 -4.893 40
1.989 -13.784 -4.958 8
1.937 -13.313 -4.999 7
1.885 -12.825 -5.014 8
1.839 -12.401 -5.053 10
1.795 -11.982 -5.082 10
1.752 -11.586 -5.113 10
1.712 -11.205 -5.141 11
1.671 -10.837 -5.166 11
1.634 -10.477 -5.186 11
1.598 -10.139 -5.21 11
1.562 -9.812 -5.234 15
1.528 -9.488 -5.248 14
4.429 -37.553 -3.622 10
3.921 -32.991 -3.413 20
3.821 -31.853 -3.771 15
3.164 -26.166 -3.041 7
3.035 -24.867 -3.2 57
3.054 -24.835 -3.655 17
3.083 -24.84 -4.123 2
2.955 -23.586 -4.211 6
2.826 -22.375 -4.27 6
2.721 -21.346 -4.35 5
2.616 -20.39 -4.421 9
2.531 -19.515 -4.491 9
2.449 -18.737 -4.57 8
2.37 -17.958 -4.623 5
2.294 -17.241 -4.676 8
2.224 -16.557 -4.721 8
2.158 -15.934 -4.772 9
2.099 -15.351 -4.822 7
2.04 -14.777 -4.857 8
1.983 -14.242 -4.894 42
1.938 -13.779 -4.955 8
1.888 -13.315 -5.0 8
1.838 -12.826 -5.015 8
1.793 -12.406 -5.056 10
1.75 -11.983 -5.083 10
