# .PCD v0.7 - Point Cloud Data file format
VERSION 0.7
FIELDS x y z intensity
SIZE 4 4 4 4
TYPE F F F F
COUNT 1 1 1 1
WIDTH 2008
HEIGHT 1
VIEWPOINT 0 0 0 1 0 0 0
POINTS 2008
DATA ascii
-18.351 -11.263 -4.314 4
-17.647 -10.79 -4.278 11
-15.141 -9.223 -3.458 20
-14.821 -9.0 -3.539 16
-14.727 -8.915 -3.718 21
-14.713 -8.884 -3.941 46
-14.172 -8.538 -3.914 10
-13.709 -8.239 -3.913 12
-13.256 -7.951 -3.912 14
-32.207 -24.609 -1.339 25
-32.098 -24.153 -1.695 26
-11.803 -8.753 1.14 2
0.0 -0.0 3.0 0
-13.055 -9.411 0.654 16
-11.909 -8.468 0.731 14
-12.921 -9.07 0.399 11
-13.957 -9.677 0.041 3
-31.221 -21.386 -3.949 18
-13.167 -8.917 -0.07 8
-12.754 -8.539 -0.108 33
-31.593 -20.943 -5.039 20
-25.584 -16.79 -3.784 2
-12.705 -8.262 -0.507 12
-12.584 -8.111 -0.611 7
-12.636 -8.079 -0.767 8
-21.729 -13.783 -3.722 42
-20.309 -12.793 -3.519 18
-20.115 -12.589 -3.694 18
-20.077 -12.487 -3.922 47
-20.229 -12.514 -4.225 5
-15.867 -9.764 -2.867 33
-15.675 -9.601 -3.0 50
-18.447 -11.249 -4.305 4
-17.735 -10.775 -4.268 15
-15.171 -9.184 -3.431 22
-14.71 -8.878 -3.45 16
-14.932 -8.985 -3.77 31
-14.854 -8.915 -3.965 33
-14.235 -8.526 -3.904 10
-13.771 -8.228 -3.904 13
-13.317 -7.941 -3.903 14
-32.167 -24.434 -1.308 22
-32.061 -23.981 -1.661 24
0.0 -0.0 3.0 0
-11.67 -8.476 1.043 2
-12.808 -9.175 0.712 14
-12.381 -8.748 0.656 30
-11.859 -8.272 0.628 5
-13.44 -9.259 0.169 19
-31.138 -21.191 -3.885 11
-13.219 -8.894 -0.062 15
-12.753 -8.482 -0.087 25
-12.862 -8.47 -0.251 5
-12.774 -8.328 -0.365 3
-12.688 -8.196 -0.479 14
-12.602 -8.068 -0.592 58
-21.964 -13.949 -3.505 21
-21.784 -13.726 -3.695 0
-20.318 -12.714 -3.478 2
-20.071 -12.479 -3.635 42
-20.037 -12.38 -3.862 45
-20.183 -12.403 -4.161 6
-15.674 -9.582 -2.757 0
-15.71 -9.56 -2.974 38
-18.546 -11.237 -4.298 3
-17.83 -10.764 -4.26 20
-15.269 -9.185 -3.431 26
-14.749 -8.846 -3.427 20
-14.703 -8.793 -3.626 4
-14.938 -8.912 -3.963 19
-14.305 -8.516 -3.896 11
-13.83 -8.215 -3.893 14
-13.374 -7.93 -3.893 14
-32.123 -24.258 -1.277 26
-32.016 -23.805 -1.627 25
0.0 -0.0 3.0 0
-11.795 -8.515 1.034 18
-12.071 -8.594 0.857 2
-13.042 -9.158 0.546 21
-12.31 -8.532 0.554 13
-11.365 -7.779 0.622 17
-31.19 -21.088 -3.852 10
-13.218 -8.835 -0.042 18
-12.804 -8.46 -0.079 28
-12.53 -8.197 -0.146 14
-12.786 -8.28 -0.345 11
-12.558 -8.058 -0.421 17
-12.633 -8.034 -0.577 32
-22.022 -13.893 -3.478 32
0.0 -0.0 3.0 0
-20.297 -12.616 -3.428 8
-20.046 -12.381 -3.583 47
-20.032 -12.295 -3.815 50
-20.061 -12.247 -4.071 45
-15.725 -9.55 -2.738 4
-15.78 -9.541 -2.962 10
-18.603 -11.2 -4.273 3
-17.917 -10.749 -4.25 23
-15.335 -9.167 -3.419 7
-14.846 -8.849 -3.429 18
-15.531 -9.231 -3.956 31
-14.98 -8.883 -3.94 32
-14.368 -8.503 -3.885 10
-13.901 -8.209 -3.888 12
-13.439 -7.922 -3.886 14
-32.088 -24.089 -1.247 26
-31.981 -23.637 -1.595 25
0.0 -0.0 3.0 0
-11.718 -8.408 1.059 7
-13.739 -9.721 0.576 19
-12.883 -8.989 0.592 16
-12.148 -8.367 0.601 31
-11.412 -7.762 0.627 17
-13.337 -8.959 0.089 13
-13.237 -8.791 -0.027 21
-12.868 -8.446 -0.074 29
-12.505 -8.126 -0.119 18
-12.508 -8.047 -0.251 16
-12.585 -8.022 -0.405 23
-12.654 -7.993 -0.559 39
-22.107 -13.853 -3.46 28
0.0 -0.0 3.0 0
-20.302 -12.535 -3.387 12
-20.038 -12.293 -3.536 47
-20.052 -12.227 -3.777 50
-20.062 -12.167 -4.025 48
-15.809 -9.538 -2.731 15
-19.451 -11.684 -4.301 35
-18.159 -10.862 -4.054 21
-18.018 -10.74 -4.244 24
-15.456 -9.181 -3.428 23
-14.888 -8.819 -3.408 23
-15.147 -8.947 -3.742 58
-15.071 -8.883 -3.94 39
-14.438 -8.493 -3.878 10
-13.957 -8.193 -3.875 12
-13.5 -7.912 -3.878 14
-32.049 -23.918 -1.217 26
-31.947 -23.471 -1.562 18
-11.958 -8.655 1.16 0
-11.798 -8.413 1.058 3
-11.881 -8.353 0.917 1
-13.369 -9.269 0.516 24
-12.65 -8.656 0.518 26
-11.447 -7.735 0.635 11
-13.372 -8.924 0.1 10
-13.263 -8.749 -0.013 23
-12.925 -8.428 -0.067 23
-12.561 -8.109 -0.113 24
-12.519 -8.0 -0.232 39
-12.738 -8.065 -0.423 16
-12.694 -7.965 -0.546 9
-22.211 -13.824 -3.446 25
0.0 -0.0 3.0 0
-20.31 -12.456 -3.347 9
-20.032 -12.207 -3.491 52
-20.033 -12.134 -3.726 32
-19.944 -12.017 -3.938 54
-15.882 -9.52 -2.72 17
-19.558 -11.673 -4.294 32
-18.178 -10.804 -4.016 29
-18.116 -10.73 -4.237 17
-15.509 -9.154 -3.41 22
-14.927 -8.787 -3.384 22
-15.663 -9.195 -3.929 44
-15.126 -8.861 -3.923 40
-14.502 -8.48 -3.867 10
-14.019 -8.181 -3.865 12
-13.567 -7.905 -3.872 14
-32.006 -23.745 -1.187 25
-11.685 -8.533 1.341 12
-11.807 -8.494 1.195 15
-11.878 -8.418 1.056 1
-12.085 -8.444 0.895 1
-13.397 -9.23 0.527 18
-11.707 -7.96 0.718 2
-11.468 -7.699 0.646 2
-13.404 -8.887 0.112 22
-13.41 -8.788 -0.026 23
-12.936 -8.379 -0.05 24
-12.443 -7.979 -0.063 21
-12.562 -7.974 -0.222 14
-12.765 -8.028 -0.408 15
0.0 -0.0 3.0 0
-22.321 -13.799 -3.435 27
-22.004 -13.497 -3.583 2
-20.33 -12.386 -3.311 1
-20.049 -12.136 -3.453 47
-20.047 -12.061 -3.685 38
-19.945 -11.937 -3.892 55
-20.489 -12.201 -4.331 7
-19.659 -11.657 -4.284 34
-18.244 -10.773 -3.996 8
-18.207 -10.714 -4.227 12
-15.533 -9.111 -3.379 17
-15.001 -8.776 -3.376 20
-15.83 -9.236 -3.96 39
-15.204 -8.852 -3.916 34
-14.571 -8.47 -3.859 11
-14.085 -8.171 -3.857 13
-13.631 -7.897 -3.865 14
-31.968 -23.578 -1.157 25
-11.585 -8.41 1.365 19
-13.114 -9.376 1.007 12
-12.033 -8.475 1.043 19
-12.127 -8.42 0.901 4
-13.432 -9.196 0.536 17
-11.507 -7.774 0.771 7
-13.113 -8.747 0.326 24
-13.4 -8.827 0.132 8
-13.349 -8.692 0.007 23
-13.014 -8.373 -0.048 26
-12.473 -7.945 -0.05 21
-26.491 -16.703 -3.748 1
-12.687 -7.925 -0.364 13
0.0 -0.0 3.0 0
-22.432 -13.775 -3.423 25
-22.087 -13.458 -3.564 46
-20.351 -12.314 -3.274 0
-20.072 -12.069 -3.417 2
-20.037 -11.974 -3.638 42
-19.944 -11.858 -3.846 55
-20.609 -12.191 -4.325 8
-19.774 -11.648 -4.278 31
-18.729 -10.987 -4.135 16
-18.292 -10.696 -4.214 16
-15.628 -9.109 -3.378 17
-16.599 -9.65 -4.011 4
-15.909 -9.225 -3.952 20
-15.262 -8.833 -3.901 37
-14.641 -8.459 -3.85 11
-14.147 -8.159 -3.846 12
-13.689 -7.885 -3.854 13
-31.927 -23.409 -1.128 25
-31.698 -22.872 -1.446 9
-11.563 -8.217 1.253 1
-12.143 -8.5 1.038 13
-12.113 -8.358 0.916 18
-12.244 -8.33 0.768 5
-11.108 -7.456 0.862 16
-12.503 -8.286 0.467 2
-12.038 -7.877 0.44 0
-13.348 -8.633 0.027 23
-12.423 -7.94 0.11 13
-12.46 -7.884 -0.026 7
-26.687 -16.712 -3.752 1
-12.717 -7.89 -0.349 31
0.0 -0.0 3.0 0
-22.549 -13.753 -3.413 24
-22.204 -13.437 -3.554 43
-20.357 -12.235 -3.234 1
-20.081 -11.993 -3.377 1
-20.007 -11.877 -3.583 27
-19.954 -11.785 -3.804 59
-20.725 -12.179 -4.318 7
-19.888 -11.639 -4.273 33
-19.117 -11.143 -4.236 7
-18.393 -10.686 -4.208 26
-15.736 -9.113 -3.381 27
-15.322 -8.852 -3.431 2
-15.952 -9.193 -3.928 35
-15.333 -8.82 -3.891 39
-14.714 -8.45 -3.843 11
-14.209 -8.146 -3.836 12
-13.753 -7.876 -3.846 14
-31.885 -23.24 -1.098 25
-11.701 -8.393 1.369 7
-11.661 -8.237 1.249 12
-11.873 -8.259 1.093 15
-12.044 -8.259 0.941 15
-12.191 -8.241 0.792 7
-11.572 -7.717 0.787 68
-11.195 -7.371 0.746 2
-12.05 -7.833 0.455 38
-12.264 -7.88 0.287 6
-12.409 -7.879 0.132 18
-12.486 -7.848 -0.012 18
-26.906 -16.736 -3.762 1
-12.72 -7.839 -0.327 42
0.0 -0.0 3.0 0
-22.673 -13.735 -3.405 22
-22.321 -13.417 -3.544 38
-20.301 -12.119 -3.175 5
-20.127 -11.941 -3.349 1
-20.022 -11.807 -3.545 52
-19.973 -11.718 -3.765 62
-20.845 -12.168 -4.311 7
-19.996 -11.625 -4.264 34
-19.22 -11.129 -4.228 7
-18.488 -10.672 -4.198 28
-15.855 -9.124 -3.389 15
-15.27 -8.767 -3.369 2
-15.551 -8.906 -3.711 21
-15.421 -8.817 -3.888 26
-14.784 -8.44 -3.835 10
-14.278 -8.137 -3.828 12
-13.814 -7.865 -3.837 14
-11.486 -8.322 1.533 18
-11.506 -8.202 1.406 1
-11.007 -7.727 1.358 24
-10.841 -7.495 1.27 1
-13.984 -9.529 0.624 25
-11.892 -7.987 0.86 0
-11.54 -7.647 0.807 6
-11.202 -7.328 0.76 22
-11.516 -7.437 0.583 27
-12.38 -7.901 0.28 0
-12.501 -7.884 0.13 27
-12.469 -7.784 0.012 32
-27.099 -16.743 -3.764 1
-12.747 -7.802 -0.312 7
0.0 -0.0 3.0 0
-22.797 -13.717 -3.396 22
0.0 -0.0 3.0 0
-20.323 -12.051 -3.14 29
-20.146 -11.871 -3.312 0
-20.074 -11.758 -3.517 16
-20.011 -11.662 -3.733 65
-20.955 -12.152 -4.302 7
-20.108 -11.614 -4.257 36
-19.286 -11.095 -4.205 16
-18.579 -10.656 -4.188 28
-15.937 -9.113 -3.381 15
-15.276 -8.715 -3.332 12
-15.652 -8.909 -3.713 19
-15.469 -8.79 -3.868 41
-14.85 -8.427 -3.824 11
-14.337 -8.123 -3.816 14
-13.878 -7.855 -3.829 20
-11.423 -8.228 1.549 1
-10.913 -7.734 1.497 0
-10.971 -7.655 1.373 14
-10.883 -7.477 1.274 13
-13.453 -9.108 0.729 17
-11.341 -7.569 0.972 0
-11.197 -7.372 0.886 13
-11.351 -7.376 0.745 9
-12.113 -7.772 0.475 6
-12.505 -7.928 0.27 97
-12.654 -7.927 0.115 13
-12.425 -7.705 0.042 28
-27.362 -16.791 -3.784 1
0.0 -0.0 3.0 0
0.0 -0.0 3.0 0
-22.922 -13.698 -3.387 21
0.0 -0.0 3.0 0
-20.402 -12.015 -3.122 26
-20.174 -11.808 -3.278 0
-20.083 -11.684 -3.476 39
-20.073 -11.619 -3.708 57
-21.068 -12.136 -4.292 7
-20.216 -11.599 -4.248 38
-19.426 -11.103 -4.21 7
-18.677 -10.643 -4.179 27
-16.039 -9.113 -3.381 16
-15.327 -8.69 -3.313 15
-15.785 -8.929 -3.729 37
-15.547 -8.781 -3.861 36
-14.914 -8.412 -3.812 11
-14.405 -8.114 -3.808 12
-13.936 -7.843 -3.818 16
-13.543 -9.697 1.29 1
-10.903 -7.681 1.507 13
-10.876 -7.543 1.397 28
-10.902 -7.443 1.282 6
-11.909 -8.012 1.002 3
-11.394 -7.555 0.976 9
-11.254 -7.361 0.889 21
-12.014 -7.756 0.629 9
-12.504 -7.969 0.411 3
-12.444 -7.837 0.301 31
0.0 -0.0 3.0 0
-12.434 -7.658 0.06 23
-27.632 -16.842 -3.805 1
0.0 -0.0 3.0 0
0.0 -0.0 3.0 0
-23.053 -13.683 -3.38 21
0.0 -0.0 3.0 0
-20.495 -11.988 -3.108 21
-20.209 -11.748 -3.246 1
-20.088 -11.608 -3.434 63
-20.151 -11.587 -3.69 51
-20.536 -11.751 -4.061 1
-20.331 -11.588 -4.241 29
-19.532 -11.091 -4.203 7
-18.772 -10.628 -4.169 25
-16.092 -9.085 -3.362 19
-15.579 -8.777 -3.377 12
-15.812 -8.888 -3.698 40
-15.625 -8.771 -3.853 29
-14.987 -8.403 -3.805 11
-14.471 -8.102 -3.799 12
-13.991 -7.828 -3.805 20
-13.596 -9.678 1.294 3
-11.033 -7.725 1.498 0
-11.523 -7.941 1.312 3
-11.036 -7.488 1.271 8
-11.219 -7.501 1.13 12
-11.338 -7.47 0.998 6
-11.21 -7.285 0.911 18
-12.527 -8.034 0.544 2
-11.484 -7.271 0.638 10
-12.596 -7.88 0.287 13
-12.612 -7.796 0.163 10
-12.503 -7.649 0.064 28
-12.794 -7.745 -0.129 6
0.0 -0.0 3.0 0
0.0 -0.0 3.0 0
-23.19 -13.67 -3.374 20
0.0 -0.0 3.0 0
-20.61 -11.973 -3.1 22
-20.251 -11.692 -3.217 1
-20.116 -11.545 -3.4 53
-20.236 -11.557 -3.673 46
-20.495 -11.649 -4.0 0
-20.449 -11.578 -4.235 8
-19.642 -11.081 -4.196 7
-18.877 -10.619 -4.162 24
-16.188 -9.081 -3.358 26
-15.67 -8.772 -3.373 13
-16.06 -8.973 -3.761 21
-15.687 -8.752 -3.838 30
-15.057 -8.391 -3.795 11
-14.536 -8.091 -3.789 12
-14.055 -7.818 -3.796 20
-13.686 -9.684 1.292 9
-11.082 -7.712 1.501 7
-10.983 -7.523 1.401 25
-11.131 -7.505 1.267 7
-11.324 -7.523 1.124 1
-11.321 -7.411 1.014 20
-11.273 -7.279 0.913 6
-13.671 -8.711 0.337 7
-11.574 -7.28 0.635 0
-12.732 -7.912 0.276 24
-12.635 -7.757 0.177 23
-12.482 -7.583 0.089 7
-12.81 -7.702 -0.112 44
0.0 -0.0 3.0 0
0.0 -0.0 3.0 0
-23.339 -13.663 -3.371 19
0.0 -0.0 3.0 0
-20.709 -11.948 -3.088 30
-20.289 -11.634 -3.186 1
-20.18 -11.504 -3.377 20
-20.327 -11.531 -3.657 44
-20.581 -11.62 -3.982 3
-20.557 -11.563 -4.225 7
-19.742 -11.064 -4.185 7
-16.866 -9.426 -3.358 1
-16.301 -9.085 -3.361 15
-15.729 -8.749 -3.357 16
-16.011 -8.889 -3.699 20
-15.715 -8.714 -3.808 22
-15.123 -8.378 -3.784 10
-14.605 -8.081 -3.781 13
-14.119 -7.808 -3.788 20
-10.956 -7.707 1.641 10
-11.055 -7.647 1.514 6
-10.87 -7.4 1.427 28
-11.133 -7.461 1.278 13
-11.922 -7.87 1.038 10
-11.496 -7.478 0.996 9
-11.822 -7.583 0.826 1
-12.115 -7.669 0.655 10
-12.45 -7.778 0.473 28
-13.14 -8.111 0.207 23
-12.647 -7.711 0.193 21
-13.521 -8.159 -0.132 0
-12.84 -7.667 -0.098 24
0.0 -0.0 3.0 0
0.0 -0.0 3.0 0
-23.483 -13.654 -3.367 18
0.0 -0.0 3.0 0
-20.846 -11.945 -3.086 18
-20.343 -11.585 -3.16 1
-20.261 -11.471 -3.359 45
-20.422 -11.507 -3.643 47
-20.703 -11.61 -3.976 4
-19.941 -11.142 -3.962 20
-19.855 -11.055 -4.179 7
-19.09 -10.6 -4.15 12
-16.344 -9.051 -3.338 18
-16.068 -8.881 -3.453 15
-16.412 -9.055 -3.824 33
-15.75 -8.68 -3.782 13
-15.193 -8.365 -3.774 12
-14.673 -8.071 -3.772 12
-14.171 -7.791 -3.772 22
-10.936 -7.646 1.652 27
-11.041 -7.591 1.524 27
-10.869 -7.354 1.437 12
-11.136 -7.415 1.288 12
-12.112 -7.945 1.019 13
-11.809 -7.632 0.955 5
-11.662 -7.432 0.869 0
-11.862 -7.459 0.72 2
-11.889 -7.378 0.603 1
-13.213 -8.101 0.211 21
-12.645 -7.659 0.212 9
-13.522 -8.104 -0.111 1
-12.879 -7.637 -0.086 5
0.0 -0.0 3.0 0
0.0 -0.0 3.0 0
-23.645 -13.653 -3.366 17
0.0 -0.0 3.0 0
-20.972 -11.934 -3.081 17
-20.388 -11.531 -3.131 1
-20.363 -11.45 -3.347 46
-20.514 -11.48 -3.628 53
-20.842 -11.61 -3.976 9
-19.988 -11.093 -3.932 255
-19.955 -11.037 -4.168 7
-19.188 -10.585 -4.14 9
-16.386 -9.016 -3.313 16
-16.107 -8.847 -3.428 5
-16.185 -8.874 -3.687 27
-15.815 -8.662 -3.767 12
-15.263 -8.353 -3.764 11
-14.739 -8.059 -3.762 14
-14.235 -7.781 -3.764 21
-10.98 -7.632 1.654 9
-11.027 -7.536 1.535 14
-11.622 -7.815 1.339 1
-11.701 -7.744 1.212 12
-11.625 -7.576 1.111 1
-11.886 -7.631 0.955 10
-11.822 -7.485 0.854 32
-11.678 -7.295 0.77 10
-11.61 -7.157 0.675 11
-13.341 -8.124 0.203 22
-12.674 -7.624 0.225 19
-35.674 -21.234 -5.151 25
-12.746 -7.507 -0.033 24
0.0 -0.0 3.0 0
-30.364 -17.552 -4.815 6
-23.814 -13.654 -3.367 15
0.0 -0.0 3.0 0
-21.102 -11.925 -3.076 17
-20.422 -11.471 -3.099 16
-20.477 -11.436 -3.339 46
-20.602 -11.451 -3.611 52
-20.954 -11.594 -3.966 4
-20.038 -11.047 -3.903 36
-20.062 -11.023 -4.158 8
-17.205 -9.429 -3.36 1
-16.396 -8.963 -3.276 15
-16.202 -8.842 -3.424 5
-16.306 -8.885 -3.695 29
-15.896 -8.653 -3.76 13
-15.33 -8.339 -3.753 12
-14.804 -8.047 -3.752 13
-14.293 -7.767 -3.752 19
-31.212 -21.566 -0.803 24
-11.042 -7.501 1.542 27
-11.404 -7.622 1.38 35
-11.73 -7.714 1.219 24
-11.781 -7.63 1.098 16
-11.662 -7.44 1.006 16
-11.618 -7.307 0.905 3
-11.637 -7.221 0.792 19
-11.859 -7.261 0.641 1
-13.468 -8.146 0.195 21
-12.625 -7.542 0.255 11
-35.883 -21.212 -5.142 22
-12.788 -7.479 -0.022 29
0.0 -0.0 3.0 0
0.0 -0.0 3.0 0
-24.007 -13.67 -3.374 8
0.0 -0.0 3.0 0
-21.231 -11.915 -3.071 17
-20.513 -11.443 -3.085 41
-20.589 -11.42 -3.33 43
-20.703 -11.43 -3.599 43
-21.1 -11.596 -3.968 4
-20.091 -11.002 -3.875 0
-20.176 -11.012 -4.151 8
-17.179 -9.353 -3.309 10
-16.499 -8.962 -3.275 20
-17.171 -9.312 -3.765 22
-16.647 -9.014 -3.792 30
-15.964 -8.636 -3.748 13
-15.4 -8.326 -3.742 11
-14.869 -8.034 -3.741 14
-14.357 -7.757 -3.743 19
-11.565 -7.943 1.599 13
-11.123 -7.51 1.54 25
-11.248 -7.471 1.412 23
-11.577 -7.565 1.253 30
-11.667 -7.508 1.128 6
-11.662 -7.392 1.019 8
-11.6 -7.248 0.922 1
-11.673 -7.196 0.8 15
-11.99 -7.292 0.631 4
-11.83 -7.107 0.553 0
-12.646 -7.504 0.269 26
-12.938 -7.596 0.084 21
-12.851 -7.464 -0.016 19
0.0 -0.0 3.0 0
0.0 -0.0 3.0 0
-24.187 -13.676 -3.377 1
0.0 -0.0 3.0 0
-21.365 -11.907 -3.067 17
-20.624 -11.426 -3.075 28
-20.707 -11.406 -3.322 44
-20.819 -11.414 -3.59 36
-21.205 -11.575 -3.955 3
-20.494 -11.148 -3.966 5
-20.279 -10.995 -4.14 7
-17.434 -9.429 -3.36 5
-16.568 -8.941 -3.261 18
-16.133 -8.693 -3.316 15
-16.444 -8.848 -3.667 29
-16.038 -8.624 -3.738 12
-15.473 -8.316 -3.734 12
-14.941 -8.025 -3.734 13
-14.424 -7.747 -3.735 22
-11.545 -7.882 1.61 13
-11.145 -7.479 1.546 21
-11.237 -7.417 1.423 12
-11.527 -7.485 1.272 19
-11.79 -7.538 1.12 8
-11.624 -7.32 1.039 6
-13.764 -8.544 0.55 9
-11.642 -7.129 0.82 13
-11.831 -7.147 0.678 9
-11.887 -7.093 0.558 5
-12.654 -7.456 0.286 8
-12.96 -7.556 0.1 39
-12.896 -7.438 -0.005 13
-33.595 -19.194 -5.147 12
0.0 -0.0 3.0 0
-28.913 -16.235 -4.57 2
0.0 -0.0 3.0 0
-21.505 -11.902 -3.065 16
-20.743 -11.412 -3.068 27
-20.823 -11.391 -3.314 42
-20.941 -11.403 -3.583 32
-21.528 -11.671 -4.013 7
-21.226 -11.468 -4.166 7
-20.393 -10.983 -4.133 7
-17.498 -9.402 -3.342 15
-16.667 -8.936 -3.257 18
-16.305 -8.73 -3.343 4
-16.623 -8.888 -3.697 33
-16.12 -8.613 -3.729 12
-15.546 -8.304 -3.725 11
-15.01 -8.014 -3.724 12
-14.485 -7.735 -3.724 19
-11.577 -7.857 1.615 6
-11.18 -7.456 1.551 31
-11.142 -7.309 1.446 23
-12.109 -7.814 1.196 9
-11.495 -7.303 1.179 18
-12.415 -7.767 0.919 8
-13.75 -8.479 0.569 16
0.0 -0.0 3.0 0
-11.884 -7.131 0.683 0
0.0 -0.0 3.0 0
-12.403 -7.259 0.358 12
-12.996 -7.525 0.112 1
-12.928 -7.405 0.008 24
-33.824 -19.189 -5.145 11
0.0 -0.0 3.0 0
-29.044 -16.194 -4.551 1
0.0 -0.0 3.0 0
-21.646 -11.896 -3.061 16
-20.861 -11.397 -3.06 26
-20.945 -11.378 -3.307 41
-21.08 -11.4 -3.582 31
-21.668 -11.667 -4.01 8
-21.335 -11.45 -4.155 7
-20.49 -10.962 -4.119 8
-17.579 -9.384 -3.329 7
-16.753 -8.924 -3.249 16
-16.564 -8.812 -3.402 5
-16.871 -8.964 -3.755 45
-16.197 -8.602 -3.72 12
-15.623 -8.294 -3.716 11
-15.085 -8.006 -3.718 13
-14.543 -7.72 -3.711 20
-11.233 -7.578 1.664 13
-11.496 -7.621 1.519 25
-11.164 -7.278 1.453 24
-13.071 -8.381 1.065 8
-11.618 -7.333 1.172 10
-11.689 -7.266 1.053 6
-12.242 -7.499 0.85 33
-12.384 -7.482 0.713 0
-12.558 -7.484 0.568 7
-44.459 -26.166 -6.01 2
-12.407 -7.21 0.376 8
-36.954 -21.248 -5.156 20
-12.881 -7.327 0.04 24
-34.029 -19.17 -5.137 10
0.0 -0.0 3.0 0
-29.226 -16.181 -4.545 2
0.0 -0.0 3.0 0
-21.793 -11.893 -3.06 16
-20.983 -11.383 -3.053 26
-21.06 -11.361 -3.298 39
-21.212 -11.392 -3.577 27
-21.798 -11.657 -4.004 8
-20.587 -10.974 -3.857 78
-20.486 -10.886 -4.07 30
-17.633 -9.35 -3.307 10
-16.86 -8.922 -3.247 25
-17.56 -9.282 -3.743 17
-17.007 -8.98 -3.767 32
-16.272 -8.588 -3.709 12
-15.692 -8.28 -3.705 19
-15.154 -7.994 -3.708 13
-14.624 -7.717 -3.708 15
-11.559 -7.751 1.633 22
-11.558 -7.616 1.52 3
-11.292 -7.315 1.445 14
-11.396 -7.261 1.324 12
-11.788 -7.393 1.157 13
-11.587 -7.155 1.083 12
-12.508 -7.612 0.817 22
-13.698 -8.22 0.487 3
-12.534 -7.419 0.589 28
-12.983 -7.589 0.387 1
-12.393 -7.153 0.396 23
-12.407 -7.084 0.281 0
-12.906 -7.289 0.055 19
-34.238 -19.153 -5.13 9
0.0 -0.0 3.0 0
-29.344 -16.131 -4.522 2
0.0 -0.0 3.0 0
-21.948 -11.893 -3.06 16
-21.106 -11.37 -3.045 27
-21.182 -11.348 -3.291 40
-21.358 -11.392 -3.577 17
-21.918 -11.64 -3.994 8
-20.603 -10.908 -3.816 255
-20.539 -10.841 -4.04 18
-17.735 -9.342 -3.302 13
-16.838 -8.853 -3.199 22
-16.826 -8.837 -3.42 15
-17.087 -8.965 -3.755 37
-16.346 -8.574 -3.698 12
-15.769 -8.27 -3.697 11
-15.219 -7.981 -3.697 14
-14.688 -7.706 -3.699 15
-11.564 -7.708 1.641 9
-11.184 -7.324 1.576 24
-11.52 -7.417 1.423 7
-11.448 -7.248 1.327 27
-11.709 -7.297 1.181 3
-11.619 -7.127 1.09 8
-12.451 -7.526 0.842 11
-12.608 -7.515 0.703 11
-12.521 -7.361 0.608 21
-12.988 -7.539 0.404 0
-12.488 -7.158 0.395 17
-12.564 -7.123 0.266 0
-12.958 -7.267 0.064 24
-34.45 -19.136 -5.123 9
0.0 -0.0 3.0 0
-30.746 -16.783 -4.826 13
-24.585 -13.316 -3.495 9
-22.099 -11.891 -3.059 16
-21.231 -11.357 -3.039 28
-21.304 -11.334 -3.282 28
-21.498 -11.386 -3.574 16
-22.109 -11.662 -4.007 3
-20.608 -10.837 -3.772 255
-20.635 -10.819 -4.026 9
-17.836 -9.334 -3.296 17
-17.315 -9.044 -3.333 21
-16.901 -8.82 -3.408 17
-17.146 -8.938 -3.736 43
-16.424 -8.56 -3.688 13
-15.839 -8.257 -3.686 11
-15.291 -7.971 -3.689 15
-14.752 -7.695 -3.689 15
-12.635 -8.372 1.524 27
-11.168 -7.269 1.587 23
-11.713 -7.494 1.407 61
-11.388 -7.165 1.346 9
-11.701 -7.245 1.194 8
-11.587 -7.061 1.108 19
-12.467 -7.487 0.853 3
-12.522 -7.414 0.733 22
-12.623 -7.371 0.605 17
-13.292 -7.662 0.362 7
-12.659 -7.205 0.378 32
-12.91 -7.268 0.21 4
-12.965 -7.22 0.083 23
-34.676 -19.125 -5.118 8
0.0 -0.0 3.0 0
-30.965 -16.783 -4.826 14
-25.41 -13.666 -3.665 9
-22.254 -11.889 -3.058 16
-21.364 -11.348 -3.034 28
-21.451 -11.332 -3.281 1
-21.624 -11.374 -3.567 16
-22.745 -11.915 -4.159 7
-20.623 -10.77 -3.73 255
-20.515 -10.683 -3.938 32
-17.944 -9.327 -3.291 19
-17.145 -8.897 -3.229 18
-16.802 -8.711 -3.329 24
-17.209 -8.915 -3.718 47
-16.495 -8.545 -3.676 12
-15.922 -8.249 -3.68 11
-15.357 -7.958 -3.677 20
-14.806 -7.677 -3.674 19
-12.831 -8.45 1.51 22
-11.192 -7.24 1.593 5
-11.765 -7.481 1.41 7
-11.42 -7.139 1.352 21
-11.696 -7.194 1.206 15
-11.568 -7.004 1.123 19
-12.552 -7.487 0.853 8
-12.57 -7.391 0.74 23
-12.657 -7.34 0.615 14
-12.876 -7.372 0.462 22
-12.583 -7.113 0.411 14
-12.766 -7.137 0.26 13
-13.006 -7.193 0.094 7
-34.903 -19.113 -5.113 8
-33.206 -18.015 -5.021 4
-31.182 -16.779 -4.824 15
-25.623 -13.682 -3.673 8
-22.416 -11.891 -3.059 14
-21.493 -11.336 -3.028 30
-21.608 -11.335 -3.283 0
-21.757 -11.364 -3.561 11
-20.746 -10.793 -3.485 36
-20.628 -10.699 -3.685 255
-21.023 -10.874 -4.062 8
-17.975 -9.281 -3.26 17
-17.218 -8.876 -3.215 18
-17.056 -8.785 -3.383 16
-17.312 -8.911 -3.715 36
-16.577 -8.533 -3.667 15
-15.992 -8.235 -3.669 11
-15.426 -7.945 -3.667 20
-14.894 -7.677 -3.674 14
-11.056 -7.238 1.724 9
-11.548 -7.424 1.557 10
-11.236 -7.099 1.491 11
-11.35 -7.05 1.372 20
-11.403 -6.969 1.263 19
-11.528 -6.934 1.142 14
-12.701 -7.526 0.842 24
-12.672 -7.401 0.737 17
-12.807 -7.376 0.603 19
-12.9 -7.334 0.475 21
-12.627 -7.087 0.421 19
-12.731 -7.067 0.287 24
-13.024 -7.151 0.111 6
-35.116 -19.093 -5.104 8
-33.447 -18.017 -5.022 5
-31.405 -16.779 -4.824 14
-25.86 -13.71 -3.687 5
-22.588 -11.898 -3.062 10
-21.619 -11.322 -3.02 31
-22.627 -11.786 -3.533 5
-21.89 -11.354 -3.555 11
-20.764 -10.727 -3.445 26
-20.639 -10.631 -3.643 255
-21.018 -10.798 -4.012 24
-18.052 -9.259 -3.245 18
-17.701 -9.065 -3.348 7
-17.115 -8.759 -3.364 22
-17.374 -8.887 -3.697 36
-16.648 -8.516 -3.654 26
-16.072 -8.225 -3.661 12
-15.501 -7.936 -3.659 16
-14.955 -7.663 -3.662 14
-11.11 -7.23 1.725 9
-11.733 -7.497 1.543 24
-11.283 -7.085 1.494 8
-12.131 -7.487 1.271 23
-11.478 -6.97 1.262 14
-11.57 -6.912 1.148 1
-13.431 -7.904 0.733 6
-12.705 -7.37 0.747 10
-12.779 -7.309 0.625 10
-13.349 -7.537 0.405 17
-12.644 -7.046 0.435 31
-12.803 -7.057 0.291 9
-12.989 -7.081 0.139 7
-35.356 -19.086 -5.102 8
-33.698 -18.021 -5.024 4
-31.625 -16.776 -4.823 16
-29.777 -15.674 -4.644 6
-22.772 -11.908 -3.067 8
-21.752 -11.311 -3.014 31
-22.604 -11.69 -3.48 2
-22.024 -11.343 -3.549 10
-23.119 -11.861 -4.127 7
-20.65 -10.564 -3.601 255
-20.995 -10.713 -3.957 26
-18.093 -9.218 -3.218 22
-17.792 -9.051 -3.338 52
-17.462 -8.879 -3.451 22
-17.457 -8.872 -3.685 36
-16.732 -8.506 -3.646 13
-16.145 -8.212 -3.65 12
-15.57 -7.923 -3.649 18
-15.022 -7.653 -3.653 14
-13.022 -8.423 1.515 9
-12.326 -7.827 1.479 19
-11.273 -7.034 1.505 6
-11.818 -7.247 1.327 32
-11.791 -7.113 1.227 18
-12.671 -7.52 0.985 6
-13.339 -7.798 0.764 10
-13.167 -7.586 0.681 1
-12.861 -7.305 0.626 13
-12.83 -7.193 0.523 28
-12.787 -7.077 0.424 26
-13.085 -7.162 0.251 3
-13.058 -7.068 0.144 0
-35.573 -19.066 -5.093 8
-33.899 -17.999 -5.013 2
-31.842 -16.769 -4.82 15
-29.984 -15.669 -4.642 29
-22.983 -11.933 -3.08 2
-21.892 -11.302 -3.009 33
-22.542 -11.576 -3.417 2
-22.167 -11.337 -3.545 10
-23.251 -11.845 -4.117 7
-20.667 -10.5 -3.561 51
-21.356 -10.823 -4.029 7
-18.215 -9.217 -3.217 16
-17.852 -9.022 -3.317 26
-17.646 -8.915 -3.477 26
-17.547 -8.861 -3.677 34
-16.817 -8.496 -3.638 13
-16.232 -8.205 -3.645 11
-15.662 -7.922 -3.648 16
-15.093 -7.644 -3.645 15
-17.152 -11.028 1.056 21
-12.409 -7.831 1.478 18
-11.365 -7.047 1.502 0
-11.969 -7.293 1.316 44
-11.795 -7.069 1.238 19
-12.749 -7.517 0.986 3
-13.48 -7.827 0.756 3
-65.224 -37.322 -8.41 5
-12.936 -7.297 0.629 17
-12.809 -7.131 0.545 16
-12.866 -7.069 0.427 19
-13.196 -7.17 0.248 28
-37.2 -19.991 -5.077 25
-35.797 -19.048 -5.086 7
0.0 -0.0 3.0 0
-32.074 -16.769 -4.82 13
-30.163 -15.649 -4.633 40
-25.628 -13.211 -3.731 26
-22.026 -11.29 -3.003 33
-22.514 -11.479 -3.363 3
-22.304 -11.326 -3.539 10
-23.39 -11.833 -4.11 7
-20.815 -10.502 -3.563 27
-21.487 -10.816 -4.024 7
-18.378 -9.237 -3.231 21
-17.704 -8.888 -3.224 21
-18.318 -9.193 -3.679 21
-17.613 -8.837 -3.659 38
-16.895 -8.481 -3.626 15
-16.312 -8.196 -3.637 12
-15.737 -7.913 -3.639 15
-15.167 -7.636 -3.637 15
-17.804 -11.378 0.994 20
-12.424 -7.793 1.485 50
-12.577 -7.749 1.353 60
-12.187 -7.378 1.297 26
-11.864 -7.064 1.239 27
-13.36 -7.825 0.903 9
-13.37 -7.711 0.789 5
-13.229 -7.518 0.702 0
-12.99 -7.276 0.636 7
-13.322 -7.365 0.464 20
-12.962 -7.071 0.426 11
-13.209 -7.127 0.264 34
-37.558 -20.038 -5.096 22
-33.055 -17.462 -4.412 2
0.0 -0.0 3.0 0
-32.277 -16.753 -4.812 8
-30.36 -15.637 -4.627 40
-25.817 -13.211 -3.732 21
-22.166 -11.28 -2.998 34
-22.343 -11.311 -3.27 1
-22.438 -11.313 -3.532 10
-23.519 -11.815 -4.099 7
-21.944 -10.995 -3.871 21
-21.598 -10.797 -4.011 7
-18.373 -9.173 -3.187 34
-17.678 -8.816 -3.173 23
-17.653 -8.801 -3.395 17
-17.685 -8.817 -3.644 28
-16.976 -8.469 -3.616 13
-16.385 -8.181 -3.625 12
-15.756 -7.874 -3.607 13
-15.235 -7.625 -3.628 15
-12.242 -7.776 1.629 1
-12.548 -7.822 1.48 43
-12.084 -7.399 1.427 24
-12.117 -7.288 1.317 19
-12.374 -7.319 1.175 17
-13.446 -7.823 0.904 0
-13.655 -7.822 0.757 2
-13.218 -7.46 0.719 1
-13.127 -7.302 0.627 34
-13.374 -7.341 0.472 20
-13.269 -7.188 0.384 22
-13.267 -7.107 0.272 12
-37.855 -20.05 -5.101 24
0.0 -0.0 3.0 0
0.0 -0.0 3.0 0
-32.537 -16.766 -4.818 4
-30.575 -15.633 -4.625 41
-26.058 -13.239 -3.745 1
-22.307 -11.269 -2.992 33
0.0 -0.0 3.0 0
-22.582 -11.305 -3.527 9
-23.637 -11.791 -4.085 4
-22.622 -11.256 -4.033 6
-21.709 -10.778 -4.0 7
-18.427 -9.138 -3.164 36
-17.764 -8.8 -3.162 26
-17.613 -8.724 -3.339 23
-17.775 -8.804 -3.634 33
-17.058 -8.456 -3.606 13
-16.466 -8.171 -3.617 12
-15.683 -7.791 -3.537 12
-15.305 -7.615 -3.62 15
-12.278 -7.752 1.633 9
-12.34 -7.645 1.514 2
-12.102 -7.363 1.435 14
-13.431 -8.027 1.147 10
-12.43 -7.304 1.179 6
-12.683 -7.33 1.036 6
-13.49 -7.675 0.799 2
-66.189 -37.099 -8.342 23
-12.995 -7.178 0.668 10
-13.016 -7.094 0.557 15
-13.112 -7.052 0.433 41
-13.291 -7.068 0.287 13
-38.159 -20.065 -5.107 23
0.0 -0.0 3.0 0
0.0 -0.0 3.0 0
-32.773 -16.764 -4.817 4
-30.779 -15.623 -4.62 41
-29.077 -14.665 -4.472 4
-22.447 -11.258 -2.986 34
-22.6 -11.278 -3.251 1
-22.723 -11.295 -3.521 9
-21.996 -10.894 -3.546 0
-22.755 -11.244 -4.026 8
-18.507 -9.125 -2.926 13
-18.518 -9.121 -3.152 22
-17.847 -8.782 -3.149 21
-17.661 -8.691 -3.314 23
-17.861 -8.79 -3.624 30
-17.142 -8.444 -3.597 14
-16.542 -8.158 -3.607 11
-15.896 -7.849 -3.586 4
-15.37 -7.602 -3.608 15
-13.311 -8.353 1.527 31
-13.392 -8.245 1.397 18
-12.099 -7.315 1.445 10
-12.553 -7.454 1.279 25
-12.802 -7.473 1.137 10
-16.787 -9.636 0.418 24
-13.449 -7.599 0.821 9
-66.441 -36.983 -8.307 21
-13.209 -7.245 0.646 14
-13.129 -7.106 0.553 28
-12.881 -6.878 0.496 18
-13.301 -7.022 0.304 0
-38.473 -20.083 -5.114 23
0.0 -0.0 3.0 0
0.0 -0.0 3.0 0
-33.005 -16.759 -4.815 4
-30.997 -15.618 -4.618 40
-29.278 -14.659 -4.469 4
-22.595 -11.25 -2.982 31
-22.707 -11.249 -3.235 4
-22.878 -11.29 -3.518 8
-23.853 -11.731 -4.048 3
-22.875 -11.224 -4.013 7
-18.453 -9.036 -2.868 35
-18.651 -9.124 -3.154 7
-17.979 -8.788 -3.153 22
-17.761 -8.683 -3.308 5
-17.944 -8.774 -3.612 22
-17.224 -8.43 -3.586 13
-16.616 -8.143 -3.594 12
-15.931 -7.819 -3.561 2
-15.447 -7.595 -3.602 15
-13.149 -8.201 1.554 23
-13.653 -8.354 1.376 14
-12.032 -7.228 1.464 6
-12.626 -7.449 1.28 32
-12.951 -7.51 1.127 7
-12.663 -7.22 1.065 1
-13.617 -7.642 0.809 13
-66.734 -36.888 -8.278 22
-13.041 -7.103 0.692 14
-13.594 -7.305 0.485 22
-12.887 -6.832 0.513 15
-41.356 -21.676 -5.321 20
-38.796 -20.104 -5.123 23
0.0 -0.0 3.0 0
0.0 -0.0 3.0 0
-33.252 -16.759 -4.815 5
-31.212 -15.611 -4.614 36
-29.473 -14.648 -4.464 4
-22.75 -11.245 -2.979 22
-23.329 -11.474 -3.36 10
-23.012 -11.275 -3.51 9
-23.547 -11.499 -3.909 1
-22.995 -11.204 -4.001 7
-18.472 -8.983 -2.833 39
-18.656 -9.064 -3.114 5
-18.21 -8.841 -3.191 6
-18.554 -9.011 -3.547 17
-18.03 -8.759 -3.601 28
-17.312 -8.42 -3.579 13
-16.001 -7.794 -3.311 0
-16.0 -7.804 -3.549 25
-15.511 -7.581 -3.59 15
-13.141 -8.146 1.564 17
-15.38 -9.352 1.182 20
0.0 -0.0 3.0 0
-12.247 -7.178 1.343 27
-12.936 -7.452 1.142 3
-12.685 -7.184 1.075 8
-13.658 -7.612 0.817 12
-67.048 -36.804 -8.252 19
-12.959 -7.009 0.723 19
-14.095 -7.52 0.411 23
-12.888 -6.783 0.531 22
-41.732 -21.713 -5.335 18
-39.077 -20.102 -5.122 24
0.0 -0.0 3.0 0
0.0 -0.0 3.0 0
-33.467 -16.744 -4.808 29
-31.435 -15.607 -4.612 37
-29.671 -14.638 -4.458 4
-22.936 -11.254 -2.984 3
-23.324 -11.388 -3.312 1
-23.161 -11.266 -3.504 9
-23.637 -11.459 -3.886 2
-18.494 -8.947 -2.591 3
-18.518 -8.942 -2.807 29
-20.659 -9.968 -3.724 13
-18.238 -8.796 -3.159 20
0.0 -0.0 3.0 0
-15.741 -7.598 -2.725 9
-15.832 -7.651 -2.978 1
-15.924 -7.708 -3.242 2
-16.163 -7.837 -3.576 14
-15.575 -7.568 -3.579 15
-30.851 -19.01 -0.352 23
-13.455 -8.13 1.42 23
-12.573 -7.457 1.415 14
-12.206 -7.108 1.359 23
-12.645 -7.236 1.196 9
-12.755 -7.175 1.077 1
-13.886 -7.686 0.796 18
-13.685 -7.459 0.719 2
-12.72 -6.831 0.781 12
-13.959 -7.394 0.454 11
-13.138 -6.865 0.501 2
-42.063 -21.726 -5.34 19
-39.417 -20.127 -5.132 21
-33.722 -17.047 -4.236 1
-32.885 -16.465 -4.331 1
-33.739 -16.755 -4.813 14
-31.658 -15.601 -4.609 35
-29.852 -14.619 -4.449 4
-28.272 -13.77 -4.322 6
-23.319 -11.302 -3.265 173
-23.309 -11.256 -3.499 9
-23.744 -11.43 -3.868 3
-18.453 -8.864 -2.539 30
-18.598 -8.919 -2.792 6
-20.574 -9.86 -3.651 8
-18.152 -8.695 -3.088 22
-18.908 -9.061 -3.583 21
-15.771 -7.563 -2.699 2
-15.77 -7.573 -2.917 7
-15.873 -7.636 -3.183 2
-16.235 -7.823 -3.565 15
-15.653 -7.56 -3.572 20
-15.55 -9.523 1.321 2
-13.236 -7.948 1.455 17
-12.026 -7.087 1.494 30
-12.557 -7.265 1.323 19
-12.663 -7.198 1.205 12
-13.577 -7.585 0.968 3
-13.375 -7.352 0.892 1
-13.545 -7.331 0.759 3
-12.801 -6.826 0.782 7
-13.563 -7.132 0.544 6
-13.412 -6.957 0.468 0
-42.318 -21.698 -5.329 20
-39.727 -20.136 -5.136 23
0.0 -0.0 3.0 0
-32.903 -16.352 -4.28 94
-33.917 -16.718 -4.796 14
-30.194 -14.769 -4.203 35
-30.058 -14.61 -4.444 4
-28.461 -13.76 -4.316 5
-23.355 -11.237 -3.229 2
-23.475 -11.254 -3.498 10
-23.921 -11.432 -3.869 12
-18.461 -8.805 -2.502 37
-19.723 -9.391 -3.099 19
-19.742 -9.395 -3.337 14
-18.218 -8.668 -3.069 21
-18.909 -9.002 -3.541 26
-15.901 -7.576 -2.709 5
-15.743 -7.512 -2.869 17
-15.832 -7.569 -3.129 2
-16.314 -7.814 -3.557 19
-15.717 -7.547 -3.56 16
-16.325 -9.937 1.248 21
-13.234 -7.898 1.465 22
-12.132 -7.105 1.49 1
-12.317 -7.079 1.366 25
-12.819 -7.238 1.195 6
-12.733 -7.066 1.107 1
-14.045 -7.668 0.801 5
-13.16 -7.073 0.837 27
-13.613 -7.207 0.658 11
-13.887 -7.251 0.503 2
-50.864 -26.191 -6.533 3
-42.699 -21.732 -5.342 18
-40.062 -20.155 -5.143 22
0.0 -0.0 3.0 0
-32.948 -16.252 -4.236 38
0.0 -0.0 3.0 0
-30.228 -14.676 -4.158 255
-30.285 -14.612 -4.445 4
-28.639 -13.744 -4.308 5
-23.353 -11.153 -3.182 0
-23.592 -11.228 -3.483 33
-18.468 -8.762 -2.265 0
-18.51 -8.766 -2.477 32
-20.0 -9.457 -3.141 20
-20.193 -9.544 -3.438 6
-18.284 -8.64 -3.05 18
-19.121 -9.042 -3.57 22
-15.819 -7.487 -2.642 15
-15.732 -7.459 -2.828 17
-15.873 -7.541 -3.107 2
-16.386 -7.801 -3.546 14
-15.791 -7.537 -3.552 15
-15.439 -9.341 1.353 1
-12.644 -7.498 1.542 15
-12.036 -7.003 1.512 16
-12.455 -7.111 1.358 22
-12.637 -7.088 1.233 6
-13.911 -7.667 0.946 31
-14.177 -7.685 0.796 4
-13.325 -7.112 0.826 20
-13.59 -7.144 0.679 6
0.0 -0.0 3.0 0
-51.452 -26.301 -6.573 2
-43.053 -21.75 -5.349 16
-40.366 -20.158 -5.144 21
-34.92 -17.26 -4.327 2
-33.071 -16.19 -4.208 14
0.0 -0.0 3.0 0
-30.272 -14.587 -4.114 79
-30.474 -14.592 -4.435 4
-28.835 -13.735 -4.303 5
-23.582 -11.18 -3.197 20
-23.723 -11.208 -3.471 30
-18.436 -8.684 -2.218 26
-18.583 -8.737 -2.46 2
-19.877 -9.333 -3.061 17
-20.091 -9.43 -3.361 18
-18.377 -8.625 -3.039 24
-18.78 -8.822 -3.409 5
-15.783 -7.422 -2.593 14
-15.762 -7.425 -2.801 17
-17.089 -8.068 -3.533 14
-16.458 -7.787 -3.534 14
-15.852 -7.521 -3.538 16
-14.97 -9.001 1.413 14
-12.751 -7.515 1.539 30
-12.018 -6.948 1.523 5
-12.376 -7.02 1.379 25
-12.595 -7.017 1.25 7
-12.831 -7.023 1.118 2
-14.302 -7.699 0.792 20
-13.449 -7.127 0.821 22
-13.575 -7.084 0.698 16
-13.664 -7.031 0.579 11
-13.392 -6.796 0.527 23
-43.47 -21.798 -5.368 16
-40.705 -20.175 -5.151 23
0.0 -0.0 3.0 0
0.0 -0.0 3.0 0
-33.541 -16.163 -4.537 2
-30.266 -14.474 -4.06 3
-30.698 -14.589 -4.434 4
-29.039 -13.729 -4.3 6
-24.101 -11.341 -3.287 7
-23.862 -11.191 -3.461 25
-18.446 -8.625 -2.183 36
-23.769 -11.096 -3.933 4
-19.938 -9.295 -3.037 19
-19.243 -8.969 -3.05 1
-18.579 -8.66 -3.064 17
-18.901 -8.819 -3.408 15
-15.744 -7.355 -2.543 17
-15.795 -7.393 -2.776 18
-17.17 -8.056 -3.523 15
-16.53 -7.774 -3.523 14
-15.923 -7.509 -3.528 15
-15.47 -9.245 1.37 18
-12.665 -7.418 1.558 5
-11.993 -6.889 1.536 18
-12.157 -6.851 1.418 27
-12.634 -6.992 1.257 1
-12.884 -7.004 1.123 11
-13.528 -7.233 0.926 0
-13.987 -7.359 0.75 2
-14.384 -7.452 0.579 20
-13.943 -7.122 0.548 3
-13.453 -6.776 0.534 8
-43.991 -21.895 -5.405 14
-41.031 -20.184 -5.155 22
0.0 -0.0 3.0 0
0.0 -0.0 3.0 0
-33.788 -16.159 -4.535 5
-30.228 -14.347 -3.997 2
-30.802 -14.529 -4.403 1
-29.239 -13.72 -4.295 5
-24.565 -11.473 -3.36 2
-24.021 -11.183 -3.456 23
-18.498 -8.587 -2.159 27
-23.893 -11.073 -3.919 5
-19.996 -9.257 -3.012 19
-19.226 -8.9 -3.003 4
-18.62 -8.62 -3.036 15
-19.089 -8.848 -3.428 5
-15.753 -7.311 -2.509 15
-15.853 -7.373 -2.76 2
-17.246 -8.041 -3.511 13
-16.585 -7.751 -3.504 26
-15.997 -7.499 -3.519 16
-12.608 -7.488 1.68 2
-13.591 -7.909 1.463 18
-12.621 -7.203 1.469 35
-12.205 -6.832 1.423 14
-12.717 -6.991 1.257 7
-12.65 -6.83 1.17 4
0.0 -0.0 3.0 0
-13.023 -6.803 0.92 10
-14.45 -7.432 0.585 14
-13.494 -6.842 0.644 8
-13.479 -6.739 0.547 24
-44.449 -21.958 -5.429 15
-41.307 -20.167 -5.148 23
0.0 -0.0 3.0 0
0.0 -0.0 3.0 0
0.0 -0.0 3.0 0
-30.2 -14.224 -3.938 3
-30.12 -14.1 -4.184 1
-29.44 -13.71 -4.29 5
-27.79 -12.883 -4.141 5
-18.418 -8.51 -1.913 38
-18.563 -8.555 -2.14 1
-24.003 -11.044 -3.901 15
-20.117 -9.247 -3.005 20
-19.227 -8.838 -2.961 4
-18.794 -8.641 -3.051 5
-19.135 -8.809 -3.4 6
-15.8 -7.284 -2.489 34
-18.005 -8.32 -3.5 13
-17.32 -8.025 -3.498 14
-16.67 -7.744 -3.498 14
-16.068 -7.488 -3.509 15
-12.643 -7.463 1.684 16
-13.62 -7.876 1.469 19
-12.482 -7.078 1.496 20
-12.176 -6.772 1.437 27
-12.818 -6.998 1.255 24
-12.807 -6.867 1.16 1
-13.682 -7.213 0.932 26
-13.09 -6.79 0.924 10
-14.498 -7.404 0.594 12
-13.513 -6.801 0.658 10
-13.554 -6.726 0.552 17
-44.925 -22.027 -5.455 15
-41.598 -20.155 -5.143 22
0.0 -0.0 3.0 0
0.0 -0.0 3.0 0
-30.489 -14.36 -3.696 2
-30.204 -14.118 -3.886 31
-30.102 -13.984 -4.125 3
-29.63 -13.695 -4.282 5
-27.973 -12.871 -4.135 5
-18.42 -8.449 -1.878 40
-25.278 -11.563 -3.948 3
-24.045 -10.984 -3.863 31
-19.272 -8.795 -2.711 4
-19.213 -8.769 -2.915 4
-19.059 -8.703 -3.094 6
-19.124 -8.745 -3.354 5
-15.885 -7.275 -2.482 12
-18.1 -8.31 -3.492 13
-17.41 -8.016 -3.491 13
-16.749 -7.733 -3.489 13
-16.132 -7.472 -3.496 16
-17.11 -10.038 1.23 26
-13.639 -7.837 1.477 17
-12.44 -7.008 1.51 26
-12.412 -6.857 1.417 0
-13.38 -7.256 1.191 11
-12.565 -6.691 1.207 3
-13.771 -7.208 0.933 22
-13.112 -6.753 0.936 1
-14.367 -7.283 0.634 10
-13.736 -6.864 0.637 20
-13.569 -6.683 0.567 5
-45.378 -22.081 -5.476 15
-41.975 -20.184 -5.155 20
0.0 -0.0 3.0 0
0.0 -0.0 3.0 0
-30.798 -14.394 -3.712 8
-30.207 -14.011 -3.833 43
-30.094 -13.874 -4.069 5
-29.831 -13.683 -4.275 5
-18.449 -8.424 -1.67 0
-18.475 -8.411 -1.856 34
-25.425 -11.544 -3.937 3
-24.113 -10.935 -3.833 23
-19.243 -8.719 -2.662 4
-19.202 -8.703 -2.87 4
-18.978 -8.606 -3.026 13
-19.121 -8.685 -3.31 6
-15.838 -7.206 -2.43 37
-18.185 -8.295 -3.481 13
-17.494 -8.003 -3.481 15
-16.825 -7.72 -3.478 14
-16.216 -7.467 -3.491 15
-17.344 -10.113 1.217 21
-13.588 -7.759 1.492 20
-12.477 -6.984 1.515 0
-12.686 -6.962 1.393 5
-13.601 -7.326 1.174 8
-13.606 -7.195 1.072 11
-13.666 -7.103 0.963 13
-13.157 -6.727 0.943 0
-14.291 -7.191 0.663 31
-13.744 -6.816 0.653 16
-13.531 -6.614 0.593 9
-45.949 -22.19 -5.518 11
-42.299 -20.185 -5.155 21
0.0 -0.0 3.0 0
0.0 -0.0 3.0 0
0.0 -0.0 3.0 0
-30.213 -13.906 -3.783 7
-30.093 -13.767 -4.015 6
-30.028 -13.669 -4.268 5
-18.408 -8.342 -1.624 28
-18.526 -8.371 -1.833 13
-24.107 -10.865 -3.529 30
-24.357 -10.965 -3.852 5
-19.229 -8.65 -2.618 4
-19.198 -8.64 -2.827 4
-19.163 -8.63 -3.043 4
-19.117 -8.624 -3.266 8
-15.874 -7.175 -2.406 1
-18.277 -8.283 -3.472 14
-17.577 -7.991 -3.471 14
-16.893 -7.703 -3.464 14
-16.287 -7.455 -3.48 16
-15.417 -8.934 1.425 2
-13.43 -7.621 1.519 0
-12.317 -6.849 1.544 0
-13.593 -7.41 1.289 5
-13.083 -6.999 1.255 7
-12.732 -6.686 1.208 0
-14.298 -7.379 0.884 8
-14.316 -7.268 0.778 23
-14.353 -7.17 0.67 27
-13.759 -6.773 0.668 21
-13.574 -6.585 0.603 31
-17.778 -8.52 -0.27 1
-42.591 -20.169 -5.149 23
-40.734 -19.087 -5.102 13
0.0 -0.0 3.0 0
0.0 -0.0 3.0 0
-30.165 -13.777 -3.72 6
-18.433 -8.368 -1.264 12
-18.468 -8.342 -1.435 16
-18.391 -8.271 -1.585 41
-27.038 -12.125 -4.0 6
-24.128 -10.794 -3.486 255
-23.433 -10.472 -3.544 27
-19.224 -8.585 -2.575 4
-19.186 -8.573 -2.783 4
-19.166 -8.572 -3.002 4
-19.144 -8.578 -3.232 6
-19.149 -8.598 -3.479 15
-18.362 -8.268 -3.46 13
-17.661 -7.979 -3.461 12
-16.969 -7.691 -3.453 14
-16.364 -7.446 -3.472 16
-15.438 -8.891 1.432 21
-15.713 -8.859 1.278 21
-15.324 -8.466 1.2 20
-12.692 -6.873 1.413 5
-12.953 -6.882 1.284 8
-12.773 -6.661 1.215 19
-13.336 -6.833 1.041 1
-14.183 -7.147 0.815 36
-14.297 -7.09 0.696 20
-13.834 -6.759 0.673 16
-13.592 -6.544 0.618 17
-50.344 -23.943 -6.191 6
-18.032 -8.473 -0.423 16
-18.152 -8.44 -0.582 26
-18.235 -8.395 -0.738 10
-18.29 -8.352 -0.894 20
-18.369 -8.325 -1.06 20
-18.445 -8.309 -1.233 41
-18.479 -8.283 -1.404 39
-18.402 -8.214 -1.553 45
-23.442 -10.433 -3.024 61
-23.317 -10.354 -3.221 0
-23.453 -10.404 -3.501 61
-19.219 -8.522 -2.534 4
-19.175 -8.508 -2.739 8
-19.157 -8.508 -2.958 4
-19.227 -8.556 -3.216 2
-19.246 -8.584 -3.468 14
-18.45 -8.254 -3.449 13
-17.744 -7.965 -3.45 13
-17.04 -7.675 -3.44 14
-16.432 -7.431 -3.46 16
-15.455 -8.846 1.44 16
-15.588 -8.733 1.302 24
-15.788 -8.666 1.158 17
-12.621 -6.789 1.433 33
-12.928 -6.822 1.299 11
-13.195 -6.833 1.169 10
-13.834 -7.038 0.982 11
-14.053 -7.031 0.85 20
-14.394 -7.085 0.698 13
-13.763 -6.674 0.702 23
-13.602 -6.5 0.634 26
-17.91 -8.453 -0.245 12
-18.05 -8.416 -0.4 24
-18.166 -8.381 -0.557 35
-18.253 -8.339 -0.713 35
-18.304 -8.293 -0.867 45
-18.398 -8.273 -1.035 34
-18.492 -8.265 -1.211 28
-18.555 -8.252 -1.388 21
-18.456 -8.174 -1.531 17
-23.479 -10.37 -2.987 124
-23.379 -10.303 -3.191 255
-23.433 -10.319 -3.448 46
-19.211 -8.456 -2.491 5
-19.184 -8.451 -2.7 10
-19.145 -8.444 -2.913 8
-19.363 -8.558 -3.218 3
-19.347 -8.572 -3.459 13
-18.542 -8.241 -3.439 13
-17.825 -7.951 -3.438 13
-17.119 -7.664 -3.431 14
-16.506 -7.42 -3.451 16
-15.473 -8.801 1.448 23
-15.633 -8.703 1.308 26
-15.897 -8.669 1.157 12
-12.651 -6.759 1.439 3
-13.258 -6.948 1.268 12
-13.188 -6.782 1.183 20
-13.123 -6.629 1.099 29
0.0 -0.0 3.0 0
-14.406 -7.039 0.713 25
-13.842 -6.662 0.706 21
-13.684 -6.489 0.638 28
-17.909 -8.388 -0.22 26
-43.63 -20.185 -5.155 19
-18.205 -8.333 -0.537 1
-18.382 -8.332 -0.709 3
-18.351 -8.249 -0.847 15
-18.599 -8.298 -1.047 5
-18.539 -8.222 -1.189 0
-18.283 -8.069 -1.29 30
-18.507 -8.134 -1.509 9
-27.538 -12.071 -3.969 6
-23.351 -10.214 -3.137 255
-19.687 -8.605 -2.377 0
-19.205 -8.392 -2.45 5
-19.164 -8.383 -2.654 4
-19.14 -8.383 -2.87 4
-19.485 -8.553 -3.214 3
-19.451 -8.559 -3.45 12
-18.651 -8.236 -3.434 14
-17.912 -7.939 -3.429 12
-17.201 -7.652 -3.421 14
-16.58 -7.409 -3.44 16
-15.448 -8.733 1.46 14
-15.671 -8.669 1.315 16
-12.579 -6.815 1.551 4
-12.835 -6.812 1.427 3
-13.19 -6.865 1.288 11
-12.901 -6.587 1.235 6
-12.884 -6.462 1.147 28
-13.766 -6.787 0.925 16
-14.211 -6.891 0.761 12
-13.856 -6.618 0.721 21
-13.684 -6.44 0.656 26
-17.951 -8.342 -0.202 25
-44.017 -20.205 -5.163 18
-41.991 -19.071 -5.095 21
-18.583 -8.356 -0.72 1
-18.62 -8.304 -0.872 6
-18.606 -8.235 -1.016 43
0.0 -0.0 3.0 0
-18.283 -8.006 -1.257 35
-29.3 -12.778 -4.083 57
-27.706 -12.051 -3.958 5
-23.37 -10.145 -3.096 41
-19.807 -8.593 -2.369 1
-19.196 -8.327 -2.408 4
-19.162 -8.322 -2.613 4
-19.237 -8.366 -2.858 2
-19.599 -8.545 -3.208 4
-19.544 -8.543 -3.438 12
-18.757 -8.228 -3.429 17
-17.995 -7.925 -3.418 13
-17.277 -7.639 -3.41 14
-16.657 -7.399 -3.432 16
-17.445 -9.8 1.272 7
-15.653 -8.603 1.328 13
-15.854 -8.533 1.186 20
-12.644 -6.665 1.461 8
-13.179 -6.812 1.302 1
-13.689 -6.941 1.14 14
-12.549 -6.248 1.208 27
-13.634 -6.673 0.96 27
-14.205 -6.837 0.779 26
-13.845 -6.563 0.74 20
-13.762 -6.426 0.661 28
-17.964 -8.283 -0.18 31
-44.39 -20.216 -5.168 19
-42.322 -19.069 -5.095 22
0.0 -0.0 3.0 0
-18.67 -8.26 -0.852 33
-18.66 -8.194 -0.996 1
-18.273 -7.976 -1.064 11
-18.326 -7.962 -1.234 33
-29.513 -12.771 -4.079 57
-27.874 -12.031 -3.946 5
-23.349 -10.059 -3.044 3
-19.919 -8.578 -2.36 1
-19.187 -8.262 -2.366 4
-19.146 -8.255 -2.568 17
-19.384 -8.37 -2.861 1
-19.714 -8.535 -3.201 7
-19.641 -8.528 -3.427 13
-18.856 -8.218 -3.421 15
-18.068 -7.907 -3.403 13
-17.362 -7.63 -3.402 14
-16.739 -7.39 -3.424 15
-16.094 -8.985 1.416 19
-15.709 -8.578 1.333 1
-13.267 -7.093 1.492 0
-13.974 -7.317 1.311 1
-13.475 -6.917 1.275 13
-12.504 -6.294 1.313 13
-12.571 -6.213 1.218 11
-13.313 -6.468 1.023 20
-14.198 -6.782 0.796 24
-13.877 -6.529 0.752 26
-14.293 -6.622 0.59 14
-17.942 -8.208 -0.151 28
-44.803 -20.244 -5.179 21
-42.653 -19.067 -5.093 28
-18.723 -8.286 -0.689 10
-18.684 -8.2 -0.824 20
0.0 -0.0 3.0 0
-18.276 -7.914 -1.032 42
-18.397 -7.93 -1.216 6
-29.709 -12.755 -4.07 56
-23.438 -10.039 -2.796 27
-23.338 -9.978 -2.995 1
-20.046 -8.567 -2.354 3
-19.184 -8.2 -2.325 4
-19.147 -8.195 -2.528 4
-19.523 -8.371 -2.862 1
-19.829 -8.527 -3.195 6
-19.741 -8.514 -3.416 13
-18.941 -8.201 -3.407 16
-18.159 -7.896 -3.394 13
-17.445 -7.618 -3.392 15
-16.809 -7.376 -3.412 16
-15.759 -8.744 1.458 18
-15.757 -8.55 1.338 6
-15.794 -8.389 1.217 16
-15.209 -7.91 1.174 9
-13.966 -7.119 1.225 8
-12.537 -6.267 1.321 15
-12.719 -6.241 1.21 12
-13.565 -6.541 1.0 30
-14.208 -6.737 0.811 22
-13.888 -6.483 0.768 22
-14.455 -6.646 0.581 16
-16.559 -7.516 0.115 6
-45.267 -20.292 -5.199 17
-42.952 -19.047 -5.085 27
-18.794 -8.251 -0.674 39
-18.677 -8.131 -0.792 0
-18.266 -7.893 -0.85 28
-18.332 -7.876 -1.013 31
-31.698 -13.555 -4.207 5
-29.902 -12.738 -4.061 55
-23.466 -9.974 -2.758 26
-24.797 -10.521 -3.321 28
-20.177 -8.558 -2.348 2
-19.217 -8.153 -2.295 3
-19.265 -8.186 -2.522 1
-19.67 -8.374 -2.864 2
-19.951 -8.52 -3.19 5
-19.849 -8.502 -3.407 13
-19.04 -8.19 -3.399 15
-18.239 -7.88 -3.381 13
-17.527 -7.606 -3.382 15
-16.883 -7.364 -3.402 15
-15.8 -8.711 1.464 15
-16.324 -8.801 1.289 18
-14.001 -7.388 1.43 5
-13.126 -6.78 1.435 3
-14.086 -7.131 1.222 6
-12.94 -6.422 1.279 46
-12.838 -6.254 1.207 10
-13.643 -6.53 1.004 14
-14.337 -6.746 0.808 23
-14.088 -6.527 0.753 15
-14.473 -6.603 0.597 0
-16.544 -7.45 0.14 17
-45.804 -20.37 -5.23 10
-18.872 -8.302 -0.524 8
-18.909 -8.235 -0.667 11
-18.163 -7.845 -0.658 4
-18.269 -7.831 -0.82 39
0.0 -0.0 3.0 0
-31.908 -13.537 -4.198 5
-30.109 -12.725 -4.054 42
-23.505 -9.913 -2.723 8
-24.615 -10.364 -3.227 163
-20.308 -8.549 -2.342 2
-19.331 -8.142 -2.287 3
-19.419 -8.192 -2.526 1
-19.796 -8.368 -2.859 2
-20.084 -8.517 -3.188 6
-19.946 -8.487 -3.395 14
-19.118 -8.168 -3.382 15
-18.333 -7.87 -3.373 12
-17.609 -7.594 -3.372 14
-16.964 -7.355 -3.393 17
-15.733 -8.621 1.48 22
-16.303 -8.733 1.303 20
-16.236 -8.51 1.191 17
-13.807 -7.084 1.365 3
-12.647 -6.358 1.415 6
-12.571 -6.194 1.34 20
-12.882 -6.229 1.214 19
-14.29 -6.789 0.924 5
-14.215 -6.638 0.843 16
-14.199 -6.527 0.753 38
-14.473 -6.551 0.616 3
-16.565 -7.401 0.159 17
-18.746 -8.27 -0.341 2
-18.867 -8.234 -0.495 35
-41.744 -18.033 -5.029 8
-18.158 -7.779 -0.627 35
-18.328 -7.794 -0.801 15
0.0 -0.0 3.0 0
-32.129 -13.522 -4.19 4
-30.331 -12.717 -4.049 32
-28.641 -11.984 -3.919 7
-24.558 -10.26 -3.165 149
-20.431 -8.536 -2.334 4
-19.432 -8.123 -2.275 3
-19.555 -8.189 -2.523 2
-19.943 -8.37 -2.861 2
-20.217 -8.514 -3.186 7
-20.047 -8.472 -3.384 14
-19.217 -8.157 -3.373 14
-18.438 -7.864 -3.368 13
-17.695 -7.584 -3.364 14
-17.031 -7.339 -3.38 16
-15.28 -8.32 1.533 20
-16.218 -8.631 1.322 19
-13.258 -6.904 1.532 2
-13.292 -6.773 1.436 10
-13.16 -6.57 1.362 6
-12.586 -6.157 1.35 23
-12.89 -6.188 1.226 13
-13.195 -6.221 1.098 0
-14.261 -6.608 0.853 13
-14.533 -6.629 0.717 18
-14.541 -6.529 0.623 1
-16.589 -7.353 0.178 30
-18.119 -7.93 -0.204 15
-19.026 -8.235 -0.496 30
-18.071 -7.743 -0.448 14
-18.199 -7.734 -0.606 28
0.0 -0.0 3.0 0
0.0 -0.0 3.0 0
-32.35 -13.506 -4.181 4
-30.538 -12.703 -4.041 18
-28.82 -11.964 -3.907 6
-24.512 -10.161 -3.106 215
-20.558 -8.524 -2.327 3
-19.54 -8.107 -2.265 3
-19.705 -8.192 -2.525 2
-20.076 -8.366 -2.858 2
-20.361 -8.514 -3.186 5
-20.137 -8.452 -3.369 13
-19.306 -8.141 -3.36 16
-18.521 -7.849 -3.356 13
-17.784 -7.575 -3.356 15
-17.109 -7.327 -3.37 16
-15.274 -8.265 1.543 20
-16.227 -8.581 1.332 19
-15.562 -8.05 1.289 10
-12.719 -6.437 1.514 43
-12.891 -6.39 1.407 19
-12.715 -6.176 1.345 20
-12.898 -6.146 1.238 10
-14.001 -6.552 0.997 3
-14.703 -6.761 0.803 0
-14.576 -6.596 0.729 25
-14.588 -6.499 0.635 5
-16.635 -7.314 0.192 25
-18.175 -7.889 -0.188 18
-18.035 -7.743 -0.287 0
-18.072 -7.68 -0.42 35
-18.255 -7.694 -0.588 5
-31.514 -13.183 -3.43 2
0.0 -0.0 3.0 0
-32.571 -13.489 -4.172 4
-30.739 -12.685 -4.031 27
-29.018 -11.951 -3.9 6
-24.465 -10.064 -3.047 255
-20.675 -8.507 -2.316 3
-19.655 -8.094 -2.256 2
-19.827 -8.182 -2.519 1
-20.23 -8.37 -2.861 2
-20.512 -8.517 -3.188 4
-20.219 -8.428 -3.351 13
-19.408 -8.129 -3.351 14
-18.605 -7.833 -3.343 13
-17.866 -7.562 -3.345 14
-17.176 -7.312 -3.356 16
-15.444 -8.304 1.536 22
-15.158 -7.963 1.452 12
-15.546 -7.987 1.302 11
-13.228 -6.648 1.465 11
-12.921 -6.36 1.414 8
-13.077 -6.306 1.31 9
-12.906 -6.105 1.249 5
-16.375 -7.606 0.675 9
-15.969 -7.287 0.632 18
-14.59 -6.551 0.744 18
-14.526 -6.42 0.663 9
-16.667 -7.269 0.21 29
-18.821 -8.104 -0.274 24
-17.988 -7.66 -0.252 32
-18.142 -7.648 -0.405 5
-39.781 -16.629 -4.754 18
0.0 -0.0 3.0 0
0.0 -0.0 3.0 0
-32.804 -13.476 -4.165 5
-30.91 -12.653 -4.013 48
-29.208 -11.934 -3.89 7
-24.432 -9.972 -2.992 221
-20.795 -8.491 -2.306 3
-19.773 -8.081 -2.248 3
-19.96 -8.176 -2.515 2
-20.388 -8.375 -2.864 2
-20.674 -8.524 -3.193 4
-20.323 -8.414 -3.34 13
-19.508 -8.117 -3.341 13
-18.688 -7.818 -3.331 12
-17.952 -7.551 -3.336 15
-17.25 -7.299 -3.345 17
-15.371 -8.213 1.552 16
-15.193 -7.931 1.458 18
-15.579 -7.951 1.31 18
-15.472 -7.723 1.217 5
-13.143 -6.423 1.398 8
-12.899 -6.175 1.345 10
-12.953 -6.081 1.256 4
-16.334 -7.528 0.698 8
-16.017 -7.253 0.643 26
-17.452 -7.775 0.323 13
-14.575 -6.391 0.674 23
-16.713 -7.231 0.224 15
-17.889 -7.64 -0.087 9
-18.029 -7.614 -0.232 31
-18.328 -7.662 -0.411 27
-40.067 -16.61 -4.745 23
0.0 -0.0 3.0 0
0.0 -0.0 3.0 0
-33.022 -13.455 -4.154 5
-31.078 -12.619 -3.995 58
-29.399 -11.916 -3.88 7
-24.565 -9.947 -2.977 7
-24.323 -9.854 -3.158 28
-19.895 -8.07 -2.24 3
-20.097 -8.172 -2.512 2
-20.532 -8.373 -2.863 1
-20.846 -8.535 -3.201 4
-20.42 -8.396 -3.327 13
-19.603 -8.103 -3.33 14
-18.761 -7.798 -3.314 19
-18.038 -7.539 -3.326 15
-17.324 -7.286 -3.333 15
-15.383 -8.168 1.56 24
-15.144 -7.854 1.473 21
-15.839 -8.03 1.293 17
-13.309 -6.597 1.477 7
-12.908 -6.264 1.438 17
-13.757 -6.538 1.248 20
-13.155 -6.131 1.242 6
-16.267 -7.441 0.725 23
-16.127 -7.246 0.646 14
-14.719 -6.506 0.76 7
-16.353 -7.112 0.411 12
-16.769 -7.196 0.238 22
-17.901 -7.583 -0.064 33
-18.08 -7.573 -0.215 53
-18.358 -7.611 -0.389 30
-40.38 -16.601 -4.741 21
0.0 -0.0 3.0 0
0.0 -0.0 3.0 0
-33.247 -13.436 -4.144 4
-31.268 -12.593 -3.981 35
-29.586 -11.897 -3.869 7
-24.386 -9.797 -2.887 12
-21.21 -8.527 -2.328 9
-20.003 -8.052 -2.229 3
-20.248 -8.172 -2.512 1
-20.691 -8.377 -2.865 1
-21.044 -8.556 -3.216 4
-20.514 -8.377 -3.312 18
-19.695 -8.086 -3.318 14
-18.866 -7.791 -3.309 15
-18.127 -7.529 -3.318 15
-17.405 -7.275 -3.324 16
-15.44 -8.146 1.564 22
-15.145 -7.803 1.483 28
-16.1 -8.108 1.277 21
-15.684 -7.721 1.217 19
-12.89 -6.211 1.451 13
-13.884 -6.55 1.245 7
-13.196 -6.104 1.25 21
-16.297 -7.398 0.738 27
-16.255 -7.246 0.646 1
-16.696 -7.321 0.479 20
-16.42 -7.085 0.421 23
-16.895 -7.191 0.24 23
-16.472 -6.92 0.204 0
-18.048 -7.497 -0.182 21
-40.813 -16.78 -4.471 5
-40.689 -16.588 -4.735 21
0.0 -0.0 3.0 0
0.0 -0.0 3.0 0
-33.469 -13.414 -4.132 3
-31.473 -12.573 -3.969 14
-29.785 -11.88 -3.859 7
-24.309 -9.688 -2.821 38
-21.182 -8.449 -2.28 5
-20.118 -8.037 -2.219 3
-20.389 -8.167 -2.509 2
-21.13 -8.492 -2.946 5
-21.243 -8.575 -3.23 3
-20.618 -8.362 -3.301 13
-19.798 -8.074 -3.308 14
-18.939 -7.77 -3.292 13
-18.209 -7.516 -3.306 15
-17.479 -7.262 -3.313 16
-15.549 -8.153 1.562 17
-15.212 -7.786 1.486 13
-16.421 -8.214 1.254 3
-12.853 -6.284 1.549 0
-13.163 -6.297 1.43 9
-13.231 -6.196 1.34 20
-13.207 -6.063 1.261 1
-16.4 -7.388 0.741 11
-18.055 -7.986 0.405 14
-16.676 -7.254 0.502 36
-16.429 -7.03 0.441 25
-16.624 -7.017 0.306 29
-16.525 -6.884 0.219 0
-18.066 -7.442 -0.159 18
-40.754 -16.614 -4.397 8
