# .PCD v0.7 - Point Cloud Data file format
VERSION 0.7
FIELDS x y z intensity
SIZE 4 4 4 4
TYPE F F F F
COUNT 1 1 1 1
WIDTH 2221
HEIGHT 1
VIEWPOINT 0 0 0 1 0 0 0
POINTS 2221
DATA ascii
-6.721 -1.23 2.039 7
-1.37 -0.267 2.784 1
-1.475 -0.304 2.745 30
-1.272 -0.277 2.76 5
0.0 -0.0 3.0 0
0.0 -0.0 3.0 0
0.0 -0.0 3.0 0
0.0 -0.0 3.0 0
0.0 -0.0 3.0 0
0.0 -0.0 3.0 0
0.0 -0.0 3.0 0
0.0 -0.0 3.0 0
0.0 -0.0 3.0 0
0.0 -0.0 3.0 0
-17.067 -1.485 2.46 2
-71.816 -5.104 1.041 11
-73.27 -4.105 1.342 13
-4.743 -0.201 2.915 1
-82.035 -2.592 1.846 16
-4.862 -0.131 2.939 5
-4.881 -0.151 2.926 24
-4.835 -0.197 2.899 35
-5.095 -0.27 2.856 39
-4.918 -0.326 2.819 26
-4.8 -0.383 2.779 22
-4.867 -0.455 2.726 35
-4.675 -0.5 2.688 27
-4.779 -0.575 2.626 5
-1.627 -0.217 2.853 15
-1.638 -0.24 2.832 28
-1.66 -0.264 2.808 31
-1.686 -0.288 2.783 28
-6.58 -1.207 2.057 7
-1.428 -0.278 2.775 1
-1.506 -0.311 2.739 25
-1.318 -0.287 2.751 6
0.0 -0.0 3.0 0
0.0 -0.0 3.0 0
0.0 -0.0 3.0 0
0.0 -0.0 3.0 0
0.0 -0.0 3.0 0
0.0 -0.0 3.0 0
0.0 -0.0 3.0 0
0.0 -0.0 3.0 0
0.0 -0.0 3.0 0
0.0 -0.0 3.0 0
-16.775 -1.476 2.463 2
-72.782 -5.261 0.981 26
-73.75 -4.243 1.286 14
-75.789 -3.353 1.577 7
-82.091 -2.8 1.753 41
-4.865 -0.145 2.932 1
-4.877 -0.163 2.921 31
-4.807 -0.205 2.896 41
-4.883 -0.266 2.859 28
-4.901 -0.331 2.817 26
-4.803 -0.388 2.776 32
-4.91 -0.463 2.722 27
-4.651 -0.5 2.687 25
-4.779 -0.578 2.625 1
-1.627 -0.218 2.853 19
-1.634 -0.24 2.832 28
-1.652 -0.263 2.809 30
-1.685 -0.289 2.782 29
-6.455 -1.186 2.073 7
-1.47 -0.287 2.767 2
-1.522 -0.315 2.736 26
-1.322 -0.288 2.75 13
0.0 -0.0 3.0 0
0.0 -0.0 3.0 0
0.0 -0.0 3.0 0
0.0 -0.0 3.0 0
0.0 -0.0 3.0 0
0.0 -0.0 3.0 0
0.0 -0.0 3.0 0
0.0 -0.0 3.0 0
-69.122 -8.429 0.261 14
0.0 -0.0 3.0 0
-16.526 -1.473 2.464 2
0.0 -0.0 3.0 0
-74.225 -4.391 1.226 13
-76.312 -3.532 1.501 17
-83.113 -3.048 1.643 9
-4.857 -0.159 2.926 3
-4.88 -0.176 2.914 29
-4.802 -0.214 2.891 38
-1.705 -0.095 2.949 1
-4.901 -0.337 2.813 25
-4.846 -0.396 2.771 36
-4.882 -0.464 2.721 19
-4.654 -0.505 2.685 22
-9.323 -1.134 2.264 19
-1.627 -0.219 2.852 20
-1.634 -0.24 2.832 28
-1.652 -0.264 2.808 29
-1.685 -0.29 2.782 27
-6.326 -1.164 2.09 7
-1.47 -0.288 2.767 3
-1.514 -0.314 2.737 30
-1.291 -0.281 2.756 10
0.0 -0.0 3.0 0
0.0 -0.0 3.0 0
0.0 -0.0 3.0 0
0.0 -0.0 3.0 0
0.0 -0.0 3.0 0
0.0 -0.0 3.0 0
0.0 -0.0 3.0 0
0.0 -0.0 3.0 0
0.0 -0.0 3.0 0
-14.159 -1.504 2.482 2
-16.289 -1.471 2.465 2
0.0 -0.0 3.0 0
-74.727 -4.547 1.163 14
-76.85 -3.72 1.421 31
-83.599 -3.284 1.538 16
-4.856 -0.172 2.92 20
-4.872 -0.188 2.908 23
-4.781 -0.223 2.887 26
-1.7 -0.098 2.948 2
-4.829 -0.338 2.813 29
-4.854 -0.402 2.768 39
-4.854 -0.466 2.72 13
-4.669 -0.51 2.681 15
-9.23 -1.129 2.267 11
-1.619 -0.219 2.852 23
-1.634 -0.241 2.831 29
-1.652 -0.265 2.808 29
-1.685 -0.29 2.781 27
-6.204 -1.144 2.106 8
-1.485 -0.292 2.764 5
-1.513 -0.314 2.736 27
-1.195 -0.261 2.773 6
0.0 -0.0 3.0 0
0.0 -0.0 3.0 0
0.0 -0.0 3.0 0
0.0 -0.0 3.0 0
0.0 -0.0 3.0 0
0.0 -0.0 3.0 0
0.0 -0.0 3.0 0
0.0 -0.0 3.0 0
0.0 -0.0 3.0 0
-13.966 -1.5 2.484 2
-16.12 -1.477 2.462 3
0.0 -0.0 3.0 0
-75.24 -4.715 1.095 14
-77.263 -3.91 1.34 16
-84.123 -3.527 1.43 13
-4.868 -0.187 2.913 18
-4.863 -0.2 2.902 18
-4.765 -0.233 2.881 33
-1.68 -0.099 2.947 3
-4.924 -0.351 2.805 24
-4.881 -0.41 2.763 43
-4.833 -0.469 2.718 13
-4.681 -0.515 2.678 23
-9.023 -1.11 2.279 11
-1.618 -0.22 2.851 26
-1.626 -0.241 2.831 29
-1.652 -0.265 2.807 28
-1.685 -0.291 2.781 28
-6.091 -1.126 2.12 8
-1.485 -0.292 2.763 6
-1.479 -0.308 2.742 21
-1.172 -0.256 2.777 6
0.0 -0.0 3.0 0
0.0 -0.0 3.0 0
0.0 -0.0 3.0 0
0.0 -0.0 3.0 0
0.0 -0.0 3.0 0
0.0 -0.0 3.0 0
0.0 -0.0 3.0 0
0.0 -0.0 3.0 0
-12.164 -1.519 2.507 0
-13.797 -1.498 2.484 2
-15.914 -1.479 2.462 2
-74.643 -5.828 0.763 29
-15.403 -0.994 2.598 0
-77.297 -4.088 1.265 9
-4.798 -0.214 2.905 0
-4.891 -0.201 2.906 35
-4.814 -0.211 2.897 11
-4.752 -0.242 2.877 32
-1.676 -0.103 2.945 3
-4.935 -0.359 2.801 17
-4.988 -0.425 2.754 38
-4.825 -0.474 2.715 16
-4.676 -0.519 2.676 26
-8.678 -1.074 2.302 9
-1.614 -0.22 2.851 27
-1.621 -0.242 2.831 28
-1.648 -0.266 2.807 28
-1.681 -0.292 2.78 27
-5.988 -1.11 2.132 8
-1.485 -0.293 2.763 9
-1.343 -0.279 2.766 24
-1.16 -0.254 2.779 7
0.0 -0.0 3.0 0
0.0 -0.0 3.0 0
0.0 -0.0 3.0 0
0.0 -0.0 3.0 0
0.0 -0.0 3.0 0
0.0 -0.0 3.0 0
0.0 -0.0 3.0 0
0.0 -0.0 3.0 0
-12.023 -1.514 2.508 2
-13.628 -1.496 2.485 2
-15.721 -1.483 2.46 2
0.0 -0.0 3.0 0
-13.797 -0.918 2.629 0
-15.444 -0.853 2.638 10
-4.79 -0.226 2.899 6
-4.878 -0.215 2.9 37
-4.758 -0.221 2.892 33
-4.752 -0.253 2.871 31
-1.672 -0.106 2.944 4
-1.69 -0.125 2.931 0
-5.071 -0.439 2.747 37
-4.828 -0.479 2.712 26
-4.687 -0.524 2.672 26
-8.669 -1.081 2.298 18
-1.61 -0.221 2.851 26
-1.609 -0.241 2.831 22
-1.643 -0.266 2.806 24
-1.677 -0.292 2.78 27
-5.976 -1.111 2.132 11
-1.489 -0.294 2.762 12
-1.335 -0.278 2.766 23
-1.133 -0.249 2.784 6
0.0 -0.0 3.0 0
0.0 -0.0 3.0 0
0.0 -0.0 3.0 0
0.0 -0.0 3.0 0
0.0 -0.0 3.0 0
0.0 -0.0 3.0 0
0.0 -0.0 3.0 0
0.0 -0.0 3.0 0
-11.89 -1.511 2.509 2
-13.527 -1.503 2.482 2
-15.559 -1.491 2.457 2
0.0 -0.0 3.0 0
-13.735 -0.941 2.62 21
-13.829 -0.796 2.662 0
-4.781 -0.239 2.894 3
-4.873 -0.228 2.894 43
-4.741 -0.232 2.887 34
-4.751 -0.264 2.866 29
-1.675 -0.109 2.942 4
-1.662 -0.126 2.93 2
-5.09 -0.448 2.742 35
-4.823 -0.484 2.709 24
-4.695 -0.53 2.669 24
-8.616 -1.081 2.298 4
-1.527 -0.211 2.858 24
-1.385 -0.208 2.854 35
-1.518 -0.247 2.821 27
-1.672 -0.292 2.78 26
-5.967 -1.112 2.131 9
-1.492 -0.296 2.761 13
-1.312 -0.274 2.77 18
-1.125 -0.247 2.785 10
0.0 -0.0 3.0 0
0.0 -0.0 3.0 0
0.0 -0.0 3.0 0
0.0 -0.0 3.0 0
0.0 -0.0 3.0 0
0.0 -0.0 3.0 0
0.0 -0.0 3.0 0
-10.532 -1.524 2.534 2
-11.761 -1.509 2.51 2
-13.342 -1.5 2.483 4
-15.362 -1.496 2.455 2
-76.473 -6.367 0.556 17
-13.66 -0.965 2.61 25
-13.815 -0.829 2.648 31
-16.245 -0.857 2.618 1
-4.813 -0.239 2.888 33
-4.732 -0.245 2.88 35
-4.798 -0.277 2.859 28
-1.671 -0.112 2.941 5
-1.65 -0.128 2.929 3
-5.097 -0.455 2.737 3
-4.814 -0.489 2.706 25
-4.872 -0.555 2.653 26
-8.559 -1.083 2.297 4
-1.491 -0.208 2.86 26
-1.404 -0.212 2.851 33
-1.408 -0.23 2.833 28
-1.664 -0.292 2.78 25
-5.888 -1.101 2.14 1
-1.48 -0.294 2.762 13
-1.242 -0.26 2.782 15
-1.11 -0.245 2.787 10
0.0 -0.0 3.0 0
0.0 -0.0 3.0 0
0.0 -0.0 3.0 0
0.0 -0.0 3.0 0
0.0 -0.0 3.0 0
0.0 -0.0 3.0 0
0.0 -0.0 3.0 0
-10.431 -1.522 2.535 2
-11.64 -1.509 2.51 2
-13.24 -1.508 2.481 4
-15.168 -1.502 2.453 2
0.0 -0.0 3.0 0
-13.638 -0.993 2.599 45
-13.812 -0.863 2.634 0
-16.198 -0.899 2.6 8
-4.768 -0.251 2.883 43
-4.727 -0.257 2.874 37
-4.825 -0.291 2.852 29
-1.663 -0.114 2.939 8
-1.558 -0.124 2.931 6
-1.571 -0.143 2.918 0
-4.817 -0.495 2.702 25
-4.935 -0.568 2.645 37
-8.127 -1.036 2.327 0
-1.487 -0.208 2.86 25
-1.424 -0.216 2.849 28
-1.407 -0.231 2.832 26
-1.598 -0.281 2.788 19
-5.837 -1.095 2.144 13
-1.472 -0.293 2.763 13
-1.211 -0.255 2.786 14
-1.06 -0.234 2.797 10
0.0 -0.0 3.0 0
0.0 -0.0 3.0 0
0.0 -0.0 3.0 0
0.0 -0.0 3.0 0
0.0 -0.0 3.0 0
-13.179 -2.383 2.361 7
-9.353 -1.532 2.561 0
-10.327 -1.519 2.536 2
-11.575 -1.516 2.507 5
-13.059 -1.507 2.481 5
-14.962 -1.507 2.451 2
-17.122 -1.49 2.428 6
-12.128 -0.91 2.633 5
-12.154 -0.79 2.665 3
-16.207 -0.944 2.58 8
-4.759 -0.264 2.877 43
-4.726 -0.27 2.868 31
-4.824 -0.302 2.846 13
-1.663 -0.118 2.937 8
-1.565 -0.127 2.93 8
-1.563 -0.144 2.917 2
-4.825 -0.503 2.698 23
-4.958 -0.576 2.64 18
-7.955 -1.022 2.336 0
-1.503 -0.211 2.858 20
-1.368 -0.209 2.853 22
-1.384 -0.228 2.835 22
-1.426 -0.252 2.81 33
-1.634 -0.308 2.76 3
-1.464 -0.293 2.763 13
-1.223 -0.257 2.784 14
-1.044 -0.231 2.799 12
0.0 -0.0 3.0 0
0.0 -0.0 3.0 0
0.0 -0.0 3.0 0
0.0 -0.0 3.0 0
0.0 -0.0 3.0 0
-13.184 -2.399 2.357 85
-9.265 -1.528 2.562 2
-10.222 -1.517 2.536 2
-11.473 -1.519 2.507 7
-12.937 -1.513 2.479 4
-14.772 -1.514 2.449 2
-17.011 -1.514 2.419 2
-12.062 -0.931 2.624 19
-12.131 -0.819 2.652 20
-16.0 -0.977 2.565 6
-4.754 -0.277 2.871 41
-4.741 -0.284 2.861 22
-4.851 -0.316 2.839 3
-1.658 -0.121 2.936 7
-1.597 -0.132 2.927 10
-1.547 -0.146 2.916 6
-1.588 -0.167 2.899 3
-4.969 -0.583 2.635 1
-7.768 -1.007 2.346 0
-1.447 -0.205 2.861 12
-1.337 -0.205 2.856 18
-1.281 -0.213 2.846 13
-1.425 -0.253 2.809 34
-1.634 -0.309 2.759 8
-1.453 -0.291 2.764 11
-1.141 -0.241 2.798 11
-1.048 -0.233 2.798 12
0.0 -0.0 3.0 0
0.0 -0.0 3.0 0
0.0 -0.0 3.0 0
0.0 -0.0 3.0 0
-11.83 -2.371 2.409 0
-13.177 -2.412 2.354 86
-9.18 -1.525 2.563 2
-10.125 -1.515 2.537 2
-11.356 -1.52 2.506 10
-12.804 -1.518 2.477 3
-14.614 -1.524 2.445 2
-10.474 -0.953 2.634 0
-12.012 -0.956 2.614 22
-10.514 -0.737 2.687 0
-15.889 -1.014 2.548 9
-4.753 -0.291 2.864 36
-4.752 -0.298 2.855 26
-4.834 -0.326 2.834 0
-1.654 -0.125 2.934 5
-1.593 -0.135 2.925 10
-1.539 -0.147 2.915 7
-1.576 -0.168 2.899 3
-1.577 -0.187 2.883 0
-7.612 -0.995 2.354 0
-1.427 -0.204 2.862 11
-1.329 -0.206 2.856 17
-1.273 -0.212 2.846 12
-1.425 -0.254 2.808 29
-1.626 -0.308 2.759 7
-1.441 -0.289 2.766 11
-1.079 -0.229 2.808 10
-1.047 -0.233 2.797 12
0.0 -0.0 3.0 0
0.0 -0.0 3.0 0
0.0 -0.0 3.0 0
0.0 -0.0 3.0 0
-11.792 -2.376 2.408 69
-8.314 -1.532 2.59 3
-9.103 -1.523 2.563 2
-10.071 -1.521 2.535 3
-11.247 -1.521 2.506 10
-12.658 -1.522 2.476 3
-14.42 -1.531 2.443 2
-10.448 -0.973 2.626 53
-11.977 -0.98 2.604 18
-10.511 -0.764 2.676 31
-15.81 -1.053 2.531 30
-4.768 -0.305 2.858 31
-4.775 -0.312 2.848 6
-9.535 -0.669 2.659 0
-1.638 -0.127 2.933 1
-1.568 -0.136 2.925 13
-1.534 -0.15 2.914 8
-1.548 -0.168 2.899 7
-1.592 -0.191 2.881 3
-7.448 -0.982 2.362 0
-1.375 -0.197 2.867 10
-1.261 -0.196 2.862 15
-1.25 -0.209 2.848 12
-1.311 -0.234 2.823 13
-1.559 -0.297 2.768 3
-1.413 -0.285 2.769 11
-1.087 -0.231 2.806 10
-1.051 -0.234 2.796 12
0.0 -0.0 3.0 0
0.0 -0.0 3.0 0
0.0 -0.0 3.0 0
-10.371 -2.284 2.473 0
-11.782 -2.387 2.405 85
-8.257 -1.531 2.59 3
-9.034 -1.524 2.563 2
-9.994 -1.523 2.534 5
-11.137 -1.524 2.505 7
-12.528 -1.527 2.474 4
-14.258 -1.541 2.439 2
-10.414 -0.992 2.619 102
-10.497 -0.884 2.643 6
-15.983 -1.204 2.489 5
-15.196 -1.055 2.53 39
-4.819 -0.323 2.85 26
-4.766 -0.325 2.841 2
-9.489 -0.689 2.649 10
-9.386 -0.748 2.602 9
-1.568 -0.139 2.923 13
-1.542 -0.152 2.912 11
-1.543 -0.17 2.898 7
-1.576 -0.191 2.88 6
-7.285 -0.97 2.37 0
-1.355 -0.196 2.868 11
-1.261 -0.198 2.862 16
-1.238 -0.208 2.849 15
-1.257 -0.226 2.83 12
-1.497 -0.286 2.777 10
-1.378 -0.278 2.775 9
-1.087 -0.232 2.806 11
-1.055 -0.236 2.795 13
0.0 -0.0 3.0 0
0.0 -0.0 3.0 0
0.0 -0.0 3.0 0
-10.177 -2.252 2.48 56
-7.598 -1.548 2.614 0
-8.196 -1.53 2.59 2
-8.961 -1.524 2.563 2
-9.909 -1.525 2.534 10
-11.028 -1.527 2.504 10
-12.41 -1.535 2.472 4
-14.084 -1.549 2.436 3
-10.372 -1.011 2.612 104
-10.466 -0.907 2.634 15
-15.887 -1.238 2.474 9
-15.149 -1.094 2.513 45
-4.81 -0.335 2.844 6
-12.577 -0.892 2.565 16
-9.438 -0.71 2.638 12
-9.368 -0.769 2.591 14
-1.556 -0.141 2.922 14
-1.538 -0.155 2.91 15
-1.547 -0.172 2.896 10
-1.568 -0.193 2.88 6
-7.149 -0.961 2.376 0
-1.379 -0.201 2.864 11
-1.277 -0.201 2.859 16
-1.241 -0.21 2.847 15
-1.248 -0.226 2.83 11
-1.419 -0.272 2.788 12
-1.347 -0.274 2.778 8
-1.09 -0.233 2.804 11
-1.058 -0.237 2.794 13
0.0 -0.0 3.0 0
0.0 -0.0 3.0 0
-9.436 -2.266 2.518 0
-10.085 -2.243 2.482 60
-7.545 -1.547 2.614 3
-8.139 -1.53 2.59 2
-8.896 -1.525 2.563 2
-9.819 -1.525 2.534 8
-10.95 -1.534 2.501 5
-12.268 -1.54 2.47 2
-13.826 -1.549 2.436 6
-10.349 -1.032 2.604 58
-10.416 -0.928 2.625 21
-15.815 -1.275 2.459 26
-15.009 -1.127 2.498 13
-4.829 -0.351 2.836 1
-9.536 -0.703 2.657 0
-9.412 -0.732 2.627 12
-9.33 -0.787 2.582 103
-1.559 -0.144 2.92 17
-1.557 -0.16 2.908 19
-1.539 -0.174 2.896 11
-1.555 -0.194 2.879 8
-1.587 -0.216 2.86 0
-1.489 -0.219 2.852 9
-1.308 -0.208 2.855 15
-1.245 -0.212 2.846 16
-1.221 -0.222 2.833 15
-1.364 -0.263 2.794 12
-1.316 -0.268 2.783 7
-1.09 -0.234 2.804 11
-1.058 -0.238 2.793 12
0.0 -0.0 3.0 0
0.0 -0.0 3.0 0
-9.41 -2.27 2.518 26
-10.07 -2.251 2.48 58
-7.493 -1.545 2.615 3
-8.082 -1.529 2.59 2
-8.897 -1.538 2.559 8
-9.769 -1.533 2.531 11
-10.812 -1.533 2.502 5
-12.111 -1.542 2.469 3
-13.755 -1.569 2.429 13
-10.343 -1.054 2.595 32
-10.449 -0.957 2.613 18
-15.238 -1.27 2.461 58
-14.017 -1.092 2.514 1
-12.728 -0.961 2.552 26
-9.49 -0.726 2.646 10
-9.394 -0.755 2.615 13
-9.295 -0.806 2.571 255
-1.575 -0.15 2.917 13
-1.549 -0.162 2.907 19
-1.542 -0.178 2.893 17
-1.555 -0.196 2.878 11
-1.575 -0.216 2.86 3
-1.618 -0.24 2.838 10
-1.327 -0.212 2.851 13
-1.252 -0.214 2.844 16
-1.224 -0.224 2.832 16
-1.34 -0.259 2.797 15
-1.28 -0.262 2.788 8
-1.097 -0.236 2.802 11
-1.069 -0.242 2.79 12
0.0 -0.0 3.0 0
0.0 -0.0 3.0 0
-9.38 -2.273 2.517 29
-6.946 -1.561 2.64 3
-7.44 -1.544 2.615 3
-8.021 -1.529 2.59 2
-8.804 -1.535 2.56 17
-9.68 -1.535 2.531 14
-10.734 -1.541 2.499 7
-11.992 -1.55 2.466 8
-8.865 -1.029 2.625 5
-8.853 -0.922 2.646 0
-10.462 -0.984 2.602 17
-8.853 -0.762 2.677 6
-12.77 -1.031 2.541 6
-12.509 -0.98 2.543 11
-9.439 -0.748 2.635 10
-9.375 -0.778 2.604 12
-9.142 -0.814 2.567 255
-1.594 -0.155 2.914 11
-1.525 -0.162 2.906 20
-1.538 -0.179 2.892 21
-1.547 -0.197 2.877 12
-1.531 -0.212 2.862 6
-1.634 -0.245 2.835 13
-1.354 -0.218 2.847 24
-1.256 -0.216 2.843 16
-1.232 -0.226 2.83 14
-1.266 -0.246 2.808 13
-1.234 -0.254 2.795 11
-1.101 -0.238 2.8 11
-1.069 -0.242 2.789 12
0.0 -0.0 3.0 0
-8.967 -2.345 2.544 0
-9.343 -2.276 2.516 32
-6.897 -1.559 2.64 3
-7.387 -1.543 2.615 3
-7.98 -1.533 2.589 3
-8.755 -1.539 2.559 5
-9.582 -1.535 2.531 7
-10.633 -1.545 2.498 6
-11.886 -1.559 2.463 4
-8.791 -1.039 2.622 20
-8.831 -0.94 2.639 17
-8.844 -0.855 2.655 0
-14.851 -1.317 2.441 20
-12.759 -1.066 2.525 49
-9.534 -0.774 2.639 1
-9.417 -0.773 2.623 11
-9.353 -0.8 2.592 20
-8.765 -0.802 2.574 255
-1.586 -0.158 2.913 7
-1.532 -0.166 2.904 18
-1.533 -0.182 2.891 20
-1.53 -0.197 2.877 19
-1.503 -0.21 2.863 7
-1.59 -0.24 2.838 12
-1.369 -0.222 2.845 27
-1.267 -0.219 2.841 16
-1.235 -0.228 2.828 15
-1.235 -0.241 2.812 13
-1.276 -0.263 2.787 10
-1.101 -0.239 2.8 11
-1.069 -0.243 2.789 12
-8.005 -2.247 2.604 0
-8.911 -2.34 2.545 41
-6.43 -1.574 2.666 1
-6.852 -1.558 2.64 3
-7.342 -1.543 2.615 3
-7.97 -1.542 2.587 4
-8.689 -1.542 2.558 17
-9.517 -1.541 2.529 5
-10.527 -1.549 2.497 6
-11.748 -1.565 2.461 8
-8.756 -1.054 2.616 14
-8.784 -0.957 2.633 25
-8.846 -0.878 2.645 25
-14.003 -1.28 2.457 2
-12.715 -1.099 2.511 16
-9.479 -0.797 2.629 10
-9.398 -0.798 2.611 12
-9.314 -0.821 2.581 66
-8.675 -0.815 2.567 255
-1.589 -0.162 2.91 0
-1.54 -0.17 2.902 19
-1.533 -0.184 2.889 20
-1.522 -0.199 2.876 22
-1.499 -0.212 2.862 8
-1.57 -0.239 2.839 18
-1.389 -0.227 2.841 26
-1.298 -0.226 2.836 19
-1.247 -0.231 2.826 16
-1.219 -0.24 2.813 14
-1.287 -0.267 2.784 11
-1.1 -0.24 2.799 12
-1.076 -0.245 2.787 12
-7.983 -2.25 2.603 2
-8.881 -2.343 2.544 75
-6.393 -1.573 2.666 2
-6.807 -1.556 2.641 3
-7.297 -1.544 2.615 3
-7.912 -1.543 2.587 20
-8.604 -1.54 2.558 5
-9.447 -1.546 2.527 8
-10.452 -1.557 2.494 12
-11.634 -1.573 2.458 9
-8.73 -1.07 2.61 15
-8.742 -0.973 2.627 20
-8.831 -0.898 2.637 5
-12.956 -1.22 2.482 2
-12.52 -1.117 2.503 7
-9.437 -0.82 2.618 11
-9.376 -0.821 2.599 13
-9.288 -0.844 2.57 255
-8.665 -0.835 2.556 255
-8.099 -0.84 2.534 1
-1.527 -0.172 2.901 16
-1.525 -0.186 2.888 20
-1.506 -0.199 2.876 21
-1.506 -0.215 2.86 11
-1.561 -0.239 2.839 24
-1.416 -0.233 2.837 25
-1.313 -0.23 2.833 22
-1.246 -0.232 2.825 16
-1.218 -0.241 2.812 16
-1.283 -0.267 2.784 13
-1.108 -0.242 2.797 12
-1.072 -0.245 2.787 12
-7.969 -2.256 2.602 80
-8.882 -2.354 2.542 64
-6.348 -1.57 2.666 2
-6.766 -1.556 2.641 3
-7.244 -1.543 2.615 3
-7.867 -1.546 2.586 3
-8.578 -1.55 2.556 13
-9.357 -1.548 2.527 9
-10.339 -1.561 2.493 6
-7.173 -0.985 2.661 0
-8.707 -1.088 2.604 22
-8.716 -0.991 2.62 18
-8.888 -0.927 2.625 1
-12.602 -1.221 2.482 6
-9.528 -0.878 2.609 1
-9.414 -0.846 2.606 11
-9.357 -0.846 2.587 27
-8.708 -0.815 2.585 44
-8.654 -0.856 2.545 75
-7.906 -0.838 2.535 0
-1.551 -0.177 2.898 11
-1.52 -0.189 2.887 22
-1.501 -0.201 2.874 25
-1.49 -0.215 2.86 14
-1.549 -0.24 2.838 22
-1.494 -0.248 2.826 22
-1.317 -0.233 2.831 24
-1.258 -0.236 2.822 18
-1.226 -0.243 2.81 16
-1.275 -0.266 2.784 13
-1.107 -0.243 2.796 12
-1.072 -0.246 2.786 13
-7.978 -2.268 2.6 80
-5.922 -1.576 2.694 3
-6.304 -1.567 2.667 2
-6.725 -1.556 2.641 3
-7.253 -1.556 2.612 19
-7.809 -1.547 2.585 19
-8.489 -1.549 2.556 9
-9.275 -1.55 2.526 7
-10.241 -1.566 2.491 9
-7.155 -0.998 2.656 1
-8.709 -1.107 2.597 17
-8.697 -1.01 2.612 31
-7.2 -0.77 2.689 4
-12.061 -1.203 2.49 2
-9.481 -0.9 2.599 10
-9.399 -0.871 2.594 12
-9.306 -0.868 2.577 35
-8.674 -0.835 2.575 42
-8.6 -0.872 2.537 20
-7.717 -0.836 2.537 0
-1.578 -0.184 2.894 11
-1.532 -0.193 2.884 30
-1.481 -0.201 2.875 22
-1.494 -0.218 2.858 18
-1.529 -0.239 2.839 22
-1.513 -0.253 2.823 24
-1.32 -0.235 2.829 24
-1.285 -0.242 2.817 23
-1.237 -0.247 2.807 18
-1.297 -0.272 2.779 13
-1.119 -0.246 2.793 11
-1.079 -0.249 2.784 12
-7.972 -2.276 2.599 78
-5.905 -1.58 2.693 2
-6.271 -1.567 2.667 2
-6.684 -1.556 2.641 3
-7.196 -1.554 2.612 3
-7.772 -1.552 2.584 4
-8.462 -1.558 2.553 8
-9.233 -1.561 2.523 12
-10.17 -1.575 2.488 6
-7.184 -1.016 2.65 22
-8.71 -1.127 2.59 15
-8.698 -1.032 2.604 23
-7.202 -0.789 2.681 39
-11.66 -1.195 2.493 3
-9.438 -0.923 2.589 10
-9.372 -0.895 2.582 13
-9.156 -0.88 2.571 8
-8.675 -0.858 2.563 251
-8.136 -0.845 2.551 0
-7.56 -0.837 2.536 0
-1.546 -0.183 2.894 8
-1.531 -0.196 2.882 27
-1.477 -0.203 2.873 23
-1.493 -0.22 2.857 26
-1.513 -0.239 2.839 23
-1.504 -0.254 2.822 26
-1.34 -0.24 2.825 26
-1.304 -0.248 2.813 26
-1.283 -0.257 2.799 28
-1.258 -0.265 2.785 15
-1.126 -0.249 2.791 13
-1.086 -0.251 2.782 12
-5.527 -1.585 2.721 1
-5.86 -1.576 2.694 2
-6.23 -1.566 2.667 2
-6.643 -1.556 2.641 3
-7.154 -1.557 2.612 13
-7.698 -1.55 2.585 13
-8.365 -1.555 2.554 13
-9.143 -1.563 2.522 10
-10.088 -1.583 2.486 9
-7.122 -1.023 2.648 145
-7.178 -0.946 2.656 4
-8.691 -1.052 2.596 24
-7.176 -0.805 2.675 0
-9.534 -1.003 2.574 1
-9.419 -0.948 2.578 11
-9.345 -0.92 2.571 18
-8.688 -0.86 2.581 24
-8.64 -0.877 2.553 15
-7.903 -0.841 2.553 0
-7.399 -0.835 2.537 0
-1.541 -0.187 2.892 11
-1.527 -0.198 2.881 24
-1.472 -0.205 2.872 24
-1.477 -0.22 2.857 23
-1.504 -0.24 2.838 24
-1.524 -0.259 2.819 30
-1.343 -0.243 2.824 28
-1.307 -0.25 2.812 26
-1.283 -0.259 2.798 28
-1.25 -0.265 2.785 16
-1.141 -0.253 2.788 17
-1.082 -0.251 2.782 12
-5.502 -1.585 2.721 2
-5.831 -1.575 2.694 2
-6.189 -1.564 2.667 2
-6.644 -1.566 2.638 4
-7.136 -1.564 2.61 8
-7.676 -1.558 2.582 6
-8.323 -1.562 2.552 5
-9.077 -1.569 2.52 6
-10.001 -1.59 2.484 11
-7.088 -1.034 2.644 176
-7.175 -0.962 2.65 10
-7.213 -0.892 2.658 1
-12.635 -1.452 2.413 9
-9.483 -1.025 2.565 10
-9.396 -0.973 2.567 13
-9.314 -0.943 2.56 37
-8.677 -0.882 2.57 22
-8.609 -0.898 2.543 6
-7.733 -0.842 2.552 0
-7.245 -0.836 2.537 0
-1.541 -0.189 2.891 12
-1.546 -0.203 2.878 20
-1.46 -0.205 2.872 23
-1.472 -0.222 2.856 27
-1.492 -0.241 2.838 24
-1.523 -0.261 2.817 26
-1.366 -0.248 2.82 27
-1.314 -0.253 2.809 25
-1.286 -0.261 2.796 27
-1.265 -0.269 2.782 13
-1.148 -0.257 2.785 16
-1.089 -0.254 2.779 12
-5.465 -1.581 2.721 2
-5.787 -1.571 2.695 2
-6.156 -1.565 2.667 2
-6.599 -1.566 2.639 17
-7.06 -1.558 2.612 6
-7.595 -1.555 2.583 9
-8.253 -1.564 2.552 17
-9.019 -1.576 2.518 12
-9.907 -1.595 2.482 12
-7.058 -1.045 2.64 97
-7.165 -0.978 2.644 16
-7.207 -0.909 2.651 7
-12.19 -1.433 2.421 4
-9.44 -1.046 2.556 11
-9.377 -0.998 2.556 13
-9.227 -0.962 2.552 41
-8.677 -0.907 2.557 73
-8.078 -0.865 2.559 0
-7.548 -0.841 2.553 0
-1.542 -0.182 2.899 0
-1.54 -0.193 2.889 16
-1.537 -0.206 2.876 23
-1.448 -0.206 2.871 24
-1.468 -0.224 2.854 25
-1.484 -0.241 2.837 27
-1.515 -0.262 2.817 28
-1.389 -0.254 2.815 31
-1.337 -0.259 2.805 27
-1.321 -0.269 2.79 28
-1.284 -0.275 2.778 12
-1.159 -0.26 2.782 15
-1.085 -0.254 2.779 12
-5.444 -1.582 2.721 3
-5.754 -1.571 2.695 2
-6.111 -1.563 2.668 2
-6.554 -1.566 2.639 10
-7.034 -1.565 2.61 25
-7.573 -1.564 2.581 9
-8.187 -1.567 2.551 4
-8.917 -1.576 2.518 8
-9.821 -1.602 2.479 8
-7.047 -1.06 2.635 105
-7.107 -0.987 2.641 32
-7.247 -0.933 2.642 10
-9.54 -1.148 2.536 1
-9.416 -1.071 2.546 11
-9.345 -1.021 2.545 18
-8.692 -0.931 2.566 24
-8.623 -0.926 2.548 9
-7.88 -0.865 2.559 0
-7.387 -0.842 2.552 0
-1.546 -0.186 2.897 2
-1.528 -0.195 2.888 22
-1.537 -0.209 2.875 23
-1.439 -0.208 2.87 24
-1.467 -0.226 2.853 25
-1.483 -0.244 2.836 27
-1.569 -0.274 2.808 21
-1.384 -0.255 2.814 34
-1.341 -0.261 2.803 28
-1.324 -0.272 2.788 28
-1.264 -0.272 2.78 12
-1.178 -0.266 2.777 17
-1.085 -0.255 2.779 11
-5.419 -1.583 2.721 3
-5.728 -1.572 2.694 3
-6.132 -1.577 2.665 4
-6.513 -1.566 2.638 4
-6.988 -1.566 2.61 3
-7.492 -1.561 2.582 8
-8.141 -1.573 2.549 14
-8.882 -1.588 2.514 7
-9.762 -1.613 2.476 9
-7.037 -1.074 2.63 49
-7.084 -1.001 2.635 35
-7.217 -0.947 2.636 12
-9.481 -1.166 2.529 9
-9.397 -1.094 2.535 12
-9.314 -1.045 2.535 29
-8.672 -0.954 2.555 16
-8.576 -0.945 2.539 2
-7.703 -0.867 2.558 0
-7.233 -0.843 2.552 0
-1.525 -0.187 2.896 6
-1.531 -0.198 2.885 22
-1.54 -0.212 2.873 34
-1.439 -0.211 2.868 22
-1.455 -0.227 2.852 26
-1.475 -0.244 2.835 26
-1.607 -0.282 2.802 22
-1.392 -0.258 2.812 34
-1.371 -0.269 2.797 23
-1.312 -0.271 2.789 18
-1.229 -0.266 2.785 15
-1.197 -0.271 2.773 16
-1.092 -0.257 2.776 11
-5.371 -1.576 2.722 2
-5.695 -1.571 2.695 2
-6.091 -1.576 2.665 4
-6.479 -1.568 2.638 14
-5.957 -1.345 2.665 0
-7.469 -1.569 2.58 17
-8.06 -1.573 2.549 4
-8.8 -1.591 2.514 15
-9.683 -1.621 2.473 13
-7.026 -1.089 2.625 33
-7.062 -1.015 2.63 15
-7.175 -0.961 2.631 8
-9.434 -1.186 2.521 10
-9.378 -1.119 2.525 13
-9.231 -1.062 2.527 41
-8.669 -0.979 2.544 37
-8.06 -0.911 2.555 0
-7.545 -0.869 2.557 0
-7.1 -0.846 2.55 0
-1.525 -0.19 2.895 8
-1.526 -0.201 2.884 25
-1.54 -0.215 2.871 40
-1.43 -0.212 2.867 21
-1.458 -0.231 2.85 24
-1.474 -0.246 2.834 25
-1.622 -0.288 2.799 21
-1.383 -0.259 2.812 22
-1.406 -0.278 2.791 22
-1.389 -0.288 2.775 13
-1.217 -0.265 2.786 18
-1.219 -0.277 2.768 17
-1.088 -0.258 2.776 11
-5.349 -1.577 2.722 3
-5.658 -1.57 2.695 3
-6.053 -1.576 2.665 23
-6.484 -1.58 2.635 11
-5.799 -1.319 2.671 0
-7.4 -1.569 2.58 4
-8.029 -1.583 2.546 13
-8.722 -1.595 2.512 5
-9.549 -1.62 2.474 5
-7.023 -1.105 2.62 23
-7.055 -1.032 2.624 21
-7.251 -0.99 2.62 7
-9.414 -1.209 2.511 11
-9.346 -1.142 2.515 18
-8.696 -1.025 2.543 19
-8.61 -0.997 2.535 7
-7.875 -0.913 2.555 0
-7.376 -0.87 2.557 0
-6.942 -0.845 2.551 0
-1.52 -0.194 2.893 11
-1.53 -0.205 2.881 39
-1.535 -0.218 2.869 41
-1.371 -0.206 2.871 21
-1.391 -0.222 2.856 23
-1.47 -0.248 2.832 21
-1.626 -0.291 2.796 17
-1.383 -0.261 2.81 21
-1.405 -0.279 2.79 22
-1.45 -0.302 2.764 19
-1.213 -0.265 2.785 16
-1.196 -0.273 2.771 21
-1.091 -0.26 2.774 12
-5.305 -1.572 2.723 4
-5.656 -1.579 2.693 4
-6.043 -1.583 2.664 7
-6.423 -1.576 2.636 4
-6.847 -1.571 2.608 4
-5.737 -1.226 2.671 0
-7.947 -1.583 2.546 5
-8.683 -1.606 2.509 13
-5.574 -0.958 2.689 0
-7.013 -1.12 2.614 34
-7.04 -1.048 2.619 21
-7.189 -1.0 2.616 6
-9.398 -1.233 2.502 11
-9.319 -1.165 2.506 41
-8.68 -1.049 2.533 13
-8.523 -1.011 2.528 1
-7.705 -0.915 2.554 0
-7.226 -0.872 2.556 0
-6.813 -0.848 2.549 0
-1.519 -0.197 2.891 17
-1.529 -0.208 2.88 41
-1.527 -0.22 2.868 39
-1.366 -0.208 2.87 21
-1.383 -0.223 2.855 24
-1.363 -0.233 2.843 26
-1.59 -0.287 2.799 13
-1.382 -0.263 2.809 22
-1.397 -0.279 2.79 20
-1.403 -0.295 2.77 15
-1.201 -0.264 2.786 17
-1.188 -0.273 2.771 20
-1.106 -0.265 2.77 11
-5.276 -1.572 2.723 3
-5.623 -1.578 2.693 11
-5.99 -1.579 2.664 4
-6.382 -1.577 2.636 16
-6.821 -1.577 2.607 18
-7.327 -1.581 2.576 4
-7.913 -1.591 2.544 13
-8.597 -1.609 2.508 7
-5.536 -0.965 2.687 0
-7.026 -1.139 2.608 20
-7.029 -1.064 2.613 43
-9.444 -1.339 2.486 10
-9.375 -1.256 2.492 12
-9.263 -1.184 2.498 6
-8.673 -1.073 2.522 24
-8.048 -0.979 2.544 0
-7.527 -0.916 2.553 0
-7.08 -0.874 2.555 0
-6.695 -0.851 2.548 0
-1.519 -0.201 2.889 24
-1.525 -0.212 2.878 42
-1.514 -0.221 2.867 37
-1.366 -0.211 2.868 21
-1.378 -0.225 2.854 24
-1.367 -0.235 2.841 26
-1.382 -0.252 2.824 20
-1.378 -0.264 2.808 21
-1.396 -0.281 2.788 16
-1.391 -0.294 2.77 11
-1.197 -0.265 2.786 18
-1.206 -0.278 2.767 13
-1.124 -0.27 2.765 12
-5.27 -1.578 2.722 3
-5.609 -1.583 2.692 22
-5.957 -1.58 2.664 12
-6.368 -1.584 2.634 10
-6.791 -1.583 2.605 7
-7.27 -1.583 2.576 9
-7.839 -1.593 2.543 5
-5.525 -1.046 2.68 0
-5.549 -0.979 2.682 4
-5.541 -0.912 2.686 0
-7.034 -1.082 2.606 49
-5.546 -0.801 2.692 0
-9.355 -1.279 2.483 16
-8.689 -1.135 2.518 13
-8.602 -1.09 2.515 6
-7.866 -0.979 2.544 0
-7.405 -0.922 2.551 0
-6.939 -0.876 2.554 0
-6.558 -0.85 2.548 0
-1.51 -0.204 2.887 25
-1.528 -0.215 2.876 41
-1.525 -0.227 2.864 34
-1.349 -0.211 2.868 19
-1.362 -0.225 2.854 20
-1.37 -0.239 2.839 24
-1.343 -0.247 2.827 19
-1.377 -0.266 2.807 13
-1.407 -0.286 2.785 12
-1.34 -0.285 2.778 10
-1.188 -0.264 2.786 13
-1.275 -0.296 2.752 12
-1.174 -0.283 2.754 13
-5.264 -1.584 2.721 7
-5.583 -1.585 2.692 6
-5.939 -1.585 2.663 13
-6.31 -1.582 2.635 4
-6.734 -1.582 2.606 4
-7.243 -1.591 2.574 10
-7.804 -1.602 2.541 16
-5.538 -1.06 2.676 2
-5.523 -0.987 2.679 34
-5.55 -0.926 2.681 1
-7.035 -1.1 2.6 128
-5.551 -0.817 2.687 0
-9.327 -1.302 2.474 16
-8.677 -1.159 2.508 11
-8.408 -1.089 2.515 1
-7.684 -0.979 2.544 0
-7.216 -0.918 2.552 0
-6.793 -0.877 2.553 0
-1.515 -0.2 2.894 0
-1.51 -0.208 2.885 25
-1.527 -0.219 2.873 41
-1.533 -0.231 2.861 35
-1.325 -0.21 2.869 16
-1.318 -0.22 2.857 15
-1.346 -0.237 2.84 22
-1.291 -0.239 2.832 11
-1.369 -0.267 2.806 12
-1.387 -0.284 2.786 10
-1.208 -0.259 2.798 10
-1.172 -0.262 2.788 9
-1.305 -0.304 2.745 11
-1.154 -0.28 2.757 13
-5.227 -1.581 2.721 6
-5.55 -1.584 2.692 5
-5.894 -1.584 2.663 4
-6.273 -1.584 2.634 14
-6.703 -1.588 2.604 19
-7.166 -1.588 2.574 6
-7.73 -1.603 2.54 4
-5.496 -1.064 2.675 29
-5.478 -0.992 2.678 14
-5.548 -0.939 2.677 8
-7.044 -1.12 2.592 157
-5.541 -0.83 2.682 23
-9.303 -1.325 2.465 26
-8.665 -1.182 2.498 15
-8.032 -1.064 2.526 0
-7.519 -0.98 2.543 0
-7.058 -0.919 2.552 0
-6.683 -0.881 2.551 0
-1.518 -0.205 2.891 0
-1.509 -0.211 2.883 31
-1.519 -0.221 2.872 42
-1.524 -0.233 2.86 32
-1.328 -0.213 2.867 17
-1.314 -0.222 2.856 15
-1.306 -0.233 2.843 20
-1.275 -0.238 2.833 10
-1.349 -0.265 2.808 8
-1.383 -0.285 2.786 5
-1.185 -0.255 2.801 13
-1.168 -0.262 2.788 16
-1.316 -0.308 2.742 12
-1.161 -0.283 2.754 12
-5.202 -1.582 2.721 6
-5.513 -1.583 2.692 10
-5.852 -1.583 2.664 6
-6.266 -1.594 2.632 12
-6.677 -1.594 2.603 5
-7.139 -1.596 2.572 22
-7.699 -1.613 2.538 18
-5.466 -1.071 2.672 17
-5.448 -0.999 2.675 14
-5.51 -0.947 2.674 10
-7.056 -1.141 2.585 55
-5.535 -0.844 2.676 7
-8.694 -1.262 2.49 7
-8.614 -1.199 2.491 5
-7.85 -1.063 2.527 0
-7.357 -0.98 2.543 0
-6.932 -0.922 2.55 0
-6.554 -0.882 2.551 0
-1.526 -0.21 2.888 1
-1.516 -0.216 2.881 41
-1.522 -0.226 2.87 41
-1.515 -0.235 2.859 29
-1.269 -0.206 2.871 13
-1.246 -0.213 2.862 13
-1.29 -0.231 2.844 17
-1.24 -0.234 2.836 11
-1.197 -0.237 2.828 3
-1.27 -0.263 2.802 0
-1.196 -0.259 2.798 12
-1.171 -0.265 2.786 22
-1.373 -0.324 2.729 11
-1.21 -0.296 2.742 14
-5.18 -1.584 2.721 12
-5.487 -1.585 2.692 18
-5.823 -1.586 2.663 23
-6.209 -1.591 2.633 4
-6.616 -1.593 2.603 6
-7.093 -1.601 2.571 3
-7.633 -1.616 2.537 3
-5.444 -1.079 2.67 17
-5.425 -1.009 2.672 21
-5.452 -0.951 2.672 14
-5.579 -0.917 2.666 0
-5.54 -0.86 2.67 0
-8.631 -1.277 2.484 7
-8.278 -1.177 2.5 0
-7.661 -1.06 2.528 0
-7.199 -0.98 2.543 0
-6.811 -0.926 2.548 0
-6.195 -0.85 2.567 0
-1.521 -0.214 2.886 2
-1.507 -0.219 2.879 44
-1.521 -0.229 2.868 39
-1.53 -0.241 2.855 27
-1.249 -0.206 2.871 10
-1.23 -0.213 2.862 11
-1.207 -0.219 2.852 13
-1.204 -0.23 2.839 9
-1.188 -0.237 2.828 4
-1.188 -0.248 2.813 3
-1.199 -0.262 2.795 11
-1.167 -0.265 2.785 20
-1.51 -0.358 2.7 5
-1.282 -0.315 2.726 16
-5.158 -1.587 2.72 21
-5.473 -1.59 2.691 6
-5.812 -1.593 2.661 7
-6.171 -1.592 2.632 12
-6.589 -1.599 2.601 24
-7.043 -1.605 2.57 12
-7.59 -1.623 2.535 14
-5.426 -1.088 2.667 16
-5.407 -1.018 2.669 20
-5.449 -0.964 2.668 17
-5.561 -0.928 2.662 3
-9.3 -1.47 2.436 27
-8.406 -1.267 2.488 2
-8.005 -1.161 2.507 0
-7.503 -1.059 2.528 0
-7.054 -0.981 2.543 0
-6.665 -0.925 2.549 0
-6.164 -0.863 2.56 1
-1.516 -0.217 2.885 2
-1.507 -0.223 2.877 45
-1.52 -0.232 2.866 37
-1.53 -0.244 2.853 27
-1.248 -0.209 2.87 7
-1.233 -0.215 2.86 11
-1.211 -0.222 2.85 13
-1.188 -0.228 2.84 15
-1.188 -0.239 2.826 7
-1.176 -0.248 2.813 10
-1.187 -0.261 2.796 12
-1.17 -0.268 2.783 11
-1.413 -0.336 2.718 4
-1.342 -0.332 2.712 6
-5.144 -1.591 2.719 7
-5.436 -1.589 2.691 5
-5.775 -1.594 2.661 4
-6.153 -1.6 2.631 15
-6.551 -1.603 2.6 4
-7.024 -1.615 2.567 11
-7.548 -1.631 2.532 3
-5.404 -1.096 2.665 27
-5.397 -1.029 2.666 17
-5.466 -0.981 2.662 17
-5.582 -0.946 2.656 6
-8.692 -1.397 2.464 11
-8.019 -1.232 2.502 4
-7.835 -1.159 2.508 0
-7.341 -1.058 2.529 0
-6.924 -0.982 2.542 0
-6.535 -0.925 2.549 0
-5.916 -0.845 2.569 8
-1.519 -0.221 2.882 3
-1.51 -0.227 2.874 44
-1.516 -0.236 2.864 38
-1.537 -0.249 2.851 20
-1.251 -0.212 2.868 7
-1.241 -0.219 2.858 10
-1.21 -0.224 2.849 12
-1.191 -0.231 2.838 16
-1.191 -0.241 2.825 8
-1.171 -0.248 2.813 3
-1.19 -0.263 2.794 12
-1.208 -0.278 2.775 10
-1.306 -0.313 2.738 12
-1.322 -0.329 2.714 13
-5.104 -1.587 2.72 7
-5.403 -1.589 2.691 11
-5.733 -1.592 2.662 9
-6.107 -1.6 2.631 4
-6.505 -1.605 2.6 7
-6.954 -1.614 2.567 4
-7.478 -1.633 2.532 14
-5.405 -1.109 2.661 23
-5.386 -1.041 2.662 18
-5.523 -1.005 2.654 14
-5.575 -0.96 2.651 10
-8.684 -1.42 2.455 14
-7.833 -1.226 2.505 5
-7.67 -1.157 2.509 0
-7.187 -1.057 2.529 0
-6.778 -0.982 2.542 0
-6.295 -0.91 2.556 0
-5.902 -0.86 2.562 19
-1.507 -0.223 2.881 5
-1.505 -0.23 2.873 44
-1.519 -0.24 2.861 35
-1.536 -0.252 2.848 18
-1.255 -0.215 2.866 6
-1.244 -0.223 2.855 11
-1.217 -0.227 2.847 12
-1.19 -0.233 2.837 15
-1.191 -0.243 2.823 9
-1.175 -0.251 2.811 0
-1.205 -0.268 2.79 9
-1.208 -0.28 2.774 12
-1.294 -0.311 2.739 11
-1.322 -0.33 2.713 14
-5.074 -1.587 2.72 7
-5.381 -1.593 2.69 20
-5.715 -1.598 2.66 19
-6.065 -1.602 2.63 8
-6.478 -1.611 2.598 24
-6.919 -1.62 2.566 20
-7.232 -1.595 2.543 7
-5.398 -1.12 2.657 20
-5.375 -1.051 2.658 34
-5.512 -1.018 2.65 17
-5.525 -0.966 2.648 10
-8.652 -1.439 2.448 12
-7.644 -1.218 2.508 6
-7.488 -1.151 2.511 0
-7.046 -1.057 2.529 0
-6.644 -0.982 2.542 0
-6.177 -0.91 2.556 0
-5.907 -0.877 2.553 23
-1.502 -0.227 2.879 6
-1.504 -0.234 2.87 42
-1.518 -0.244 2.859 31
-1.539 -0.256 2.846 14
-1.262 -0.219 2.863 6
-1.243 -0.225 2.854 9
-1.217 -0.23 2.845 13
-1.198 -0.237 2.834 16
-1.19 -0.245 2.822 11
-1.17 -0.252 2.81 5
-1.173 -0.263 2.795 16
-1.207 -0.281 2.772 15
-1.285 -0.311 2.739 10
-1.325 -0.332 2.711 16
-5.06 -1.591 2.719 19
-5.37 -1.6 2.689 6
-5.677 -1.598 2.66 4
-6.039 -1.607 2.629 22
-6.436 -1.614 2.598 4
-6.877 -1.626 2.564 4
-7.349 -1.638 2.53 7
-5.388 -1.131 2.654 19
-5.365 -1.063 2.655 61
-5.458 -1.021 2.648 26
-5.534 -0.982 2.642 3
-8.521 -1.441 2.447 5
-7.478 -1.212 2.51 6
-7.335 -1.149 2.512 0
-6.888 -1.054 2.531 0
-6.519 -0.982 2.542 0
-5.914 -0.889 2.567 10
-5.9 -0.893 2.545 96
-1.505 -0.232 2.877 8
-1.504 -0.237 2.869 40
-1.521 -0.248 2.857 29
-1.538 -0.26 2.844 10
-1.269 -0.223 2.861 5
-1.247 -0.228 2.852 8
-1.224 -0.233 2.843 12
-1.201 -0.24 2.832 15
-1.178 -0.245 2.822 16
-1.17 -0.253 2.809 2
-1.169 -0.264 2.794 23
-1.214 -0.285 2.769 16
-1.285 -0.313 2.738 17
-1.294 -0.326 2.716 14
-5.05 -1.597 2.718 15
-5.333 -1.598 2.689 5
-5.651 -1.603 2.659 5
-6.005 -1.609 2.628 4
-6.386 -1.615 2.597 8
-6.827 -1.629 2.564 10
-7.361 -1.657 2.525 12
-5.389 -1.144 2.65 18
-5.358 -1.075 2.651 75
-5.424 -1.029 2.646 34
-5.59 -1.008 2.633 2
-8.194 -1.408 2.459 1
-7.341 -1.211 2.511 4
-7.181 -1.145 2.514 0
-6.766 -1.054 2.531 0
-6.31 -0.97 2.548 0
-5.907 -0.905 2.559 13
-5.892 -0.909 2.537 7
-1.501 -0.235 2.875 11
-1.499 -0.241 2.867 38
-1.517 -0.251 2.855 26
-1.542 -0.263 2.842 8
-1.272 -0.226 2.859 4
-1.246 -0.231 2.85 9
-1.219 -0.236 2.841 13
-1.204 -0.242 2.83 15
-1.189 -0.249 2.819 19
-1.165 -0.254 2.808 2
-1.176 -0.267 2.791 17
-1.225 -0.289 2.766 17
-1.28 -0.313 2.737 17
-1.297 -0.329 2.714 15
-5.017 -1.595 2.719 7
-5.3 -1.598 2.689 7
-5.61 -1.602 2.66 14
-5.963 -1.611 2.628 7
-6.371 -1.625 2.595 23
-6.808 -1.639 2.561 16
-7.279 -1.656 2.525 4
-5.378 -1.155 2.647 17
-5.359 -1.089 2.646 162
-5.417 -1.043 2.641 30
-5.556 -1.017 2.63 4
-7.997 -1.397 2.464 1
-7.211 -1.211 2.511 1
-7.035 -1.143 2.515 0
-6.636 -1.054 2.531 0
-6.145 -0.962 2.552 1
-5.904 -0.922 2.55 17
-5.87 -0.921 2.531 4
-1.5 -0.239 2.873 11
-1.506 -0.246 2.864 36
-1.524 -0.255 2.853 18
-1.541 -0.267 2.839 6
-1.276 -0.23 2.857 1
-1.257 -0.235 2.847 8
-1.227 -0.239 2.839 12
-1.211 -0.246 2.828 17
-1.192 -0.252 2.817 19
-1.168 -0.257 2.806 8
-1.237 -0.283 2.779 9
-1.224 -0.291 2.764 16
-1.276 -0.314 2.736 20
-1.296 -0.33 2.713 16
-4.984 -1.594 2.719 8
-5.278 -1.601 2.689 25
-5.603 -1.611 2.658 11
-5.933 -1.615 2.627 30
-6.318 -1.626 2.595 4
-6.753 -1.641 2.56 3
-7.256 -1.667 2.522 14
-5.391 -1.17 2.642 18
-5.352 -1.101 2.642 167
-5.41 -1.055 2.637 15
-8.527 -1.583 2.424 2
-7.824 -1.389 2.467 1
-7.12 -1.216 2.509 0
-6.894 -1.14 2.516 0
-6.511 -1.053 2.531 0
-5.905 -0.942 2.561 11
-5.904 -0.939 2.542 52
-5.729 -0.915 2.534 1
-1.499 -0.243 2.871 11
-1.501 -0.249 2.862 33
-1.523 -0.259 2.85 15
-1.552 -0.273 2.836 3
0.0 -0.0 3.0 0
-1.252 -0.237 2.846 6
-1.226 -0.242 2.837 10
-1.207 -0.247 2.827 16
-1.191 -0.254 2.816 20
-1.175 -0.261 2.803 5
-1.244 -0.287 2.776 10
-1.212 -0.29 2.765 17
-1.275 -0.316 2.735 32
-1.269 -0.325 2.718 21
-4.969 -1.599 2.718 8
-5.271 -1.61 2.687 9
-5.554 -1.608 2.658 4
-5.91 -1.621 2.626 6
-6.279 -1.629 2.594 8
-6.707 -1.646 2.559 14
-7.197 -1.671 2.521 3
-5.392 -1.184 2.638 17
-5.353 -1.115 2.638 87
-5.407 -1.069 2.632 15
-8.197 -1.544 2.438 1
-7.651 -1.38 2.47 1
-7.045 -1.223 2.506 0
-6.768 -1.139 2.516 0
-6.338 -1.044 2.535 0
-5.906 -0.959 2.553 13
-5.885 -0.953 2.535 5
-5.564 -0.905 2.539 0
-1.49 -0.246 2.869 10
-1.493 -0.251 2.861 26
-1.526 -0.264 2.848 13
-1.563 -0.279 2.833 0
0.0 -0.0 3.0 0
-1.26 -0.242 2.843 4
-1.225 -0.244 2.836 9
-1.214 -0.251 2.824 16
-1.194 -0.257 2.813 18
-7.75 -1.733 1.694 0
-1.247 -0.289 2.774 10
-1.215 -0.292 2.763 19
-1.271 -0.317 2.734 34
-1.264 -0.326 2.717 25
-4.944 -1.6 2.718 18
-5.218 -1.605 2.688 5
-5.528 -1.612 2.657 4
-5.861 -1.62 2.626 5
-6.26 -1.638 2.592 21
-6.688 -1.656 2.556 9
-7.146 -1.676 2.519 15
-5.424 -1.205 2.632 15
-5.362 -1.13 2.633 52
-5.412 -1.084 2.627 13
-8.0 -1.53 2.443 1
-7.481 -1.37 2.474 1
-6.955 -1.228 2.504 1
-6.63 -1.136 2.518 0
-6.141 -1.03 2.541 1
-5.903 -0.976 2.545 18
-5.854 -0.964 2.53 3
-5.443 -0.9 2.541 0
-1.489 -0.249 2.867 8
-1.496 -0.255 2.858 24
-1.521 -0.267 2.846 10
-4.587 -0.829 2.502 0
0.0 -0.0 3.0 0
-1.267 -0.245 2.841 2
-1.232 -0.248 2.833 8
-1.26 -0.264 2.815 21
-1.186 -0.257 2.813 14
0.0 -0.0 3.0 0
-1.266 -0.296 2.769 11
-1.188 -0.287 2.767 17
-1.27 -0.318 2.733 33
-1.264 -0.327 2.716 28
-4.945 -1.61 2.716 13
-5.2 -1.609 2.687 6
-5.494 -1.613 2.657 17
-5.83 -1.624 2.625 12
-6.218 -1.641 2.591 4
-3.95 -0.987 2.735 3
-7.127 -1.689 2.516 5
-5.444 -1.223 2.626 13
-5.359 -1.143 2.628 41
-5.413 -1.099 2.622 25
-7.831 -1.519 2.447 1
-7.32 -1.361 2.477 1
-6.837 -1.227 2.504 2
-6.501 -1.132 2.519 0
-5.898 -1.006 2.552 12
-5.899 -0.992 2.537 32
-5.725 -0.96 2.532 1
-5.345 -0.9 2.541 0
-1.489 -0.253 2.865 6
-1.499 -0.261 2.856 23
-1.532 -0.273 2.843 8
-4.51 -0.826 2.503 0
0.0 -0.0 3.0 0
-1.266 -0.248 2.839 0
-1.235 -0.251 2.831 6
-1.267 -0.267 2.813 20
-1.189 -0.26 2.811 12
-10.881 -2.47 1.138 0
-1.261 -0.297 2.768 13
-1.157 -0.282 2.772 18
-1.265 -0.319 2.732 34
-1.263 -0.328 2.715 29
-4.9 -1.606 2.717 6
-5.17 -1.61 2.687 16
-5.491 -1.623 2.655 9
-5.819 -1.633 2.623 15
-3.95 -1.052 2.738 1
-3.92 -0.989 2.735 1
-5.558 -1.331 2.618 0
-5.448 -1.237 2.622 9
-5.371 -1.16 2.623 23
-5.409 -1.113 2.617 38
-3.915 -0.771 2.72 0
-7.175 -1.355 2.48 1
-6.735 -1.228 2.504 3
-6.351 -1.125 2.522 0
-5.902 -1.024 2.544 9
-5.876 -1.006 2.531 4
-5.533 -0.944 2.539 0
-5.26 -0.9 2.541 0
-1.488 -0.258 2.863 5
-1.498 -0.264 2.854 15
-1.531 -0.276 2.841 6
-4.492 -0.834 2.499 0
0.0 -0.0 3.0 0
0.0 -0.0 3.0 0
-1.242 -0.255 2.828 4
-1.262 -0.268 2.812 16
-1.192 -0.263 2.809 10
0.0 -0.0 3.0 0
-1.264 -0.299 2.766 14
-1.141 -0.279 2.774 16
-1.253 -0.318 2.733 33
-1.262 -0.33 2.713 29
-4.867 -1.603 2.717 7
-5.167 -1.62 2.685 13
-5.437 -1.62 2.656 4
-5.777 -1.635 2.623 4
-3.851 -1.033 2.742 3
-3.879 -0.988 2.735 10
-5.547 -1.342 2.615 6
-5.453 -1.252 2.617 8
-5.38 -1.177 2.618 18
-3.906 -0.814 2.72 1
-7.485 -1.494 2.456 1
-7.025 -1.347 2.483 1
-6.625 -1.228 2.504 1
-6.144 -1.106 2.53 0
-5.907 -1.042 2.536 16
-5.853 -1.02 2.525 3
-5.432 -0.942 2.54 0
-5.147 -0.895 2.544 0
-1.483 -0.26 2.862 2
-1.497 -0.268 2.852 8
-1.546 -0.283 2.837 2
0.0 -0.0 3.0 0
0.0 -0.0 3.0 0
0.0 -0.0 3.0 0
-1.246 -0.258 2.826 2
-1.265 -0.272 2.81 10
-1.196 -0.267 2.806 8
-5.292 -1.22 2.081 0
-1.271 -0.304 2.763 15
-1.144 -0.282 2.772 12
-1.245 -0.317 2.734 32
-1.258 -0.331 2.712 30
-4.849 -1.608 2.717 8
-5.122 -1.617 2.686 6
-5.411 -1.623 2.655 6
-5.732 -1.635 2.623 6
-3.88 -1.051 2.738 5
-3.885 -0.999 2.732 8
-3.997 -0.977 2.72 2
-5.461 -1.268 2.612 6
-5.396 -1.194 2.612 16
-3.904 -0.824 2.716 6
-3.922 -0.794 2.711 1
-6.88 -1.338 2.486 1
-6.535 -1.23 2.503 0
-5.904 -1.081 2.541 10
-5.899 -1.059 2.529 19
-5.688 -1.008 2.53 1
-5.342 -0.942 2.54 0
-5.093 -0.901 2.541 0
-1.462 -0.261 2.861 0
-1.504 -0.273 2.849 8
0.0 -0.0 3.0 0
0.0 -0.0 3.0 0
0.0 -0.0 3.0 0
0.0 -0.0 3.0 0
0.0 -0.0 3.0 0
-1.322 -0.287 2.799 11
-1.191 -0.268 2.805 7
-5.266 -1.224 2.078 1
-1.266 -0.305 2.762 15
-1.158 -0.288 2.767 9
-1.237 -0.318 2.734 30
-1.261 -0.333 2.71 31
-4.83 -1.611 2.716 17
-5.092 -1.618 2.686 5
-5.385 -1.627 2.654 18
-5.709 -1.64 2.621 22
-3.85 -1.051 2.738 12
-3.859 -1.001 2.732 17
-3.917 -0.967 2.723 1
-3.888 -0.913 2.721 1
-3.921 -0.878 2.715 2
-3.905 -0.836 2.712 6
-3.9 -0.8 2.709 1
-6.747 -1.332 2.489 1
-6.362 -1.216 2.509 0
-5.912 -1.1 2.533 8
-5.86 -1.069 2.524 3
-5.512 -0.992 2.537 0
-5.256 -0.943 2.54 0
-5.031 -0.904 2.539 0
0.0 -0.0 3.0 0
-1.511 -0.279 2.845 7
0.0 -0.0 3.0 0
0.0 -0.0 3.0 0
0.0 -0.0 3.0 0
0.0 -0.0 3.0 0
-7.41 -1.569 1.942 0
-1.349 -0.295 2.793 11
-1.202 -0.272 2.802 6
-5.243 -1.228 2.075 2
-1.269 -0.308 2.76 13
-1.161 -0.29 2.765 8
-1.221 -0.315 2.736 28
-1.252 -0.333 2.71 34
-4.839 -1.624 2.714 14
-5.07 -1.621 2.685 8
-5.378 -1.637 2.652 10
-5.69 -1.648 2.619 7
-3.836 -1.057 2.737 17
-3.834 -1.004 2.731 16
-3.957 -0.987 2.717 3
-3.89 -0.924 2.717 2
-3.918 -0.888 2.712 9
-3.895 -0.844 2.709 14
-7.034 -1.463 2.467 1
-6.598 -1.322 2.493 1
-6.084 -1.18 2.523 0
-5.901 -1.115 2.527 15
-5.837 -1.082 2.518 2
-5.407 -0.99 2.539 0
-5.19 -0.946 2.539 0
-4.926 -0.899 2.542 0
0.0 -0.0 3.0 0
-1.51 -0.282 2.844 0
0.0 -0.0 3.0 0
0.0 -0.0 3.0 0
0.0 -0.0 3.0 0
0.0 -0.0 3.0 0
-7.371 -1.576 1.937 0
-1.498 -0.331 2.768 7
-1.209 -0.276 2.799 3
-3.472 -0.819 2.382 0
-1.276 -0.311 2.757 12
-1.191 -0.3 2.757 7
-1.22 -0.317 2.734 26
-1.248 -0.334 2.71 35
-4.794 -1.619 2.714 7
-5.051 -1.626 2.684 20
-5.328 -1.634 2.653 5
-5.648 -1.649 2.619 5
-3.819 -1.061 2.735 17
-3.816 -1.009 2.73 22
-3.896 -0.981 2.719 7
-3.88 -0.931 2.715 7
-3.92 -0.898 2.708 17
-3.893 -0.854 2.706 14
-6.889 -1.452 2.471 1
-6.312 -1.283 2.508 1
-5.9 -1.162 2.53 8
-5.901 -1.132 2.519 11
-5.626 -1.06 2.528 0
-5.317 -0.989 2.539 0
-5.105 -0.945 2.539 0
0.0 -0.0 3.0 0
-4.7 -0.879 2.533 0
0.0 -0.0 3.0 0
0.0 -0.0 3.0 0
0.0 -0.0 3.0 0
0.0 -0.0 3.0 0
0.0 -0.0 3.0 0
0.0 -0.0 3.0 0
-1.544 -0.344 2.759 7
-1.212 -0.279 2.798 0
-5.16 -1.228 2.075 1
-1.275 -0.313 2.755 10
-1.282 -0.325 2.737 10
-1.204 -0.314 2.736 20
-1.243 -0.335 2.709 33
-4.761 -1.618 2.715 8
-5.04 -1.634 2.682 8
-5.31 -1.64 2.651 5
-5.614 -1.652 2.619 10
-3.801 -1.065 2.734 16
-3.798 -1.013 2.729 18
-3.944 -1.003 2.712 11
-3.865 -0.938 2.713 10
-3.909 -0.907 2.705 24
-3.882 -0.863 2.703 7
-6.767 -1.446 2.474 1
-6.136 -1.265 2.514 0
-5.912 -1.182 2.522 6
-5.858 -1.142 2.515 3
-5.493 -1.051 2.532 0
-5.243 -0.991 2.538 0
-5.043 -0.949 2.537 0
-4.79 -0.902 2.54 0
-53.482 -10.151 -2.397 2
0.0 -0.0 3.0 0
0.0 -0.0 3.0 0
0.0 -0.0 3.0 0
0.0 -0.0 3.0 0
0.0 -0.0 3.0 0
0.0 -0.0 3.0 0
-1.539 -0.347 2.757 7
-6.84 -1.589 1.846 2
-3.398 -0.815 2.386 0
-1.278 -0.316 2.753 10
-1.307 -0.334 2.73 10
-1.165 -0.306 2.743 18
-1.231 -0.334 2.71 31
-4.754 -1.625 2.713 8
-4.991 -1.629 2.683 6
-5.279 -1.642 2.651 14
-5.564 -1.65 2.619 21
-3.783 -1.069 2.733 17
-3.78 -1.018 2.727 20
-3.918 -1.007 2.711 12
-3.847 -0.944 2.711 14
-3.903 -0.917 2.702 26
-3.899 -0.877 2.698 2
-6.626 -1.435 2.478 1
-5.972 -1.248 2.521 1
-5.9 -1.197 2.516 16
-5.792 -1.146 2.513 1
-5.387 -1.047 2.534 0
-5.181 -0.994 2.536 0
0.0 -0.0 3.0 0
-4.74 -0.906 2.538 0
-53.146 -10.236 -2.443 2
0.0 -0.0 3.0 0
0.0 -0.0 3.0 0
0.0 -0.0 3.0 0
0.0 -0.0 3.0 0
0.0 -0.0 3.0 0
0.0 -0.0 3.0 0
-1.542 -0.35 2.755 3
-6.835 -1.601 1.837 3
-3.25 -0.786 2.408 0
-1.274 -0.318 2.752 8
-1.337 -0.343 2.722 11
-1.123 -0.297 2.751 11
-1.223 -0.333 2.711 29
-4.724 -1.625 2.713 14
-4.977 -1.635 2.682 6
-5.268 -1.65 2.649 10
-3.862 -1.155 2.733 1
-3.765 -1.073 2.732 16
-3.77 -1.025 2.725 22
-3.869 -1.005 2.712 16
-3.849 -0.955 2.708 14
-3.9 -0.927 2.699 21
-6.895 -1.571 2.459 1
-6.493 -1.424 2.482 1
-5.906 -1.252 2.519 12
-5.892 -1.213 2.51 8
-5.6 -1.125 2.522 0
-5.302 -1.046 2.534 0
0.0 -0.0 3.0 0
-4.864 -0.943 2.54 0
-4.698 -0.912 2.535 0
-4.495 -0.878 2.533 0
0.0 -0.0 3.0 0
0.0 -0.0 3.0 0
0.0 -0.0 3.0 0
0.0 -0.0 3.0 0
0.0 -0.0 3.0 0
0.0 -0.0 3.0 0
-1.537 -0.352 2.753 1
-3.44 -0.813 2.409 0
-3.202 -0.78 2.412 0
-1.284 -0.322 2.748 6
-1.382 -0.357 2.711 10
-1.118 -0.297 2.75 11
-1.215 -0.332 2.711 28
-4.713 -1.632 2.712 17
-4.958 -1.64 2.681 12
-5.23 -1.651 2.649 5
-3.86 -1.163 2.731 4
-3.755 -1.079 2.731 31
-3.767 -1.033 2.723 25
-3.832 -1.004 2.712 18
-3.838 -0.962 2.706 15
-3.901 -0.937 2.695 12
-6.758 -1.559 2.463 1
-6.357 -1.413 2.486 1
-5.812 -1.249 2.521 1
-5.853 -1.223 2.506 2
-5.495 -1.12 2.525 0
-5.232 -1.049 2.533 0
-5.018 -0.993 2.537 0
0.0 -0.0 3.0 0
0.0 -0.0 3.0 0
0.0 -0.0 3.0 0
0.0 -0.0 3.0 0
0.0 -0.0 3.0 0
0.0 -0.0 3.0 0
0.0 -0.0 3.0 0
0.0 -0.0 3.0 0
0.0 -0.0 3.0 0
-6.782 -1.57 1.901 0
0.0 -0.0 3.0 0
-3.147 -0.773 2.418 0
-1.276 -0.322 2.748 3
-1.422 -0.37 2.7 11
-1.121 -0.3 2.748 12
-1.199 -0.33 2.713 22
-4.684 -1.632 2.712 8
-4.936 -1.643 2.681 16
-5.208 -1.656 2.648 4
-3.849 -1.169 2.73 6
-3.744 -1.086 2.729 20
-3.761 -1.041 2.721 22
-3.814 -1.01 2.71 24
-3.843 -0.974 2.702 16
-3.922 -0.953 2.69 5
-6.629 -1.548 2.467 1
-6.2 -1.396 2.492 1
-5.695 -1.241 2.524 1
-5.818 -1.232 2.502 1
-5.382 -1.113 2.527 0
-5.127 -1.042 2.536 0
-4.948 -0.994 2.536 0
-4.736 -0.947 2.538 0
-4.574 -0.914 2.534 0
-52.242 -10.505 -2.586 2
0.0 -0.0 3.0 0
0.0 -0.0 3.0 0
0.0 -0.0 3.0 0
0.0 -0.0 3.0 0
0.0 -0.0 3.0 0
-122.452 -27.812 -15.759 16
0.0 -0.0 3.0 0
-3.29 -0.791 2.425 0
-3.083 -0.763 2.425 7
-1.283 -0.327 2.745 0
-1.455 -0.382 2.691 10
-1.121 -0.302 2.747 11
-1.175 -0.326 2.717 19
-4.658 -1.634 2.712 8
-4.921 -1.649 2.679 6
-5.177 -1.659 2.647 10
-3.854 -1.18 2.728 6
-3.746 -1.095 2.727 21
-3.746 -1.047 2.72 21
-3.8 -1.016 2.709 28
-3.852 -0.987 2.698 18
-3.939 -0.968 2.685 2
-6.5 -1.536 2.471 0
-5.908 -1.348 2.509 7
-5.59 -1.234 2.526 1
-5.611 -1.206 2.513 0
-5.288 -1.11 2.529 0
-5.068 -1.046 2.534 0
-4.859 -0.991 2.538 0
-4.678 -0.949 2.537 0
0.0 -0.0 3.0 0
0.0 -0.0 3.0 0
0.0 -0.0 3.0 0
0.0 -0.0 3.0 0
0.0 -0.0 3.0 0
0.0 -0.0 3.0 0
0.0 -0.0 3.0 0
0.0 -0.0 3.0 0
0.0 -0.0 3.0 0
-3.211 -0.779 2.434 0
-3.081 -0.769 2.421 7
-3.062 -0.785 2.386 33
-1.515 -0.4 2.676 7
-1.135 -0.308 2.741 11
-1.122 -0.313 2.728 13
-4.643 -1.638 2.711 8
-4.883 -1.648 2.68 6
-5.159 -1.664 2.646 16
-3.863 -1.192 2.725 4
-3.739 -1.103 2.725 18
-3.736 -1.054 2.718 27
-3.793 -1.024 2.706 35
-3.834 -0.992 2.697 15
-3.936 -0.978 2.682 1
-6.371 -1.524 2.475 0
-5.916 -1.367 2.503 6
-5.504 -1.232 2.527 1
-5.498 -1.197 2.516 0
-5.214 -1.11 2.529 0
-4.995 -1.046 2.535 0
-4.785 -0.99 2.539 0
0.0 -0.0 3.0 0
-49.95 -10.277 -2.236 4
0.0 -0.0 3.0 0
0.0 -0.0 3.0 0
0.0 -0.0 3.0 0
0.0 -0.0 3.0 0
0.0 -0.0 3.0 0
0.0 -0.0 3.0 0
0.0 -0.0 3.0 0
-3.388 -0.806 2.435 0
-3.14 -0.768 2.442 1
-3.071 -0.772 2.418 8
-3.06 -0.791 2.382 7
-1.548 -0.411 2.667 8
-1.145 -0.313 2.737 12
-1.095 -0.307 2.733 13
-4.621 -1.641 2.711 12
-4.865 -1.653 2.679 6
-5.132 -1.668 2.645 5
-3.868 -1.203 2.722 3
-3.733 -1.111 2.723 19
-3.726 -1.06 2.716 26
-3.787 -1.033 2.704 25
-3.82 -0.999 2.695 16
-3.925 -0.987 2.679 1
-6.188 -1.498 2.484 1
-5.908 -1.382 2.497 21
-5.422 -1.229 2.528 0
-5.37 -1.186 2.521 0
-5.148 -1.111 2.528 0
-4.917 -1.045 2.535 0
-4.742 -0.995 2.536 0
0.0 -0.0 3.0 0
-49.972 -10.427 -2.313 5
-51.353 -10.765 -2.724 2
-50.334 -10.659 -2.908 3
0.0 -0.0 3.0 0
0.0 -0.0 3.0 0
0.0 -0.0 3.0 0
0.0 -0.0 3.0 0
0.0 -0.0 3.0 0
-3.251 -0.781 2.453 0
-3.084 -0.761 2.447 7
-3.073 -0.778 2.413 13
-3.05 -0.794 2.38 3
-1.539 -0.412 2.667 8
-1.152 -0.317 2.734 13
-1.094 -0.309 2.732 13
-4.606 -1.646 2.71 19
-4.842 -1.657 2.678 15
-5.102 -1.67 2.645 5
-3.873 -1.214 2.72 8
-3.73 -1.119 2.721 18
-3.723 -1.069 2.714 42
-3.772 -1.039 2.702 19
-3.821 -1.01 2.691 15
-3.915 -0.995 2.677 2
-5.917 -1.449 2.501 5
-5.865 -1.389 2.494 2
-5.352 -1.229 2.528 0
-5.273 -1.18 2.523 0
-5.067 -1.109 2.529 0
-4.855 -1.045 2.535 0
-49.294 -10.495 -1.894 3
-48.344 -10.237 -1.993 2
-50.103 -10.601 -2.401 3
0.0 -0.0 3.0 0
-50.266 -10.784 -2.978 3
0.0 -0.0 3.0 0
0.0 -0.0 3.0 0
0.0 -0.0 3.0 0
0.0 -0.0 3.0 0
-3.428 -0.81 2.454 0
-3.21 -0.778 2.455 0
-3.078 -0.766 2.444 8
-3.067 -0.783 2.41 47
-3.055 -0.801 2.374 0
-1.546 -0.416 2.663 4
-1.14 -0.315 2.735 13
-1.097 -0.311 2.73 12
-4.595 -1.652 2.709 9
-4.827 -1.663 2.677 14
-5.075 -1.675 2.644 7
-3.854 -1.217 2.719 6
-3.719 -1.125 2.72 20
-3.724 -1.08 2.711 39
-3.762 -1.047 2.7 17
-3.81 -1.018 2.689 14
-3.912 -1.006 2.673 1
-5.912 -1.465 2.495 3
-5.829 -1.398 2.491 2
-5.286 -1.23 2.528 0
-5.187 -1.177 2.525 0
-4.989 -1.107 2.53 0
-4.762 -1.04 2.537 0
-4.603 -0.994 2.536 0
-48.028 -10.313 -2.03 2
-50.147 -10.757 -2.481 4
-50.313 -10.835 -2.761 4
0.0 -0.0 3.0 0
0.0 -0.0 3.0 0
0.0 -0.0 3.0 0
0.0 -0.0 3.0 0
0.0 -0.0 3.0 0
0.0 -0.0 3.0 0
-3.124 -0.764 2.465 1
-3.072 -0.77 2.44 10
-3.061 -0.788 2.406 8
-3.068 -0.811 2.367 0
-1.533 -0.416 2.663 4
-1.128 -0.314 2.737 10
-1.1 -0.314 2.727 12
-4.569 -1.654 2.708 7
-4.801 -1.666 2.676 6
-5.049 -1.677 2.643 19
-3.832 -1.22 2.718 9
-3.72 -1.135 2.717 17
-3.717 -1.087 2.709 46
-3.759 -1.056 2.697 18
-3.823 -1.031 2.685 14
-7.273 -1.89 2.386 1
-5.904 -1.48 2.491 17
-5.662 -1.375 2.5 0
0.0 -0.0 3.0 0
-5.148 -1.183 2.522 0
-4.915 -1.106 2.531 0
-4.712 -1.043 2.535 0
0.0 -0.0 3.0 0
-47.751 -10.396 -2.071 2
0.0 -0.0 3.0 0
-50.353 -10.987 -2.842 3
-49.725 -10.946 -3.067 2
0.0 -0.0 3.0 0
0.0 -0.0 3.0 0
0.0 -0.0 3.0 0
0.0 -0.0 3.0 0
-3.211 -0.774 2.478 0
-3.083 -0.761 2.467 5
-3.077 -0.778 2.434 29
-3.055 -0.793 2.402 3
-1.209 -0.322 2.749 0
-1.525 -0.416 2.663 1
-1.138 -0.319 2.733 10
-1.103 -0.316 2.725 11
-4.536 -1.652 2.709 9
-4.763 -1.664 2.677 7
-5.041 -1.688 2.641 9
-3.83 -1.229 2.716 10
-3.714 -1.143 2.715 26
-3.711 -1.095 2.706 46
-3.748 -1.062 2.695 24
-3.831 -1.044 2.681 16
-5.914 -1.554 2.495 4
-5.857 -1.486 2.488 2
-5.542 -1.361 2.505 0
-5.174 -1.235 2.526 0
-5.036 -1.173 2.526 0
-4.803 -1.095 2.535 0
-4.665 -1.047 2.534 0
-4.503 -1.0 2.534 0
-47.443 -10.47 -2.107 1
-47.085 -10.376 -2.287 1
-50.218 -11.102 -2.903 2
0.0 -0.0 3.0 0
0.0 -0.0 3.0 0
0.0 -0.0 3.0 0
0.0 -0.0 3.0 0
-3.394 -0.808 2.475 0
-3.174 -0.772 2.48 0
-3.069 -0.765 2.465 9
-3.067 -0.783 2.431 71
-3.071 -0.804 2.394 1
-1.204 -0.323 2.748 2
-1.184 -0.325 2.736 1
-1.194 -0.336 2.718 11
-1.102 -0.318 2.724 11
-4.506 -1.652 2.709 8
-4.745 -1.669 2.676 7
-5.003 -1.687 2.641 5
-3.827 -1.238 2.714 8
-3.715 -1.153 2.713 21
-3.712 -1.106 2.704 45
-3.745 -1.072 2.693 22
-3.855 -1.062 2.675 14
-5.921 -1.572 2.489 2
-5.806 -1.489 2.487 1
-5.464 -1.358 2.506 0
-5.131 -1.239 2.524 1
-4.958 -1.17 2.527 0
-4.76 -1.099 2.533 0
-4.627 -1.052 2.531 0
0.0 -0.0 3.0 0
0.0 -0.0 3.0 0
-46.878 -10.468 -2.334 2
-49.973 -11.193 -2.951 2
-49.215 -11.11 -3.159 2
0.0 -0.0 3.0 0
0.0 -0.0 3.0 0
0.0 -0.0 3.0 0
-3.33 -0.801 2.48 0
-3.103 -0.762 2.486 1
-3.067 -0.771 2.46 11
-3.065 -0.789 2.427 10
-3.096 -0.816 2.385 0
-1.218 -0.329 2.743 4
-1.187 -0.329 2.734 2
-1.159 -0.329 2.724 4
-1.101 -0.32 2.722 11
-4.502 -1.661 2.707 15
-4.73 -1.675 2.674 14
-4.98 -1.692 2.64 5
-3.816 -1.245 2.713 7
-3.704 -1.16 2.711 18
-3.712 -1.115 2.701 34
-3.742 -1.082 2.69 29
-3.837 -1.068 2.674 16
-5.901 -1.584 2.485 14
