# .PCD v0.7 - Point Cloud Data file format
VERSION 0.7
FIELDS x y z intensity
SIZE 4 4 4 4
TYPE F F F F
COUNT 1 1 1 1
WIDTH 2084
HEIGHT 1
VIEWPOINT 0 0 0 1 0 0 0
POINTS 2084
DATA ascii
-1.353 -12.448 -5.084 10
-1.317 -12.031 -5.115 9
-1.285 -11.633 -5.146 11
-1.253 -11.261 -5.182 11
-1.223 -10.891 -5.207 11
-1.193 -10.539 -5.234 12
-1.164 -10.203 -5.262 11
-1.137 -9.871 -5.283 12
-0.986 -8.49 -4.38 12
-3.253 -34.082 -3.01 29
-3.186 -33.118 -3.438 40
-2.568 -26.534 -2.64 1
-2.473 -25.36 -2.855 54
-2.213 -22.561 -2.625 1
-2.283 -23.131 -3.198 2
-2.174 -21.856 -3.267 50
-2.19 -21.884 -3.691 11
-2.268 -22.487 -4.306 5
-2.169 -21.376 -4.36 28
-2.09 -20.44 -4.439 18
-2.012 -19.552 -4.505 8
-1.95 -18.801 -4.596 5
-1.879 -18.007 -4.643 7
-1.818 -17.285 -4.696 7
0.0 -0.0 3.0 0
0.0 -0.0 3.0 0
-1.468 -13.669 -3.965 1
-1.466 -13.561 -4.21 0
0.0 -0.0 3.0 0
-1.517 -13.822 -4.98 8
-1.478 -13.356 -5.025 8
-1.434 -12.867 -5.04 9
-1.4 -12.451 -5.086 9
-1.363 -12.035 -5.117 9
-1.33 -11.637 -5.148 10
-1.296 -11.262 -5.182 12
-1.266 -10.895 -5.21 11
-1.234 -10.54 -5.234 11
-1.204 -10.2 -5.26 12
-1.176 -9.872 -5.283 12
-1.01 -8.406 -4.307 11
-3.342 -33.911 -2.979 15
-3.292 -33.143 -3.442 37
-2.638 -26.402 -2.612 1
-2.554 -25.356 -2.854 55
-2.29 -22.604 -2.636 1
0.0 -0.0 3.0 0
-2.246 -21.869 -3.271 11
-2.263 -21.892 -3.693 12
-2.342 -22.487 -4.306 5
-2.241 -21.389 -4.365 25
-2.158 -20.434 -4.437 22
-2.079 -19.562 -4.509 9
-2.013 -18.789 -4.591 5
-1.941 -18.005 -4.643 7
-1.88 -17.302 -4.703 4
0.0 -0.0 3.0 0
0.0 -0.0 3.0 0
-1.518 -13.676 -3.968 1
-1.517 -13.577 -4.219 0
-1.534 -13.623 -4.552 0
-1.568 -13.828 -4.984 8
-1.528 -13.359 -5.027 8
-1.482 -12.867 -5.04 8
-1.446 -12.444 -5.081 9
-1.408 -12.031 -5.115 9
-1.374 -11.637 -5.148 10
-1.339 -11.258 -5.18 11
-1.308 -10.892 -5.207 11
-1.275 -10.54 -5.234 11
-1.244 -10.2 -5.26 12
-1.051 -8.535 -4.162 11
-1.032 -8.314 -4.227 9
-3.463 -34.062 -3.006 30
-3.389 -33.079 -3.43 38
-2.704 -26.226 -2.575 8
-2.634 -25.353 -2.853 55
-2.366 -22.639 -2.645 1
0.0 -0.0 3.0 0
-2.321 -21.904 -3.281 20
-2.336 -21.908 -3.698 12
-2.416 -22.484 -4.305 5
-2.313 -21.386 -4.364 23
-2.225 -20.416 -4.431 33
-2.146 -19.567 -4.511 9
-2.077 -18.79 -4.592 5
-2.003 -18.003 -4.642 7
-1.678 -14.963 -3.662 0
0.0 -0.0 3.0 0
0.0 -0.0 3.0 0
-1.566 -13.672 -3.966 2
-1.564 -13.566 -4.213 0
-1.582 -13.608 -4.543 2
-1.614 -13.793 -4.963 7
-1.577 -13.355 -5.024 7
-1.529 -12.866 -5.04 8
-1.493 -12.447 -5.083 9
-1.453 -12.027 -5.112 10
-1.418 -11.633 -5.145 10
-1.383 -11.261 -5.182 11
-1.35 -10.891 -5.207 11
-1.317 -10.54 -5.235 12
-1.285 -10.204 -5.263 12
-1.073 -8.442 -4.084 10
-1.052 -8.203 -4.131 8
-3.557 -33.946 -2.986 16
-3.492 -33.064 -3.427 33
-2.78 -26.167 -2.562 10
-2.715 -25.352 -2.853 54
-2.447 -22.71 -2.662 1
-2.516 -23.206 -3.218 0
-2.394 -21.912 -3.283 23
-2.408 -21.908 -3.698 12
-2.491 -22.488 -4.307 5
-2.384 -21.39 -4.365 23
-2.294 -20.414 -4.43 27
-2.212 -19.567 -4.511 9
-2.141 -18.788 -4.591 7
-2.065 -18.008 -4.644 7
-1.728 -14.946 -3.654 0
0.0 -0.0 3.0 0
0.0 -0.0 3.0 0
-1.614 -13.668 -3.964 2
-1.612 -13.558 -4.209 0
-1.628 -13.584 -4.53 3
-1.642 -13.606 -4.855 2
-1.626 -13.354 -5.024 6
-1.577 -12.865 -5.039 7
-1.54 -12.449 -5.085 10
-1.499 -12.033 -5.117 11
-1.463 -11.636 -5.148 10
-1.427 -11.264 -5.184 12
-1.392 -10.891 -5.207 11
-1.358 -10.54 -5.235 11
-1.11 -8.549 -3.923 0
-1.096 -8.354 -4.01 13
-1.076 -8.135 -4.072 11
-3.678 -34.091 -3.011 38
-3.604 -33.14 -3.442 30
-2.858 -26.124 -2.553 11
-2.795 -25.347 -2.852 54
-2.528 -22.787 -2.681 1
-2.567 -22.995 -3.161 3
-2.467 -21.924 -3.287 28
-2.483 -21.928 -3.704 11
-2.567 -22.496 -4.309 5
-2.456 -21.395 -4.367 23
-2.363 -20.421 -4.433 13
-2.279 -19.568 -4.512 9
-2.206 -18.789 -4.591 7
-2.128 -18.01 -4.645 7
0.0 -0.0 3.0 0
0.0 -0.0 3.0 0
0.0 -0.0 3.0 0
-1.663 -13.667 -3.964 2
-1.659 -13.55 -4.205 0
-1.677 -13.579 -4.527 2
-1.692 -13.608 -4.857 2
-1.675 -13.353 -5.023 5
-1.625 -12.864 -5.039 8
-1.586 -12.449 -5.084 11
-1.544 -12.029 -5.114 9
-1.507 -11.635 -5.147 9
-1.469 -11.26 -5.181 11
-1.434 -10.888 -5.205 11
-1.399 -10.539 -5.234 12
-1.137 -8.494 -3.878 10
-1.119 -8.278 -3.946 9
-1.097 -8.051 -3.999 12
-3.781 -34.064 -3.006 34
-3.701 -33.082 -3.431 36
-2.936 -26.076 -2.543 11
-2.876 -25.351 -2.853 43
-2.634 -23.068 -2.751 1
-2.644 -23.017 -3.168 1
-2.539 -21.932 -3.289 28
-2.555 -21.932 -3.705 11
-2.642 -22.499 -4.31 5
-2.529 -21.402 -4.369 22
-2.435 -20.444 -4.441 10
-2.345 -19.568 -4.512 9
-2.27 -18.789 -4.591 8
-2.19 -18.011 -4.645 7
0.0 -0.0 3.0 0
0.0 -0.0 3.0 0
0.0 -0.0 3.0 0
-1.712 -13.668 -3.964 3
-1.71 -13.563 -4.212 0
-1.728 -13.592 -4.534 0
-1.744 -13.627 -4.868 0
-1.725 -13.358 -5.027 7
-1.673 -12.864 -5.038 9
-1.633 -12.448 -5.084 9
-1.59 -12.035 -5.118 10
-1.551 -11.631 -5.144 10
-1.513 -11.26 -5.181 11
-1.477 -10.894 -5.209 10
-1.441 -10.543 -5.237 10
-1.159 -8.414 -3.813 12
-1.142 -8.205 -3.885 8
-1.119 -7.977 -3.934 7
-3.884 -34.034 -3.001 28
-3.807 -33.094 -3.433 32
-3.015 -26.052 -2.537 20
-2.959 -25.365 -2.856 1
-2.749 -23.419 -2.839 2
0.0 -0.0 3.0 0
-2.612 -21.939 -3.291 27
-2.628 -21.94 -3.708 11
-2.717 -22.506 -4.313 5
-2.602 -21.413 -4.373 18
-2.504 -20.448 -4.442 9
-2.413 -19.577 -4.515 9
-2.334 -18.787 -4.59 8
-2.252 -18.012 -4.645 7
0.0 -0.0 3.0 0
0.0 -0.0 3.0 0
0.0 -0.0 3.0 0
-1.76 -13.664 -3.962 3
-1.757 -13.551 -4.205 0
-1.776 -13.583 -4.529 1
-1.796 -13.64 -4.875 2
-1.773 -13.354 -5.024 8
-1.721 -12.869 -5.041 8
-1.679 -12.447 -5.083 10
-1.636 -12.034 -5.117 10
-1.596 -11.637 -5.149 10
-1.556 -11.259 -5.18 12
-1.52 -10.893 -5.209 11
-1.201 -8.54 -3.672 4
-1.182 -8.339 -3.753 12
-1.162 -8.121 -3.814 10
-1.378 -9.546 -5.298 26
-3.999 -34.104 -3.013 40
-3.915 -33.13 -3.44 45
-3.094 -26.016 -2.53 15
0.0 -0.0 3.0 0
-3.035 -25.169 -3.275 53
-2.683 -22.108 -2.924 0
-2.685 -21.95 -3.294 27
-2.702 -21.947 -3.71 12
-2.793 -22.509 -4.314 5
-2.673 -21.409 -4.372 17
-2.573 -20.444 -4.441 9
-2.479 -19.573 -4.513 9
-2.399 -18.79 -4.592 7
-2.314 -18.009 -4.644 8
0.0 -0.0 3.0 0
0.0 -0.0 3.0 0
0.0 -0.0 3.0 0
-1.808 -13.659 -3.959 2
-1.807 -13.557 -4.208 0
-1.84 -13.69 -4.589 5
-1.843 -13.618 -4.862 0
-1.823 -13.352 -5.023 8
-1.769 -12.865 -5.039 8
-1.727 -12.45 -5.085 10
-1.681 -12.034 -5.117 10
-1.64 -11.633 -5.146 10
-1.6 -11.258 -5.18 10
-1.562 -10.893 -5.208 10
-1.224 -8.466 -3.614 12
-1.203 -8.256 -3.686 8
-1.182 -8.033 -3.74 10
-1.416 -9.543 -5.296 37
-4.121 -34.232 -3.036 29
-4.028 -33.204 -3.454 41
-3.171 -25.971 -2.52 12
-3.122 -25.374 -2.858 1
-3.118 -25.179 -3.278 56
-2.752 -22.08 -2.916 1
-2.759 -21.965 -3.298 26
-2.776 -21.961 -3.714 12
-2.868 -22.513 -4.315 5
-2.746 -21.416 -4.374 15
-2.643 -20.452 -4.444 9
-2.546 -19.573 -4.513 9
-2.463 -18.788 -4.591 8
-2.376 -18.005 -4.643 7
0.0 -0.0 3.0 0
0.0 -0.0 3.0 0
-1.859 -13.769 -3.716 0
-1.857 -13.664 -3.962 1
-1.854 -13.548 -4.204 0
-1.875 -13.584 -4.53 0
-1.892 -13.609 -4.857 13
-1.872 -13.354 -5.024 7
-1.817 -12.866 -5.04 7
-1.773 -12.448 -5.084 10
-1.726 -12.029 -5.113 10
-1.685 -11.636 -5.148 10
-1.642 -11.254 -5.177 10
-1.604 -10.892 -5.208 11
-1.245 -8.384 -3.55 9
-1.223 -8.171 -3.616 10
-1.203 -7.96 -3.679 7
-1.455 -9.546 -5.298 39
-4.21 -34.091 -3.011 5
-4.136 -33.234 -3.46 40
-3.251 -25.953 -2.517 12
0.0 -0.0 3.0 0
-3.202 -25.2 -3.283 49
-2.825 -22.091 -2.919 11
-2.831 -21.972 -3.3 25
-2.85 -21.976 -3.719 12
-2.944 -22.519 -4.317 5
-2.816 -21.405 -4.37 30
-2.711 -20.448 -4.442 8
-2.611 -19.566 -4.511 9
-2.527 -18.784 -4.589 8
-2.438 -18.006 -4.643 7
0.0 -0.0 3.0 0
0.0 -0.0 3.0 0
-1.908 -13.771 -3.716 0
-1.906 -13.66 -3.96 1
-1.904 -13.557 -4.208 0
-1.924 -13.582 -4.529 0
-1.94 -13.597 -4.85 0
-1.92 -13.346 -5.019 8
-1.864 -12.861 -5.037 8
-1.82 -12.446 -5.083 8
-1.772 -12.031 -5.115 10
-1.729 -11.634 -5.147 10
-1.686 -11.254 -5.176 10
-1.287 -8.512 -3.414 9
-1.265 -8.297 -3.482 6
-1.241 -8.078 -3.541 8
-1.236 -7.966 -3.684 0
-1.494 -9.542 -5.295 40
-4.348 -34.336 -3.054 2
-4.255 -33.342 -3.481 32
-3.33 -25.928 -2.511 15
0.0 -0.0 3.0 0
-3.285 -25.217 -3.287 54
-2.9 -22.121 -2.927 1
-2.905 -21.982 -3.303 23
-2.923 -21.979 -3.72 12
-3.019 -22.521 -4.318 5
-2.888 -21.404 -4.37 32
-2.781 -20.451 -4.443 9
-2.68 -19.577 -4.515 9
-2.592 -18.788 -4.591 8
-2.5 -18.002 -4.642 8
0.0 -0.0 3.0 0
0.0 -0.0 3.0 0
-1.955 -13.758 -3.71 0
-1.955 -13.664 -3.962 0
-1.953 -13.555 -4.208 0
-1.974 -13.584 -4.53 1
-1.993 -13.622 -4.865 1
-1.971 -13.354 -5.024 8
-1.912 -12.86 -5.036 7
-1.866 -12.441 -5.08 9
-1.818 -12.03 -5.114 9
-1.773 -11.63 -5.144 10
-1.73 -11.256 -5.178 12
-1.318 -8.497 -3.403 8
-1.284 -8.209 -3.413 8
-1.261 -7.998 -3.477 11
-1.571 -9.867 -5.279 13
-1.533 -9.545 -5.297 39
-4.927 -37.973 -3.696 7
-4.363 -33.365 -3.485 22
-3.41 -25.906 -2.507 15
0.0 -0.0 3.0 0
-3.368 -25.23 -3.291 53
0.0 -0.0 3.0 0
-2.979 -21.996 -3.307 22
-2.998 -21.993 -3.724 11
-3.096 -22.535 -4.322 5
-2.961 -21.413 -4.373 32
-2.851 -20.454 -4.444 9
-2.747 -19.58 -4.516 9
-2.657 -18.791 -4.592 8
-2.564 -18.01 -4.645 8
0.0 -0.0 3.0 0
0.0 -0.0 3.0 0
-2.002 -13.746 -3.704 1
-2.004 -13.666 -3.963 0
-2.002 -13.557 -4.208 0
-2.023 -13.585 -4.53 1
-2.042 -13.614 -4.86 2
-2.02 -13.353 -5.023 7
-1.961 -12.865 -5.039 6
-1.913 -12.443 -5.081 9
-1.863 -12.025 -5.111 9
-1.818 -11.629 -5.143 10
-1.773 -11.255 -5.177 11
-1.351 -8.493 -3.4 5
-1.316 -8.212 -3.416 2
-1.284 -7.945 -3.434 5
-1.61 -9.866 -5.279 15
-1.571 -9.545 -5.297 38
-5.05 -38.005 -3.701 6
-4.47 -33.379 -3.488 28
-3.491 -25.896 -2.504 15
0.0 -0.0 3.0 0
-3.452 -25.247 -3.295 56
0.0 -0.0 3.0 0
-3.053 -22.006 -3.31 20
-3.071 -21.999 -3.726 15
-3.17 -22.529 -4.32 5
-3.033 -21.415 -4.374 16
-2.92 -20.456 -4.446 9
-2.813 -19.575 -4.514 9
-2.722 -18.791 -4.592 8
-2.627 -18.013 -4.646 7
0.0 -0.0 3.0 0
0.0 -0.0 3.0 0
-2.05 -13.74 -3.702 2
-2.055 -13.675 -3.968 0
-2.05 -13.551 -4.205 0
-2.073 -13.583 -4.529 2
-2.091 -13.609 -4.857 2
-2.069 -13.347 -5.02 7
-2.008 -12.863 -5.038 7
-1.96 -12.445 -5.082 9
-1.91 -12.033 -5.117 10
-1.863 -11.631 -5.144 8
-1.816 -11.253 -5.176 11
-1.773 -10.885 -5.202 11
-1.366 -8.315 -3.496 5
-1.316 -7.949 -3.437 4
-1.65 -9.866 -5.279 14
-1.61 -9.544 -5.297 35
-5.17 -38.009 -3.702 6
-4.578 -33.396 -3.492 23
-3.571 -25.878 -2.501 15
0.0 -0.0 3.0 0
-3.536 -25.264 -3.299 56
0.0 -0.0 3.0 0
-3.127 -22.024 -3.315 21
-3.143 -21.993 -3.724 26
-3.247 -22.539 -4.323 5
-3.107 -21.429 -4.379 14
-2.991 -20.466 -4.449 9
-2.882 -19.586 -4.518 9
-2.787 -18.793 -4.593 8
-2.689 -18.013 -4.646 8
0.0 -0.0 3.0 0
0.0 -0.0 3.0 0
-2.1 -13.745 -3.704 2
-2.101 -13.658 -3.959 3
-2.1 -13.556 -4.208 0
-2.121 -13.577 -4.526 3
-2.173 -13.812 -4.974 6
-2.118 -13.345 -5.019 7
-2.057 -12.868 -5.041 7
-2.007 -12.443 -5.081 9
-1.955 -12.028 -5.113 10
-1.908 -11.632 -5.145 9
-1.86 -11.255 -5.177 11
-1.816 -10.886 -5.203 12
-1.435 -8.534 -3.667 0
-1.349 -7.951 -3.439 1
-1.69 -9.868 -5.28 13
-1.649 -9.546 -5.298 37
-5.293 -38.036 -3.707 7
-4.685 -33.41 -3.494 28
-3.653 -25.875 -2.5 15
0.0 -0.0 3.0 0
-3.62 -25.276 -3.302 56
-3.311 -22.968 -3.154 4
-3.199 -22.022 -3.315 18
-3.215 -21.988 -3.722 10
-3.291 -22.326 -4.254 2
-3.181 -21.442 -4.383 12
-3.06 -20.465 -4.449 9
-2.948 -19.581 -4.516 9
-2.852 -18.796 -4.594 8
-2.752 -18.012 -4.646 8
0.0 -0.0 3.0 0
0.0 -0.0 3.0 0
-2.147 -13.735 -3.699 5
-2.15 -13.659 -3.959 2
-2.149 -13.554 -4.207 0
-2.189 -13.689 -4.588 2
-2.226 -13.823 -4.981 7
-2.168 -13.346 -5.019 7
-2.106 -12.869 -5.041 8
-2.054 -12.444 -5.081 10
-2.001 -12.03 -5.114 9
-1.952 -11.628 -5.142 9
-1.903 -11.25 -5.174 12
-1.859 -10.888 -5.205 11
-1.814 -10.535 -5.231 11
-1.482 -8.54 -3.915 3
-1.395 -7.96 -3.679 4
-1.687 -9.539 -5.292 39
-5.416 -38.067 -3.712 7
-4.794 -33.426 -3.497 23
-3.734 -25.868 -2.498 16
0.0 -0.0 3.0 0
-3.702 -25.28 -3.303 53
-3.401 -23.069 -3.181 2
-3.275 -22.043 -3.321 18
-3.293 -22.02 -3.732 1
-3.32 -22.022 -4.155 3
-3.254 -21.444 -4.384 12
-3.13 -20.463 -4.448 9
-3.015 -19.583 -4.517 9
-2.918 -18.799 -4.595 8
-2.815 -18.014 -4.647 8
0.0 -0.0 3.0 0
0.0 -0.0 3.0 0
-2.197 -13.74 -3.702 4
-2.199 -13.657 -3.959 2
-2.198 -13.551 -4.205 0
-2.25 -13.756 -4.625 1
-2.277 -13.82 -4.979 7
-2.217 -13.347 -5.02 7
-2.154 -12.869 -5.042 7
-2.101 -12.443 -5.08 10
-2.046 -12.024 -5.111 10
-1.997 -11.629 -5.142 9
-1.948 -11.256 -5.178 11
-1.902 -10.887 -5.204 12
-1.855 -10.531 -5.228 11
-1.811 -10.196 -5.256 14
-1.512 -8.43 -4.073 0
-1.488 -8.223 -4.148 1
-5.538 -38.082 -3.715 6
-4.902 -33.443 -3.501 21
-3.816 -25.86 -2.497 13
0.0 -0.0 3.0 0
-3.786 -25.292 -3.306 54
-3.464 -22.986 -3.159 1
-3.348 -22.048 -3.322 17
-3.374 -22.066 -3.746 1
-3.399 -22.058 -4.167 2
-3.328 -21.457 -4.388 11
-3.2 -20.469 -4.45 9
-3.082 -19.582 -4.517 9
-2.982 -18.797 -4.595 8
-2.878 -18.014 -4.646 7
0.0 -0.0 3.0 0
0.0 -0.0 3.0 0
-2.245 -13.734 -3.698 15
0.0 -0.0 3.0 0
-2.248 -13.559 -4.209 0
0.0 -0.0 3.0 0
-2.328 -13.821 -4.98 7
-2.267 -13.344 -5.018 7
-2.202 -12.868 -5.041 7
-2.148 -12.444 -5.081 9
-2.093 -12.029 -5.114 8
-2.042 -11.631 -5.144 7
-1.991 -11.25 -5.174 10
-1.944 -10.885 -5.203 12
-1.897 -10.533 -5.229 13
-1.851 -10.194 -5.255 12
-1.557 -8.49 -4.124 5
-1.476 -7.98 -3.937 4
-5.661 -38.104 -3.719 6
-5.009 -33.451 -3.502 22
-3.888 -25.79 -2.482 2
-3.999 -26.325 -3.078 0
-3.869 -25.296 -3.307 54
-3.543 -23.01 -3.166 1
-3.424 -22.065 -3.327 15
-3.441 -22.026 -3.734 3
-3.489 -22.16 -4.2 4
-3.4 -21.455 -4.387 9
-3.271 -20.474 -4.452 9
-3.15 -19.584 -4.518 9
-3.048 -18.8 -4.596 8
-2.94 -18.013 -4.646 8
0.0 -0.0 3.0 0
0.0 -0.0 3.0 0
-2.295 -13.738 -3.7 1
-2.355 -14.0 -4.133 0
-2.298 -13.563 -4.212 0
0.0 -0.0 3.0 0
-2.378 -13.818 -4.978 7
-2.316 -13.345 -5.018 7
-2.251 -12.871 -5.043 7
-2.195 -12.441 -5.079 9
-2.138 -12.024 -5.11 10
-2.086 -11.628 -5.142 7
-2.035 -11.255 -5.177 10
-1.986 -10.884 -5.202 11
-1.937 -10.528 -5.226 13
-1.892 -10.193 -5.254 12
-1.849 -9.867 -5.279 15
-1.548 -8.186 -4.116 5
-5.127 -33.789 -2.958 6
-5.115 -33.448 -3.502 20
-3.973 -25.806 -2.485 2
-3.949 -25.454 -2.876 2
-3.954 -25.315 -3.312 53
-3.626 -23.061 -3.179 1
-3.499 -22.078 -3.331 14
-3.516 -22.042 -3.739 2
-3.549 -22.074 -4.172 3
-3.474 -21.463 -4.39 11
-3.341 -20.479 -4.454 10
-3.219 -19.596 -4.522 10
-3.113 -18.802 -4.596 8
-3.004 -18.019 -4.649 8
0.0 -0.0 3.0 0
0.0 -0.0 3.0 0
0.0 -0.0 3.0 0
0.0 -0.0 3.0 0
-2.347 -13.56 -4.21 0
0.0 -0.0 3.0 0
-2.429 -13.818 -4.978 8
-2.367 -13.349 -5.021 7
-2.3 -12.872 -5.044 8
-2.243 -12.449 -5.084 8
-2.184 -12.028 -5.113 9
-2.131 -11.626 -5.14 6
-2.078 -11.246 -5.171 12
-2.03 -10.888 -5.205 10
-1.98 -10.533 -5.229 11
-1.933 -10.195 -5.256 13
-1.888 -9.862 -5.275 14
-1.657 -8.58 -4.458 2
-5.237 -33.813 -2.962 7
-5.225 -33.471 -3.506 27
-4.062 -25.848 -2.494 1
-4.034 -25.469 -2.88 1
-4.037 -25.319 -3.313 54
-3.711 -23.123 -3.196 1
-3.575 -22.097 -3.336 13
-3.589 -22.036 -3.737 3
-3.666 -22.334 -4.257 2
-3.547 -21.464 -4.391 10
-3.411 -20.477 -4.453 9
-3.287 -19.598 -4.523 19
-3.179 -18.807 -4.599 8
-3.066 -18.014 -4.646 7
0.0 -0.0 3.0 0
0.0 -0.0 3.0 0
0.0 -0.0 3.0 0
0.0 -0.0 3.0 0
-2.397 -13.564 -4.212 0
0.0 -0.0 3.0 0
-2.48 -13.818 -4.978 7
-2.416 -13.346 -5.019 7
-2.349 -12.877 -5.046 7
-2.29 -12.443 -5.081 9
-2.231 -12.029 -5.114 10
-2.175 -11.624 -5.139 5
-2.122 -11.251 -5.174 11
-2.071 -10.88 -5.199 11
-2.022 -10.531 -5.228 13
-1.973 -10.194 -5.255 12
-1.928 -9.864 -5.277 14
-1.882 -9.54 -5.293 38
-5.349 -33.852 -2.969 11
-5.333 -33.483 -3.508 21
-4.159 -25.94 -2.514 1
0.0 -0.0 3.0 0
-4.121 -25.329 -3.315 52
-3.798 -23.188 -3.213 1
-3.65 -22.113 -3.341 12
-3.663 -22.044 -3.739 3
-3.701 -22.094 -4.179 2
-3.62 -21.468 -4.392 10
-3.481 -20.482 -4.455 9
-3.352 -19.585 -4.518 36
-3.244 -18.806 -4.598 8
-3.129 -18.012 -4.646 7
0.0 -0.0 3.0 0
0.0 -0.0 3.0 0
0.0 -0.0 3.0 0
0.0 -0.0 3.0 0
-2.443 -13.547 -4.203 0
0.0 -0.0 3.0 0
-2.531 -13.815 -4.976 7
-2.465 -13.343 -5.017 8
-2.397 -12.873 -5.044 8
-2.337 -12.443 -5.081 10
-2.276 -12.023 -5.11 10
-2.22 -11.624 -5.14 6
-2.166 -11.249 -5.173 12
-2.114 -10.881 -5.2 10
-2.064 -10.532 -5.229 12
-2.013 -10.189 -5.251 12
-1.967 -9.86 -5.273 14
-1.92 -9.536 -5.289 37
-5.413 -33.587 -2.922 26
-5.44 -33.487 -3.509 20
-4.25 -25.986 -2.523 1
0.0 -0.0 3.0 0
-4.206 -25.344 -3.319 55
-3.889 -23.276 -3.237 1
-3.727 -22.132 -3.346 10
-3.74 -22.062 -3.745 3
-3.775 -22.095 -4.179 20
-3.694 -21.472 -4.394 10
-3.553 -20.493 -4.459 9
-3.419 -19.586 -4.518 41
-3.31 -18.807 -4.598 8
-3.192 -18.014 -4.646 7
0.0 -0.0 3.0 0
0.0 -0.0 3.0 0
0.0 -0.0 3.0 0
0.0 -0.0 3.0 0
-2.492 -13.547 -4.203 0
0.0 -0.0 3.0 0
-2.582 -13.815 -4.976 7
-2.515 -13.343 -5.017 8
-2.445 -12.873 -5.044 8
-2.384 -12.441 -5.079 9
-2.322 -12.024 -5.11 9
-2.266 -11.629 -5.143 10
-2.21 -11.25 -5.174 11
-2.157 -10.879 -5.198 11
-2.105 -10.527 -5.225 12
-2.056 -10.196 -5.256 11
-2.008 -9.861 -5.274 14
-1.959 -9.538 -5.291 29
-5.51 -33.528 -2.912 16
-5.552 -33.52 -3.516 29
-4.343 -26.042 -2.535 7
0.0 -0.0 3.0 0
-4.29 -25.354 -3.321 53
-3.979 -23.354 -3.258 0
-3.805 -22.16 -3.354 6
-3.877 -22.425 -3.856 8
-3.85 -22.094 -4.179 3
-3.768 -21.48 -4.396 9
-3.622 -20.483 -4.455 9
-3.486 -19.583 -4.517 33
-3.376 -18.811 -4.6 8
-3.255 -18.015 -4.647 7
0.0 -0.0 3.0 0
0.0 -0.0 3.0 0
0.0 -0.0 3.0 0
0.0 -0.0 3.0 0
-2.544 -13.557 -4.209 0
0.0 -0.0 3.0 0
-2.633 -13.815 -4.976 8
-2.565 -13.34 -5.015 8
-2.495 -12.877 -5.046 8
-2.432 -12.444 -5.082 9
-2.368 -12.021 -5.108 10
-2.311 -11.627 -5.141 10
-2.254 -11.25 -5.174 11
-2.201 -10.884 -5.201 11
-2.147 -10.528 -5.225 10
-2.096 -10.191 -5.253 12
-2.047 -9.859 -5.273 14
-1.998 -9.536 -5.289 37
-5.605 -33.465 -2.901 15
-5.657 -33.507 -3.513 22
-4.44 -26.122 -2.552 6
0.0 -0.0 3.0 0
-4.375 -25.364 -3.324 54
-4.419 -25.446 -3.818 16
-3.882 -22.178 -3.36 4
-3.918 -22.236 -3.798 1
-4.011 -22.586 -4.339 5
-3.84 -21.477 -4.395 9
-3.694 -20.494 -4.459 9
-3.554 -19.583 -4.517 14
-3.442 -18.813 -4.601 8
-3.319 -18.016 -4.647 7
0.0 -0.0 3.0 0
0.0 -0.0 3.0 0
0.0 -0.0 3.0 0
-2.701 -14.225 -4.248 0
-2.593 -13.557 -4.209 0
0.0 -0.0 3.0 0
-2.685 -13.814 -4.976 8
-2.615 -13.342 -5.017 8
-2.542 -12.87 -5.042 8
-2.479 -12.441 -5.079 9
-2.414 -12.022 -5.109 9
-2.356 -11.627 -5.141 10
-2.298 -11.252 -5.175 11
-2.244 -10.885 -5.202 11
-2.188 -10.526 -5.224 10
-2.136 -10.186 -5.248 12
-2.086 -9.854 -5.269 14
-2.037 -9.537 -5.29 36
-5.752 -33.708 -2.944 2
-5.764 -33.509 -3.514 21
-4.553 -26.29 -2.588 3
0.0 -0.0 3.0 0
-4.46 -25.378 -3.327 53
-4.505 -25.46 -3.822 18
-3.966 -22.238 -3.377 1
-3.966 -22.089 -3.753 1
-4.09 -22.599 -4.343 5
-3.915 -21.483 -4.397 9
-3.765 -20.498 -4.461 8
-3.625 -19.603 -4.525 10
-3.507 -18.81 -4.6 8
-3.382 -18.015 -4.647 7
0.0 -0.0 3.0 0
0.0 -0.0 3.0 0
0.0 -0.0 3.0 0
-2.752 -14.217 -4.244 0
-2.644 -13.56 -4.21 0
0.0 -0.0 3.0 0
-2.735 -13.811 -4.974 8
-2.665 -13.342 -5.017 8
-2.59 -12.867 -5.04 7
-2.526 -12.441 -5.079 9
-2.46 -12.022 -5.109 9
-2.4 -11.624 -5.139 10
-2.342 -11.248 -5.172 11
-2.286 -10.882 -5.2 11
-2.23 -10.527 -5.225 12
-2.177 -10.19 -5.252 13
-2.127 -9.859 -5.272 13
-2.076 -9.536 -5.289 34
-6.663 -38.33 -3.759 6
-5.875 -33.535 -3.518 22
-5.715 -32.399 -3.887 13
0.0 -0.0 3.0 0
-4.545 -25.391 -3.331 54
-4.591 -25.472 -3.825 19
-4.053 -22.313 -3.398 1
-4.049 -22.137 -3.768 2
-4.165 -22.595 -4.341 5
-3.99 -21.494 -4.401 9
-3.837 -20.506 -4.463 9
-3.695 -19.611 -4.528 8
-3.572 -18.81 -4.6 8
-3.445 -18.015 -4.647 6
0.0 -0.0 3.0 0
0.0 -0.0 3.0 0
0.0 -0.0 3.0 0
-2.807 -14.237 -4.254 0
-2.692 -13.553 -4.206 0
0.0 -0.0 3.0 0
-2.787 -13.814 -4.975 8
-2.714 -13.338 -5.014 7
-2.638 -12.864 -5.038 8
-2.574 -12.445 -5.082 10
-2.506 -12.022 -5.109 10
-2.445 -11.621 -5.137 11
-2.385 -11.246 -5.171 11
-2.328 -10.876 -5.196 13
-2.272 -10.525 -5.223 12
-2.216 -10.179 -5.243 11
-2.167 -9.857 -5.271 13
-2.115 -9.534 -5.287 34
-6.79 -38.365 -3.765 7
-5.987 -33.56 -3.523 28
-5.82 -32.401 -3.887 14
0.0 -0.0 3.0 0
-4.631 -25.403 -3.334 55
-4.678 -25.485 -3.829 20
-4.147 -22.419 -3.429 1
-4.137 -22.211 -3.791 1
-4.247 -22.624 -4.351 4
-4.064 -21.497 -4.402 9
-3.908 -20.508 -4.464 9
-3.762 -19.607 -4.526 9
-3.639 -18.815 -4.602 8
-3.509 -18.016 -4.648 5
0.0 -0.0 3.0 0
0.0 -0.0 3.0 0
0.0 -0.0 3.0 0
0.0 -0.0 3.0 0
-2.741 -13.549 -4.204 0
0.0 -0.0 3.0 0
-2.838 -13.813 -4.975 8
-2.764 -13.337 -5.014 7
-2.687 -12.866 -5.04 8
-2.621 -12.441 -5.079 9
-2.554 -12.025 -5.111 9
-2.49 -11.621 -5.137 10
-2.429 -11.246 -5.171 11
-2.372 -10.88 -5.198 11
-2.314 -10.525 -5.223 11
-2.259 -10.186 -5.249 12
-2.207 -9.855 -5.269 13
-2.153 -9.532 -5.286 29
-6.918 -38.399 -3.771 7
-6.092 -33.545 -3.521 32
-5.925 -32.403 -3.887 14
0.0 -0.0 3.0 0
-4.716 -25.417 -3.337 53
-4.764 -25.498 -3.832 21
-4.24 -22.516 -3.456 2
-4.244 -22.384 -3.843 2
-4.323 -22.618 -4.349 5
-4.138 -21.504 -4.404 7
-3.978 -20.509 -4.465 9
-3.831 -19.614 -4.529 9
-3.704 -18.811 -4.6 8
-3.572 -18.016 -4.648 7
0.0 -0.0 3.0 0
0.0 -0.0 3.0 0
0.0 -0.0 3.0 0
0.0 -0.0 3.0 0
-2.79 -13.549 -4.204 0
0.0 -0.0 3.0 0
-2.89 -13.815 -4.976 7
-2.814 -13.337 -5.014 7
-2.734 -12.86 -5.036 8
-2.668 -12.437 -5.077 9
-2.599 -12.022 -5.109 9
-2.535 -11.622 -5.138 10
-2.473 -11.243 -5.169 10
-2.415 -10.878 -5.197 12
-2.356 -10.526 -5.224 13
-2.3 -10.186 -5.249 15
-2.246 -9.852 -5.267 15
-2.192 -9.53 -5.284 35
-7.046 -38.432 -3.777 6
-6.206 -33.585 -3.528 24
-6.03 -32.408 -3.888 14
0.0 -0.0 3.0 0
-4.803 -25.433 -3.341 53
-4.852 -25.514 -3.836 22
-4.822 -25.157 -4.214 5
-4.378 -22.687 -3.936 0
-4.401 -22.628 -4.352 5
-4.213 -21.509 -4.406 9
-4.051 -20.519 -4.468 9
-3.899 -19.614 -4.529 8
-3.77 -18.815 -4.602 7
-3.636 -18.017 -4.648 6
0.0 -0.0 3.0 0
0.0 -0.0 3.0 0
-2.837 -13.732 -3.698 5
-2.842 -13.66 -3.96 0
-2.843 -13.565 -4.212 0
0.0 -0.0 3.0 0
-2.942 -13.814 -4.975 7
-2.866 -13.343 -5.017 8
-2.784 -12.862 -5.037 8
-2.716 -12.44 -5.079 9
-2.646 -12.025 -5.111 10
-2.581 -11.621 -5.137 11
-2.517 -11.244 -5.169 10
-2.458 -10.878 -5.197 11
-2.398 -10.523 -5.222 12
-2.341 -10.184 -5.247 13
-2.287 -9.853 -5.268 13
-2.232 -9.533 -5.287 34
-7.172 -38.45 -3.78 6
-6.322 -33.628 -3.537 22
-6.137 -32.421 -3.891 14
-4.882 -25.585 -2.907 6
-4.889 -25.445 -3.344 52
-4.937 -25.518 -3.838 23
-4.907 -25.166 -4.216 7
-4.681 -23.839 -4.288 5
-4.479 -22.633 -4.354 4
-4.288 -21.515 -4.408 9
-4.123 -20.525 -4.47 12
-3.97 -19.628 -4.534 9
-3.838 -18.823 -4.605 8
-3.7 -18.021 -4.649 7
0.0 -0.0 3.0 0
0.0 -0.0 3.0 0
-2.885 -13.724 -3.694 7
-2.889 -13.645 -3.952 2
-2.891 -13.553 -4.206 0
0.0 -0.0 3.0 0
-2.993 -13.813 -4.975 7
-2.915 -13.339 -5.015 8
-2.833 -12.865 -5.039 8
-2.763 -12.436 -5.076 9
-2.691 -12.018 -5.106 10
-2.625 -11.618 -5.135 10
-2.561 -11.241 -5.167 11
-2.5 -10.875 -5.195 12
-2.44 -10.524 -5.222 9
-2.38 -10.178 -5.242 12
-2.326 -9.851 -5.266 14
-2.27 -9.525 -5.28 34
-7.302 -38.493 -3.787 6
-6.432 -33.64 -3.539 22
-6.242 -32.417 -3.89 15
-4.969 -25.604 -2.911 34
-4.974 -25.453 -3.346 52
-5.025 -25.537 -3.843 26
-4.992 -25.17 -4.217 6
-4.762 -23.844 -4.29 6
-4.557 -22.639 -4.356 4
-4.362 -21.521 -4.41 9
-4.19 -20.509 -4.465 33
-4.038 -19.628 -4.534 9
-3.904 -18.822 -4.604 8
-3.763 -18.017 -4.648 5
0.0 -0.0 3.0 0
0.0 -0.0 3.0 0
-2.934 -13.72 -3.691 8
-2.938 -13.64 -3.95 2
-2.942 -13.559 -4.21 0
0.0 -0.0 3.0 0
-3.045 -13.815 -4.976 7
-2.966 -13.341 -5.016 7
-2.882 -12.863 -5.038 8
-2.811 -12.439 -5.078 10
-2.738 -12.018 -5.106 9
-2.671 -11.618 -5.135 10
-2.605 -11.241 -5.167 10
-2.544 -10.874 -5.194 10
-2.483 -10.527 -5.225 10
-2.423 -10.182 -5.245 13
-2.366 -9.848 -5.264 13
-2.31 -9.53 -5.284 30
-7.431 -38.523 -3.793 6
-6.537 -33.625 -3.536 34
-6.348 -32.422 -3.891 14
-5.061 -25.647 -2.921 0
-5.061 -25.469 -3.35 52
-5.112 -25.55 -3.846 32
-5.081 -25.193 -4.224 6
-4.845 -23.856 -4.294 6
-4.637 -22.652 -4.36 5
-4.439 -21.535 -4.415 10
-4.262 -20.516 -4.467 24
-4.106 -19.627 -4.534 8
-3.97 -18.822 -4.604 8
-3.829 -18.025 -4.651 7
0.0 -0.0 3.0 0
0.0 -0.0 3.0 0
-2.987 -13.736 -3.699 0
-2.989 -13.645 -3.953 2
-2.99 -13.551 -4.205 0
0.0 -0.0 3.0 0
-3.097 -13.813 -4.975 8
-3.015 -13.336 -5.013 8
-2.93 -12.859 -5.035 7
-2.859 -12.438 -5.077 10
-2.785 -12.02 -5.108 9
-2.717 -11.621 -5.137 9
-2.65 -11.244 -5.169 10
-2.587 -10.875 -5.195 11
-2.523 -10.518 -5.218 13
-2.463 -10.179 -5.243 13
-2.406 -9.849 -5.264 14
-2.349 -9.53 -5.284 37
-7.563 -38.569 -3.801 6
-6.654 -33.667 -3.544 22
-6.455 -32.433 -3.894 14
0.0 -0.0 3.0 0
-5.149 -25.488 -3.355 53
-5.194 -25.533 -3.842 41
-5.164 -25.189 -4.223 6
-4.928 -23.868 -4.297 6
-4.715 -22.656 -4.361 5
-4.512 -21.533 -4.414 9
-4.335 -20.521 -4.469 25
-4.175 -19.629 -4.535 9
-4.037 -18.828 -4.607 8
-3.892 -18.024 -4.651 7
0.0 -0.0 3.0 0
0.0 -0.0 3.0 0
0.0 -0.0 3.0 0
-3.039 -13.645 -3.952 1
-3.04 -13.55 -4.204 0
0.0 -0.0 3.0 0
-3.147 -13.808 -4.972 8
-3.066 -13.335 -5.012 7
-2.979 -12.858 -5.035 8
-2.907 -12.437 -5.077 10
-2.831 -12.016 -5.105 10
-2.76 -11.614 -5.132 10
-2.694 -11.24 -5.166 11
-2.629 -10.871 -5.192 12
-2.567 -10.524 -5.222 11
-2.505 -10.179 -5.243 12
-2.447 -9.849 -5.264 12
-2.388 -9.524 -5.279 32
-7.694 -38.609 -3.808 6
-6.768 -33.692 -3.549 17
-6.56 -32.433 -3.894 14
-5.396 -26.469 -3.111 3
-5.235 -25.499 -3.358 47
-5.277 -25.526 -3.84 47
-5.251 -25.199 -4.226 6
-5.01 -23.875 -4.299 6
-4.795 -22.672 -4.367 5
-4.587 -21.538 -4.416 10
-4.404 -20.512 -4.466 20
-4.245 -19.635 -4.537 9
-4.103 -18.827 -4.607 7
-3.955 -18.02 -4.649 7
0.0 -0.0 3.0 0
0.0 -0.0 3.0 0
-3.265 -14.53 -4.087 0
-3.14 -13.874 -4.069 0
-3.092 -13.558 -4.209 0
0.0 -0.0 3.0 0
-3.2 -13.813 -4.975 8
-3.117 -13.34 -5.015 7
-3.028 -12.857 -5.034 8
-2.953 -12.43 -5.072 9
-2.878 -12.019 -5.107 9
-2.807 -11.62 -5.136 9
-2.737 -11.237 -5.164 10
-2.673 -10.874 -5.194 11
-2.609 -10.521 -5.22 11
-2.545 -10.177 -5.241 12
-2.487 -9.846 -5.262 13
-2.427 -9.525 -5.28 35
-7.825 -38.647 -3.815 7
-6.882 -33.722 -3.555 19
-6.668 -32.443 -3.896 13
-5.433 -26.227 -3.055 9
-5.32 -25.502 -3.358 50
-5.359 -25.51 -3.835 14
-5.338 -25.21 -4.229 6
-5.092 -23.879 -4.301 6
-4.872 -22.669 -4.365 5
-4.663 -21.543 -4.418 7
-4.477 -20.521 -4.469 12
-4.314 -19.637 -4.538 9
-4.169 -18.826 -4.606 8
-4.02 -18.023 -4.65 8
0.0 -0.0 3.0 0
0.0 -0.0 3.0 0
-3.326 -14.566 -4.104 0
0.0 -0.0 3.0 0
-3.144 -13.567 -4.214 0
0.0 -0.0 3.0 0
-3.252 -13.812 -4.974 6
-3.166 -13.331 -5.01 7
-3.078 -12.862 -5.037 8
-3.001 -12.432 -5.073 10
-2.923 -12.011 -5.101 10
-2.852 -11.616 -5.133 11
-2.781 -11.236 -5.163 11
-2.716 -10.871 -5.192 11
-2.65 -10.518 -5.218 11
-2.587 -10.179 -5.243 10
-2.527 -9.847 -5.263 14
-2.466 -9.522 -5.277 33
-7.955 -38.677 -3.82 5
-6.992 -33.724 -3.555 30
-6.775 -32.45 -3.898 14
-5.531 -26.283 -3.068 9
-5.405 -25.505 -3.359 51
-5.463 -25.6 -3.859 1
-5.425 -25.221 -4.232 7
-5.174 -23.886 -4.303 6
-4.95 -22.673 -4.367 5
-4.738 -21.547 -4.419 8
-4.552 -20.537 -4.475 9
-4.383 -19.636 -4.537 9
-4.236 -18.828 -4.607 8
-4.085 -18.026 -4.651 7
0.0 -0.0 3.0 0
0.0 -0.0 3.0 0
-3.375 -14.549 -4.096 0
0.0 -0.0 3.0 0
-3.192 -13.559 -4.209 0
0.0 -0.0 3.0 0
-3.304 -13.813 -4.975 6
-3.217 -13.333 -5.011 7
-3.126 -12.857 -5.034 8
-3.049 -12.43 -5.072 9
-2.971 -12.017 -5.106 9
-2.897 -11.615 -5.133 10
-2.826 -11.235 -5.163 9
-2.759 -10.87 -5.191 11
-2.693 -10.518 -5.217 11
-2.628 -10.177 -5.241 11
-2.565 -9.838 -5.255 13
-2.505 -9.523 -5.278 33
-8.089 -38.727 -3.829 7
-7.094 -33.696 -3.55 23
-6.88 -32.449 -3.897 15
-5.631 -26.347 -3.083 8
-5.489 -25.504 -3.359 50
-5.53 -25.515 -3.837 2
-5.512 -25.231 -4.235 6
-5.257 -23.893 -4.305 5
-5.031 -22.687 -4.372 4
-4.815 -21.559 -4.423 11
-4.624 -20.542 -4.477 9
-4.452 -19.637 -4.538 8
-4.303 -18.83 -4.608 8
-4.15 -18.029 -4.653 7
0.0 -0.0 3.0 0
0.0 -0.0 3.0 0
-3.434 -14.572 -4.107 0
0.0 -0.0 3.0 0
-3.243 -13.559 -4.21 0
0.0 -0.0 3.0 0
-3.356 -13.81 -4.973 6
-3.266 -13.328 -5.008 8
-3.175 -12.856 -5.033 8
-3.097 -12.432 -5.074 10
-3.017 -12.012 -5.102 10
-2.944 -11.617 -5.134 10
-2.87 -11.234 -5.162 10
-2.802 -10.866 -5.188 11
-2.736 -10.521 -5.22 12
-2.669 -10.173 -5.238 13
-2.606 -9.841 -5.257 14
-2.544 -9.517 -5.273 33
-8.224 -38.776 -3.837 6
-7.191 -33.636 -3.538 23
-6.988 -32.456 -3.899 16
-5.733 -26.417 -3.099 8
-5.575 -25.51 -3.36 52
-5.62 -25.532 -3.841 8
-5.603 -25.255 -4.242 6
-5.34 -23.903 -4.308 6
-5.111 -22.699 -4.375 5
-4.888 -21.556 -4.422 15
-4.696 -20.543 -4.477 9
-4.523 -19.646 -4.541 9
-4.369 -18.828 -4.607 8
-4.215 -18.034 -4.655 8
0.0 -0.0 3.0 0
0.0 -0.0 3.0 0
0.0 -0.0 3.0 0
0.0 -0.0 3.0 0
-3.296 -13.572 -4.216 0
0.0 -0.0 3.0 0
-3.407 -13.808 -4.972 8
-3.317 -13.329 -5.009 8
-3.224 -12.854 -5.032 8
-3.145 -12.431 -5.073 9
-3.064 -12.014 -5.104 10
-2.988 -11.612 -5.131 10
-2.915 -11.237 -5.164 9
-2.845 -10.866 -5.188 11
-2.777 -10.514 -5.214 13
-2.708 -10.167 -5.233 12
-2.647 -9.84 -5.257 13
-2.583 -9.517 -5.273 35
-7.19 -33.395 -2.888 9
-7.302 -33.645 -3.54 14
-7.094 -32.457 -3.899 16
-5.838 -26.499 -3.118 6
-5.66 -25.509 -3.36 50
-5.711 -25.557 -3.848 4
-5.689 -25.261 -4.243 6
-5.425 -23.918 -4.312 6
-5.189 -22.698 -4.375 5
-4.961 -21.548 -4.42 28
-4.768 -20.548 -4.479 9
-4.593 -19.651 -4.543 9
-4.439 -18.841 -4.612 7
-4.278 -18.029 -4.653 8
0.0 -0.0 3.0 0
0.0 -0.0 3.0 0
0.0 -0.0 3.0 0
0.0 -0.0 3.0 0
-3.34 -13.545 -4.202 0
0.0 -0.0 3.0 0
-3.458 -13.802 -4.969 8
-3.369 -13.333 -5.012 7
-3.275 -12.862 -5.037 8
-3.193 -12.429 -5.072 9
-3.111 -12.012 -5.102 10
-3.034 -11.612 -5.131 10
-2.96 -11.235 -5.163 10
-2.89 -10.871 -5.192 11
-2.82 -10.516 -5.216 12
-2.752 -10.173 -5.238 11
-2.687 -9.838 -5.255 13
-2.622 -9.514 -5.27 28
-7.275 -33.293 -2.87 2
-7.419 -33.681 -3.547 17
-7.201 -32.462 -3.9 15
-5.949 -26.604 -3.142 5
-5.746 -25.514 -3.361 49
-5.809 -25.616 -3.864 10
-5.777 -25.27 -4.246 6
-5.509 -23.927 -4.315 6
-5.269 -22.705 -4.377 5
-5.038 -21.556 -4.422 20
-4.839 -20.545 -4.478 10
-4.662 -19.652 -4.544 9
-4.505 -18.835 -4.61 7
-4.344 -18.035 -4.655 7
0.0 -0.0 3.0 0
0.0 -0.0 3.0 0
-3.386 -13.731 -3.697 0
0.0 -0.0 3.0 0
-3.392 -13.553 -4.206 0
0.0 -0.0 3.0 0
-3.511 -13.802 -4.969 7
-3.419 -13.327 -5.008 7
-3.323 -12.853 -5.032 8
-3.242 -12.43 -5.072 9
-3.157 -12.011 -5.102 10
-3.08 -11.614 -5.132 10
-3.004 -11.232 -5.16 10
-2.932 -10.864 -5.187 10
-2.863 -10.518 -5.218 12
-2.793 -10.173 -5.238 11
-2.728 -9.84 -5.257 13
-2.661 -9.511 -5.268 36
-8.628 -38.909 -3.861 5
-7.519 -33.639 -3.539 30
-7.309 -32.467 -3.901 16
-6.082 -26.803 -3.188 4
-5.834 -25.528 -3.365 47
-5.893 -25.606 -3.861 71
-5.865 -25.283 -4.25 6
-5.593 -23.941 -4.319 5
-5.351 -22.723 -4.383 4
-5.116 -21.57 -4.427 12
-4.914 -20.555 -4.482 10
-4.732 -19.653 -4.544 9
-4.574 -18.847 -4.615 7
-4.408 -18.033 -4.655 7
-3.681 -14.937 -3.65 0
0.0 -0.0 3.0 0
-3.435 -13.725 -3.694 1
0.0 -0.0 3.0 0
-3.444 -13.557 -4.208 0
0.0 -0.0 3.0 0
-3.564 -13.807 -4.971 7
-3.47 -13.328 -5.009 7
-3.373 -12.854 -5.032 8
-3.289 -12.429 -5.071 10
-3.203 -12.006 -5.098 10
-3.126 -11.612 -5.131 9
-3.049 -11.234 -5.162 11
-2.977 -10.867 -5.189 10
-2.903 -10.508 -5.21 11
-2.834 -10.168 -5.234 11
-2.768 -9.837 -5.254 13
-2.7 -9.511 -5.268 35
-8.758 -38.929 -3.864 7
-7.65 -33.736 -3.558 23
-7.416 -32.472 -3.902 15
-7.063 -30.682 -4.084 5
-5.923 -25.547 -3.37 46
-5.972 -25.577 -3.853 24
-5.954 -25.295 -4.253 7
-5.675 -23.939 -4.319 6
-5.43 -22.726 -4.384 5
-5.193 -21.581 -4.431 8
-4.986 -20.555 -4.482 9
-4.801 -19.653 -4.544 8
-4.641 -18.845 -4.614 8
-4.475 -18.042 -4.658 7
-3.754 -15.012 -3.684 0
0.0 -0.0 3.0 0
-3.488 -13.733 -3.698 0
0.0 -0.0 3.0 0
0.0 -0.0 3.0 0
0.0 -0.0 3.0 0
-3.616 -13.803 -4.969 7
-3.521 -13.329 -5.009 5
-3.422 -12.852 -5.031 8
-3.337 -12.426 -5.07 9
-3.251 -12.007 -5.099 10
-3.17 -11.607 -5.128 10
-3.093 -11.232 -5.161 11
-3.019 -10.862 -5.185 11
-2.947 -10.514 -5.214 12
-2.877 -10.174 -5.239 11
-2.808 -9.837 -5.254 13
-2.74 -9.511 -5.268 34
-8.898 -38.995 -3.876 6
-7.752 -33.701 -3.551 31
-7.525 -32.481 -3.904 14
-7.162 -30.669 -4.081 6
-6.015 -25.576 -3.377 41
-6.065 -25.604 -3.861 9
-6.041 -25.3 -4.255 6
-5.759 -23.948 -4.322 6
-5.511 -22.739 -4.388 5
-5.272 -21.595 -4.436 8
-5.061 -20.567 -4.486 9
-4.873 -19.661 -4.547 6
-4.707 -18.843 -4.613 7
-4.539 -18.036 -4.656 7
-4.392 -17.312 -4.708 3
0.0 -0.0 3.0 0
-3.538 -13.733 -3.698 0
0.0 -0.0 3.0 0
0.0 -0.0 3.0 0
0.0 -0.0 3.0 0
-3.667 -13.801 -4.968 8
-3.571 -13.326 -5.007 5
-3.471 -12.849 -5.029 8
-3.384 -12.421 -5.066 9
-3.297 -12.006 -5.098 10
-3.217 -11.609 -5.128 10
-3.138 -11.231 -5.16 10
-3.063 -10.861 -5.184 11
-2.988 -10.507 -5.209 13
-2.917 -10.168 -5.234 12
-2.848 -9.832 -5.25 14
-2.779 -9.507 -5.265 30
-9.032 -39.026 -3.881 7
-7.893 -33.834 -3.577 17
-7.632 -32.481 -3.904 13
-7.27 -30.697 -4.087 6
-6.109 -25.61 -3.385 38
-6.15 -25.6 -3.86 2
-6.129 -25.312 -4.258 7
-5.844 -23.96 -4.325 6
-5.59 -22.741 -4.389 5
-5.348 -21.601 -4.438 8
-5.133 -20.566 -4.485 9
-4.942 -19.661 -4.547 5
-4.776 -18.846 -4.614 6
-4.604 -18.037 -4.656 7
-4.454 -17.31 -4.707 8
0.0 -0.0 3.0 0
-3.587 -13.727 -3.695 0
0.0 -0.0 3.0 0
0.0 -0.0 3.0 0
0.0 -0.0 3.0 0
-3.72 -13.801 -4.968 8
-3.623 -13.327 -5.008 5
-3.521 -12.85 -5.029 7
-3.434 -12.425 -5.069 9
-3.344 -12.004 -5.096 10
-3.262 -11.606 -5.127 10
-3.183 -11.232 -5.161 11
-3.105 -10.856 -5.181 11
-3.032 -10.509 -5.21 12
-2.958 -10.163 -5.23 12
-2.889 -9.832 -5.25 12
-2.819 -9.507 -5.264 25
-9.17 -39.079 -3.891 6
-8.028 -33.937 -3.597 21
-7.74 -32.484 -3.905 11
-7.377 -30.716 -4.091 6
-6.204 -25.649 -3.395 8
-6.264 -25.71 -3.889 1
-6.218 -25.324 -4.262 7
-5.929 -23.973 -4.329 6
-5.67 -22.743 -4.39 5
-5.425 -21.608 -4.44 7
-5.208 -20.577 -4.489 9
-5.015 -19.672 -4.551 4
-4.842 -18.844 -4.613 5
-4.67 -18.042 -4.658 8
-4.517 -17.311 -4.707 7
0.0 -0.0 3.0 0
0.0 -0.0 3.0 0
0.0 -0.0 3.0 0
0.0 -0.0 3.0 0
0.0 -0.0 3.0 0
-3.774 -13.807 -4.972 8
-3.674 -13.327 -5.008 6
-3.57 -12.851 -5.03 8
-3.483 -12.426 -5.069 10
-3.392 -12.004 -5.097 10
-3.308 -11.605 -5.126 10
-3.227 -11.228 -5.157 11
-3.151 -10.862 -5.185 11
-3.073 -10.504 -5.207 13
-3.0 -10.165 -5.232 13
-2.93 -9.834 -5.252 13
-2.859 -9.509 -5.266 22
-9.309 -39.129 -3.899 6
-8.163 -34.039 -3.616 23
-7.847 -32.484 -3.905 11
-7.485 -30.743 -4.098 6
-6.321 -25.777 -3.427 1
-6.34 -25.668 -3.878 25
-6.306 -25.327 -4.263 6
-6.013 -23.981 -4.332 5
-5.75 -22.748 -4.391 4
-5.5 -21.606 -4.44 7
-5.281 -20.579 -4.49 9
-5.084 -19.668 -4.55 4
-4.911 -18.851 -4.616 8
-4.734 -18.039 -4.657 7
-4.58 -17.312 -4.708 7
0.0 -0.0 3.0 0
0.0 -0.0 3.0 0
0.0 -0.0 3.0 0
0.0 -0.0 3.0 0
0.0 -0.0 3.0 0
-3.825 -13.8 -4.968 8
-3.725 -13.327 -5.008 8
-3.62 -12.851 -5.03 8
-3.531 -12.424 -5.068 10
-3.438 -12.002 -5.096 10
-3.355 -11.606 -5.127 9
-3.272 -11.225 -5.156 11
-3.194 -10.86 -5.183 11
-3.117 -10.506 -5.208 12
-3.041 -10.161 -5.228 12
-2.97 -9.831 -5.249 13
-2.9 -9.511 -5.268 22
-9.449 -39.181 -3.909 7
-8.274 -34.037 -3.616 35
-7.954 -32.483 -3.904 15
-7.593 -30.763 -4.102 7
-6.475 -26.045 -3.494 3
-6.743 -26.931 -4.216 5
-6.394 -25.335 -4.265 7
-6.096 -23.982 -4.332 5
-5.834 -22.767 -4.398 4
-5.58 -21.623 -4.445 8
-5.355 -20.586 -4.493 9
-5.156 -19.678 -4.554 6
-4.98 -18.855 -4.618 6
-4.8 -18.042 -4.659 7
-4.642 -17.306 -4.705 7
0.0 -0.0 3.0 0
0.0 -0.0 3.0 0
0.0 -0.0 3.0 0
0.0 -0.0 3.0 0
0.0 -0.0 3.0 0
-3.878 -13.8 -4.968 8
-3.775 -13.321 -5.004 7
-3.669 -12.844 -5.026 8
-3.578 -12.42 -5.066 8
-3.486 -12.003 -5.096 10
-3.401 -11.607 -5.127 10
-3.316 -11.224 -5.155 11
-3.237 -10.855 -5.18 11
-3.16 -10.508 -5.209 11
-3.083 -10.163 -5.23 12
-3.013 -9.835 -5.253 12
-2.938 -9.505 -5.262 16
-9.591 -39.244 -3.92 10
-8.396 -34.078 -3.624 31
-8.065 -32.501 -3.908 14
-7.699 -30.778 -4.106 6
-7.235 -28.718 -4.16 7
-6.836 -26.936 -4.218 4
-6.486 -25.357 -4.271 6
-6.183 -23.997 -4.337 5
-5.912 -22.765 -4.397 5
-5.657 -21.625 -4.446 10
-5.429 -20.592 -4.495 9
-5.225 -19.674 -4.552 8
-5.05 -18.861 -4.62 6
-4.865 -18.04 -4.657 7
-4.704 -17.304 -4.704 7
0.0 -0.0 3.0 0
0.0 -0.0 3.0 0
0.0 -0.0 3.0 0
0.0 -0.0 3.0 0
0.0 -0.0 3.0 0
-3.93 -13.8 -4.967 8
-3.827 -13.323 -5.005 7
-3.72 -12.848 -5.028 8
-3.626 -12.418 -5.064 9
-3.532 -11.997 -5.092 10
-3.445 -11.598 -5.121 9
-3.362 -11.225 -5.156 10
-3.281 -10.856 -5.181 11
-3.202 -10.503 -5.206 12
-3.124 -10.159 -5.226 13
-3.053 -9.834 -5.252 12
-2.977 -9.501 -5.259 17
-9.733 -39.3 -3.93 11
-8.55 -34.247 -3.657 24
-8.174 -32.504 -3.909 14
-7.809 -30.807 -4.112 6
-7.334 -28.725 -4.162 7
-6.933 -26.956 -4.223 5
-6.577 -25.371 -4.275 6
-6.269 -24.012 -4.341 6
-5.996 -22.784 -4.403 5
-5.737 -21.641 -4.452 7
-5.505 -20.602 -4.498 9
-5.298 -19.684 -4.556 9
-5.116 -18.858 -4.619 7
-4.933 -18.05 -4.662 7
-4.768 -17.307 -4.706 7
0.0 -0.0 3.0 0
0.0 -0.0 3.0 0
-3.851 -13.661 -3.961 0
0.0 -0.0 3.0 0
0.0 -0.0 3.0 0
-3.984 -13.802 -4.969 8
-3.88 -13.327 -5.008 8
-3.77 -12.848 -5.028 9
-3.675 -12.418 -5.064 10
-3.579 -11.995 -5.09 9
-3.492 -11.599 -5.122 10
-3.407 -11.225 -5.156 11
-3.325 -10.854 -5.179 12
-3.244 -10.502 -5.205 12
-3.167 -10.163 -5.23 11
-3.092 -9.827 -5.246 14
-3.016 -9.5 -5.258 15
-9.869 -39.332 -3.935 10
-8.652 -34.206 -3.649 24
-8.286 -32.52 -3.912 14
-7.922 -30.844 -4.121 6
-7.437 -28.749 -4.168 7
-7.028 -26.97 -4.227 5
-6.665 -25.377 -4.277 6
-6.354 -24.02 -4.344 5
-6.077 -22.788 -4.404 6
-5.812 -21.639 -4.451 8
-5.578 -20.604 -4.499 9
-5.371 -19.694 -4.56 12
-5.187 -18.868 -4.623 6
-4.999 -18.05 -4.662 7
-4.831 -17.304 -4.704 8
0.0 -0.0 3.0 0
0.0 -0.0 3.0 0
-3.904 -13.667 -3.964 0
0.0 -0.0 3.0 0
0.0 -0.0 3.0 0
-4.037 -13.801 -4.968 8
-3.928 -13.317 -5.001 7
-3.819 -12.845 -5.026 8
-3.724 -12.418 -5.065 10
-3.627 -11.998 -5.093 10
-3.537 -11.596 -5.12 10
-3.45 -11.218 -5.15 11
-3.369 -10.856 -5.18 11
-3.287 -10.5 -5.203 12
-3.208 -10.159 -5.226 12
-3.133 -9.826 -5.245 13
-3.055 -9.496 -5.255 14
-10.004 -39.36 -3.94 11
-8.776 -34.252 -3.658 40
-8.391 -32.511 -3.91 12
-8.026 -30.847 -4.122 6
-7.538 -28.764 -4.172 7
-7.125 -26.99 -4.232 5
-6.756 -25.39 -4.281 6
-6.436 -24.015 -4.342 6
-6.158 -22.793 -4.406 5
-5.893 -21.654 -4.456 8
-5.656 -20.62 -4.505 10
-5.441 -19.693 -4.559 31
-5.255 -18.867 -4.623 6
-5.064 -18.05 -4.662 7
-4.894 -17.304 -4.704 7
-4.236 -14.865 -3.932 0
0.0 -0.0 3.0 0
-3.954 -13.659 -3.96 1
0.0 -0.0 3.0 0
0.0 -0.0 3.0 0
-4.09 -13.801 -4.968 8
-3.981 -13.318 -5.003 8
-3.869 -12.844 -5.026 8
-3.773 -12.418 -5.064 9
-3.675 -11.998 -5.093 9
-3.585 -11.6 -5.122 11
-3.496 -11.218 -5.15 9
-3.412 -10.85 -5.176 11
-3.331 -10.501 -5.204 12
-3.252 -10.163 -5.23 12
-3.175 -9.828 -5.247 13
-3.097 -9.501 -5.259 14
-10.145 -39.406 -3.948 11
-8.921 -34.374 -3.682 26
-8.502 -32.52 -3.912 12
-8.137 -30.876 -4.128 6
-7.64 -28.782 -4.176 7
-7.22 -27.002 -4.235 4
-6.846 -25.4 -4.283 6
-6.526 -24.04 -4.35 6
-6.241 -22.807 -4.411 5
-5.97 -21.659 -4.458 8
-5.729 -20.617 -4.504 9
-5.508 -19.68 -4.554 38
-5.323 -18.866 -4.622 5
-5.13 -18.049 -4.661 7
-4.958 -17.304 -4.704 7
-4.317 -14.955 -3.974 0
0.0 -0.0 3.0 0
0.0 -0.0 3.0 0
0.0 -0.0 3.0 0
0.0 -0.0 3.0 0
-4.143 -13.8 -4.967 7
-4.031 -13.315 -5.0 7
-3.92 -12.847 -5.027 8
-3.82 -12.411 -5.06 9
-3.721 -11.992 -5.089 10
-3.631 -11.598 -5.121 11
-3.542 -11.222 -5.153 10
-3.457 -10.851 -5.177 10
-3.373 -10.499 -5.203 12
-3.293 -10.158 -5.226 12
-3.215 -9.826 -5.245 13
-3.137 -9.499 -5.258 15
-10.286 -39.452 -3.956 10
-9.045 -34.412 -3.689 32
-8.609 -32.517 -3.912 13
-8.25 -30.912 -4.136 6
-7.743 -28.801 -4.181 7
-7.316 -27.018 -4.24 5
-6.937 -25.413 -4.287 6
-6.614 -24.054 -4.354 6
-6.323 -22.814 -4.413 5
-6.048 -21.663 -4.459 8
-5.805 -20.629 -4.508 7
-5.579 -19.682 -4.555 34
-5.393 -18.872 -4.625 5
-5.195 -18.049 -4.661 8
-5.023 -17.307 -4.706 7
-4.361 -14.918 -3.956 0
0.0 -0.0 3.0 0
-4.064 -13.685 -3.973 0
0.0 -0.0 3.0 0
0.0 -0.0 3.0 0
-4.196 -13.802 -4.968 8
-4.084 -13.317 -5.002 8
-3.969 -12.843 -5.025 7
-3.87 -12.414 -5.062 9
-3.769 -11.992 -5.089 10
-3.676 -11.595 -5.119 10
-3.586 -11.216 -5.149 10
-3.501 -10.852 -5.177 11
-3.415 -10.494 -5.199 13
-3.333 -10.154 -5.223 13
-3.257 -9.828 -5.246 13
-3.176 -9.495 -5.254 15
-10.419 -39.467 -3.959 9
-9.147 -34.37 -3.681 36
-8.721 -32.529 -3.914 12
-8.359 -30.929 -4.14 6
-7.848 -28.827 -4.187 7
-7.412 -27.03 -4.243 6
-7.029 -25.429 -4.292 6
-6.699 -24.06 -4.356 6
-6.406 -22.825 -4.416 5
-6.126 -21.671 -4.462 8
-5.879 -20.631 -4.509 7
-5.65 -19.684 -4.556 29
-5.461 -18.87 -4.624 6
-5.262 -18.051 -4.662 7
-5.089 -17.318 -4.711 7
0.0 -0.0 3.0 0
0.0 -0.0 3.0 0
0.0 -0.0 3.0 0
0.0 -0.0 3.0 0
0.0 -0.0 3.0 0
-4.249 -13.8 -4.967 7
-4.135 -13.316 -5.001 8
-4.02 -12.843 -5.025 8
-3.919 -12.414 -5.062 9
-3.817 -11.992 -5.088 10
-3.722 -11.592 -5.117 9
-3.632 -11.217 -5.149 8
-3.545 -10.85 -5.176 11
-3.459 -10.495 -5.2 11
-3.376 -10.155 -5.223 12
-3.297 -9.823 -5.243 14
-3.218 -9.5 -5.258 14
-10.569 -39.543 -3.972 7
-9.297 -34.501 -3.706 25
-8.831 -32.533 -3.915 14
-8.469 -30.952 -4.146 6
-7.947 -28.833 -4.189 7
-7.509 -27.044 -4.246 5
-7.118 -25.434 -4.293 6
-6.786 -24.07 -4.359 6
-6.491 -22.843 -4.422 5
-6.204 -21.674 -4.463 7
-5.954 -20.634 -4.51 9
-5.724 -19.692 -4.559 12
-5.53 -18.872 -4.625 8
-5.329 -18.054 -4.663 7
-5.152 -17.314 -4.709 7
0.0 -0.0 3.0 0
-4.325 -14.311 -3.98 1
-4.195 -13.776 -4.019 0
0.0 -0.0 3.0 0
-4.219 -13.636 -4.559 0
-4.302 -13.798 -4.967 8
-4.186 -13.311 -4.998 7
-4.069 -12.839 -5.022 8
-3.966 -12.407 -5.057 9
-3.865 -11.992 -5.089 8
-3.769 -11.591 -5.116 9
-3.675 -11.21 -5.145 9
-3.589 -10.847 -5.174 11
-3.502 -10.496 -5.2 11
-3.418 -10.153 -5.221 12
-3.339 -9.824 -5.243 18
-3.257 -9.498 -5.256 15
-10.711 -39.587 -3.98 7
-9.427 -34.561 -3.718 19
-8.943 -32.544 -3.917 14
-8.578 -30.968 -4.15 6
-8.051 -28.854 -4.194 7
-7.607 -27.063 -4.251 5
-7.212 -25.454 -4.299 7
-6.874 -24.086 -4.364 6
-6.575 -22.853 -4.425 5
-6.285 -21.688 -4.468 7
-6.031 -20.646 -4.515 10
-5.803 -19.718 -4.569 9
-5.599 -18.874 -4.625 8
-5.396 -18.056 -4.665 7
-5.216 -17.313 -4.708 8
0.0 -0.0 3.0 0
-4.409 -14.41 -4.028 0
-4.266 -13.837 -4.05 0
0.0 -0.0 3.0 0
-4.268 -13.625 -4.552 2
-4.35 -13.78 -4.956 6
-4.239 -13.314 -5.0 7
-4.119 -12.837 -5.022 8
-4.016 -12.406 -5.057 9
-3.912 -11.988 -5.086 10
-3.816 -11.592 -5.117 9
-3.721 -11.211 -5.145 8
-3.633 -10.844 -5.172 11
-3.544 -10.491 -5.196 13
-3.46 -10.151 -5.22 13
-3.378 -9.817 -5.237 20
-3.296 -9.494 -5.253 14
-10.855 -39.635 -3.989 7
-9.522 -34.487 -3.704 23
-9.055 -32.555 -3.92 13
-8.694 -31.006 -4.158 7
-8.156 -28.874 -4.199 7
-7.705 -27.081 -4.256 5
-7.305 -25.469 -4.303 6
-6.963 -24.103 -4.369 6
-6.659 -22.866 -4.43 4
-6.366 -21.699 -4.472 7
-6.111 -20.665 -4.521 15
-5.873 -19.716 -4.568 9
-5.668 -18.876 -4.626 6
-5.466 -18.068 -4.67 7
-5.283 -17.323 -4.713 8
0.0 -0.0 3.0 0
0.0 -0.0 3.0 0
0.0 -0.0 3.0 0
-4.266 -13.564 -4.212 0
-4.312 -13.599 -4.538 3
-4.357 -13.635 -4.872 2
-4.289 -13.309 -4.997 8
-4.17 -12.836 -5.021 8
-4.067 -12.411 -5.06 9
-3.961 -11.991 -5.088 9
-3.862 -11.588 -5.114 10
-3.767 -11.21 -5.145 10
-3.679 -10.851 -5.177 11
-3.588 -10.491 -5.197 12
-3.502 -10.151 -5.22 13
-3.419 -9.815 -5.236 28
-3.336 -9.492 -5.251 14
-11.001 -39.689 -3.998 6
-9.686 -34.663 -3.738 25
-9.165 -32.558 -3.92 11
-8.805 -31.028 -4.163 6
-8.261 -28.899 -4.205 7
-7.799 -27.084 -4.257 5
-7.396 -25.481 -4.307 6
-7.047 -24.1 -4.368 6
-6.741 -22.872 -4.432 5
-6.445 -21.706 -4.474 8
-6.183 -20.658 -4.519 29
-5.947 -19.723 -4.571 9
-5.738 -18.88 -4.628 6
-5.53 -18.06 -4.666 7
-5.345 -17.318 -4.711 8
0.0 -0.0 3.0 0
0.0 -0.0 3.0 0
0.0 -0.0 3.0 0
-4.32 -13.573 -4.217 0
-4.364 -13.598 -4.537 2
-4.411 -13.636 -4.873 2
-4.343 -13.313 -4.999 8
-4.219 -12.831 -5.018 8
-4.115 -12.407 -5.057 9
-4.009 -11.99 -5.088 10
-3.909 -11.588 -5.114 10
-3.813 -11.211 -5.145 10
-3.721 -10.842 -5.17 12
-3.631 -10.488 -5.194 12
-3.544 -10.15 -5.219 12
-3.461 -9.819 -5.239 31
-3.378 -9.496 -5.255 16
-11.15 -39.755 -4.01 6
-9.77 -34.555 -3.717 24
-9.284 -32.591 -3.927 10
-8.918 -31.055 -4.17 6
-8.364 -28.911 -4.208 7
-7.9 -27.109 -4.264 5
-7.489 -25.495 -4.311 7
-7.135 -24.112 -4.372 6
-6.824 -22.877 -4.433 5
-6.524 -21.712 -4.476 8
-6.255 -20.65 -4.516 30
-6.019 -19.728 -4.573 8
-5.809 -18.885 -4.63 6
-5.597 -18.061 -4.667 7
-5.409 -17.316 -4.71 8
0.0 -0.0 3.0 0
0.0 -0.0 3.0 0
0.0 -0.0 3.0 0
-4.371 -13.568 -4.214 0
-4.434 -13.649 -4.566 0
-4.469 -13.651 -4.881 1
-4.396 -13.315 -5.001 8
-4.27 -12.833 -5.019 8
-4.163 -12.403 -5.055 9
-4.056 -11.986 -5.085 10
-3.954 -11.584 -5.111 10
-3.859 -11.21 -5.145 10
-3.767 -10.845 -5.172 10
-3.675 -10.489 -5.195 12
-3.586 -10.147 -5.217 13
-3.5 -9.81 -5.232 33
-3.419 -9.497 -5.255 14
-11.297 -39.809 -4.019 5
-9.871 -34.502 -3.707 33
-9.403 -32.623 -3.934 9
-9.032 -31.084 -4.176 6
-8.471 -28.939 -4.215 7
-7.998 -27.123 -4.268 5
-7.579 -25.499 -4.312 6
-7.223 -24.124 -4.375 6
-6.908 -22.886 -4.436 4
-6.606 -21.725 -4.481 7
-6.33 -20.653 -4.517 22
-6.092 -19.732 -4.574 9
-5.878 -18.886 -4.63 8
-5.665 -18.067 -4.669 6
-5.476 -17.322 -4.712 8
0.0 -0.0 3.0 0
0.0 -0.0 3.0 0
0.0 -0.0 3.0 0
-4.428 -13.583 -4.222 0
-4.477 -13.62 -4.55 1
-4.526 -13.662 -4.888 1
-4.444 -13.303 -4.993 8
-4.321 -12.832 -5.018 8
-4.212 -12.402 -5.054 8
-4.105 -11.988 -5.086 9
-4.002 -11.586 -5.113 10
-3.902 -11.204 -5.14 9
-3.81 -10.839 -5.167 11
-3.718 -10.489 -5.195 11
-3.629 -10.148 -5.217 13
-3.543 -9.813 -5.234 38
-3.459 -9.495 -5.254 14
-11.439 -39.843 -4.025 5
-9.979 -34.477 -3.702 33
-9.522 -32.655 -3.941 8
-9.148 -31.121 -4.185 6
-8.571 -28.943 -4.216 6
-8.099 -27.147 -4.274 5
-7.675 -25.521 -4.318 6
-7.311 -24.132 -4.378 6
-6.994 -22.902 -4.441 4
-6.686 -21.735 -4.484 8
-6.413 -20.682 -4.527 10
-6.167 -19.742 -4.578 9
-5.949 -18.89 -4.632 6
-5.732 -18.068 -4.669 7
-5.541 -17.324 -4.713 8
0.0 -0.0 3.0 0
0.0 -0.0 3.0 0
0.0 -0.0 3.0 0
-4.475 -13.567 -4.214 0
-4.529 -13.618 -4.549 1
-4.577 -13.656 -4.885 1
-4.498 -13.308 -4.996 8
-4.372 -12.834 -5.019 8
-4.262 -12.401 -5.053 9
-4.151 -11.981 -5.081 9
-4.048 -11.582 -5.11 10
-3.951 -11.209 -5.144 10
-3.855 -10.838 -5.167 12
-3.761 -10.486 -5.192 12
-3.672 -10.148 -5.218 13
-3.583 -9.808 -5.23 40
-3.5 -9.496 -5.255 14
-11.587 -39.896 -4.035 5
-10.069 -34.39 -3.685 20
-9.65 -32.713 -3.953 11
-9.264 -31.154 -4.192 6
-8.674 -28.955 -4.219 7
-8.191 -27.141 -4.272 5
-7.77 -25.542 -4.324 6
-7.401 -24.15 -4.384 6
-7.078 -22.911 -4.444 4
-6.769 -21.752 -4.49 15
-6.492 -20.695 -4.532 9
-6.242 -19.749 -4.581 9
-6.021 -18.897 -4.635 8
-5.802 -18.076 -4.673 7
-5.605 -17.322 -4.712 7
0.0 -0.0 3.0 0
0.0 -0.0 3.0 0
0.0 -0.0 3.0 0
-4.523 -13.555 -4.207 0
-4.588 -13.636 -4.559 1
-4.63 -13.654 -4.883 1
-4.548 -13.299 -4.991 7
-4.422 -12.829 -5.016 8
-4.312 -12.402 -5.054 9
-4.199 -11.98 -5.08 9
-4.094 -11.579 -5.107 10
-3.995 -11.206 -5.141 7
-3.9 -10.839 -5.167 9
-3.805 -10.485 -5.192 12
-3.713 -10.142 -5.213 13
-3.625 -9.809 -5.231 41
-3.539 -9.491 -5.25 16
-11.731 -39.937 -4.042 5
-10.237 -34.567 -3.719 21
-9.771 -32.748 -3.961 10
-9.378 -31.178 -4.198 6
-8.782 -28.98 -4.226 6
-8.294 -27.168 -4.28 5
-7.862 -25.548 -4.326 7
-7.49 -24.162 -4.387 6
-7.16 -22.911 -4.444 5
-6.845 -21.742 -4.486 26
-6.569 -20.701 -4.534 8
-6.314 -19.749 -4.581 8
-6.09 -18.897 -4.635 8
-5.869 -18.077 -4.673 6
-5.67 -17.323 -4.713 8
-5.496 -16.665 -4.771 2
0.0 -0.0 3.0 0
0.0 -0.0 3.0 0
-4.577 -13.559 -4.21 0
-4.65 -13.66 -4.572 1
-4.682 -13.648 -4.88 4
-4.602 -13.304 -4.994 7
-4.473 -12.83 -5.017 8
-4.362 -12.404 -5.055 9
-4.247 -11.978 -5.079 9
-4.141 -11.577 -5.106 10
-4.04 -11.202 -5.139 7
-3.943 -10.835 -5.165 9
-3.848 -10.483 -5.19 12
-3.756 -10.142 -5.213 12
-3.667 -9.809 -5.231 39
-3.579 -9.488 -5.248 15
-11.882 -39.997 -4.052 4
-10.346 -34.544 -3.715 23
-9.89 -32.774 -3.966 15
-9.493 -31.206 -4.205 6
-8.893 -29.017 -4.235 6
-8.395 -27.192 -4.286 5
-7.955 -25.558 -4.329 7
-7.578 -24.168 -4.389 6
-7.245 -22.923 -4.448 5
-6.923 -21.744 -4.487 29
-6.649 -20.714 -4.539 9
-6.387 -19.752 -4.582 9
-6.16 -18.897 -4.635 6
-5.936 -18.077 -4.673 7
-5.735 -17.325 -4.713 7
-5.554 -16.65 -4.764 7
0.0 -0.0 3.0 0
0.0 -0.0 3.0 0
-4.639 -13.587 -4.224 0
-4.685 -13.608 -4.543 2
-4.73 -13.631 -4.87 2
-4.653 -13.298 -4.99 8
-4.524 -12.827 -5.015 8
-4.41 -12.396 -5.05 9
-4.295 -11.977 -5.079 10
-4.189 -11.579 -5.108 10
-4.086 -11.202 -5.138 8
-3.989 -10.837 -5.166 12
-3.891 -10.479 -5.187 12
-3.797 -10.139 -5.211 13
-3.708 -9.807 -5.229 38
-3.622 -9.492 -5.251 16
-12.028 -40.036 -4.059 4
-10.431 -34.441 -3.695 26
-10.014 -32.816 -3.975 15
-9.607 -31.23 -4.21 6
-8.999 -29.035 -4.239 6
-8.494 -27.203 -4.289 5
-8.05 -25.574 -4.333 6
-7.668 -24.182 -4.393 6
-7.33 -22.93 -4.451 5
-7.002 -21.745 -4.487 17
-6.726 -20.719 -4.541 9
-6.462 -19.761 -4.586 5
-6.232 -18.904 -4.638 6
-6.006 -18.084 -4.676 8
-5.801 -17.326 -4.714 8
-5.615 -16.644 -4.761 8
0.0 -0.0 3.0 0
0.0 -0.0 3.0 0
0.0 -0.0 3.0 0
-4.74 -13.615 -4.547 0
-4.829 -13.761 -4.945 6
-4.705 -13.294 -4.988 8
-4.575 -12.825 -5.014 8
-4.461 -12.401 -5.053 10
-4.345 -11.979 -5.08 9
-4.235 -11.576 -5.105 10
-4.132 -11.2 -5.137 9
