# .PCD v0.7 - Point Cloud Data file format
VERSION 0.7
FIELDS x y z intensity
SIZE 4 4 4 4
TYPE F F F F
COUNT 1 1 1 1
WIDTH 2297
HEIGHT 1
VIEWPOINT 0 0 0 1 0 0 0
POINTS 2297
DATA ascii
7.352 -2.281 2.079 1
7.345 -2.246 2.047 1
7.349 -2.22 2.012 1
7.346 -2.199 1.975 1
7.352 -2.187 1.934 1
7.348 -2.178 1.89 1
7.35 -2.176 1.843 1
7.342 -2.176 1.794 1
7.347 -2.185 1.738 1
7.334 -2.194 1.682 0
7.346 -2.214 1.616 0
7.321 -2.227 1.554 1
7.317 -2.25 1.482 1
2.644 -0.823 2.424 0
0.0 -0.0 3.0 0
0.0 -0.0 3.0 0
0.0 -0.0 3.0 0
0.0 -0.0 3.0 0
0.0 -0.0 3.0 0
0.0 -0.0 3.0 0
2.587 -1.096 2.807 18
2.584 -1.059 2.794 18
2.617 -1.039 2.779 14
2.638 -1.015 2.766 13
2.64 -0.985 2.754 12
2.734 -0.99 2.735 14
2.652 -0.933 2.732 6
2.651 -0.907 2.723 3
4.499 -1.501 2.512 4
4.19 -1.365 2.53 0
4.019 -1.28 2.534 2
7.359 -2.299 2.118 1
7.352 -2.257 2.088 1
3.682 -1.114 2.527 0
7.356 -2.199 2.021 1
7.349 -2.177 1.985 1
7.348 -2.162 1.945 1
7.344 -2.154 1.903 1
7.342 -2.152 1.856 0
7.334 -2.152 1.807 1
7.343 -2.163 1.751 0
7.342 -2.175 1.693 1
7.353 -2.196 1.628 0
7.325 -2.208 1.566 1
7.321 -2.232 1.494 1
7.314 -2.257 1.42 1
0.0 -0.0 3.0 0
2.521 -0.799 2.398 0
0.0 -0.0 3.0 0
2.415 -0.789 2.361 0
0.0 -0.0 3.0 0
0.0 -0.0 3.0 0
2.593 -1.092 2.808 21
2.601 -1.059 2.794 17
2.627 -1.036 2.78 14
2.622 -1.001 2.769 12
2.639 -0.977 2.757 12
2.707 -0.972 2.739 16
2.655 -0.926 2.734 2
2.65 -0.899 2.725 11
4.511 -1.49 2.516 9
4.335 -1.398 2.519 0
4.084 -1.288 2.531 0
7.359 -2.276 2.126 1
7.359 -2.236 2.097 1
7.364 -2.205 2.064 1
7.349 -2.173 2.032 1
7.353 -2.155 1.995 1
7.352 -2.14 1.956 1
7.352 -2.133 1.913 1
7.35 -2.132 1.867 1
7.346 -2.133 1.818 1
7.339 -2.141 1.764 0
7.349 -2.156 1.704 0
7.331 -2.169 1.645 0
7.348 -2.196 1.574 1
7.313 -2.211 1.509 1
7.318 -2.24 1.432 1
7.324 -2.273 1.349 0
2.538 -0.799 2.398 0
0.0 -0.0 3.0 0
0.0 -0.0 3.0 0
0.0 -0.0 3.0 0
0.0 -0.0 3.0 0
2.618 -1.095 2.807 14
2.596 -1.05 2.796 23
2.629 -1.03 2.781 21
2.632 -0.997 2.77 11
2.649 -0.972 2.758 12
2.743 -0.977 2.738 11
2.65 -0.916 2.737 1
2.653 -0.892 2.727 14
2.663 -0.872 2.717 0
4.479 -1.43 2.507 1
7.353 -2.296 2.164 0
7.366 -2.255 2.134 0
3.934 -1.183 2.522 0
7.349 -2.177 2.076 1
7.348 -2.149 2.043 1
7.353 -2.132 2.006 1
7.356 -2.118 1.967 1
7.348 -2.109 1.925 1
7.334 -2.104 1.881 1
7.353 -2.113 1.829 1
7.339 -2.119 1.777 0
7.349 -2.135 1.717 1
7.338 -2.151 1.656 0
7.351 -2.176 1.587 0
7.309 -2.19 1.523 1
7.322 -2.222 1.444 1
7.324 -2.254 1.362 1
0.0 -0.0 3.0 0
2.516 -0.798 2.377 0
0.0 -0.0 3.0 0
0.0 -0.0 3.0 0
0.0 -0.0 3.0 0
2.628 -1.092 2.808 15
2.617 -1.051 2.796 17
2.654 -1.031 2.781 16
2.638 -0.992 2.771 11
2.666 -0.971 2.758 11
2.754 -0.973 2.739 9
2.656 -0.91 2.739 7
2.652 -0.883 2.73 10
2.684 -0.87 2.717 1
4.503 -1.424 2.51 3
7.364 -2.276 2.172 0
7.366 -2.231 2.144 1
7.362 -2.19 2.115 1
7.352 -2.154 2.085 1
7.348 -2.127 2.053 1
7.368 -2.114 2.014 1
7.348 -2.093 1.979 1
7.348 -2.087 1.937 1
7.353 -2.088 1.89 1
7.338 -2.087 1.843 0
7.339 -2.098 1.789 0
7.345 -2.114 1.73 0
7.345 -2.133 1.667 0
7.34 -2.153 1.602 0
7.324 -2.176 1.533 1
7.314 -2.201 1.459 1
7.32 -2.235 1.376 1
0.0 -0.0 3.0 0
0.0 -0.0 3.0 0
0.0 -0.0 3.0 0
0.0 -0.0 3.0 0
0.0 -0.0 3.0 0
2.63 -1.086 2.809 17
2.631 -1.049 2.796 15
2.66 -1.026 2.782 12
2.66 -0.993 2.771 12
2.688 -0.971 2.758 10
2.749 -0.963 2.742 5
2.659 -0.903 2.741 7
2.662 -0.879 2.731 5
2.653 -0.852 2.723 8
4.511 -1.413 2.514 14
7.352 -2.249 2.181 1
7.358 -2.205 2.153 1
7.358 -2.165 2.125 1
7.352 -2.132 2.095 1
7.348 -2.103 2.064 1
7.356 -2.086 2.027 0
7.351 -2.072 1.99 1
7.344 -2.063 1.949 1
7.353 -2.065 1.902 1
7.353 -2.07 1.853 0
7.342 -2.077 1.801 1
7.345 -2.092 1.743 0
7.345 -2.113 1.68 0
7.351 -2.137 1.612 0
7.339 -2.161 1.543 1
7.314 -2.183 1.472 1
7.32 -2.217 1.389 1
7.32 -2.252 1.303 1
0.0 -0.0 3.0 0
0.0 -0.0 3.0 0
0.0 -0.0 3.0 0
0.0 -0.0 3.0 0
2.648 -1.085 2.809 15
2.645 -1.048 2.796 22
2.674 -1.024 2.782 12
2.655 -0.983 2.773 6
2.687 -0.963 2.76 6
2.752 -0.956 2.744 4
2.673 -0.9 2.742 1
2.657 -0.869 2.734 11
2.655 -0.845 2.726 6
4.519 -1.401 2.518 32
4.23 -1.281 2.534 0
4.232 -1.255 2.518 0
7.354 -2.141 2.135 1
7.352 -2.108 2.105 1
7.351 -2.081 2.073 1
7.352 -2.063 2.038 1
7.362 -2.052 1.999 1
7.347 -2.042 1.96 1
7.352 -2.043 1.913 1
7.36 -2.05 1.864 1
7.342 -2.056 1.813 0
7.348 -2.073 1.754 1
7.337 -2.09 1.694 0
7.351 -2.117 1.625 0
7.346 -2.144 1.554 0
7.321 -2.166 1.483 1
7.323 -2.201 1.401 1
7.32 -2.234 1.317 1
0.0 -0.0 3.0 0
0.0 -0.0 3.0 0
0.0 -0.0 3.0 0
0.0 -0.0 3.0 0
2.672 -1.089 2.808 12
2.651 -1.043 2.797 12
2.703 -1.028 2.782 21
2.657 -0.976 2.775 5
2.682 -0.954 2.762 5
2.754 -0.948 2.746 1
5.177 -1.728 2.505 7
2.659 -0.862 2.737 12
2.658 -0.838 2.728 1
4.527 -1.39 2.521 5
4.272 -1.28 2.534 0
7.357 -2.159 2.171 1
4.118 -1.186 2.521 0
7.359 -2.087 2.114 1
7.354 -2.059 2.083 1
7.351 -2.039 2.049 1
7.354 -2.027 2.011 1
7.343 -2.018 1.972 1
7.356 -2.022 1.925 1
7.348 -2.025 1.878 1
7.353 -2.038 1.823 1
7.344 -2.051 1.768 1
7.348 -2.073 1.705 0
7.354 -2.099 1.637 0
7.353 -2.127 1.565 0
7.324 -2.149 1.495 1
2.74 -0.817 2.407 0
7.327 -2.219 1.328 1
0.0 -0.0 3.0 0
0.0 -0.0 3.0 0
0.0 -0.0 3.0 0
0.0 -0.0 3.0 0
2.656 -1.075 2.81 7
2.665 -1.041 2.798 11
2.691 -1.016 2.784 11
2.671 -0.974 2.775 4
2.699 -0.952 2.763 4
5.284 -1.804 2.517 8
5.182 -1.713 2.509 5
2.662 -0.855 2.739 9
2.653 -0.828 2.731 1
4.532 -1.377 2.526 4
4.341 -1.287 2.532 0
4.446 -1.291 2.504 1
4.145 -1.181 2.523 0
4.056 -1.138 2.517 0
3.92 -1.085 2.517 0
7.351 -2.017 2.06 1
7.35 -2.003 2.023 1
7.346 -1.997 1.983 1
7.355 -2.0 1.937 1
7.343 -2.003 1.89 0
7.348 -2.015 1.836 1
7.351 -2.032 1.779 1
7.34 -2.051 1.719 0
7.357 -2.08 1.649 0
7.345 -2.106 1.58 0
7.346 -2.138 1.503 1
7.322 -2.166 1.427 1
7.326 -2.202 1.34 1
0.0 -0.0 3.0 0
0.0 -0.0 3.0 0
0.0 -0.0 3.0 0
0.0 -0.0 3.0 0
2.655 -1.068 2.812 7
2.704 -1.05 2.796 20
2.712 -1.016 2.784 5
2.689 -0.973 2.775 4
2.766 -0.967 2.759 2
5.372 -1.818 2.513 7
5.217 -1.71 2.51 13
2.672 -0.85 2.74 0
2.659 -0.822 2.733 4
4.585 -1.38 2.525 1
4.444 -1.304 2.525 1
4.504 -1.294 2.503 5
4.237 -1.193 2.518 0
4.09 -1.134 2.519 0
7.349 -2.012 2.104 1
3.805 -1.032 2.519 0
7.356 -1.982 2.033 1
7.353 -1.976 1.993 1
7.351 -1.976 1.949 1
7.347 -1.981 1.902 1
7.348 -1.994 1.849 1
7.347 -2.011 1.792 1
7.347 -2.033 1.73 0
7.357 -2.06 1.662 0
7.345 -2.087 1.592 0
7.342 -2.118 1.517 0
7.325 -2.149 1.439 1
7.326 -2.185 1.353 1
0.0 -0.0 3.0 0
0.0 -0.0 3.0 0
0.0 -0.0 3.0 0
0.0 -0.0 3.0 0
2.661 -1.063 2.813 8
2.673 -1.031 2.8 12
2.718 -1.011 2.785 4
2.695 -0.968 2.777 0
2.749 -0.954 2.762 1
5.426 -1.821 2.512 9
5.222 -1.696 2.514 9
2.682 -0.845 2.742 0
2.658 -0.813 2.736 3
4.773 -1.421 2.511 0
4.479 -1.3 2.527 6
4.516 -1.283 2.508 8
4.336 -1.208 2.512 0
7.357 -2.017 2.144 1
7.352 -1.99 2.114 1
7.349 -1.97 2.081 1
7.356 -1.959 2.044 1
7.352 -1.953 2.005 1
7.357 -1.956 1.96 1
7.35 -1.961 1.913 1
7.347 -1.973 1.861 1
7.342 -1.989 1.805 1
7.346 -2.013 1.742 0
7.344 -2.038 1.677 0
7.333 -2.065 1.607 0
2.889 -0.826 2.422 0
7.34 -2.135 1.449 1
7.325 -2.168 1.366 1
0.0 -0.0 3.0 0
0.0 -0.0 3.0 0
0.0 -0.0 3.0 0
0.0 -0.0 3.0 0
2.738 -1.087 2.808 3
2.713 -1.038 2.798 4
2.736 -1.01 2.785 7
4.899 -1.745 2.597 5
5.184 -1.784 2.555 8
5.461 -1.818 2.513 5
5.306 -1.708 2.51 8
5.179 -1.617 2.506 6
2.664 -0.807 2.738 1
4.892 -1.442 2.503 0
4.514 -1.296 2.528 3
4.52 -1.27 2.512 39
4.436 -1.222 2.506 1
4.205 -1.14 2.516 0
7.351 -1.966 2.125 1
7.356 -1.949 2.091 1
7.355 -1.937 2.055 1
7.355 -1.932 2.015 1
7.349 -1.933 1.972 1
7.349 -1.939 1.925 1
7.354 -1.954 1.872 1
7.353 -1.971 1.816 1
7.338 -1.99 1.756 0
7.351 -2.02 1.688 0
7.343 -2.049 1.618 0
7.337 -2.08 1.543 0
7.35 -2.121 1.459 0
7.321 -2.15 1.38 1
7.333 -2.194 1.286 0
7.317 -2.231 1.193 1
0.0 -0.0 3.0 0
0.0 -0.0 3.0 0
2.744 -1.082 2.809 1
2.716 -1.032 2.799 2
2.742 -1.006 2.786 0
4.929 -1.743 2.598 5
5.192 -1.773 2.558 18
5.492 -1.812 2.514 5
5.387 -1.719 2.507 8
5.211 -1.611 2.508 14
5.169 -1.55 2.496 33
5.072 -1.479 2.491 1
4.583 -1.303 2.526 1
4.524 -1.257 2.517 13
4.498 -1.225 2.505 5
4.259 -1.141 2.516 0
4.092 -1.082 2.518 0
7.347 -1.924 2.103 1
7.35 -1.913 2.067 1
7.35 -1.909 2.027 1
7.344 -1.909 1.985 1
7.34 -1.916 1.938 1
7.337 -1.929 1.886 1
7.352 -1.951 1.828 1
7.344 -1.973 1.767 0
7.354 -2.002 1.7 0
7.346 -2.031 1.63 0
7.336 -2.062 1.556 0
7.342 -2.101 1.473 0
7.324 -2.135 1.392 1
5.24 -1.556 1.784 0
7.324 -2.218 1.204 1
0.0 -0.0 3.0 0
0.0 -0.0 3.0 0
4.278 -1.676 2.704 11
2.74 -1.035 2.799 6
4.697 -1.709 2.637 5
4.964 -1.741 2.598 10
5.219 -1.767 2.559 7
5.524 -1.806 2.516 21
5.468 -1.729 2.504 9
5.23 -1.601 2.51 9
5.174 -1.536 2.501 7
5.13 -1.481 2.49 2
4.645 -1.306 2.525 1
4.532 -1.246 2.522 9
4.506 -1.213 2.51 9
4.336 -1.149 2.512 0
4.157 -1.087 2.516 0
7.35 -1.902 2.113 1
7.349 -1.89 2.078 1
7.353 -1.887 2.038 1
7.335 -1.886 1.997 1
7.339 -1.894 1.95 1
7.352 -1.912 1.896 1
7.355 -1.931 1.839 1
7.347 -1.954 1.779 1
7.349 -1.982 1.713 0
7.353 -2.015 1.641 0
7.343 -2.046 1.567 0
7.345 -2.085 1.485 0
7.345 -2.124 1.4 1
5.222 -1.539 1.797 0
7.323 -2.203 1.216 1
0.0 -0.0 3.0 0
0.0 -0.0 3.0 0
4.297 -1.673 2.705 16
4.492 -1.684 2.673 7
4.743 -1.713 2.636 8
4.965 -1.729 2.601 14
5.258 -1.766 2.56 5
5.548 -1.798 2.518 10
5.712 -1.79 2.487 6
5.311 -1.61 2.508 8
5.182 -1.523 2.505 7
5.15 -1.471 2.493 9
4.714 -1.311 2.523 1
4.54 -1.233 2.527 5
4.514 -1.201 2.515 39
4.452 -1.165 2.506 1
4.2 -1.084 2.517 0
7.349 -1.88 2.123 2
7.352 -1.869 2.089 1
7.359 -1.867 2.049 1
7.354 -1.868 2.007 1
7.346 -1.875 1.961 1
7.347 -1.89 1.909 1
7.346 -1.908 1.853 1
7.346 -1.934 1.792 1
7.356 -1.965 1.724 0
7.344 -1.995 1.655 0
7.338 -2.028 1.58 0
7.34 -2.067 1.498 0
7.356 -2.111 1.41 0
7.308 -2.139 1.329 0
5.239 -1.564 1.733 0
0.0 -0.0 3.0 0
0.0 -0.0 3.0 0
4.3 -1.664 2.707 22
4.451 -1.657 2.678 9
4.747 -1.702 2.638 19
4.999 -1.727 2.601 6
5.293 -1.763 2.56 10
5.572 -1.791 2.52 8
5.862 -1.82 2.478 5
5.392 -1.619 2.505 8
5.206 -1.515 2.508 15
5.162 -1.458 2.498 36
4.875 -1.341 2.512 1
4.763 -1.279 2.509 2
4.525 -1.19 2.519 9
4.502 -1.164 2.506 5
4.276 -1.091 2.514 0
4.115 -1.04 2.515 0
7.35 -1.846 2.099 1
7.347 -1.842 2.062 1
7.364 -1.85 2.017 1
7.348 -1.854 1.972 1
7.346 -1.869 1.921 1
7.345 -1.888 1.865 1
7.345 -1.914 1.804 1
7.343 -1.942 1.739 1
7.339 -1.974 1.668 0
3.012 -0.825 2.422 0
7.351 -2.053 1.509 0
7.358 -2.095 1.421 0
7.315 -2.125 1.339 1
5.239 -1.554 1.741 0
7.333 -2.219 1.138 0
0.0 -0.0 3.0 0
4.311 -1.657 2.708 10
4.522 -1.672 2.675 10
4.747 -1.689 2.641 6
5.03 -1.724 2.602 5
5.297 -1.75 2.564 17
5.599 -1.784 2.522 7
5.898 -1.814 2.48 4
5.477 -1.629 2.502 9
5.241 -1.509 2.51 10
5.171 -1.446 2.502 6
4.991 -1.358 2.506 2
4.863 -1.292 2.504 4
4.525 -1.177 2.525 8
4.513 -1.153 2.511 13
4.357 -1.098 2.511 0
4.157 -1.038 2.516 0
7.357 -1.825 2.11 1
7.349 -1.821 2.072 2
7.359 -1.827 2.029 1
7.343 -1.831 1.985 1
7.348 -1.849 1.933 1
7.355 -1.871 1.876 1
7.348 -1.895 1.816 1
7.354 -1.926 1.749 0
7.349 -1.959 1.679 0
7.343 -1.994 1.604 0
7.353 -2.036 1.52 0
0.0 -0.0 3.0 0
7.34 -2.117 1.346 1
5.24 -1.543 1.75 0
0.0 -0.0 3.0 0
5.18 -1.59 1.618 2
4.326 -1.652 2.709 8
4.548 -1.67 2.675 5
4.774 -1.687 2.641 5
5.068 -1.723 2.602 7
5.329 -1.746 2.565 6
5.627 -1.777 2.524 7
5.933 -1.808 2.482 5
4.308 -1.269 2.612 1
5.322 -1.517 2.507 9
5.179 -1.432 2.507 9
5.134 -1.381 2.497 13
4.925 -1.293 2.504 6
4.537 -1.166 2.529 4
4.517 -1.14 2.516 42
4.469 -1.112 2.505 2
4.223 -1.041 2.514 0
4.033 -0.988 2.518 0
7.348 -1.799 2.084 1
7.361 -1.806 2.04 1
7.357 -1.814 1.995 1
7.347 -1.828 1.945 1
7.346 -1.849 1.889 1
7.35 -1.876 1.828 0
7.36 -1.909 1.76 1
7.348 -1.94 1.691 0
7.342 -1.976 1.617 0
7.344 -2.017 1.535 0
0.0 -0.0 3.0 0
7.342 -2.102 1.358 0
0.0 -0.0 3.0 0
0.0 -0.0 3.0 0
0.0 -0.0 3.0 0
4.375 -1.659 2.707 9
4.597 -1.676 2.674 7
4.45 -1.561 2.668 6
5.076 -1.713 2.605 20
5.367 -1.743 2.565 5
5.655 -1.77 2.526 7
5.965 -1.8 2.484 4
4.266 -1.244 2.62 3
5.407 -1.525 2.504 8
5.206 -1.425 2.509 15
5.157 -1.372 2.501 24
4.987 -1.294 2.503 11
4.649 -1.18 2.523 1
4.521 -1.128 2.521 9
4.504 -1.107 2.507 6
4.315 -1.05 2.51 0
7.354 -1.78 2.132 2
7.343 -1.775 2.096 2
7.348 -1.781 2.053 0
7.34 -1.789 2.008 1
7.345 -1.807 1.956 1
7.348 -1.83 1.901 1
7.356 -1.858 1.839 0
7.347 -1.887 1.774 1
7.343 -1.922 1.704 0
7.344 -1.959 1.628 0
7.354 -2.003 1.545 0
0.0 -0.0 3.0 0
7.33 -2.083 1.372 0
0.0 -0.0 3.0 0
0.0 -0.0 3.0 0
7.331 -2.222 1.068 0
4.393 -1.655 2.708 11
4.616 -1.672 2.675 8
4.823 -1.68 2.643 14
5.092 -1.704 2.607 7
5.406 -1.741 2.566 14
5.686 -1.764 2.527 5
4.274 -1.278 2.634 0
4.296 -1.241 2.621 12
4.326 -1.207 2.608 1
5.253 -1.422 2.51 9
5.177 -1.362 2.504 4
5.099 -1.307 2.498 34
4.827 -1.21 2.511 1
4.533 -1.117 2.526 9
4.515 -1.096 2.512 26
4.373 -1.051 2.51 0
7.349 -1.757 2.143 1
7.349 -1.754 2.106 1
7.347 -1.759 2.065 1
7.339 -1.768 2.02 1
7.344 -1.787 1.968 1
7.335 -1.806 1.915 1
7.359 -1.84 1.85 1
7.357 -1.871 1.785 1
7.353 -1.906 1.714 0
5.95 -1.573 1.898 0
7.338 -1.982 1.56 0
7.342 -2.026 1.473 0
7.332 -2.069 1.384 0
0.0 -0.0 3.0 0
0.0 -0.0 3.0 0
0.0 -0.0 3.0 0
4.404 -1.649 2.709 20
4.631 -1.665 2.676 23
4.85 -1.676 2.644 13
5.123 -1.701 2.607 4
5.414 -1.73 2.569 13
5.721 -1.759 2.529 5
4.243 -1.257 2.639 1
4.246 -1.214 2.629 16
4.306 -1.189 2.614 2
5.334 -1.428 2.508 8
5.181 -1.347 2.51 10
5.134 -1.301 2.501 32
4.962 -1.229 2.503 1
4.54 -1.105 2.531 3
4.519 -1.083 2.518 41
4.485 -1.065 2.503 3
4.236 -1.0 2.512 0
7.355 -1.734 2.116 2
7.349 -1.738 2.076 1
7.345 -1.748 2.031 1
7.35 -1.768 1.979 1
7.349 -1.79 1.925 1
7.357 -1.821 1.862 0
7.348 -1.85 1.799 1
7.351 -1.888 1.727 1
5.947 -1.559 1.909 1
5.92 -1.585 1.848 0
7.341 -2.009 1.486 0
7.338 -2.055 1.394 0
0.0 -0.0 3.0 0
0.0 -0.0 3.0 0
0.0 -0.0 3.0 0
4.416 -1.642 2.71 12
4.638 -1.657 2.678 11
4.892 -1.678 2.643 5
4.376 -1.442 2.667 6
5.445 -1.725 2.57 5
5.756 -1.754 2.53 5
4.266 -1.251 2.641 8
4.234 -1.199 2.634 14
4.317 -1.179 2.617 14
5.416 -1.434 2.506 8
5.213 -1.339 2.513 14
5.166 -1.293 2.504 106
5.098 -1.247 2.496 3
4.656 -1.118 2.525 2
4.519 -1.07 2.524 12
4.508 -1.057 2.507 9
4.317 -1.006 2.509 0
4.129 -0.962 2.51 0
7.351 -1.717 2.087 2
7.339 -1.726 2.043 1
7.341 -1.744 1.993 1
7.347 -1.77 1.937 1
7.348 -1.799 1.876 0
7.358 -1.834 1.809 1
7.342 -1.868 1.74 1
5.933 -1.541 1.921 1
5.792 -1.538 1.882 1
7.347 -1.995 1.496 0
7.329 -2.037 1.408 0
0.0 -0.0 3.0 0
0.0 -0.0 3.0 0
0.0 -0.0 3.0 0
4.43 -1.637 2.711 8
4.672 -1.658 2.678 6
4.918 -1.675 2.644 5
5.135 -1.679 2.612 21
5.48 -1.722 2.571 5
5.795 -1.75 2.531 5
4.235 -1.231 2.647 14
4.223 -1.183 2.638 15
4.298 -1.162 2.622 12
5.482 -1.435 2.506 9
5.259 -1.336 2.514 9
5.166 -1.278 2.509 39
5.129 -1.239 2.5 3
4.846 -1.149 2.512 1
4.519 -1.056 2.53 12
4.511 -1.044 2.513 39
4.406 -1.014 2.506 1
4.164 -0.957 2.512 0
7.353 -1.697 2.098 2
7.338 -1.705 2.055 2
7.335 -1.723 2.005 1
7.342 -1.749 1.949 1
7.346 -1.78 1.888 1
7.356 -1.815 1.821 1
7.348 -1.852 1.751 1
5.93 -1.526 1.931 1
5.797 -1.527 1.891 0
6.026 -1.624 1.776 0
7.335 -2.024 1.419 0
0.0 -0.0 3.0 0
0.0 -0.0 3.0 0
0.0 -0.0 3.0 0
4.471 -1.642 2.71 8
4.695 -1.654 2.678 6
4.96 -1.677 2.644 9
5.199 -1.686 2.611 8
5.519 -1.719 2.571 20
4.275 -1.28 2.657 1
4.215 -1.213 2.652 14
4.218 -1.17 2.642 14
4.278 -1.145 2.628 13
5.505 -1.425 2.509 0
5.349 -1.342 2.512 9
5.185 -1.266 2.514 14
5.164 -1.232 2.502 28
4.966 -1.162 2.507 1
4.553 -1.05 2.533 2
4.523 -1.032 2.519 33
4.503 -1.022 2.502 5
4.279 -0.971 2.505 0
7.351 -1.675 2.109 2
7.351 -1.687 2.065 2
7.352 -1.707 2.015 1
7.348 -1.731 1.96 1
7.352 -1.762 1.899 1
7.35 -1.796 1.834 1
7.354 -1.835 1.762 1
5.939 -1.515 1.939 1
5.778 -1.509 1.903 0
6.008 -1.606 1.79 0
7.341 -2.011 1.429 0
0.0 -0.0 3.0 0
0.0 -0.0 3.0 0
0.0 -0.0 3.0 0
4.505 -1.643 2.71 10
4.725 -1.653 2.679 8
4.964 -1.667 2.646 21
5.245 -1.688 2.61 5
4.376 -1.352 2.663 4
4.271 -1.267 2.66 4
4.203 -1.198 2.656 21
4.198 -1.153 2.648 20
4.266 -1.129 2.633 16
6.575 -1.683 2.421 36
5.426 -1.346 2.51 9
5.213 -1.258 2.517 13
5.164 -1.216 2.509 16
5.117 -1.182 2.498 3
4.681 -1.065 2.526 1
4.518 -1.018 2.525 13
4.514 -1.011 2.507 11
4.337 -0.971 2.505 0
4.144 -0.932 2.504 0
7.345 -1.665 2.077 2
7.347 -1.685 2.027 1
7.346 -1.711 1.972 1
7.35 -1.743 1.911 1
7.36 -1.78 1.844 1
7.348 -1.817 1.774 1
5.92 -1.497 1.952 1
5.756 -1.491 1.917 0
7.349 -1.95 1.531 0
0.0 -0.0 3.0 0
0.0 -0.0 3.0 0
0.0 -0.0 3.0 0
0.0 -0.0 3.0 0
4.512 -1.635 2.712 20
4.736 -1.646 2.68 23
4.987 -1.662 2.647 7
5.276 -1.684 2.611 6
4.375 -1.34 2.666 2
4.274 -1.256 2.663 13
4.195 -1.185 2.66 16
4.194 -1.139 2.652 20
4.258 -1.114 2.638 21
6.55 -1.657 2.429 36
5.496 -1.347 2.51 9
5.279 -1.258 2.517 10
5.176 -1.203 2.514 9
5.145 -1.173 2.502 4
4.859 -1.091 2.514 1
4.514 -1.003 2.532 16
4.517 -0.999 2.513 55
4.438 -0.981 2.5 1
7.343 -1.631 2.133 2
4.015 -0.899 2.502 0
7.348 -1.666 2.038 2
7.344 -1.691 1.984 1
7.344 -1.723 1.923 1
7.354 -1.76 1.857 1
7.343 -1.798 1.787 1
5.917 -1.483 1.961 1
5.986 -1.537 1.883 0
7.355 -1.936 1.541 0
0.0 -0.0 3.0 0
0.0 -0.0 3.0 0
0.0 -0.0 3.0 0
0.0 -0.0 3.0 0
4.515 -1.626 2.713 18
4.751 -1.639 2.681 10
5.017 -1.659 2.647 5
5.284 -1.673 2.614 25
5.592 -1.699 2.577 5
4.278 -1.246 2.666 9
4.194 -1.173 2.664 17
4.193 -1.127 2.655 28
4.257 -1.103 2.642 20
6.528 -1.633 2.438 39
5.528 -1.338 2.513 0
5.36 -1.262 2.516 9
5.187 -1.19 2.519 15
5.16 -1.16 2.507 38
5.003 -1.108 2.507 1
4.58 -1.004 2.532 2
4.521 -0.986 2.519 22
4.491 -0.979 2.501 7
4.27 -0.936 2.502 0
7.349 -1.625 2.099 2
7.35 -1.646 2.05 1
7.338 -1.67 1.997 1
7.354 -1.706 1.934 1
7.356 -1.743 1.868 1
5.989 -1.452 2.021 0
5.918 -1.47 1.971 1
5.967 -1.52 1.896 0
5.878 -1.535 1.843 0
6.359 -1.704 1.669 0
0.0 -0.0 3.0 0
0.0 -0.0 3.0 0
0.0 -0.0 3.0 0
4.538 -1.624 2.714 8
4.789 -1.641 2.681 6
5.047 -1.657 2.648 5
5.307 -1.667 2.615 8
5.627 -1.694 2.578 25
4.281 -1.236 2.669 13
4.186 -1.159 2.668 16
4.197 -1.117 2.659 35
4.268 -1.093 2.645 16
6.529 -1.613 2.444 33
6.574 -1.572 2.428 39
5.442 -1.264 2.515 9
5.219 -1.182 2.523 12
5.176 -1.149 2.512 11
5.127 -1.12 2.502 4
4.696 -1.016 2.526 1
4.52 -0.973 2.526 15
4.506 -0.97 2.506 17
4.386 -0.949 2.496 0
4.133 -0.902 2.5 0
7.344 -1.625 2.062 1
7.343 -1.652 2.007 1
3.757 -0.862 2.461 0
6.283 -1.473 2.043 0
5.967 -1.433 2.034 1
5.915 -1.455 1.981 1
5.792 -1.462 1.938 0
6.362 -1.648 1.758 0
6.36 -1.692 1.678 0
0.0 -0.0 3.0 0
0.0 -0.0 3.0 0
0.0 -0.0 3.0 0
4.571 -1.626 2.713 7
4.815 -1.639 2.681 7
5.074 -1.653 2.649 24
5.341 -1.666 2.615 5
5.643 -1.685 2.58 9
4.28 -1.224 2.672 13
4.189 -1.149 2.671 17
4.196 -1.105 2.662 28
4.263 -1.08 2.649 18
6.843 -1.672 2.424 52
6.541 -1.545 2.438 42
5.512 -1.264 2.515 8
5.277 -1.179 2.523 9
5.172 -1.132 2.519 11
5.147 -1.109 2.506 8
4.863 -1.037 2.517 1
4.524 -0.959 2.532 20
4.518 -0.959 2.511 77
4.467 -0.954 2.493 1
4.218 -0.909 2.496 0
7.342 -1.604 2.074 1
3.918 -0.871 2.477 0
7.349 -1.668 1.958 1
6.276 -1.456 2.054 0
5.802 -1.379 2.07 0
5.915 -1.442 1.99 1
5.77 -1.444 1.951 1
6.26 -1.609 1.788 0
6.323 -1.669 1.696 0
0.0 -0.0 3.0 0
0.0 -0.0 3.0 0
0.0 -0.0 3.0 0
4.605 -1.627 2.713 10
4.845 -1.638 2.682 13
5.089 -1.646 2.65 10
5.387 -1.667 2.615 7
5.678 -1.681 2.581 5
4.256 -1.206 2.677 16
4.188 -1.138 2.674 19
4.199 -1.095 2.665 24
4.278 -1.071 2.652 16
7.356 -1.776 2.389 26
6.53 -1.523 2.446 44
6.577 -1.489 2.429 25
5.363 -1.182 2.522 9
5.207 -1.124 2.523 17
5.162 -1.097 2.512 53
5.034 -1.059 2.506 1
4.589 -0.96 2.532 2
4.521 -0.947 2.518 16
4.51 -0.95 2.495 11
4.291 -0.913 2.494 0
4.068 -0.878 2.493 0
7.358 -1.617 2.029 1
7.343 -1.648 1.97 1
6.292 -1.445 2.062 0
5.802 -1.366 2.078 1
6.503 -1.571 1.9 0
5.763 -1.43 1.961 1
6.234 -1.59 1.802 0
6.255 -1.639 1.719 0
0.0 -0.0 3.0 0
0.0 -0.0 3.0 0
0.0 -0.0 3.0 0
4.615 -1.621 2.714 19
4.844 -1.627 2.684 22
5.123 -1.645 2.65 5
5.399 -1.657 2.617 25
5.728 -1.681 2.581 10
4.248 -1.193 2.68 14
4.187 -1.126 2.677 21
4.206 -1.085 2.668 24
4.277 -1.06 2.656 25
4.398 -1.049 2.639 0
6.527 -1.504 2.453 28
6.574 -1.469 2.436 45
5.448 -1.185 2.521 9
5.222 -1.112 2.528 10
5.174 -1.083 2.518 11
5.139 -1.065 2.503 5
4.69 -0.966 2.529 1
4.52 -0.933 2.525 17
4.509 -0.937 2.502 29
4.384 -0.92 2.49 0
7.341 -1.565 2.096 1
4.029 -0.874 2.475 0
7.356 -1.633 1.979 1
6.301 -1.432 2.07 0
5.803 -1.353 2.087 1
6.519 -1.561 1.907 0
5.755 -1.416 1.971 1
6.372 -1.612 1.785 1
6.29 -1.636 1.722 0
0.0 -0.0 3.0 0
0.0 -0.0 3.0 0
0.0 -0.0 3.0 0
4.626 -1.614 2.715 18
4.871 -1.624 2.684 7
5.149 -1.641 2.651 5
5.421 -1.651 2.619 8
5.728 -1.667 2.584 19
4.236 -1.179 2.684 15
4.186 -1.115 2.68 23
4.209 -1.074 2.672 23
4.296 -1.052 2.658 17
4.374 -1.031 2.645 1
6.94 -1.578 2.426 53
6.532 -1.44 2.447 50
5.499 -1.179 2.524 4
5.292 -1.111 2.528 10
5.166 -1.066 2.525 12
5.151 -1.052 2.509 12
4.912 -0.998 2.513 1
4.524 -0.92 2.531 18
4.516 -0.925 2.508 96
4.48 -0.928 2.486 2
7.346 -1.547 2.107 2
4.063 -0.872 2.476 0
3.923 -0.861 2.462 0
3.794 -0.853 2.446 0
3.672 -0.848 2.428 0
6.516 -1.546 1.918 0
3.412 -0.833 2.395 0
6.357 -1.596 1.797 1
7.34 -1.896 1.519 1
0.0 -0.0 3.0 0
0.0 -0.0 3.0 0
0.0 -0.0 3.0 0
4.641 -1.609 2.716 8
4.904 -1.624 2.684 6
5.18 -1.639 2.652 20
5.463 -1.65 2.619 5
5.759 -1.661 2.586 6
4.227 -1.166 2.688 15
4.185 -1.104 2.683 41
4.208 -1.062 2.675 25
4.342 -1.051 2.658 17
4.397 -1.024 2.647 4
7.357 -1.652 2.399 27
6.525 -1.42 2.455 46
6.575 -1.391 2.438 39
5.374 -1.111 2.528 9
5.201 -1.058 2.529 20
5.158 -1.038 2.516 63
5.052 -1.012 2.507 1
4.558 -0.914 2.534 4
4.519 -0.913 2.515 16
4.503 -0.921 2.49 20
4.337 -0.901 2.48 0
7.351 -1.558 2.064 1
7.343 -1.593 2.004 1
6.271 -1.395 2.094 0
5.83 -1.333 2.101 0
6.49 -1.525 1.932 0
5.737 -1.388 1.991 1
6.312 -1.572 1.815 1
6.364 -1.631 1.726 0
0.0 -0.0 3.0 0
0.0 -0.0 3.0 0
0.0 -0.0 3.0 0
4.678 -1.612 2.716 8
4.938 -1.625 2.684 7
5.183 -1.628 2.654 12
5.502 -1.649 2.619 9
5.805 -1.661 2.586 4
4.23 -1.156 2.69 15
4.192 -1.094 2.686 22
4.215 -1.053 2.678 21
4.333 -1.038 2.663 16
4.404 -1.013 2.651 3
7.362 -1.632 2.406 22
6.538 -1.403 2.461 27
6.568 -1.369 2.447 47
5.448 -1.111 2.528 10
5.228 -1.048 2.534 10
5.17 -1.025 2.522 11
5.146 -1.015 2.505 8
4.588 -0.907 2.538 2
4.522 -0.901 2.521 18
4.514 -0.91 2.496 65
4.414 -0.905 2.477 0
4.158 -0.871 2.477 0
7.345 -1.575 2.016 1
3.869 -0.852 2.447 0
3.712 -0.84 2.433 0
6.002 -1.399 2.021 1
5.867 -1.408 1.977 1
5.896 -1.456 1.902 1
6.368 -1.62 1.734 0
0.0 -0.0 3.0 0
0.0 -0.0 3.0 0
0.0 -0.0 3.0 0
4.708 -1.612 2.716 10
4.953 -1.619 2.685 22
5.217 -1.627 2.654 5
5.505 -1.637 2.622 20
5.836 -1.655 2.587 20
4.225 -1.144 2.693 16
4.195 -1.084 2.689 22
4.217 -1.042 2.681 29
4.324 -1.023 2.667 16
4.364 -0.992 2.659 6
7.363 -1.611 2.414 27
7.272 -1.539 2.409 29
6.526 -1.342 2.458 52
5.506 -1.106 2.531 4
5.306 -1.047 2.534 10
5.169 -1.01 2.529 19
5.157 -1.002 2.511 21
4.697 -0.915 2.534 0
4.533 -0.89 2.527 15
4.517 -0.898 2.502 124
4.483 -0.907 2.476 3
4.227 -0.874 2.475 0
4.078 -0.865 2.46 0
5.966 -1.299 2.156 1
5.835 -1.308 2.118 1
5.96 -1.376 2.037 1
6.025 -1.433 1.959 1
6.397 -1.568 1.818 0
6.365 -1.608 1.743 0
7.351 -1.913 1.451 1
0.0 -0.0 3.0 0
0.0 -0.0 3.0 0
4.726 -1.608 2.716 19
4.967 -1.613 2.687 15
5.251 -1.626 2.654 5
5.536 -1.634 2.623 7
5.859 -1.648 2.589 7
4.236 -1.136 2.696 16
4.209 -1.076 2.691 21
4.224 -1.033 2.684 19
4.28 -1.001 2.675 16
4.402 -0.988 2.66 10
7.36 -1.589 2.422 23
7.358 -1.536 2.41 30
6.522 -1.322 2.466 52
6.574 -1.301 2.448 55
5.38 -1.046 2.534 10
5.208 -1.001 2.533 17
5.168 -0.989 2.517 62
4.771 -0.915 2.534 0
4.618 -0.894 2.525 14
4.512 -0.885 2.509 17
4.517 -0.903 2.479 71
4.323 -0.884 2.469 0
4.128 -0.865 2.459 0
4.018 -0.865 2.438 0
3.833 -0.851 2.426 0
3.71 -0.849 2.406 0
6.252 -1.475 1.929 0
6.295 -1.531 1.846 1
6.419 -1.61 1.742 0
6.361 -1.644 1.668 0
0.0 -0.0 3.0 0
0.0 -0.0 3.0 0
4.729 -1.599 2.718 19
4.986 -1.608 2.688 6
5.285 -1.624 2.655 16
5.582 -1.634 2.623 5
5.901 -1.646 2.59 4
4.231 -1.124 2.699 19
4.208 -1.066 2.694 21
4.239 -1.024 2.687 20
4.283 -0.99 2.678 16
4.412 -0.978 2.663 11
7.361 -1.569 2.429 29
7.351 -1.513 2.419 24
6.542 -1.306 2.472 21
6.57 -1.28 2.457 60
5.458 -1.044 2.535 9
5.231 -0.991 2.538 10
5.172 -0.974 2.525 12
4.864 -0.919 2.532 0
4.766 -0.909 2.517 9
4.511 -0.872 2.516 16
4.516 -0.891 2.486 238
4.462 -0.901 2.459 2
4.169 -0.864 2.46 0
4.04 -0.861 2.441 0
3.863 -0.848 2.428 0
3.747 -0.849 2.406 0
3.601 -0.842 2.388 0
6.433 -1.552 1.83 0
6.454 -1.606 1.745 0
6.369 -1.636 1.675 0
0.0 -0.0 3.0 0
0.0 -0.0 3.0 0
4.747 -1.595 2.719 7
5.031 -1.611 2.687 6
5.293 -1.615 2.657 14
5.616 -1.631 2.623 15
5.947 -1.644 2.59 15
4.237 -1.116 2.701 20
4.223 -1.059 2.696 24
4.249 -1.017 2.689 21
4.325 -0.988 2.679 18
4.404 -0.963 2.668 14
7.362 -1.548 2.437 23
7.356 -1.492 2.427 31
7.286 -1.433 2.421 31
6.528 -1.253 2.468 59
5.52 -1.04 2.537 2
5.313 -0.991 2.538 10
5.171 -0.959 2.532 32
4.922 -0.916 2.533 0
4.851 -0.911 2.515 8
4.534 -0.865 2.521 8
4.515 -0.879 2.493 255
4.508 -0.898 2.46 10
7.349 -1.505 2.06 2
5.974 -1.259 2.182 1
3.919 -0.853 2.425 0
5.798 -1.302 2.089 2
6.16 -1.428 1.962 2
6.134 -1.468 1.894 2
6.507 -1.608 1.744 0
6.374 -1.626 1.683 0
7.351 -1.933 1.378 1
0.0 -0.0 3.0 0
4.792 -1.601 2.718 8
5.061 -1.61 2.687 12
5.326 -1.613 2.657 5
5.619 -1.619 2.626 17
5.966 -1.636 2.592 8
4.259 -1.111 2.702 14
4.229 -1.05 2.699 21
4.267 -1.009 2.691 17
4.324 -0.976 2.683 15
4.402 -0.951 2.673 10
7.363 -1.527 2.444 28
7.357 -1.471 2.435 24
7.349 -1.424 2.425 30
6.524 -1.233 2.477 61
6.57 -1.218 2.458 64
5.391 -0.989 2.539 10
5.21 -0.951 2.536 16
5.105 -0.935 2.523 1
4.925 -0.911 2.515 8
4.591 -0.863 2.521 7
4.518 -0.867 2.499 37
4.511 -0.887 2.467 170
4.342 -0.879 2.451 0
4.119 -0.859 2.442 0
6.164 -1.327 2.105 0
3.833 -0.852 2.403 0
6.318 -1.452 1.945 1
6.138 -1.458 1.902 2
6.531 -1.603 1.748 0
6.423 -1.627 1.682 0
7.352 -1.921 1.388 0
0.0 -0.0 3.0 0
4.821 -1.601 2.718 10
5.056 -1.598 2.689 20
5.36 -1.612 2.657 4
5.658 -1.617 2.627 5
6.009 -1.634 2.593 4
4.278 -1.106 2.704 15
4.236 -1.041 2.702 27
4.282 -1.001 2.694 29
4.354 -0.972 2.684 12
4.355 -0.929 2.68 23
4.358 -0.891 2.676 4
7.362 -1.451 2.443 31
7.354 -1.403 2.433 26
6.559 -1.22 2.482 23
6.566 -1.198 2.467 64
5.469 -0.987 2.54 9
5.24 -0.941 2.541 11
5.171 -0.932 2.525 2
5.034 -0.918 2.512 10
4.813 -0.892 2.506 2
4.517 -0.856 2.506 23
4.514 -0.877 2.473 255
4.442 -0.889 2.445 1
4.172 -0.861 2.441 0
5.993 -1.278 2.138 1
3.874 -0.854 2.402 0
5.725 -1.305 2.052 1
6.265 -1.476 1.888 2
6.523 -1.589 1.758 0
6.458 -1.625 1.684 0
6.379 -1.656 1.61 0
0.0 -0.0 3.0 0
4.832 -1.595 2.719 23
5.086 -1.597 2.69 6
5.394 -1.611 2.658 16
5.684 -1.612 2.628 5
6.051 -1.63 2.594 14
4.292 -1.099 2.705 14
4.25 -1.034 2.704 17
4.296 -0.994 2.696 18
4.368 -0.962 2.687 10
4.357 -0.918 2.684 15
4.357 -0.879 2.68 4
7.362 -1.43 2.451 26
7.362 -1.383 2.441 31
7.313 -1.339 2.432 31
6.527 -1.171 2.478 66
5.519 -0.98 2.543 1
5.33 -0.942 2.54 10
5.202 -0.924 2.529 12
5.127 -0.921 2.511 24
4.977 -0.908 2.496 3
4.547 -0.849 2.51 6
4.516 -0.866 2.48 255
4.507 -0.891 2.443 4
5.916 -1.207 2.216 1
6.241 -1.317 2.112 1
3.939 -0.86 2.398 0
5.736 -1.296 2.058 2
6.108 -1.428 1.924 1
6.39 -1.546 1.792 0
6.523 -1.631 1.679 0
6.368 -1.643 1.621 0
7.363 -1.96 1.296 1
4.842 -1.588 2.72 17
5.124 -1.598 2.689 6
5.401 -1.601 2.66 15
5.73 -1.613 2.628 28
6.062 -1.62 2.596 17
4.306 -1.092 2.707 14
4.264 -1.027 2.706 17
4.33 -0.991 2.697 24
4.367 -0.951 2.691 8
4.356 -0.905 2.688 3
4.363 -0.868 2.684 21
7.359 -1.408 2.46 22
7.359 -1.361 2.45 26
7.353 -1.324 2.438 33
6.523 -1.151 2.487 66
6.571 -1.146 2.465 69
5.404 -0.94 2.542 10
5.213 -0.911 2.536 19
5.162 -0.912 2.515 130
5.058 -0.91 2.496 9
4.64 -0.854 2.507 5
4.519 -0.856 2.486 47
4.514 -0.881 2.449 44
4.332 -0.874 2.433 0
6.233 -1.302 2.122 1
3.956 -0.856 2.401 0
3.847 -0.862 2.374 0
5.969 -1.385 1.957 2
6.172 -1.482 1.842 2
6.534 -1.623 1.685 0
6.414 -1.645 1.619 0
7.357 -1.948 1.307 0
4.861 -1.585 2.721 7
5.161 -1.599 2.689 8
5.439 -1.601 2.66 5
5.737 -1.602 2.63 10
6.093 -1.614 2.598 7
4.32 -1.086 2.709 18
4.286 -1.022 2.707 13
4.348 -0.984 2.699 15
4.424 -0.952 2.691 5
4.359 -0.894 2.692 2
4.362 -0.855 2.689 21
4.376 -0.825 2.683 0
7.356 -1.339 2.459 33
7.357 -1.303 2.447 29
6.586 -1.143 2.491 24
6.559 -1.126 2.475 68
5.474 -0.935 2.544 9
5.255 -0.903 2.54 11
5.161 -0.898 2.523 43
5.081 -0.901 2.501 42
3.159 -0.574 2.669 1
4.518 -0.844 2.493 27
4.517 -0.871 2.456 188
4.436 -0.885 2.425 0
4.18 -0.864 2.417 0
4.044 -0.866 2.393 0
3.896 -0.866 2.371 0
5.965 -1.373 1.965 1
6.156 -1.468 1.853 3
6.535 -1.613 1.694 0
6.471 -1.65 1.616 0
0.0 -0.0 3.0 0
4.901 -1.589 2.72 8
5.164 -1.589 2.691 31
5.473 -1.599 2.66 5
5.783 -1.603 2.63 4
6.124 -1.608 2.599 6
4.361 -1.086 2.709 2
4.312 -1.017 2.708 17
4.389 -0.983 2.7 19
4.419 -0.939 2.695 1
7.365 -1.491 2.487 25
4.368 -0.844 2.693 4
4.363 -0.81 2.689 0
7.36 -1.319 2.467 26
7.361 -1.282 2.456 33
7.329 -1.25 2.444 30
6.528 -1.101 2.487 82
5.556 -0.934 2.545 1
5.329 -0.9 2.542 10
5.187 -0.888 2.528 30
5.088 -0.888 2.508 61
3.157 -0.565 2.674 2
4.568 -0.842 2.494 5
4.519 -0.861 2.462 67
4.497 -0.887 2.424 4
4.221 -0.864 2.418 0
4.062 -0.862 2.396 0
3.944 -0.869 2.369 0
6.011 -1.373 1.965 1
6.126 -1.45 1.867 2
6.535 -1.602 1.703 0
6.509 -1.649 1.616 0
6.375 -1.669 1.549 1
4.942 -1.592 2.719 11
5.186 -1.586 2.692 10
5.511 -1.599 2.66 19
5.828 -1.602 2.63 9
6.158 -1.604 2.6 6
4.352 -1.074 2.712 0
4.318 -1.009 2.711 17
4.38 -0.97 2.703 1
4.406 -0.925 2.699 0
7.354 -1.469 2.494 32
4.383 -0.835 2.696 0
4.377 -0.8 2.693 4
7.356 -1.296 2.476 34
7.366 -1.261 2.465 29
7.353 -1.233 2.451 33
6.524 -1.081 2.496 77
6.57 -1.085 2.471 69
5.407 -0.898 2.543 9
5.206 -0.877 2.534 15
5.153 -0.886 2.509 92
3.151 -0.556 2.679 5
4.66 -0.847 2.491 4
4.518 -0.85 2.469 20
4.512 -0.88 2.428 15
5.953 -1.206 2.186 2
5.862 -1.233 2.137 2
3.978 -0.868 2.369 0
6.268 -1.421 1.929 1
6.121 -1.439 1.876 3
6.489 -1.581 1.72 0
6.528 -1.645 1.62 1
6.368 -1.658 1.559 2
4.937 -1.582 2.721 28
5.223 -1.587 2.691 5
5.518 -1.59 2.662 12
5.836 -1.593 2.632 16
6.192 -1.599 2.601 5
6.596 -1.613 2.568 21
4.379 -1.012 2.71 8
4.41 -0.966 2.705 0
7.363 -1.527 2.504 32
7.358 -1.45 2.501 27
7.358 -1.382 2.497 31
4.399 -0.792 2.696 0
7.36 -1.276 2.485 27
7.362 -1.239 2.474 35
7.361 -1.213 2.46 29
6.591 -1.072 2.5 21
6.55 -1.062 2.482 70
5.485 -0.896 2.544 9
5.26 -0.871 2.537 11
5.156 -0.872 2.516 43
3.149 -0.548 2.684 10
4.808 -0.863 2.482 2
4.521 -0.841 2.475 24
4.522 -0.872 2.434 63
4.421 -0.886 2.402 0
5.865 -1.222 2.144 2
4.015 -0.869 2.368 0
6.214 -1.398 1.947 2
6.129 -1.431 1.882 3
6.512 -1.576 1.724 0
6.524 -1.634 1.629 0
6.254 -1.62 1.592 1
4.955 -1.578 2.722 11
5.257 -1.588 2.691 7
5.547 -1.587 2.663 5
5.866 -1.588 2.633 6
6.231 -1.596 2.602 4
6.596 -1.597 2.572 13
4.351 -0.995 2.715 1
7.362 -1.593 2.513 27
7.363 -1.508 2.51 26
7.358 -1.43 2.508 35
7.363 -1.362 2.504 27
7.361 -1.304 2.499 33
7.357 -1.254 2.493 34
7.362 -1.218 2.483 31
7.362 -1.191 2.47 34
7.339 -1.173 2.453 30
6.522 -1.039 2.493 92
5.504 -0.882 2.55 0
5.342 -0.87 2.537 10
3.214 -0.535 2.703 3
3.155 -0.541 2.688 17
4.936 -0.874 2.475 2
4.59 -0.843 2.473 4
4.521 -0.862 2.44 36
4.493 -0.891 2.399 2
5.869 -1.211 2.152 3
4.067 -0.874 2.365 0
6.137 -1.37 1.968 2
6.52 -1.511 1.819 0
6.148 -1.478 1.803 2
6.528 -1.626 1.636 0
6.254 -1.611 1.6 0
4.988 -1.579 2.722 7
5.279 -1.584 2.692 22
5.589 -1.588 2.662 5
5.908 -1.587 2.634 5
6.265 -1.591 2.603 4
6.607 -1.585 2.575 7
7.37 -1.669 2.521 24
7.37 -1.576 2.518 30
7.359 -1.489 2.516 32
7.358 -1.412 2.514 27
7.363 -1.342 2.511 36
7.365 -1.284 2.507 32
7.361 -1.233 2.502 32
7.358 -1.195 2.493 35
7.366 -1.17 2.479 31
7.359 -1.155 2.462 32
6.526 -1.021 2.502 89
6.574 -1.036 2.472 76
5.423 -0.869 2.538 9
3.2 -0.524 2.709 13
3.168 -0.535 2.691 27
3.375 -0.59 2.646 0
4.686 -0.85 2.469 2
4.527 -0.854 2.445 12
4.507 -0.885 2.403 6
6.012 -1.229 2.139 0
5.802 -1.236 2.102 2
6.005 -1.33 1.998 2
6.527 -1.503 1.826 0
6.129 -1.464 1.814 4
6.535 -1.618 1.642 0
6.257 -1.603 1.607 1
5.029 -1.584 2.721 8
5.282 -1.575 2.694 14
5.611 -1.584 2.663 27
5.942 -1.585 2.634 30
6.323 -1.592 2.603 5
6.65 -1.58 2.577 3
7.366 -1.651 2.527 18
7.362 -1.557 2.524 27
7.359 -1.47 2.522 29
7.358 -1.392 2.521 37
7.367 -1.323 2.518 26
7.357 -1.262 2.516 35
7.361 -1.213 2.51 34
7.362 -1.175 2.501 34
7.362 -1.147 2.489 35
7.366 -1.134 2.471 17
6.699 -1.028 2.498 65
6.538 -1.012 2.484 80
5.489 -0.864 2.541 8
3.206 -0.517 2.713 17
3.166 -0.526 2.696 31
5.075 -0.875 2.475 33
3.26 -0.584 2.635 0
4.522 -0.843 2.453 19
4.514 -0.877 2.408 38
4.388 -0.889 2.378 0
4.192 -0.885 2.357 0
5.997 -1.318 2.007 3
6.523 -1.491 1.835 0
6.201 -1.472 1.808 1
6.459 -1.59 1.666 0
6.321 -1.611 1.6 1
5.055 -1.583 2.721 19
5.323 -1.577 2.693 5
5.626 -1.576 2.665 12
5.956 -1.576 2.636 8
6.338 -1.583 2.605 5
6.735 -1.586 2.575 3
7.37 -1.634 2.531 24
7.362 -1.539 2.529 32
7.363 -1.452 2.528 33
7.358 -1.373 2.527 29
7.363 -1.303 2.526 33
7.365 -1.242 2.523 32
7.357 -1.19 2.519 35
7.358 -1.153 2.511 35
7.362 -1.125 2.499 34
7.355 -1.11 2.482 25
7.33 -1.104 2.462 35
3.158 -0.48 2.755 0
6.564 -1.016 2.46 61
3.212 -0.509 2.718 19
3.172 -0.52 2.7 37
5.089 -0.865 2.48 92
3.25 -0.575 2.641 5
4.629 -0.854 2.446 3
4.516 -0.869 2.414 28
4.503 -0.903 2.367 2
6.463 -1.353 2.017 0
5.973 -1.303 2.018 3
6.53 -1.482 1.842 0
6.541 -1.543 1.75 0
6.135 -1.501 1.74 2
6.241 -1.583 1.624 2
5.046 -1.571 2.723 21
5.36 -1.579 2.693 6
5.663 -1.577 2.665 5
6.01 -1.578 2.636 4
6.372 -1.578 2.607 4
7.127 -1.662 2.555 23
7.378 -1.62 2.536 28
7.366 -1.523 2.534 26
7.363 -1.434 2.534 33
7.358 -1.354 2.534 36
7.363 -1.283 2.533 29
7.365 -1.223 2.531 38
7.361 -1.17 2.527 32
7.358 -1.131 2.52 36
7.358 -1.104 2.509 34
7.354 -1.089 2.492 35
7.353 -1.087 2.47 35
3.156 -0.47 2.76 1
3.173 -0.483 2.743 4
3.217 -0.502 2.722 27
3.169 -0.512 2.704 41
5.154 -0.864 2.481 180
3.244 -0.567 2.646 11
4.73 -0.862 2.44 4
4.526 -0.862 2.419 11
4.513 -0.897 2.372 5
4.324 -0.898 2.348 0
5.922 -1.282 2.034 3
6.526 -1.472 1.85 1
6.537 -1.533 1.759 0
6.13 -1.492 1.748 3
6.18 -1.559 1.645 3
5.075 -1.571 2.723 7
5.382 -1.576 2.694 23
5.704 -1.578 2.665 6
6.059 -1.579 2.635 27
6.406 -1.573 2.608 4
7.36 -1.701 2.544 23
7.374 -1.603 2.54 17
7.362 -1.505 2.54 34
7.363 -1.416 2.54 31
7.362 -1.336 2.54 32
7.358 -1.263 2.54 25
7.368 -1.203 2.538 32
7.352 -1.148 2.536 38
7.362 -1.11 2.529 35
7.357 -1.082 2.518 35
7.358 -1.069 2.502 35
7.357 -1.065 2.48 35
3.15 -0.461 2.765 4
3.167 -0.472 2.749 15
3.219 -0.494 2.726 39
3.179 -0.505 2.708 41
5.161 -0.852 2.488 162
3.253 -0.561 2.649 15
4.81 -0.867 2.437 12
4.517 -0.852 2.425 55
4.515 -0.889 2.377 34
4.466 -0.919 2.332 0
5.925 -1.273 2.041 3
6.529 -1.462 1.858 1
6.536 -1.523 1.767 0
6.164 -1.492 1.748 1
6.176 -1.55 1.653 3
5.104 -1.571 2.723 5
5.392 -1.569 2.695 16
5.715 -1.569 2.666 32
6.062 -1.569 2.638 13
6.444 -1.57 2.609 4
7.36 -1.685 2.548 31
7.37 -1.585 2.546 19
7.365 -1.489 2.545 27
7.363 -1.398 2.546 35
7.361 -1.316 2.547 35
7.366 -1.244 2.547 33
7.36 -1.181 2.547 41
7.36 -1.129 2.544 33
7.358 -1.088 2.538 39
7.365 -1.062 2.527 33
7.358 -1.047 2.512 37
7.357 -1.045 2.49 35
3.151 -0.452 2.77 10
3.177 -0.466 2.752 20
3.22 -0.486 2.73 43
3.184 -0.499 2.712 40
5.187 -0.845 2.492 33
3.255 -0.554 2.654 10
4.844 -0.863 2.44 8
4.605 -0.859 2.421 9
4.518 -0.881 2.383 25
4.507 -0.92 2.331 1
5.928 -1.264 2.047 3
6.533 -1.453 1.865 0
6.532 -1.513 1.775 0
6.369 -1.533 1.714 0
6.133 -1.531 1.669 4
5.149 -1.577 2.722 6
5.425 -1.569 2.695 5
5.741 -1.566 2.667 8
6.1 -1.567 2.638 4
6.482 -1.566 2.609 4
7.36 -1.67 2.552 24
7.366 -1.568 2.55 27
7.365 -1.471 2.55 36
7.366 -1.381 2.551 29
7.361 -1.298 2.553 37
7.37 -1.225 2.554 39
7.368 -1.162 2.554 31
7.36 -1.107 2.553 41
7.361 -1.067 2.547 36
7.357 -1.039 2.537 39
7.358 -1.025 2.522 35
7.356 -1.023 2.501 38
3.165 -0.445 2.773 10
3.182 -0.458 2.757 23
3.226 -0.478 2.735 40
3.186 -0.491 2.716 29
5.221 -0.838 2.496 11
3.253 -0.546 2.659 11
4.885 -0.861 2.441 4
4.705 -0.868 2.414 12
4.524 -0.875 2.388 8
4.513 -0.914 2.336 3
5.916 -1.252 2.057 2
6.532 -1.443 1.873 1
6.535 -1.504 1.782 0
6.54 -1.565 1.687 0
6.125 -1.521 1.678 6
5.144 -1.566 2.724 3
5.463 -1.57 2.695 6
5.778 -1.566 2.667 4
6.157 -1.57 2.638 13
6.578 -1.576 2.607 11
7.363 -1.656 2.556 29
7.365 -1.552 2.555 27
7.365 -1.454 2.555 28
7.366 -1.363 2.557 39
7.361 -1.279 2.56 33
7.373 -1.206 2.561 18
7.359 -1.14 2.562 43
7.359 -1.086 2.561 33
7.357 -1.046 2.556 42
7.364 -1.018 2.547 32
7.361 -1.004 2.532 38
3.421 -0.466 2.773 1
3.182 -0.439 2.776 15
3.184 -0.449 2.761 27
3.231 -0.471 2.739 40
3.199 -0.485 2.72 20
5.287 -0.837 2.497 10
3.246 -0.539 2.663 16
4.962 -0.863 2.439 2
4.711 -0.861 2.419 6
4.514 -0.865 2.394 18
4.519 -0.907 2.341 28
4.491 -0.944 2.289 0
6.531 -1.433 1.88 0
6.538 -1.496 1.788 0
6.532 -1.555 1.695 1
6.12 -1.513 1.685 2
5.154 -1.562 2.725 3
5.492 -1.57 2.695 22
5.827 -1.569 2.666 11
6.16 -1.559 2.64 22
6.582 -1.564 2.61 8
7.363 -1.64 2.561 23
7.365 -1.536 2.56 31
7.364 -1.438 2.56 35
7.365 -1.346 2.563 29
7.36 -1.261 2.566 39
7.365 -1.186 2.568 30
7.367 -1.122 2.569 34
7.359 -1.066 2.57 41
7.36 -1.025 2.565 36
7.368 -0.997 2.556 17
7.357 -0.982 2.542 36
3.407 -0.454 2.778 10
3.199 -0.432 2.78 19
3.181 -0.441 2.766 37
3.241 -0.464 2.743 39
3.221 -0.48 2.723 19
3.51 -0.548 2.671 4
3.272 -0.536 2.665 22
5.074 -0.873 2.433 3
4.76 -0.861 2.419 5
4.555 -0.865 2.394 1
4.513 -0.899 2.347 33
4.497 -0.938 2.294 1
6.527 -1.423 1.888 1
6.542 -1.488 1.795 0
6.527 -1.545 1.703 1
6.013 -1.479 1.715 3
5.179 -1.561 2.725 3
5.502 -1.564 2.696 13
5.826 -1.559 2.669 14
6.197 -1.557 2.64 5
6.6 -1.556 2.612 21
7.362 -1.625 2.565 29
7.364 -1.52 2.564 27
7.364 -1.421 2.566 30
7.361 -1.327 2.569 42
7.36 -1.243 2.572 31
7.36 -1.167 2.575 40
7.362 -1.101 2.578 41
7.362 -1.045 2.578 35
7.36 -1.004 2.574 43
7.371 -0.977 2.565 33
7.356 -0.961 2.552 40
3.404 -0.445 2.783 14
3.181 -0.421 2.786 17
3.187 -0.433 2.77 41
3.246 -0.456 2.747 40
3.234 -0.475 2.726 17
3.492 -0.537 2.677 1
3.277 -0.53 2.669 10
5.124 -0.872 2.434 10
6.518 -1.167 2.213 7
4.569 -0.859 2.398 2
4.527 -0.894 2.35 5
4.515 -0.935 2.296 3
6.534 -1.415 1.894 0
6.541 -1.479 1.802 0
6.328 -1.49 1.75 1
6.004 -1.47 1.722 4
5.208 -1.561 2.725 2
5.505 -1.555 2.698 3
5.867 -1.56 2.669 5
6.254 -1.56 2.64 7
6.607 -1.545 2.615 11
7.358 -1.61 2.569 24
7.367 -1.505 2.569 33
7.359 -1.404 2.571 34
7.372 -1.312 2.574 30
7.359 -1.224 2.578 41
7.359 -1.147 2.583 40
7.362 -1.081 2.585 39
7.361 -1.026 2.586 42
7.363 -0.983 2.583 39
7.37 -0.955 2.575 41
3.307 -0.422 2.803 8
3.263 -0.417 2.797 15
3.183 -0.412 2.79 18
3.196 -0.425 2.774 40
3.248 -0.449 2.751 37
3.255 -0.47 2.729 15
3.462 -0.525 2.684 4
3.286 -0.525 2.672 4
5.185 -0.872 2.434 24
6.529 -1.157 2.22 10
4.864 -0.907 2.365 0
4.525 -0.886 2.356 11
4.521 -0.93 2.299 28
4.41 -0.949 2.259 0
6.54 -1.47 1.809 0
6.323 -1.481 1.757 1
6.022 -1.467 1.725 3
5.237 -1.562 2.725 2
5.538 -1.555 2.698 3
5.916 -1.562 2.668 6
6.272 -1.554 2.641 22
6.621 -1.536 2.617 4
7.361 -1.596 2.572 20
7.367 -1.49 2.573 26
7.37 -1.39 2.575 33
7.359 -1.293 2.58 43
7.358 -1.206 2.585 28
7.363 -1.129 2.589 43
7.365 -1.061 2.593 41
7.357 -1.004 2.595 40
7.362 -0.962 2.592 43
7.366 -0.933 2.585 21
3.313 -0.413 2.807 2
3.253 -0.406 2.802 21
3.172 -0.402 2.795 21
3.201 -0.418 2.778 41
3.222 -0.437 2.758 35
3.292 -0.468 2.73 12
3.101 -0.463 2.722 9
3.284 -0.517 2.677 14
5.207 -0.866 2.438 18
5.177 -0.908 2.388 0
5.123 -0.947 2.337 1
4.644 -0.903 2.344 1
4.523 -0.924 2.304 32
4.486 -0.959 2.25 1
6.527 -1.459 1.819 0
6.253 -1.457 1.777 4
6.044 -1.466 1.726 4
5.27 -1.564 2.724 3
5.571 -1.556 2.698 3
5.93 -1.556 2.669 25
6.294 -1.549 2.642 5
6.686 -1.539 2.616 3
7.372 -1.584 2.576 25
7.37 -1.476 2.577 34
7.369 -1.374 2.58 33
7.363 -1.277 2.585 32
7.353 -1.188 2.591 37
7.362 -1.11 2.596 37
7.364 -1.042 2.6 45
7.36 -0.984 2.603 41
7.361 -0.941 2.601 44
7.365 -0.911 2.594 27
3.314 -0.404 2.812 3
3.258 -0.397 2.806 38
3.185 -0.395 2.799 32
3.21 -0.411 2.782 38
3.223 -0.429 2.762 33
3.297 -0.46 2.734 15
3.138 -0.462 2.722 14
3.281 -0.511 2.681 22
3.25 -0.534 2.653 9
5.18 -0.899 2.393 1
5.141 -0.942 2.341 3
4.568 -0.881 2.36 3
4.532 -0.918 2.308 5
4.499 -0.956 2.253 3
6.542 -1.454 1.823 0
6.256 -1.451 1.783 3
6.05 -1.46 1.731 3
5.299 -1.565 2.724 2
5.604 -1.557 2.697 3
5.944 -1.551 2.67 3
6.367 -1.556 2.641 9
6.872 -1.569 2.609 8
7.371 -1.57 2.579 30
7.365 -1.459 2.582 26
7.368 -1.358 2.585 36
7.366 -1.261 2.59 40
7.357 -1.171 2.597 32
7.357 -1.09 2.603 47
7.359 -1.022 2.608 39
7.359 -0.964 2.611 44
7.36 -0.92 2.61 42
7.36 -0.89 2.604 41
3.316 -0.394 2.816 2
3.311 -0.394 2.808 34
3.183 -0.386 2.804 27
3.22 -0.403 2.786 34
3.232 -0.423 2.766 27
3.291 -0.452 2.739 18
3.112 -0.451 2.729 9
3.271 -0.502 2.686 30
3.252 -0.528 2.657 4
5.174 -0.89 2.4 13
5.155 -0.936 2.345 6
4.893 -0.936 2.32 0
4.523 -0.91 2.314 9
4.509 -0.952 2.256 28
6.533 -1.444 1.831 0
6.373 -1.47 1.766 1
6.083 -1.462 1.729 2
5.324 -1.564 2.724 3
5.637 -1.558 2.697 3
5.97 -1.547 2.671 2
6.381 -1.548 2.643 17
7.311 -1.657 2.587 22
7.37 -1.556 2.583 21
7.368 -1.445 2.586 36
7.367 -1.343 2.589 32
7.361 -1.244 2.596 37
7.363 -1.154 2.603 28
7.364 -1.073 2.61 35
7.366 -1.003 2.615 48
7.358 -0.943 2.619 39
7.363 -0.899 2.618 45
7.359 -0.868 2.614 41
3.317 -0.385 2.82 10
3.285 -0.382 2.814 38
3.172 -0.376 2.808 23
3.213 -0.394 2.79 36
3.249 -0.416 2.769 26
3.245 -0.438 2.747 25
3.208 -0.459 2.724 12
3.264 -0.494 2.691 31
3.249 -0.522 2.661 4
5.215 -0.888 2.401 21
5.161 -0.929 2.349 44
5.113 -0.971 2.295 1
4.61 -0.921 2.306 1
4.511 -0.946 2.261 30
4.5 -0.989 2.199 2
6.472 -1.486 1.753 1
6.12 -1.464 1.727 1
5.342 -1.562 2.725 3
5.678 -1.56 2.697 3
6.011 -1.549 2.671 2
6.415 -1.546 2.643 5
7.361 -1.656 2.587 35
7.369 -1.542 2.587 17
7.367 -1.432 2.589 28
7.37 -1.328 2.594 38
7.364 -1.228 2.601 39
7.362 -1.138 2.608 38
7.359 -1.054 2.616 53
7.365 -0.984 2.622 37
7.357 -0.923 2.627 48
7.358 -0.878 2.627 41
7.358 -0.847 2.623 46
3.33 -0.377 2.824 6
3.23 -0.367 2.821 30
3.173 -0.368 2.813 32
3.218 -0.386 2.795 34
3.231 -0.406 2.775 22
3.242 -0.431 2.751 30
3.158 -0.444 2.733 17
3.266 -0.488 2.695 43
3.231 -0.513 2.667 4
5.221 -0.88 2.407 11
5.171 -0.922 2.354 11
5.142 -0.969 2.296 3
4.623 -0.917 2.309 1
4.516 -0.942 2.264 5
4.517 -0.987 2.2 6
0.0 -0.0 3.0 0
6.47 -1.54 1.661 0
5.386 -1.568 2.724 3
5.703 -1.559 2.697 2
6.048 -1.549 2.671 2
6.437 -1.54 2.644 3
7.364 -1.644 2.59 26
7.364 -1.528 2.591 29
7.37 -1.418 2.593 37
7.365 -1.312 2.599 30
7.359 -1.211 2.607 42
7.369 -1.121 2.614 47
7.366 -1.037 2.622 36
7.364 -0.965 2.63 52
7.364 -0.904 2.635 39
7.357 -0.857 2.636 48
7.361 -0.826 2.632 43
7.358 -0.812 2.621 44
3.259 -0.36 2.824 38
3.202 -0.362 2.816 36
3.224 -0.379 2.799 32
3.204 -0.395 2.781 27
3.235 -0.423 2.756 25
3.139 -0.435 2.739 23
3.267 -0.482 2.699 32
3.189 -0.5 2.675 21
5.298 -0.884 2.404 10
5.169 -0.914 2.36 19
5.156 -0.964 2.299 5
4.87 -0.96 2.276 0
4.514 -0.936 2.269 7
4.515 -0.982 2.205 26
6.534 -1.485 1.754 0
6.533 -1.549 1.653 1
6.631 -1.921 2.661 62
5.74 -1.561 2.697 2
6.085 -1.549 2.671 2
6.478 -1.54 2.644 3
7.363 -1.631 2.593 30
7.363 -1.514 2.594 27
7.365 -1.403 2.598 30
7.368 -1.298 2.603 42
7.365 -1.197 2.611 37
7.368 -1.104 2.62 22
7.365 -1.019 2.629 53
7.363 -0.945 2.637 39
7.359 -0.883 2.643 50
7.364 -0.837 2.645 39
7.36 -0.804 2.642 49
7.356 -0.79 2.631 42
3.312 -0.357 2.826 34
3.211 -0.354 2.82 42
3.241 -0.372 2.802 31
3.221 -0.389 2.784 29
3.225 -0.414 2.761 20
3.129 -0.427 2.743 19
3.221 -0.469 2.707 42
3.17 -0.492 2.68 8
5.382 -0.89 2.4 9
5.206 -0.913 2.361 21
5.158 -0.958 2.304 39
5.093 -0.997 2.249 1
4.512 -0.93 2.274 2
4.52 -0.977 2.208 34
4.508 -1.02 2.145 1
6.532 -1.542 1.66 0
6.657 -1.919 2.662 13
5.777 -1.563 2.696 3
6.118 -1.549 2.671 2
6.511 -1.538 2.645 3
7.365 -1.619 2.596 26
7.366 -1.502 2.597 33
7.367 -1.39 2.601 33
7.367 -1.283 2.608 31
7.36 -1.18 2.616 45
7.359 -1.087 2.626 33
7.363 -1.001 2.636 41
7.365 -0.927 2.644 53
7.357 -0.863 2.651 42
7.363 -0.816 2.654 21
7.362 -0.784 2.651 45
7.355 -0.769 2.642 47
3.314 -0.347 2.831 31
3.181 -0.342 2.826 37
3.202 -0.36 2.809 30
3.25 -0.385 2.787 31
3.21 -0.405 2.766 22
3.165 -0.426 2.744 21
3.218 -0.463 2.711 35
3.14 -0.482 2.687 13
5.463 -0.894 2.397 8
5.22 -0.908 2.364 10
5.168 -0.952 2.308 11
5.157 -1.003 2.244 3
4.746 -0.972 2.24 0
4.522 -0.973 2.212 6
4.521 -1.018 2.146 12
0.0 -0.0 3.0 0
6.667 -1.913 2.663 12
6.569 -1.769 2.656 39
6.179 -1.555 2.669 2
6.564 -1.541 2.644 3
7.364 -1.607 2.599 31
7.364 -1.49 2.601 28
7.37 -1.377 2.605 33
7.366 -1.269 2.612 44
7.367 -1.166 2.621 33
7.361 -1.071 2.631 48
7.362 -0.984 2.642 48
7.368 -0.909 2.651 45
7.356 -0.844 2.659 51
7.369 -0.796 2.662 41
7.357 -0.762 2.661 51
3.319 -0.337 2.843 5
3.315 -0.338 2.835 25
3.194 -0.335 2.829 39
3.199 -0.351 2.813 37
3.275 -0.38 2.789 36
3.199 -0.397 2.771 22
3.166 -0.42 2.748 19
3.203 -0.455 2.716 35
3.153 -0.479 2.689 11
5.567 -0.901 2.392 1
5.3 -0.913 2.361 9
5.17 -0.945 2.313 24
5.159 -0.997 2.248 5
4.907 -0.999 2.219 0
4.52 -0.967 2.217 5
4.519 -1.013 2.15 24
6.537 -1.53 1.67 0
6.684 -1.91 2.663 8
6.641 -1.778 2.654 74
6.235 -1.561 2.668 2
6.598 -1.539 2.645 3
7.367 -1.596 2.602 29
7.359 -1.477 2.604 37
7.369 -1.364 2.609 32
7.372 -1.255 2.616 33
7.361 -1.15 2.626 49
7.364 -1.055 2.637 42
7.361 -0.966 2.648 49
7.363 -0.89 2.658 50
7.363 -0.824 2.667 47
7.372 -0.776 2.671 51
7.359 -0.741 2.67 48
3.332 -0.329 2.847 11
3.308 -0.329 2.84 22
3.203 -0.328 2.833 33
3.201 -0.343 2.818 37
3.237 -0.368 2.796 27
3.208 -0.39 2.775 19
3.183 -0.416 2.75 25
3.177 -0.445 2.722 24
3.146 -0.472 2.693 17
6.464 -1.037 2.3 12
5.38 -0.919 2.356 9
5.214 -0.947 2.312 22
5.169 -0.993 2.252 44
5.133 -1.04 2.188 1
4.498 -0.958 2.224 3
4.524 -1.01 2.153 45
4.517 -1.053 2.084 1
7.371 -2.097 2.63 22
6.655 -1.774 2.655 18
6.373 -1.587 2.663 7
6.639 -1.539 2.645 3
7.361 -1.584 2.605 25
7.365 -1.466 2.607 28
7.367 -1.35 2.613 39
7.363 -1.24 2.621 43
7.364 -1.135 2.631 32
7.363 -1.038 2.642 52
7.367 -0.95 2.654 46
7.365 -0.872 2.665 52
7.357 -0.804 2.675 50
7.37 -0.756 2.679 29
7.358 -0.72 2.68 51
3.333 -0.32 2.851 17
3.357 -0.323 2.842 27
3.264 -0.325 2.834 34
3.202 -0.335 2.822 37
3.218 -0.359 2.801 29
3.225 -0.386 2.777 21
3.157 -0.406 2.756 26
3.158 -0.437 2.727 30
3.143 -0.466 2.697 7
6.525 -1.037 2.301 14
3.498 -0.593 2.585 9
5.224 -0.941 2.316 10
5.17 -0.987 2.256 8
5.143 -1.036 2.191 3
4.7 -0.996 2.193 0
4.522 -1.005 2.157 9
4.511 -1.048 2.089 14
7.377 -2.091 2.631 15
6.665 -1.768 2.656 13
6.646 -1.646 2.65 77
6.684 -1.54 2.644 3
7.371 -1.575 2.607 22
7.36 -1.453 2.611 37
7.374 -1.339 2.616 31
7.373 -1.229 2.624 38
7.362 -1.121 2.636 42
7.361 -1.023 2.648 38
7.357 -0.931 2.661 57
7.364 -0.853 2.672 49
7.359 -0.785 2.683 54
7.365 -0.735 2.688 30
7.356 -0.699 2.689 52
3.299 -0.307 2.857 18
3.33 -0.312 2.848 23
3.257 -0.315 2.839 36
3.211 -0.328 2.826 34
3.203 -0.349 2.806 26
3.25 -0.381 2.78 22
3.158 -0.4 2.76 24
3.155 -0.43 2.731 31
3.136 -0.46 2.701 9
6.527 -1.028 2.307 13
3.495 -0.588 2.588 10
5.304 -0.949 2.311 9
5.168 -0.98 2.261 22
5.156 -1.033 2.193 4
4.903 -1.034 2.163 0
4.527 -1.002 2.159 5
4.52 -1.046 2.091 12
7.371 -2.08 2.633 10
6.682 -1.765 2.657 10
6.648 -1.638 2.652 76
6.729 -1.541 2.644 4
7.374 -1.565 2.61 33
7.366 -1.442 2.613 28
7.372 -1.327 2.62 42
7.371 -1.215 2.629 38
7.365 -1.107 2.64 36
7.359 -1.007 2.653 57
7.36 -0.915 2.667 43
7.358 -0.834 2.68 60
7.358 -0.765 2.691 49
7.363 -0.714 2.697 50
7.359 -0.678 2.698 44
3.216 -0.29 2.865 26
3.291 -0.298 2.854 21
3.218 -0.303 2.846 33
3.2 -0.319 2.831 38
3.236 -0.345 2.809 36
3.255 -0.375 2.784 22
3.163 -0.394 2.763 21
3.164 -0.426 2.734 20
3.161 -0.459 2.702 3
6.525 -1.018 2.313 14
3.484 -0.581 2.593 13
5.388 -0.958 2.304 9
5.217 -0.983 2.259 23
5.161 -1.029 2.196 45
5.155 -1.082 2.124 1
4.486 -0.988 2.171 2
4.526 -1.043 2.093 60
7.37 -2.072 2.635 12
7.337 -1.929 2.625 21
6.65 -1.63 2.654 30
6.972 -1.588 2.633 29
7.372 -1.554 2.613 27
7.364 -1.431 2.617 37
7.37 -1.315 2.623 31
7.366 -1.201 2.633 44
7.359 -1.092 2.645 33
7.366 -0.993 2.658 38
7.362 -0.899 2.673 60
7.36 -0.817 2.686 46
7.36 -0.746 2.698 59
7.362 -0.694 2.706 48
7.357 -0.657 2.708 49
3.213 -0.28 2.869 37
3.308 -0.291 2.858 27
3.227 -0.295 2.85 41
3.201 -0.311 2.835 39
3.217 -0.336 2.814 30
3.256 -0.368 2.787 28
3.203 -0.393 2.764 25
3.161 -0.421 2.737 17
6.529 -0.938 2.391 14
3.37 -0.521 2.649 0
3.486 -0.577 2.596 17
5.463 -0.965 2.299 9
5.222 -0.979 2.263 11
5.171 -1.025 2.199 7
5.149 -1.076 2.129 4
6.533 -1.433 1.797 1
4.531 -1.04 2.096 10
7.372 -2.064 2.636 20
7.359 -1.926 2.626 31
6.672 -1.628 2.654 13
7.364 -1.668 2.615 30
7.37 -1.544 2.615 13
