# .PCD v0.7 - Point Cloud Data file format
VERSION 0.7
FIELDS x y z intensity
SIZE 4 4 4 4
TYPE F F F F
COUNT 1 1 1 1
WIDTH 2290
HEIGHT 1
VIEWPOINT 0 0 0 1 0 0 0
POINTS 2290
DATA ascii
-1.854 -0.961 2.531 13
-1.846 -0.95 2.516 17
-1.835 -0.938 2.501 4
-1.812 -0.922 2.489 1
-1.703 -0.862 2.503 0
-1.665 -0.84 2.495 0
-1.662 -0.835 2.478 8
-1.655 -0.829 2.461 4
-1.623 -0.813 2.452 4
-1.642 -0.821 2.425 0
-1.61 -0.804 2.416 0
-1.581 -0.789 2.405 0
-1.558 -0.777 2.393 0
-1.531 -0.765 2.381 0
-1.511 -0.755 2.366 1
-1.49 -0.746 2.352 0
0.0 -0.0 3.0 0
-2.076 -1.324 2.743 2
-2.055 -1.287 2.726 5
-2.042 -1.258 2.71 8
-2.033 -1.231 2.693 9
-2.026 -1.207 2.677 8
-2.049 -1.201 2.656 6
-2.048 -1.183 2.638 8
-2.032 -1.157 2.624 9
-1.991 -1.119 2.615 9
-1.957 -1.085 2.605 8
-1.925 -1.055 2.595 9
-1.903 -1.031 2.583 12
-1.891 -1.013 2.57 23
-1.878 -0.997 2.556 7
-1.854 -0.976 2.545 11
-1.85 -0.966 2.529 12
-1.832 -0.95 2.516 12
-1.835 -0.945 2.498 4
-1.805 -0.925 2.487 0
0.0 -0.0 3.0 0
-1.635 -0.83 2.501 0
-1.652 -0.836 2.477 9
-1.638 -0.827 2.463 4
-1.607 -0.809 2.454 4
-1.616 -0.813 2.431 0
-1.604 -0.806 2.414 0
-1.578 -0.793 2.402 0
-1.538 -0.773 2.396 0
-1.525 -0.766 2.379 0
-1.512 -0.76 2.362 0
-1.481 -0.745 2.352 0
-2.096 -1.371 2.758 1
-2.069 -1.328 2.742 3
-2.051 -1.293 2.725 6
-2.039 -1.264 2.708 8
-2.026 -1.234 2.692 9
-2.029 -1.216 2.674 8
-2.055 -1.213 2.652 7
-2.044 -1.188 2.637 8
-2.021 -1.159 2.623 9
-1.981 -1.12 2.614 9
-1.943 -1.085 2.605 8
-1.918 -1.058 2.594 9
-1.896 -1.035 2.582 12
-1.887 -1.019 2.568 12
-1.881 -1.006 2.552 5
-1.854 -0.982 2.542 13
-1.847 -0.971 2.526 13
-1.836 -0.958 2.512 6
-1.824 -0.946 2.497 2
-1.805 -0.932 2.484 0
0.0 -0.0 3.0 0
-1.663 -0.85 2.489 0
-1.642 -0.837 2.477 9
-1.625 -0.826 2.464 4
-1.593 -0.808 2.455 3
-1.606 -0.813 2.431 0
-1.594 -0.806 2.414 0
-1.568 -0.793 2.402 0
-1.535 -0.776 2.394 0
-1.522 -0.769 2.377 0
-1.492 -0.755 2.367 0
-1.465 -0.742 2.355 0
-2.079 -1.368 2.759 2
-2.062 -1.332 2.741 4
-2.047 -1.299 2.724 6
-2.035 -1.269 2.707 8
-2.029 -1.244 2.69 9
-2.028 -1.225 2.672 7
-2.052 -1.219 2.65 7
-2.04 -1.195 2.635 8
-2.007 -1.158 2.624 9
-1.967 -1.12 2.614 8
-1.929 -1.085 2.605 9
-1.908 -1.06 2.593 10
-1.893 -1.04 2.58 23
-1.887 -1.026 2.564 9
-1.871 -1.008 2.551 5
-1.851 -0.988 2.539 11
-1.84 -0.975 2.525 15
-1.833 -0.964 2.509 3
-1.825 -0.953 2.493 0
-1.788 -0.929 2.485 0
-1.659 -0.858 2.505 0
-1.639 -0.844 2.493 0
-1.629 -0.836 2.478 10
-1.622 -0.83 2.461 4
-1.584 -0.809 2.455 4
-1.596 -0.813 2.43 1
-1.588 -0.808 2.413 0
-1.565 -0.797 2.4 0
-1.522 -0.774 2.395 0
-1.513 -0.769 2.377 0
-1.476 -0.751 2.369 0
-1.462 -0.744 2.353 0
-2.068 -1.369 2.759 3
-2.051 -1.333 2.741 6
-2.04 -1.303 2.723 8
-2.034 -1.277 2.705 8
-2.028 -1.252 2.688 9
-2.048 -1.244 2.667 8
-2.048 -1.225 2.649 8
-2.026 -1.194 2.635 8
-1.99 -1.156 2.624 8
-1.946 -1.116 2.616 8
-1.925 -1.091 2.603 9
-1.904 -1.066 2.591 12
-1.896 -1.05 2.576 18
-1.884 -1.031 2.562 5
-1.854 -1.005 2.552 14
-1.844 -0.992 2.538 10
-1.837 -0.98 2.522 10
-1.829 -0.969 2.506 3
-1.811 -0.952 2.494 0
-1.761 -0.922 2.489 0
-1.666 -0.867 2.499 0
-1.632 -0.846 2.492 0
-1.619 -0.837 2.477 13
-1.605 -0.827 2.463 4
-1.581 -0.813 2.452 4
-1.566 -0.804 2.437 2
-1.588 -0.814 2.409 0
-1.545 -0.792 2.403 0
-1.503 -0.769 2.399 0
-1.49 -0.763 2.383 0
-1.477 -0.756 2.366 0
-1.446 -0.741 2.356 0
-2.058 -1.37 2.758 4
-2.047 -1.339 2.74 6
-2.039 -1.31 2.721 8
-2.031 -1.283 2.704 8
-2.028 -1.26 2.686 8
-2.051 -1.255 2.664 8
-2.047 -1.233 2.646 8
-2.012 -1.194 2.635 8
-1.972 -1.154 2.625 9
-1.936 -1.118 2.615 9
-1.911 -1.091 2.603 10
-1.901 -1.071 2.589 14
-1.882 -1.049 2.576 9
-1.873 -1.033 2.561 5
-1.857 -1.015 2.548 13
-1.847 -1.001 2.533 13
-1.833 -0.985 2.52 3
-1.819 -0.97 2.506 1
-1.818 -0.963 2.488 0
0.0 -0.0 3.0 0
-1.649 -0.864 2.501 0
-1.609 -0.84 2.495 0
-1.609 -0.837 2.477 15
-1.592 -0.826 2.463 4
-1.568 -0.811 2.453 4
-1.563 -0.807 2.435 4
-1.568 -0.809 2.412 0
-1.529 -0.788 2.406 0
-1.493 -0.769 2.399 0
-1.487 -0.766 2.38 0
-1.471 -0.758 2.364 0
-1.434 -0.739 2.358 0
-2.051 -1.373 2.758 5
-2.04 -1.343 2.739 6
-2.036 -1.316 2.72 8
-2.03 -1.291 2.702 8
-2.031 -1.27 2.683 7
-2.044 -1.258 2.663 9
-2.037 -1.235 2.646 8
-2.002 -1.195 2.635 8
-1.959 -1.155 2.625 9
-1.922 -1.117 2.615 9
-1.901 -1.092 2.602 11
-1.894 -1.075 2.587 22
-1.879 -1.054 2.574 7
-1.86 -1.033 2.561 12
-1.854 -1.02 2.546 11
-1.834 -1.0 2.534 12
-1.83 -0.99 2.517 3
-1.829 -0.982 2.499 0
-1.79 -0.956 2.492 0
-1.747 -0.928 2.486 0
-1.636 -0.864 2.501 0
-1.609 -0.846 2.492 0
-1.603 -0.84 2.475 16
-1.586 -0.828 2.462 4
-1.558 -0.812 2.452 4
-1.54 -0.801 2.439 5
-1.555 -0.808 2.413 0
-1.536 -0.797 2.4 0
-1.5 -0.778 2.392 0
-1.474 -0.764 2.381 0
-1.458 -0.756 2.366 0
-1.431 -0.742 2.355 0
-2.047 -1.38 2.757 6
-2.043 -1.352 2.737 7
-2.032 -1.322 2.719 8
-2.026 -1.296 2.701 8
-2.047 -1.289 2.679 8
-2.047 -1.269 2.66 9
-2.023 -1.234 2.646 9
-1.984 -1.194 2.635 8
-1.945 -1.154 2.625 8
-1.918 -1.123 2.613 9
-1.901 -1.1 2.6 11
-1.893 -1.082 2.585 12
-1.875 -1.06 2.572 4
-1.856 -1.038 2.559 13
-1.85 -1.026 2.543 13
-1.837 -1.009 2.53 5
-1.826 -0.996 2.514 2
-1.815 -0.982 2.499 0
-1.77 -0.951 2.494 0
-1.724 -0.921 2.489 0
-1.616 -0.859 2.504 0
-1.572 -0.833 2.5 0
-1.59 -0.838 2.476 16
-1.569 -0.826 2.464 4
-1.552 -0.814 2.451 4
-1.534 -0.803 2.438 6
-1.536 -0.802 2.417 0
-1.517 -0.792 2.403 0
-1.494 -0.779 2.391 0
-1.468 -0.765 2.38 0
-1.448 -0.755 2.367 0
-1.415 -0.738 2.359 0
-2.04 -1.383 2.756 7
-2.032 -1.353 2.737 7
-2.034 -1.332 2.717 8
-2.029 -1.307 2.698 7
-2.046 -1.296 2.677 8
-2.04 -1.273 2.659 9
-2.012 -1.237 2.645 8
-1.974 -1.195 2.635 8
-1.938 -1.158 2.624 9
-1.908 -1.125 2.613 9
-1.89 -1.101 2.599 18
-1.886 -1.085 2.583 10
-1.871 -1.065 2.57 5
-1.853 -1.043 2.557 11
-1.84 -1.026 2.543 16
-1.823 -1.009 2.53 3
-1.823 -1.001 2.512 0
-1.771 -0.965 2.508 0
0.0 -0.0 3.0 0
-1.717 -0.924 2.488 0
-1.606 -0.86 2.504 0
-27.227 -14.516 -5.722 14
-1.583 -0.841 2.475 16
-1.566 -0.829 2.462 4
-1.542 -0.814 2.451 4
-1.521 -0.801 2.439 7
-1.536 -0.808 2.413 0
-1.507 -0.792 2.403 0
-1.488 -0.781 2.39 0
-1.459 -0.765 2.38 0
-1.436 -0.753 2.368 0
-1.399 -0.734 2.362 0
-2.036 -1.388 2.755 7
-2.028 -1.359 2.736 7
-2.027 -1.336 2.716 7
-2.028 -1.314 2.697 6
-2.046 -1.305 2.675 9
-2.036 -1.278 2.658 9
-1.995 -1.234 2.646 8
-1.953 -1.19 2.636 9
-1.914 -1.151 2.626 9
-1.904 -1.13 2.611 11
-1.9 -1.115 2.594 16
-1.886 -1.093 2.581 4
-1.861 -1.067 2.569 13
-1.846 -1.047 2.556 10
-1.829 -1.028 2.542 10
-1.826 -1.018 2.525 3
-1.833 -1.014 2.506 0
-1.788 -0.981 2.5 0
0.0 -0.0 3.0 0
0.0 -0.0 3.0 0
-1.596 -0.861 2.503 0
-27.1 -14.548 -5.741 14
-1.577 -0.843 2.473 15
-1.556 -0.829 2.461 4
-1.525 -0.811 2.453 4
-1.511 -0.801 2.439 8
-1.533 -0.811 2.41 0
-1.484 -0.785 2.409 0
-1.475 -0.779 2.391 0
-1.449 -0.765 2.381 0
-1.436 -0.757 2.364 0
-1.393 -0.735 2.361 0
-2.038 -1.398 2.753 8
-2.028 -1.367 2.734 7
-2.03 -1.346 2.714 6
-2.051 -1.337 2.691 8
-2.039 -1.308 2.674 9
-2.018 -1.275 2.658 9
-1.984 -1.236 2.646 9
-1.942 -1.192 2.636 8
-1.913 -1.158 2.624 9
-1.894 -1.132 2.61 11
-1.876 -1.108 2.597 11
-1.883 -1.098 2.578 4
-1.857 -1.073 2.567 12
-1.842 -1.053 2.553 14
-1.829 -1.036 2.539 3
-1.809 -1.015 2.527 1
-1.816 -1.011 2.507 0
-1.757 -0.972 2.505 0
0.0 -0.0 3.0 0
0.0 -0.0 3.0 0
-1.59 -0.863 2.502 0
-26.96 -14.572 -5.756 13
-1.57 -0.846 2.472 14
-1.55 -0.832 2.46 4
-1.516 -0.811 2.453 4
-1.501 -0.802 2.439 9
-1.507 -0.803 2.417 0
-1.488 -0.792 2.403 0
-1.459 -0.776 2.394 0
-1.43 -0.76 2.385 0
-1.417 -0.752 2.369 0
-1.378 -0.731 2.365 0
-2.031 -1.401 2.753 8
-2.027 -1.375 2.733 7
-2.036 -1.358 2.711 6
-2.05 -1.346 2.689 8
-2.041 -1.318 2.671 9
-1.998 -1.27 2.66 9
-1.967 -1.233 2.646 9
-1.929 -1.191 2.636 9
-1.903 -1.16 2.623 10
-1.897 -1.141 2.607 19
-1.883 -1.12 2.592 7
-1.859 -1.092 2.581 11
-1.857 -1.08 2.564 8
-1.835 -1.055 2.552 13
-1.836 -1.047 2.534 3
-1.813 -1.024 2.522 0
-1.795 -1.006 2.509 0
-1.751 -0.974 2.504 0
0.0 -0.0 3.0 0
0.0 -0.0 3.0 0
-1.576 -0.862 2.502 0
-26.819 -14.595 -5.77 12
-1.554 -0.842 2.474 13
-1.54 -0.832 2.46 4
-1.509 -0.813 2.452 4
-1.498 -0.805 2.436 11
-1.507 -0.808 2.413 0
-1.482 -0.794 2.402 0
-1.453 -0.777 2.393 0
-1.424 -0.761 2.384 0
-1.414 -0.755 2.366 0
-1.385 -0.739 2.358 0
-2.03 -1.41 2.751 8
-2.03 -1.385 2.731 7
-2.038 -1.368 2.709 5
-2.04 -1.347 2.689 8
-2.031 -1.32 2.671 10
-1.994 -1.277 2.658 9
-1.953 -1.231 2.647 9
-1.915 -1.191 2.636 9
-1.899 -1.165 2.621 10
-1.883 -1.14 2.607 12
-1.876 -1.123 2.591 4
-1.862 -1.102 2.577 14
-1.843 -1.079 2.564 11
-1.831 -1.061 2.55 5
-1.812 -1.04 2.537 2
-1.789 -1.018 2.525 0
-1.761 -0.995 2.515 0
0.0 -0.0 3.0 0
0.0 -0.0 3.0 0
-1.727 -0.956 2.47 0
-1.55 -0.853 2.507 0
-26.699 -14.629 -5.79 12
-1.541 -0.841 2.475 11
-1.53 -0.832 2.46 4
-1.5 -0.813 2.452 4
-1.495 -0.809 2.434 13
-1.504 -0.812 2.41 0
-1.472 -0.793 2.402 0
-1.437 -0.773 2.396 0
-1.421 -0.763 2.382 0
-1.389 -0.746 2.374 0
-1.372 -0.737 2.359 1
-2.03 -1.417 2.75 8
-2.026 -1.391 2.73 6
-2.057 -1.389 2.705 6
-2.042 -1.358 2.687 9
-2.017 -1.319 2.671 9
-1.97 -1.269 2.66 9
-1.936 -1.229 2.648 9
-1.911 -1.196 2.634 9
-1.892 -1.169 2.62 12
-1.886 -1.151 2.604 9
-1.869 -1.126 2.59 5
-1.858 -1.106 2.575 10
-1.843 -1.086 2.561 15
-1.835 -1.07 2.546 3
-1.798 -1.039 2.537 0
0.0 -0.0 3.0 0
-1.754 -0.997 2.514 0
0.0 -0.0 3.0 0
0.0 -0.0 3.0 0
-1.697 -0.946 2.476 0
-1.563 -0.866 2.5 0
-26.576 -14.66 -5.809 11
-1.538 -0.845 2.472 10
-1.517 -0.831 2.46 4
-1.494 -0.815 2.45 4
-1.486 -0.809 2.433 12
-1.491 -0.81 2.411 0
-1.459 -0.791 2.404 0
-1.434 -0.776 2.394 0
-1.402 -0.758 2.386 0
-1.396 -0.754 2.367 1
-1.344 -0.725 2.37 3
-2.026 -1.423 2.749 7
-2.028 -1.401 2.728 6
-2.05 -1.393 2.704 8
-2.038 -1.363 2.685 9
-1.996 -1.314 2.672 10
-1.956 -1.269 2.66 9
-1.922 -1.229 2.648 9
-1.907 -1.202 2.633 11
-1.895 -1.178 2.617 16
-1.879 -1.153 2.603 5
-1.855 -1.125 2.59 15
-1.851 -1.11 2.574 9
-1.836 -1.09 2.56 9
-1.824 -1.072 2.545 3
-1.808 -1.052 2.532 0
-1.765 -1.018 2.525 0
0.0 -0.0 3.0 0
0.0 -0.0 3.0 0
-1.689 -0.953 2.493 0
-1.663 -0.933 2.483 0
-1.547 -0.863 2.502 0
-26.349 -14.634 -5.793 10
-1.525 -0.843 2.473 8
-1.514 -0.835 2.458 4
-1.484 -0.815 2.45 4
-1.476 -0.809 2.434 12
-1.478 -0.808 2.413 0
-1.45 -0.791 2.404 0
-1.418 -0.772 2.397 0
-1.406 -0.765 2.381 0
-1.373 -0.747 2.373 1
-1.331 -0.723 2.372 7
-2.025 -1.431 2.748 7
-2.037 -1.416 2.725 6
-2.046 -1.398 2.703 9
-2.027 -1.364 2.685 9
-1.989 -1.318 2.671 10
-1.942 -1.268 2.66 9
-1.918 -1.234 2.646 9
-1.897 -1.204 2.632 11
-1.888 -1.182 2.616 10
-1.882 -1.163 2.6 4
-1.854 -1.133 2.588 12
-1.844 -1.114 2.573 12
-1.829 -1.093 2.559 3
-1.817 -1.075 2.544 1
-1.788 -1.047 2.534 0
-1.741 -1.011 2.528 0
0.0 -0.0 3.0 0
0.0 -0.0 3.0 0
0.0 -0.0 3.0 0
-1.677 -0.947 2.475 0
-1.54 -0.865 2.501 0
-1.491 -0.834 2.499 0
-1.515 -0.844 2.473 7
-1.501 -0.833 2.459 4
-1.471 -0.813 2.451 4
-1.467 -0.808 2.434 11
-1.472 -0.809 2.412 0
-1.444 -0.792 2.403 0
-1.409 -0.772 2.397 0
-1.393 -0.762 2.383 0
-1.351 -0.739 2.38 2
-1.319 -0.72 2.374 3
-2.021 -1.436 2.747 7
-2.053 -1.435 2.721 7
-2.048 -1.409 2.7 9
-2.01 -1.361 2.686 9
-1.968 -1.312 2.673 10
-1.928 -1.266 2.661 10
-1.911 -1.237 2.645 9
-1.896 -1.211 2.63 16
-1.887 -1.19 2.613 7
-1.854 -1.154 2.603 10
-1.861 -1.145 2.583 8
-1.843 -1.121 2.57 12
-1.832 -1.102 2.555 3
-1.8 -1.072 2.545 0
0.0 -0.0 3.0 0
-1.744 -1.021 2.524 0
0.0 -0.0 3.0 0
0.0 -0.0 3.0 0
0.0 -0.0 3.0 0
-1.667 -0.948 2.474 0
-1.537 -0.869 2.498 0
-26.206 -14.752 -5.864 10
-1.512 -0.847 2.471 4
-1.495 -0.834 2.458 4
-1.465 -0.815 2.45 4
-1.457 -0.809 2.434 9
-1.459 -0.808 2.413 0
-1.444 -0.798 2.399 0
-1.399 -0.772 2.397 0
-1.39 -0.766 2.38 0
-1.342 -0.738 2.381 4
-1.326 -0.729 2.367 5
-2.023 -1.447 2.745 7
-2.048 -1.441 2.72 7
-2.038 -1.41 2.7 9
-2.0 -1.362 2.685 9
-1.954 -1.311 2.673 10
-1.921 -1.27 2.66 10
-1.9 -1.238 2.645 11
-1.892 -1.217 2.628 12
-1.883 -1.195 2.612 3
-1.851 -1.159 2.601 14
-1.847 -1.144 2.584 10
-1.836 -1.124 2.569 5
-1.822 -1.104 2.554 2
0.0 -0.0 3.0 0
0.0 -0.0 3.0 0
0.0 -0.0 3.0 0
0.0 -0.0 3.0 0
0.0 -0.0 3.0 0
0.0 -0.0 3.0 0
0.0 -0.0 3.0 0
-1.527 -0.87 2.498 0
-1.471 -0.834 2.499 0
-1.499 -0.846 2.471 3
-1.489 -0.837 2.457 4
-1.452 -0.813 2.451 4
-1.444 -0.807 2.435 8
-1.443 -0.804 2.416 0
-1.428 -0.794 2.402 0
-1.39 -0.771 2.397 0
-1.371 -0.759 2.385 1
-1.326 -0.733 2.385 4
-1.314 -0.726 2.369 9
-2.032 -1.462 2.742 6
-2.044 -1.447 2.719 8
-2.024 -1.409 2.7 9
-1.982 -1.359 2.686 9
-1.94 -1.31 2.673 10
-1.907 -1.269 2.66 10
-1.896 -1.244 2.643 11
-1.882 -1.217 2.628 9
-1.876 -1.199 2.611 4
-1.85 -1.167 2.598 10
-1.84 -1.148 2.582 15
-1.836 -1.131 2.566 3
-1.815 -1.107 2.553 0
-1.773 -1.07 2.546 0
-1.737 -1.039 2.537 0
-1.694 -1.004 2.532 0
0.0 -0.0 3.0 0
0.0 -0.0 3.0 0
0.0 -0.0 3.0 0
-1.626 -0.937 2.48 0
-1.514 -0.868 2.499 0
-1.468 -0.838 2.497 0
-1.486 -0.844 2.473 2
-1.479 -0.836 2.457 4
-1.449 -0.817 2.449 4
-1.435 -0.806 2.435 7
-1.437 -0.806 2.415 0
-1.415 -0.792 2.403 0
-1.377 -0.769 2.399 0
-1.339 -0.747 2.395 2
-1.324 -0.736 2.382 4
-1.301 -0.723 2.371 6
-2.047 -1.481 2.739 7
-2.046 -1.457 2.717 8
-2.013 -1.41 2.7 9
-1.965 -1.356 2.687 9
-1.927 -1.309 2.674 10
-1.903 -1.275 2.658 11
-1.896 -1.252 2.641 17
-1.878 -1.223 2.626 7
-1.859 -1.195 2.612 13
-1.853 -1.176 2.595 8
-1.833 -1.15 2.581 10
-1.832 -1.137 2.564 3
-1.817 -1.116 2.549 0
0.0 -0.0 3.0 0
0.0 -0.0 3.0 0
0.0 -0.0 3.0 0
0.0 -0.0 3.0 0
0.0 -0.0 3.0 0
0.0 -0.0 3.0 0
-1.606 -0.933 2.483 0
-1.501 -0.866 2.5 0
-1.455 -0.836 2.498 0
-1.479 -0.845 2.472 1
-1.469 -0.837 2.456 4
-1.436 -0.814 2.451 4
-1.422 -0.804 2.437 6
-1.427 -0.805 2.415 0
-1.396 -0.786 2.408 0
-1.358 -0.763 2.404 0
-1.327 -0.744 2.397 6
-1.318 -0.737 2.381 6
-1.298 -0.726 2.369 6
-2.046 -1.489 2.737 8
-2.039 -1.461 2.716 9
-1.999 -1.409 2.7 9
-1.951 -1.355 2.687 9
-1.916 -1.31 2.673 10
-1.899 -1.28 2.657 13
-1.898 -1.262 2.638 11
-1.884 -1.235 2.622 3
-1.855 -1.201 2.61 12
-1.842 -1.178 2.594 12
-1.829 -1.156 2.579 3
-1.812 -1.132 2.565 1
-1.79 -1.107 2.553 0
0.0 -0.0 3.0 0
0.0 -0.0 3.0 0
-1.7 -1.022 2.523 0
0.0 -0.0 3.0 0
0.0 -0.0 3.0 0
0.0 -0.0 3.0 0
-1.62 -0.947 2.475 0
-1.488 -0.865 2.501 0
-1.456 -0.842 2.494 0
-1.456 -0.838 2.476 1
-1.46 -0.837 2.457 4
-1.426 -0.814 2.451 5
-1.412 -0.804 2.437 5
-1.424 -0.809 2.412 0
-1.393 -0.789 2.405 0
-1.342 -0.759 2.407 2
-1.327 -0.749 2.394 3
-1.312 -0.738 2.38 8
-1.299 -0.731 2.365 5
-2.038 -1.493 2.737 9
-2.022 -1.457 2.717 9
-1.979 -1.403 2.702 9
-1.938 -1.354 2.687 9
-1.906 -1.312 2.673 10
-1.895 -1.286 2.655 13
-1.891 -1.265 2.637 9
-1.867 -1.232 2.623 11
-1.858 -1.211 2.607 8
-1.835 -1.181 2.593 14
-1.825 -1.161 2.577 3
-1.808 -1.138 2.563 0
-1.78 -1.108 2.552 0
0.0 -0.0 3.0 0
0.0 -0.0 3.0 0
0.0 -0.0 3.0 0
0.0 -0.0 3.0 0
0.0 -0.0 3.0 0
0.0 -0.0 3.0 0
-1.583 -0.932 2.484 0
-1.485 -0.869 2.498 0
-1.456 -0.847 2.491 0
-1.447 -0.838 2.476 0
-1.453 -0.838 2.456 4
-1.414 -0.812 2.452 5
-1.4 -0.802 2.438 4
-1.408 -0.804 2.416 0
-1.38 -0.787 2.407 0
-1.33 -0.756 2.409 4
-1.315 -0.746 2.396 4
-1.302 -0.738 2.381 6
-1.29 -0.73 2.366 5
-2.044 -1.505 2.735 8
-2.001 -1.451 2.718 8
-1.965 -1.402 2.702 9
-1.92 -1.35 2.688 9
-1.901 -1.317 2.672 11
-1.891 -1.291 2.654 17
-1.887 -1.271 2.636 7
-1.853 -1.231 2.624 14
-1.851 -1.213 2.606 10
-1.838 -1.19 2.59 7
-1.818 -1.164 2.576 2
-1.771 -1.121 2.57 0
0.0 -0.0 3.0 0
0.0 -0.0 3.0 0
0.0 -0.0 3.0 0
-1.676 -1.021 2.524 0
0.0 -0.0 3.0 0
-1.609 -0.966 2.508 0
0.0 -0.0 3.0 0
-1.58 -0.936 2.481 0
-1.489 -0.877 2.494 0
-1.446 -0.848 2.491 0
-1.417 -0.827 2.483 0
-1.444 -0.838 2.456 5
-1.411 -0.816 2.449 5
-1.39 -0.802 2.439 5
-1.389 -0.799 2.42 1
-1.368 -0.785 2.409 1
-1.327 -0.759 2.407 3
-1.312 -0.749 2.393 6
-1.3 -0.74 2.379 5
-1.278 -0.727 2.368 4
-2.036 -1.509 2.734 9
-1.994 -1.454 2.717 8
-1.948 -1.398 2.703 9
-1.923 -1.36 2.686 9
-1.894 -1.319 2.671 11
-1.887 -1.297 2.653 11
-1.883 -1.275 2.634 5
-1.856 -1.24 2.621 12
-1.84 -1.215 2.605 16
-1.828 -1.192 2.59 2
-1.837 -1.185 2.569 0
-1.79 -1.141 2.562 0
-1.766 -1.115 2.55 0
0.0 -0.0 3.0 0
0.0 -0.0 3.0 0
0.0 -0.0 3.0 0
0.0 -0.0 3.0 0
0.0 -0.0 3.0 0
-1.588 -0.952 2.494 0
-1.567 -0.934 2.482 0
-1.462 -0.867 2.5 1
-1.443 -0.851 2.489 0
-1.424 -0.836 2.478 0
-1.434 -0.838 2.456 5
-1.401 -0.816 2.45 5
-1.384 -0.803 2.438 5
-1.389 -0.804 2.416 1
-1.342 -0.775 2.416 3
-1.315 -0.757 2.409 3
-1.306 -0.75 2.392 6
-1.3 -0.746 2.374 5
-1.278 -0.731 2.364 3
-2.013 -1.5 2.736 8
-1.97 -1.446 2.719 8
-1.931 -1.394 2.704 9
-1.906 -1.357 2.687 10
-1.89 -1.325 2.67 14
-1.893 -1.308 2.649 10
-1.866 -1.272 2.635 14
-1.848 -1.244 2.62 8
-1.836 -1.221 2.603 11
-1.824 -1.197 2.588 2
-1.827 -1.186 2.568 0
0.0 -0.0 3.0 0
-1.732 -1.101 2.555 0
0.0 -0.0 3.0 0
-1.695 -1.057 2.53 0
0.0 -0.0 3.0 0
-1.616 -0.991 2.517 0
0.0 -0.0 3.0 0
-1.604 -0.969 2.485 0
-1.586 -0.952 2.472 0
-1.476 -0.881 2.491 1
-1.437 -0.853 2.488 0
-1.398 -0.826 2.484 0
-1.421 -0.836 2.457 6
-1.395 -0.817 2.449 5
-1.378 -0.804 2.437 5
-1.37 -0.798 2.42 3
-1.333 -0.774 2.416 5
-1.309 -0.758 2.408 5
-1.3 -0.752 2.391 5
-1.285 -0.741 2.378 4
-1.266 -0.729 2.367 2
-1.996 -1.496 2.736 9
-1.953 -1.442 2.72 8
-1.927 -1.4 2.702 9
-1.902 -1.362 2.686 11
-1.886 -1.33 2.668 15
-1.886 -1.312 2.648 4
-1.865 -1.281 2.633 16
-1.848 -1.251 2.617 15
-1.829 -1.223 2.603 3
-1.816 -1.2 2.587 1
-1.823 -1.191 2.566 0
0.0 -0.0 3.0 0
0.0 -0.0 3.0 0
0.0 -0.0 3.0 0
0.0 -0.0 3.0 0
-1.646 -1.023 2.523 0
0.0 -0.0 3.0 0
0.0 -0.0 3.0 0
0.0 -0.0 3.0 0
-1.547 -0.935 2.482 0
-1.446 -0.868 2.499 1
-1.427 -0.853 2.488 0
-1.412 -0.839 2.476 0
-1.408 -0.834 2.458 7
-1.382 -0.815 2.45 6
-1.362 -0.801 2.439 5
-1.351 -0.791 2.425 4
-1.327 -0.776 2.416 3
-1.299 -0.757 2.409 7
-1.3 -0.756 2.388 5
-1.272 -0.738 2.38 3
-1.238 -0.717 2.377 3
-1.988 -1.5 2.736 9
-1.943 -1.442 2.72 9
-1.913 -1.398 2.703 9
-1.898 -1.367 2.684 11
-1.895 -1.345 2.665 10
-1.882 -1.318 2.647 4
-1.855 -1.281 2.633 17
-1.837 -1.252 2.617 14
-1.835 -1.236 2.599 2
-1.799 -1.197 2.588 0
-1.884 -1.24 2.549 0
0.0 -0.0 3.0 0
0.0 -0.0 3.0 0
-1.7 -1.084 2.54 0
-1.648 -1.041 2.537 0
0.0 -0.0 3.0 0
0.0 -0.0 3.0 0
0.0 -0.0 3.0 0
-1.535 -0.94 2.5 0
-1.524 -0.927 2.486 0
-1.433 -0.867 2.5 1
-1.421 -0.855 2.486 0
-1.399 -0.837 2.477 0
-1.395 -0.832 2.46 7
-1.379 -0.818 2.448 6
-1.359 -0.804 2.437 5
-1.335 -0.787 2.428 5
-1.321 -0.776 2.415 4
-1.293 -0.758 2.408 6
-1.288 -0.753 2.39 5
-1.273 -0.743 2.377 2
-1.216 -0.708 2.385 6
-1.974 -1.497 2.736 8
-1.932 -1.443 2.719 8
-1.912 -1.406 2.701 9
-1.893 -1.372 2.683 16
-1.897 -1.356 2.662 8
-1.861 -1.312 2.648 7
-1.854 -1.289 2.63 31
-1.83 -1.255 2.616 9
-1.824 -1.236 2.598 2
-1.831 -1.226 2.578 0
0.0 -0.0 3.0 0
-1.749 -1.145 2.561 0
0.0 -0.0 3.0 0
0.0 -0.0 3.0 0
0.0 -0.0 3.0 0
0.0 -0.0 3.0 0
-1.589 -0.994 2.515 0
-1.585 -0.984 2.499 0
0.0 -0.0 3.0 0
-1.524 -0.933 2.483 0
-1.437 -0.874 2.495 1
-1.402 -0.849 2.49 0
-1.37 -0.825 2.484 0
-1.386 -0.832 2.46 8
-1.37 -0.818 2.448 6
-1.353 -0.805 2.436 5
-1.329 -0.788 2.427 3
-1.311 -0.776 2.416 7
-1.287 -0.759 2.407 4
-1.282 -0.754 2.389 3
-1.254 -0.736 2.382 2
-1.22 -0.715 2.379 1
-1.951 -1.489 2.737 8
-1.918 -1.441 2.72 9
-1.901 -1.407 2.701 10
-1.889 -1.378 2.682 12
-1.916 -1.377 2.657 4
-1.854 -1.314 2.648 7
-1.85 -1.294 2.629 58
-1.826 -1.26 2.615 2
-1.817 -1.239 2.597 0
0.0 -0.0 3.0 0
0.0 -0.0 3.0 0
0.0 -0.0 3.0 0
0.0 -0.0 3.0 0
0.0 -0.0 3.0 0
0.0 -0.0 3.0 0
-1.583 -1.004 2.532 0
0.0 -0.0 3.0 0
0.0 -0.0 3.0 0
-1.564 -0.971 2.484 0
-1.53 -0.944 2.477 0
-1.417 -0.868 2.499 1
-24.733 -15.075 -6.058 6
-1.373 -0.833 2.48 0
-1.38 -0.833 2.459 9
-1.36 -0.818 2.448 6
-1.343 -0.805 2.436 5
-1.326 -0.791 2.425 6
-1.302 -0.775 2.416 6
-1.288 -0.764 2.403 6
-1.263 -0.748 2.395 2
-1.22 -0.721 2.395 10
-1.22 -0.719 2.375 1
-1.94 -1.49 2.737 8
-1.911 -1.445 2.719 9
-1.897 -1.413 2.7 11
-1.885 -1.383 2.681 8
-1.905 -1.378 2.656 3
-1.84 -1.313 2.648 4
-1.846 -1.3 2.627 30
-1.828 -1.271 2.611 2
-1.823 -1.251 2.593 0
-1.856 -1.259 2.566 0
0.0 -0.0 3.0 0
-1.764 -1.17 2.551 0
0.0 -0.0 3.0 0
0.0 -0.0 3.0 0
0.0 -0.0 3.0 0
-1.586 -1.013 2.528 0
0.0 -0.0 3.0 0
-1.559 -0.98 2.501 0
0.0 -0.0 3.0 0
-1.501 -0.931 2.484 0
-1.424 -0.879 2.493 1
-24.509 -15.037 -6.035 4
-1.377 -0.84 2.475 0
-1.367 -0.831 2.461 10
-1.351 -0.817 2.449 6
-1.334 -0.804 2.437 6
-1.32 -0.793 2.424 6
-1.306 -0.782 2.411 5
-1.275 -0.762 2.405 4
-1.261 -0.75 2.392 2
-1.227 -0.729 2.389 1
-1.202 -0.712 2.381 9
-1.92 -1.483 2.738 9
-1.904 -1.448 2.719 10
-1.896 -1.42 2.698 13
-1.878 -1.387 2.68 5
-1.939 -1.411 2.648 2
-1.839 -1.321 2.646 3
-1.832 -1.298 2.628 11
-1.821 -1.273 2.611 1
-1.786 -1.235 2.599 0
-1.845 -1.26 2.566 0
-1.871 -1.264 2.54 0
0.0 -0.0 3.0 0
0.0 -0.0 3.0 0
0.0 -0.0 3.0 0
0.0 -0.0 3.0 0
-1.582 -1.018 2.525 0
0.0 -0.0 3.0 0
-1.536 -0.972 2.505 0
-1.531 -0.963 2.488 0
-1.504 -0.939 2.479 0
-1.421 -0.882 2.491 0
-1.347 -0.832 2.5 0
-1.361 -0.836 2.478 0
-1.364 -0.834 2.459 12
-1.348 -0.821 2.446 6
-1.328 -0.805 2.436 6
-1.311 -0.792 2.425 8
-1.296 -0.781 2.411 5
-1.269 -0.762 2.405 3
-1.242 -0.744 2.398 3
-1.224 -0.731 2.386 1
-1.212 -0.722 2.372 3
-1.916 -1.489 2.738 9
-1.902 -1.456 2.717 10
-1.895 -1.428 2.696 10
-1.87 -1.39 2.679 3
-1.948 -1.426 2.644 2
-1.839 -1.328 2.644 4
-1.831 -1.306 2.625 3
-1.804 -1.27 2.612 0
0.0 -0.0 3.0 0
-1.883 -1.294 2.554 0
0.0 -0.0 3.0 0
0.0 -0.0 3.0 0
0.0 -0.0 3.0 0
0.0 -0.0 3.0 0
0.0 -0.0 3.0 0
-1.575 -1.02 2.525 0
0.0 -0.0 3.0 0
-1.545 -0.985 2.498 0
-1.509 -0.955 2.492 0
-1.494 -0.939 2.479 0
-1.417 -0.885 2.489 0
-24.177 -15.027 -6.029 6
-1.358 -0.839 2.476 0
-1.354 -0.834 2.459 15
-1.338 -0.82 2.447 6
-1.318 -0.805 2.437 6
-1.305 -0.793 2.424 8
-1.297 -0.786 2.408 5
-1.26 -0.762 2.405 2
-1.22 -0.735 2.405 3
-1.212 -0.728 2.389 3
-1.215 -0.728 2.367 13
-1.912 -1.494 2.737 9
-1.898 -1.461 2.716 11
-1.884 -1.428 2.696 8
-1.86 -1.39 2.679 8
-1.927 -1.42 2.646 1
-1.828 -1.329 2.644 4
-1.814 -1.302 2.627 2
-1.823 -1.291 2.605 0
0.0 -0.0 3.0 0
-2.05 -1.418 2.512 0
-1.882 -1.287 2.531 0
0.0 -0.0 3.0 0
0.0 -0.0 3.0 0
0.0 -0.0 3.0 0
0.0 -0.0 3.0 0
-1.569 -1.022 2.523 0
-1.552 -1.003 2.511 0
0.0 -0.0 3.0 0
0.0 -0.0 3.0 0
-1.491 -0.943 2.477 0
-1.414 -0.89 2.486 0
-1.36 -0.851 2.489 0
-1.342 -0.835 2.478 0
-1.351 -0.837 2.457 18
-1.329 -0.82 2.447 6
-1.312 -0.806 2.436 6
-1.305 -0.798 2.42 6
-1.278 -0.779 2.413 4
-1.241 -0.754 2.411 2
-1.221 -0.74 2.401 1
-1.206 -0.729 2.388 4
-1.206 -0.728 2.367 29
-1.895 -1.489 2.737 9
-1.891 -1.464 2.715 15
-1.877 -1.431 2.696 4
-1.856 -1.396 2.678 13
-1.923 -1.426 2.644 1
-1.808 -1.323 2.645 2
-1.826 -1.318 2.622 1
-1.799 -1.282 2.608 0
-1.819 -1.282 2.584 0
-2.081 -1.449 2.501 0
-1.81 -1.247 2.546 0
0.0 -0.0 3.0 0
0.0 -0.0 3.0 0
0.0 -0.0 3.0 0
0.0 -0.0 3.0 0
0.0 -0.0 3.0 0
0.0 -0.0 3.0 0
-1.496 -0.967 2.507 0
0.0 -0.0 3.0 0
-1.455 -0.927 2.486 0
-1.405 -0.89 2.486 0
-1.335 -0.84 2.495 0
-1.335 -0.836 2.478 0
-1.342 -0.837 2.457 20
-1.316 -0.817 2.449 6
-1.3 -0.803 2.437 6
-1.299 -0.799 2.419 6
-1.275 -0.782 2.41 2
-1.217 -0.744 2.419 6
-1.212 -0.738 2.402 1
-1.216 -0.739 2.38 6
-1.207 -0.732 2.364 55
-1.897 -1.499 2.736 10
-1.886 -1.47 2.714 9
-1.869 -1.435 2.695 3
-1.851 -1.401 2.677 12
-1.89 -1.41 2.648 0
-1.797 -1.324 2.645 1
0.0 -0.0 3.0 0
-1.798 -1.29 2.606 0
-1.796 -1.274 2.586 0
-2.115 -1.482 2.49 0
0.0 -0.0 3.0 0
0.0 -0.0 3.0 0
0.0 -0.0 3.0 0
-1.622 -1.09 2.537 0
0.0 -0.0 3.0 0
-1.536 -1.014 2.527 0
-1.532 -1.003 2.511 0
-1.522 -0.99 2.496 0
0.0 -0.0 3.0 0
-1.442 -0.925 2.487 0
-1.414 -0.901 2.48 0
-23.82 -15.097 -6.071 7
-1.326 -0.836 2.478 0
-1.336 -0.838 2.456 20
-1.313 -0.82 2.447 6
-1.3 -0.808 2.434 5
-1.286 -0.797 2.421 4
-1.259 -0.778 2.414 2
-1.207 -0.743 2.419 1
-1.199 -0.735 2.404 5
-1.213 -0.742 2.378 17
-1.204 -0.734 2.362 88
-1.895 -1.507 2.734 10
-1.879 -1.472 2.714 7
-1.862 -1.437 2.694 11
-1.85 -1.409 2.675 8
-1.768 -1.328 2.669 0
-1.784 -1.321 2.646 1
0.0 -0.0 3.0 0
-1.813 -1.309 2.6 0
0.0 -0.0 3.0 0
-2.136 -1.506 2.482 1
0.0 -0.0 3.0 0
-1.682 -1.161 2.554 0
0.0 -0.0 3.0 0
0.0 -0.0 3.0 0
-1.574 -1.056 2.53 0
-1.535 -1.021 2.524 0
-1.529 -1.008 2.508 0
-1.499 -0.981 2.5 0
0.0 -0.0 3.0 0
-1.426 -0.92 2.49 0
-1.395 -0.895 2.483 0
-1.312 -0.838 2.497 0
-1.31 -0.831 2.481 0
-1.326 -0.837 2.456 19
-1.307 -0.821 2.446 6
-1.29 -0.808 2.434 4
-1.277 -0.796 2.421 3
-1.228 -0.763 2.425 6
-1.217 -0.754 2.411 1
-1.216 -0.75 2.393 5
-1.213 -0.746 2.374 29
-1.198 -0.735 2.361 82
-1.888 -1.51 2.734 13
-1.875 -1.477 2.713 3
-1.855 -1.441 2.694 13
-1.843 -1.411 2.674 11
-1.758 -1.328 2.669 0
-1.754 -1.308 2.65 2
0.0 -0.0 3.0 0
-1.822 -1.324 2.595 0
0.0 -0.0 3.0 0
-2.143 -1.521 2.476 1
0.0 -0.0 3.0 0
0.0 -0.0 3.0 0
0.0 -0.0 3.0 0
-1.601 -1.091 2.537 0
-1.551 -1.046 2.534 0
0.0 -0.0 3.0 0
-1.499 -0.995 2.515 0
-1.463 -0.964 2.509 0
-1.446 -0.946 2.497 0
-1.426 -0.926 2.486 0
-1.392 -0.898 2.481 0
-1.319 -0.847 2.491 0
-1.307 -0.835 2.478 0
-1.317 -0.837 2.457 18
-1.304 -0.825 2.444 5
-1.284 -0.809 2.433 5
-1.271 -0.797 2.421 2
-1.232 -0.769 2.42 1
-1.199 -0.747 2.417 4
-1.206 -0.749 2.394 13
-1.207 -0.747 2.373 42
-1.202 -0.741 2.356 37
-1.89 -1.521 2.732 7
-1.861 -1.475 2.713 6
-1.856 -1.45 2.692 10
-1.835 -1.415 2.673 13
-1.741 -1.323 2.67 0
-1.734 -1.301 2.651 3
0.0 -0.0 3.0 0
-1.795 -1.313 2.599 0
-1.809 -1.307 2.575 0
-2.135 -1.526 2.475 1
-1.717 -1.214 2.558 0
0.0 -0.0 3.0 0
0.0 -0.0 3.0 0
0.0 -0.0 3.0 0
-1.566 -1.064 2.526 0
-1.483 -0.999 2.534 0
0.0 -0.0 3.0 0
-1.476 -0.979 2.501 0
0.0 -0.0 3.0 0
-1.4 -0.916 2.492 0
-1.392 -0.904 2.478 0
-1.31 -0.846 2.492 0
-1.298 -0.834 2.479 0
-1.307 -0.836 2.457 16
-1.295 -0.823 2.445 5
-1.275 -0.808 2.434 3
-1.243 -0.785 2.43 4
-1.213 -0.763 2.425 1
-1.209 -0.757 2.408 3
-1.21 -0.756 2.388 21
-1.204 -0.75 2.371 46
-1.19 -0.738 2.359 18
-1.876 -1.517 2.732 5
-1.857 -1.481 2.712 14
-1.855 -1.458 2.69 8
-1.825 -1.415 2.673 6
-1.718 -1.314 2.672 0
-1.727 -1.304 2.651 5
0.0 -0.0 3.0 0
-1.769 -1.302 2.602 0
-1.735 -1.262 2.59 0
-2.14 -1.538 2.47 1
0.0 -0.0 3.0 0
0.0 -0.0 3.0 0
0.0 -0.0 3.0 0
0.0 -0.0 3.0 0
-1.518 -1.038 2.538 0
-1.502 -1.019 2.525 0
0.0 -0.0 3.0 0
-1.425 -0.951 2.516 0
-1.44 -0.954 2.493 0
-1.403 -0.924 2.488 0
-1.369 -0.895 2.483 0
-1.303 -0.848 2.491 0
-1.291 -0.835 2.478 0
-1.298 -0.836 2.457 12
-1.285 -0.823 2.445 4
-1.269 -0.809 2.434 2
-1.227 -0.779 2.434 2
-1.21 -0.765 2.423 2
-1.206 -0.76 2.406 8
-1.204 -0.756 2.388 25
-1.192 -0.746 2.374 34
-1.196 -0.747 2.351 14
-1.881 -1.531 2.73 3
-1.849 -1.483 2.712 15
-1.841 -1.456 2.69 12
-1.817 -1.418 2.673 1
-1.699 -1.307 2.674 0
-1.707 -1.296 2.653 8
0.0 -0.0 3.0 0
-1.828 -1.353 2.586 0
0.0 -0.0 3.0 0
-2.132 -1.543 2.469 1
0.0 -0.0 3.0 0
0.0 -0.0 3.0 0
0.0 -0.0 3.0 0
-1.597 -1.109 2.529 0
-1.53 -1.054 2.531 0
-1.486 -1.014 2.527 0
-1.473 -0.997 2.514 0
-1.444 -0.97 2.506 0
-1.417 -0.945 2.498 0
-1.4 -0.927 2.486 0
-1.357 -0.893 2.485 0
-1.307 -0.855 2.486 0
-1.288 -0.839 2.476 0
-1.298 -0.841 2.454 10
-1.279 -0.824 2.444 3
-1.25 -0.803 2.438 3
-1.221 -0.781 2.433 1
-1.207 -0.768 2.421 4
-1.2 -0.761 2.406 17
-1.195 -0.755 2.389 34
-1.193 -0.751 2.37 17
-1.184 -0.743 2.354 12
-1.858 -1.521 2.732 7
-1.854 -1.496 2.709 10
-1.837 -1.462 2.689 11
-1.81 -1.42 2.672 1
-1.676 -1.297 2.677 0
-1.706 -1.304 2.651 11
0.0 -0.0 3.0 0
-1.798 -1.34 2.59 0
-1.746 -1.286 2.582 0
-2.126 -1.548 2.467 1
0.0 -0.0 3.0 0
0.0 -0.0 3.0 0
0.0 -0.0 3.0 0
0.0 -0.0 3.0 0
-1.511 -1.046 2.534 0
-1.47 -1.01 2.529 0
0.0 -0.0 3.0 0
-1.421 -0.961 2.51 0
-1.407 -0.945 2.498 0
-1.384 -0.923 2.489 0
-1.369 -0.907 2.476 0
-1.281 -0.844 2.493 0
-1.26 -0.826 2.484 0
-1.285 -0.838 2.456 9
-1.273 -0.825 2.443 2
-1.225 -0.791 2.446 5
-1.212 -0.779 2.434 1
-1.217 -0.779 2.413 3
-1.2 -0.765 2.402 20
-1.198 -0.762 2.383 26
-1.193 -0.756 2.365 14
-1.181 -0.745 2.352 11
-1.856 -1.528 2.731 14
-1.849 -1.502 2.708 12
-1.836 -1.469 2.688 3
-1.784 -1.408 2.675 1
-1.688 -1.314 2.672 0
-1.687 -1.297 2.652 14
0.0 -0.0 3.0 0
-1.797 -1.348 2.588 0
0.0 -0.0 3.0 0
-2.115 -1.55 2.466 1
0.0 -0.0 3.0 0
0.0 -0.0 3.0 0
0.0 -0.0 3.0 0
0.0 -0.0 3.0 0
-1.501 -1.046 2.534 0
-1.457 -1.007 2.53 0
0.0 -0.0 3.0 0
-1.402 -0.954 2.514 0
-1.388 -0.938 2.501 0
-1.374 -0.922 2.489 0
-1.353 -0.902 2.479 0
-1.285 -0.852 2.488 0
-1.263 -0.832 2.48 0
-1.282 -0.841 2.454 9
-1.257 -0.82 2.447 2
-1.229 -0.798 2.441 1
-1.206 -0.78 2.433 5
-1.211 -0.78 2.412 14
-1.2 -0.77 2.398 23
-1.192 -0.762 2.383 16
-1.184 -0.755 2.367 11
-1.178 -0.748 2.35 4
-1.855 -1.537 2.729 14
-1.836 -1.5 2.709 14
-1.834 -1.477 2.686 1
-1.749 -1.389 2.679 0
-1.674 -1.312 2.673 0
-1.683 -1.302 2.651 17
0.0 -0.0 3.0 0
-1.755 -1.325 2.595 0
-1.725 -1.286 2.582 0
-2.119 -1.563 2.462 2
0.0 -0.0 3.0 0
0.0 -0.0 3.0 0
0.0 -0.0 3.0 0
0.0 -0.0 3.0 0
-1.484 -1.042 2.536 0
-1.453 -1.011 2.528 0
0.0 -0.0 3.0 0
-1.386 -0.95 2.516 0
-1.382 -0.939 2.501 0
-1.371 -0.926 2.487 0
-1.337 -0.898 2.482 0
-1.256 -0.838 2.496 1
-1.257 -0.834 2.479 0
-1.273 -0.84 2.454 5
-1.232 -0.81 2.454 4
-1.21 -0.791 2.446 1
-1.212 -0.789 2.427 3
-1.205 -0.781 2.411 21
-1.194 -0.771 2.398 24
-1.19 -0.765 2.38 16
-1.184 -0.759 2.363 10
-1.179 -0.753 2.346 1
-1.851 -1.541 2.728 8
-1.834 -1.507 2.707 10
-1.827 -1.48 2.685 1
-1.717 -1.372 2.683 0
-1.661 -1.309 2.674 0
-1.672 -1.302 2.651 18
0.0 -0.0 3.0 0
-1.742 -1.323 2.596 0
-1.739 -1.306 2.576 0
-2.105 -1.563 2.462 1
0.0 -0.0 3.0 0
0.0 -0.0 3.0 0
0.0 -0.0 3.0 0
-1.509 -1.075 2.544 0
-1.474 -1.042 2.536 0
-1.437 -1.007 2.53 0
-1.421 -0.987 2.518 0
-1.392 -0.959 2.511 0
-1.375 -0.941 2.5 0
-1.355 -0.921 2.49 0
-1.334 -0.901 2.48 0
-1.26 -0.845 2.492 1
-1.26 -0.842 2.474 0
-1.261 -0.837 2.456 4
-1.217 -0.804 2.458 1
-1.204 -0.792 2.445 3
-1.216 -0.796 2.422 12
-1.208 -0.788 2.406 21
-1.191 -0.774 2.395 18
-1.184 -0.766 2.38 13
-1.178 -0.76 2.362 7
-1.164 -0.747 2.351 0
-1.84 -1.541 2.728 12
-1.83 -1.513 2.706 3
-1.816 -1.481 2.685 0
-1.678 -1.349 2.688 0
-1.644 -1.305 2.675 0
-1.659 -1.299 2.652 18
0.0 -0.0 3.0 0
-1.747 -1.335 2.592 0
0.0 -0.0 3.0 0
-2.093 -1.564 2.462 1
0.0 -0.0 3.0 0
0.0 -0.0 3.0 0
0.0 -0.0 3.0 0
-1.502 -1.078 2.543 0
-1.461 -1.039 2.537 0
-1.43 -1.009 2.53 0
-1.405 -0.983 2.521 0
-1.373 -0.952 2.515 0
-1.359 -0.937 2.502 0
-1.355 -0.927 2.486 0
-1.312 -0.892 2.485 0
-1.26 -0.851 2.488 0
-1.238 -0.832 2.48 0
-1.239 -0.828 2.463 5
-1.211 -0.805 2.457 1
-1.21 -0.801 2.439 2
-1.21 -0.797 2.421 21
-1.205 -0.791 2.404 18
-1.182 -0.773 2.396 12
-1.181 -0.769 2.378 10
-1.172 -0.76 2.362 1
-1.164 -0.752 2.347 0
-1.835 -1.547 2.727 13
-1.822 -1.515 2.706 1
0.0 -0.0 3.0 0
-1.683 -1.361 2.686 0
-1.631 -1.302 2.675 0
-1.652 -1.302 2.651 21
0.0 -0.0 3.0 0
-1.702 -1.308 2.6 0
0.0 -0.0 3.0 0
-2.06 -1.549 2.467 0
-1.722 -1.281 2.534 0
-1.605 -1.182 2.546 0
-1.629 -1.187 2.52 0
-1.495 -1.08 2.542 0
-1.477 -1.057 2.529 0
-1.433 -1.017 2.526 0
-1.395 -0.982 2.521 0
-1.385 -0.967 2.507 0
-1.362 -0.945 2.498 0
-1.348 -0.929 2.485 0
-1.299 -0.889 2.487 0
-1.247 -0.848 2.491 0
-1.232 -0.833 2.48 0
-1.233 -0.829 2.461 1
-1.202 -0.804 2.458 2
-1.21 -0.806 2.436 8
-1.21 -0.802 2.418 20
-1.199 -0.792 2.403 20
-1.183 -0.777 2.393 10
-1.178 -0.772 2.375 8
-1.191 -0.777 2.348 0
-1.161 -0.754 2.344 0
-1.828 -1.55 2.727 7
-1.815 -1.517 2.705 1
0.0 -0.0 3.0 0
-1.652 -1.344 2.69 0
-1.612 -1.294 2.677 0
-1.642 -1.302 2.651 20
0.0 -0.0 3.0 0
-1.66 -1.285 2.607 0
-1.677 -1.283 2.583 0
-2.052 -1.553 2.465 0
-2.005 -1.501 2.454 0
0.0 -0.0 3.0 0
0.0 -0.0 3.0 0
-1.501 -1.091 2.537 0
-1.448 -1.043 2.536 0
-1.433 -1.023 2.523 0
-1.42 -1.006 2.509 0
-1.372 -0.965 2.508 0
-1.356 -0.946 2.497 0
-1.342 -0.93 2.484 0
-1.29 -0.888 2.487 0
-1.244 -0.851 2.489 1
-1.214 -0.826 2.484 1
-1.226 -0.83 2.461 1
-1.202 -0.809 2.455 2
-1.201 -0.805 2.436 17
-1.207 -0.805 2.415 17
-1.19 -0.791 2.404 14
-1.18 -0.78 2.391 9
-1.166 -0.768 2.378 2
-1.173 -0.769 2.355 0
0.0 -0.0 3.0 0
-1.832 -1.563 2.724 2
-1.789 -1.505 2.708 0
0.0 -0.0 3.0 0
-1.654 -1.354 2.687 0
-1.608 -1.299 2.676 0
-1.631 -1.302 2.651 18
0.0 -0.0 3.0 0
-1.644 -1.28 2.609 0
0.0 -0.0 3.0 0
-2.05 -1.561 2.462 0
0.0 -0.0 3.0 0
0.0 -0.0 3.0 0
0.0 -0.0 3.0 0
0.0 -0.0 3.0 0
-1.432 -1.038 2.538 0
-1.407 -1.011 2.528 0
-1.388 -0.99 2.517 0
-1.356 -0.959 2.511 0
-1.34 -0.941 2.5 0
-1.304 -0.91 2.496 0
-1.29 -0.894 2.484 0
-1.235 -0.85 2.489 0
-1.226 -0.839 2.475 1
-1.211 -0.825 2.464 1
-1.211 -0.821 2.447 5
-1.204 -0.812 2.431 17
-1.201 -0.805 2.415 21
-1.187 -0.794 2.402 11
-1.18 -0.784 2.387 9
-1.172 -0.777 2.371 0
-1.158 -0.764 2.359 0
0.0 -0.0 3.0 0
-1.822 -1.562 2.725 1
0.0 -0.0 3.0 0
0.0 -0.0 3.0 0
-1.64 -1.351 2.688 0
-1.588 -1.291 2.678 0
-1.624 -1.304 2.651 16
0.0 -0.0 3.0 0
-1.643 -1.287 2.606 0
0.0 -0.0 3.0 0
-1.858 -1.424 2.51 0
-2.045 -1.551 2.435 0
0.0 -0.0 3.0 0
0.0 -0.0 3.0 0
-1.478 -1.088 2.538 0
-1.431 -1.045 2.535 0
-1.407 -1.018 2.525 0
-1.369 -0.983 2.521 0
-1.353 -0.964 2.509 0
-1.349 -0.953 2.493 0
-1.295 -0.909 2.496 0
-1.256 -0.875 2.495 0
-1.229 -0.852 2.488 1
-1.211 -0.834 2.479 0
-1.205 -0.825 2.464 2
-1.205 -0.821 2.446 14
-1.201 -0.815 2.43 16
-1.195 -0.807 2.414 16
-1.187 -0.798 2.398 11
-1.174 -0.786 2.386 3
-1.154 -0.769 2.377 0
0.0 -0.0 3.0 0
0.0 -0.0 3.0 0
-1.805 -1.557 2.725 1
0.0 -0.0 3.0 0
0.0 -0.0 3.0 0
-2.639 -2.186 2.495 4
-1.596 -1.305 2.675 0
-1.614 -1.303 2.651 15
0.0 -0.0 3.0 0
-1.636 -1.29 2.606 0
0.0 -0.0 3.0 0
0.0 -0.0 3.0 0
-2.04 -1.557 2.433 0
0.0 -0.0 3.0 0
0.0 -0.0 3.0 0
0.0 -0.0 3.0 0
-1.431 -1.051 2.532 0
-1.381 -1.006 2.531 0
-1.362 -0.985 2.52 0
-1.35 -0.967 2.507 0
-1.299 -0.924 2.509 0
-1.285 -0.908 2.497 0
-1.234 -0.866 2.5 0
-1.225 -0.855 2.486 3
-1.208 -0.837 2.477 1
-1.217 -0.84 2.455 5
-1.202 -0.824 2.444 16
-1.198 -0.818 2.427 17
-1.189 -0.807 2.413 12
-1.181 -0.799 2.398 10
-1.171 -0.788 2.384 0
-1.148 -0.77 2.377 0
-1.143 -0.763 2.36 0
0.0 -0.0 3.0 0
0.0 -0.0 3.0 0
0.0 -0.0 3.0 0
0.0 -0.0 3.0 0
-1.599 -1.333 2.692 0
-1.589 -1.308 2.674 0
-1.607 -1.306 2.65 12
-1.633 -1.311 2.624 0
-1.622 -1.287 2.606 0
0.0 -0.0 3.0 0
-1.994 -1.547 2.467 0
-2.053 -1.578 2.426 1
-1.526 -1.16 2.555 0
-1.456 -1.096 2.557 0
-1.455 -1.085 2.539 0
-1.424 -1.053 2.531 0
-1.384 -1.014 2.527 0
-1.347 -0.979 2.522 0
-1.337 -0.965 2.508 0
-1.283 -0.919 2.511 0
-1.276 -0.907 2.497 0
-1.234 -0.872 2.497 0
-1.219 -0.856 2.486 1
-1.198 -0.836 2.477 2
-1.208 -0.838 2.456 13
-1.202 -0.829 2.441 13
-1.192 -0.818 2.427 13
-1.186 -0.81 2.411 12
-1.178 -0.802 2.396 5
-1.162 -0.787 2.385 0
-1.133 -0.764 2.381 0
0.0 -0.0 3.0 0
0.0 -0.0 3.0 0
0.0 -0.0 3.0 0
0.0 -0.0 3.0 0
0.0 -0.0 3.0 0
-1.592 -1.335 2.692 0
-1.573 -1.303 2.675 0
-1.597 -1.306 2.65 9
-1.626 -1.314 2.623 0
0.0 -0.0 3.0 0
-1.625 -1.283 2.583 0
0.0 -0.0 3.0 0
-2.057 -1.591 2.421 0
-1.51 -1.155 2.557 0
-1.419 -1.075 2.566 0
-1.429 -1.073 2.545 0
-1.405 -1.046 2.535 0
-1.371 -1.011 2.528 0
-1.352 -0.99 2.517 0
-1.327 -0.964 2.509 0
-1.274 -0.918 2.512 0
-1.248 -0.893 2.505 0
-1.206 -0.857 2.505 1
-1.21 -0.855 2.486 1
-1.214 -0.853 2.467 3
-1.208 -0.844 2.452 15
-1.193 -0.828 2.441 14
-1.186 -0.82 2.426 10
-1.186 -0.815 2.408 12
-1.178 -0.807 2.392 0
-1.138 -0.775 2.394 0
-1.142 -0.775 2.373 0
0.0 -0.0 3.0 0
0.0 -0.0 3.0 0
0.0 -0.0 3.0 0
0.0 -0.0 3.0 0
0.0 -0.0 3.0 0
-1.581 -1.335 2.692 0
-1.56 -1.299 2.676 0
-1.586 -1.305 2.65 5
-1.622 -1.319 2.622 0
-1.571 -1.263 2.614 0
-1.575 -1.252 2.593 0
0.0 -0.0 3.0 0
-2.046 -1.592 2.421 0
-1.457 -1.121 2.57 0
-1.486 -1.133 2.542 0
-1.401 -1.058 2.551 0
-1.395 -1.045 2.535 0
-1.368 -1.015 2.527 0
-1.334 -0.982 2.521 0
-1.284 -0.938 2.522 0
-1.267 -0.919 2.511 0
-1.223 -0.881 2.512 1
-1.212 -0.867 2.499 1
-1.21 -0.86 2.483 2
-1.208 -0.854 2.467 11
-1.205 -0.847 2.45 13
-1.193 -0.833 2.438 13
-1.18 -0.821 2.425 12
-1.177 -0.814 2.409 8
-1.172 -0.807 2.392 0
-1.144 -0.784 2.387 0
-1.118 -0.763 2.382 0
0.0 -0.0 3.0 0
0.0 -0.0 3.0 0
0.0 -0.0 3.0 0
0.0 -0.0 3.0 0
0.0 -0.0 3.0 0
-1.574 -1.336 2.691 0
-1.574 -1.319 2.671 0
-1.573 -1.303 2.651 3
-1.608 -1.315 2.623 0
-1.573 -1.272 2.611 0
0.0 -0.0 3.0 0
0.0 -0.0 3.0 0
-2.059 -1.613 2.413 0
0.0 -0.0 3.0 0
-1.439 -1.104 2.554 0
-1.391 -1.057 2.551 0
-1.404 -1.058 2.529 0
-1.361 -1.017 2.526 0
-1.333 -0.988 2.518 0
-1.283 -0.944 2.519 0
-1.261 -0.921 2.511 0
-1.22 -0.884 2.51 1
-1.218 -0.877 2.494 1
-1.213 -0.868 2.479 2
-1.208 -0.859 2.464 16
-1.202 -0.85 2.448 14
-1.181 -0.83 2.44 10
-1.177 -0.824 2.423 12
-1.177 -0.819 2.405 1
-1.172 -0.812 2.388 0
-1.129 -0.778 2.392 0
0.0 -0.0 3.0 0
-1.122 -0.767 2.357 0
0.0 -0.0 3.0 0
0.0 -0.0 3.0 0
0.0 -0.0 3.0 0
0.0 -0.0 3.0 0
-1.561 -1.333 2.692 0
0.0 -0.0 3.0 0
-1.575 -1.313 2.648 3
-1.607 -1.323 2.621 0
-1.539 -1.251 2.617 0
-1.545 -1.244 2.596 0
-1.601 -1.274 2.561 0
-2.054 -1.618 2.411 0
0.0 -0.0 3.0 0
-1.389 -1.073 2.567 0
-1.394 -1.066 2.548 0
-1.391 -1.055 2.53 0
-1.367 -1.028 2.521 0
-1.311 -0.978 2.523 0
-1.274 -0.942 2.52 0
-1.239 -0.91 2.516 0
-1.21 -0.883 2.511 1
-1.209 -0.876 2.494 1
-1.21 -0.871 2.476 9
-1.202 -0.859 2.463 13
-1.193 -0.849 2.449 13
-1.184 -0.837 2.435 12
-1.177 -0.829 2.42 10
-1.174 -0.822 2.403 0
-1.142 -0.796 2.4 0
-1.123 -0.779 2.392 0
-1.101 -0.759 2.385 0
-1.107 -0.761 2.361 0
0.0 -0.0 3.0 0
0.0 -0.0 3.0 0
0.0 -0.0 3.0 0
0.0 -0.0 3.0 0
-1.578 -1.356 2.687 0
0.0 -0.0 3.0 0
-1.562 -1.309 2.649 2
-1.597 -1.323 2.621 0
-1.516 -1.241 2.62 0
-1.581 -1.28 2.584 0
-1.538 -1.232 2.576 0
-2.024 -1.605 2.416 0
-1.454 -1.141 2.562 0
-1.432 -1.113 2.55 0
-1.384 -1.066 2.548 0
-1.363 -1.04 2.537 0
-1.336 -1.011 2.529 0
-1.299 -0.975 2.525 0
-1.249 -0.931 2.526 0
-1.218 -0.9 2.521 1
-1.213 -0.89 2.506 1
-1.212 -0.884 2.49 2
-1.204 -0.872 2.476 14
-1.198 -0.863 2.461 12
-1.193 -0.853 2.446 10
-1.181 -0.84 2.433 12
-1.177 -0.833 2.416 1
-1.17 -0.824 2.401 0
0.0 -0.0 3.0 0
-1.105 -0.771 2.398 0
-1.127 -0.783 2.366 0
-1.113 -0.77 2.354 0
0.0 -0.0 3.0 0
0.0 -0.0 3.0 0
0.0 -0.0 3.0 0
0.0 -0.0 3.0 0
-1.568 -1.355 2.687 0
0.0 -0.0 3.0 0
-1.561 -1.316 2.647 1
-1.563 -1.302 2.627 0
-1.515 -1.248 2.618 0
0.0 -0.0 3.0 0
-1.48 -1.193 2.589 0
0.0 -0.0 3.0 0
-1.432 -1.131 2.566 0
-2.119 -1.658 2.33 0
-1.371 -1.062 2.549 0
-1.347 -1.035 2.539 0
-1.298 -0.989 2.539 0
-1.28 -0.967 2.529 0
-1.246 -0.933 2.524 0
-1.214 -0.904 2.52 0
-1.207 -0.892 2.506 2
-1.206 -0.885 2.489 7
-1.204 -0.877 2.473 13
-1.192 -0.863 2.461 13
-1.186 -0.855 2.445 13
-1.174 -0.841 2.433 11
-1.162 -0.828 2.42 0
-1.155 -0.819 2.405 0
-1.13 -0.798 2.399 0
-1.108 -0.778 2.392 0
-1.113 -0.777 2.371 0
-1.122 -0.78 2.345 0
0.0 -0.0 3.0 0
0.0 -0.0 3.0 0
0.0 -0.0 3.0 0
0.0 -0.0 3.0 0
-1.579 -1.372 2.683 0
-1.528 -1.312 2.673 0
-1.545 -1.311 2.649 0
-1.561 -1.309 2.625 0
-1.505 -1.248 2.619 0
-1.491 -1.222 2.603 0
-1.476 -1.196 2.588 0
-1.475 -1.184 2.569 0
-2.09 -1.66 2.363 1
-2.119 -1.668 2.326 0
-1.364 -1.064 2.548 0
-1.35 -1.044 2.535 0
-1.295 -0.992 2.537 0
-1.273 -0.968 2.528 0
-1.221 -0.921 2.531 0
-1.214 -0.909 2.517 1
-1.207 -0.897 2.503 2
-1.208 -0.892 2.485 12
-1.197 -0.878 2.472 11
-1.183 -0.862 2.461 10
-1.186 -0.86 2.442 13
-1.177 -0.849 2.428 2
-1.159 -0.83 2.419 0
-1.146 -0.817 2.406 0
-1.139 -0.808 2.391 0
-1.102 -0.778 2.392 0
-1.113 -0.782 2.367 0
-1.096 -0.767 2.357 0
0.0 -0.0 3.0 0
0.0 -0.0 3.0 0
0.0 -0.0 3.0 0
0.0 -0.0 3.0 0
-1.518 -1.328 2.693 0
-1.515 -1.309 2.674 0
-1.538 -1.312 2.648 0
-1.545 -1.303 2.626 0
-1.522 -1.27 2.612 0
-1.496 -1.234 2.599 0
-1.453 -1.186 2.592 0
0.0 -0.0 3.0 0
-1.385 -1.108 2.575 0
-2.123 -1.682 2.321 0
-1.361 -1.067 2.547 0
-1.322 -1.028 2.542 0
-1.289 -0.994 2.536 0
-1.249 -0.956 2.534 0
-1.227 -0.932 2.525 1
-1.208 -0.91 2.516 1
-1.204 -0.901 2.501 8
-1.205 -0.896 2.483 13
-1.194 -0.881 2.47 13
-1.183 -0.868 2.458 10
-1.18 -0.861 2.441 11
-1.162 -0.842 2.432 0
-1.168 -0.842 2.41 0
-1.146 -0.822 2.403 0
-1.118 -0.799 2.398 0
-1.114 -0.791 2.382 0
-1.107 -0.782 2.367 0
-1.105 -0.778 2.348 0
0.0 -0.0 3.0 0
0.0 -0.0 3.0 0
0.0 -0.0 3.0 0
0.0 -0.0 3.0 0
-2.443 -2.15 2.504 5
-1.523 -1.323 2.67 0
-1.518 -1.304 2.651 0
-1.529 -1.298 2.628 0
-1.494 -1.254 2.617 0
-1.477 -1.226 2.602 0
-1.477 -1.212 2.583 0
-1.419 -1.154 2.58 0
-1.394 -1.122 2.569 0
-1.422 -1.134 2.542 0
-1.342 -1.06 2.55 0
-1.303 -1.02 2.546 0
-1.273 -0.988 2.539 0
-1.23 -0.948 2.538 0
-1.212 -0.925 2.529 1
-1.208 -0.916 2.513 2
-1.207 -0.909 2.496 13
-1.202 -0.898 2.481 10
-1.191 -0.885 2.468 11
-1.183 -0.873 2.454 13
-1.183 -0.868 2.436 3
-1.159 -0.846 2.43 0
-1.156 -0.839 2.413 0
-1.125 -0.812 2.41 0
-1.127 -0.809 2.39 0
-1.088 -0.777 2.393 0
-1.107 -0.787 2.363 0
-1.075 -0.761 2.362 0
0.0 -0.0 3.0 0
0.0 -0.0 3.0 0
0.0 -0.0 3.0 0
0.0 -0.0 3.0 0
-1.501 -1.329 2.693 0
-1.501 -1.312 2.673 1
0.0 -0.0 3.0 0
-1.549 -1.322 2.621 0
-1.49 -1.258 2.615 0
-1.467 -1.225 2.602 0
-1.434 -1.185 2.592 0
-1.4 -1.145 2.583 0
-1.411 -1.143 2.561 0
-2.105 -1.689 2.318 0
-1.314 -1.044 2.557 0
-1.296 -1.022 2.545 0
-1.251 -0.978 2.544 0
-1.227 -0.951 2.536 0
-1.214 -0.933 2.524 1
-1.214 -0.926 2.508 7
-1.206 -0.914 2.493 14
-1.196 -0.9 2.48 13
-1.179 -0.881 2.471 9
-1.18 -0.876 2.453 13
-1.174 -0.867 2.437 0
-1.147 -0.842 2.432 0
-1.123 -0.82 2.426 0
-1.131 -0.821 2.403 0
-1.112 -0.804 2.394 0
-1.102 -0.793 2.381 0
-1.095 -0.783 2.366 0
-1.075 -0.765 2.358 0
0.0 -0.0 3.0 0
0.0 -0.0 3.0 0
0.0 -0.0 3.0 0
0.0 -0.0 3.0 0
-1.473 -1.312 2.697 0
-1.488 -1.308 2.674 1
0.0 -0.0 3.0 0
-1.515 -1.301 2.627 0
-1.465 -1.245 2.619 0
-1.448 -1.217 2.605 0
-1.418 -1.179 2.594 0
-1.384 -1.139 2.585 0
-1.413 -1.152 2.558 0
-1.373 -1.108 2.552 0
-1.304 -1.043 2.557 0
-1.281 -1.015 2.548 0
-1.236 -0.972 2.547 0
-1.221 -0.952 2.536 0
-1.205 -0.932 2.525 2
-1.204 -0.925 2.508 11
-1.2 -0.915 2.493 12
-1.193 -0.903 2.479 10
-1.185 -0.891 2.465 13
-1.182 -0.884 2.448 5
-1.171 -0.87 2.435 0
-1.138 -0.84 2.433 0
-1.141 -0.838 2.413 0
-1.107 -0.809 2.412 0
-1.109 -0.806 2.393 0
-1.096 -0.793 2.38 0
-1.098 -0.79 2.36 0
-1.102 -0.789 2.338 0
0.0 -0.0 3.0 0
0.0 -0.0 3.0 0
0.0 -0.0 3.0 0
-1.54 -1.397 2.703 0
-1.481 -1.327 2.694 0
-1.475 -1.305 2.675 2
0.0 -0.0 3.0 0
-1.505 -1.301 2.627 0
-1.47 -1.256 2.616 0
-1.465 -1.238 2.598 0
-1.432 -1.198 2.588 0
-1.389 -1.151 2.581 0
-1.388 -1.139 2.563 0
-1.342 -1.09 2.56 0
-1.295 -1.043 2.557 0
-1.256 -1.003 2.554 0
-1.226 -0.971 2.547 0
-1.217 -0.956 2.534 1
-1.211 -0.943 2.519 6
-1.207 -0.933 2.504 13
-1.197 -0.918 2.491 15
-1.186 -0.903 2.478 8
-1.178 -0.892 2.464 13
-1.173 -0.883 2.449 0
-1.15 -0.859 2.442 0
-1.138 -0.846 2.429 0
-1.117 -0.825 2.422 0
-1.113 -0.818 2.405 0
-1.118 -0.818 2.384 0
-1.105 -0.803 2.372 0
-1.077 -0.78 2.369 0
-1.075 -0.774 2.35 0
0.0 -0.0 3.0 0
0.0 -0.0 3.0 0
0.0 -0.0 3.0 0
-1.5 -1.369 2.709 0
-1.471 -1.327 2.694 0
-1.465 -1.305 2.675 4
0.0 -0.0 3.0 0
-1.492 -1.298 2.628 0
-1.439 -1.238 2.622 0
-1.434 -1.22 2.604 0
-1.428 -1.203 2.586 0
-1.379 -1.15 2.581 0
-1.361 -1.123 2.569 0
-2.109 -1.724 2.303 0
-1.273 -1.031 2.562 0
-1.235 -0.992 2.559 0
-1.214 -0.967 2.549 1
-1.211 -0.957 2.533 1
-1.216 -0.953 2.514 11
-1.201 -0.934 2.504 10
-1.187 -0.916 2.492 12
-1.186 -0.909 2.475 13
-1.178 -0.898 2.461 7
-1.155 -0.874 2.454 0
-1.155 -0.869 2.435 0
-1.126 -0.842 2.432 0
-1.114 -0.828 2.42 0
-1.128 -0.834 2.394 0
-1.106 -0.814 2.387 0
-1.099 -0.804 2.372 0
-1.071 -0.78 2.368 0
-1.096 -0.794 2.334 0
0.0 -0.0 3.0 0
0.0 -0.0 3.0 0
0.0 -0.0 3.0 0
-1.499 -1.376 2.707 0
-1.455 -1.32 2.695 0
-1.464 -1.311 2.673 8
0.0 -0.0 3.0 0
-1.482 -1.297 2.628 0
-1.45 -1.255 2.616 0
-1.427 -1.222 2.603 0
-1.406 -1.191 2.59 0
-1.378 -1.156 2.579 0
-1.327 -1.102 2.577 0
-1.301 -1.071 2.567 0
-1.255 -1.023 2.566 0
-1.225 -0.991 2.559 0
-1.22 -0.977 2.544 1
-1.213 -0.965 2.529 5
-1.207 -0.952 2.515 12
-1.194 -0.934 2.503 13
-1.178 -0.916 2.493 10
-1.186 -0.915 2.472 13
-1.169 -0.896 2.462 0
-1.164 -0.886 2.446 0
-1.14 -0.863 2.439 0
-1.132 -0.852 2.426 0
-1.137 -0.851 2.404 0
-1.11 -0.826 2.4 0
-1.1 -0.815 2.386 0
-1.087 -0.8 2.375 0
-1.074 -0.787 2.363 0
0.0 -0.0 3.0 0
0.0 -0.0 3.0 0
0.0 -0.0 3.0 0
0.0 -0.0 3.0 0
-1.481 -1.367 2.71 0
-1.442 -1.316 2.696 0
-1.448 -1.305 2.675 11
0.0 -0.0 3.0 0
-1.475 -1.298 2.628 0
-1.423 -1.238 2.621 0
-1.417 -1.221 2.603 0
-1.393 -1.188 2.591 0
-1.357 -1.146 2.583 0
-1.308 -1.094 2.58 0
-1.289 -1.067 2.569 0
-1.251 -1.027 2.564 0
-1.222 -0.994 2.557 1
-1.21 -0.976 2.545 1
-1.213 -0.97 2.527 9
-1.204 -0.956 2.513 10
-1.191 -0.938 2.501 12
-1.184 -0.926 2.487 16
-1.179 -0.915 2.471 8
-1.163 -0.896 2.461 0
-1.143 -0.875 2.453 0
-1.14 -0.868 2.436 0
-1.114 -0.843 2.431 0
-1.102 -0.829 2.42 0
-1.125 -0.841 2.389 0
-1.097 -0.817 2.384 0
-1.081 -0.801 2.374 0
-1.077 -0.794 2.357 0
-1.072 -0.786 2.341 0
0.0 -0.0 3.0 0
0.0 -0.0 3.0 0
0.0 -0.0 3.0 0
-1.476 -1.371 2.709 0
-1.435 -1.317 2.696 0
-1.441 -1.307 2.674 13
0.0 -0.0 3.0 0
-1.482 -1.314 2.623 0
-1.424 -1.248 2.618 0
-1.422 -1.233 2.599 0
-1.386 -1.19 2.59 0
-1.359 -1.154 2.58 0
-1.299 -1.093 2.581 0
-1.252 -1.043 2.578 0
-1.221 -1.008 2.572 0
-1.218 -0.997 2.556 1
-1.213 -0.984 2.541 3
-1.207 -0.971 2.526 11
-1.2 -0.958 2.512 13
-1.185 -0.939 2.501 9
-1.178 -0.927 2.486 16
-1.179 -0.921 2.468 0
-1.145 -0.889 2.466 0
-1.131 -0.872 2.455 0
-1.125 -0.862 2.44 0
-1.125 -0.857 2.422 0
-1.11 -0.841 2.411 0
-1.11 -0.836 2.393 0
-1.091 -0.817 2.384 0
-1.076 -0.801 2.374 0
-1.086 -0.804 2.349 0
-1.046 -0.771 2.353 0
0.0 -0.0 3.0 0
0.0 -0.0 3.0 0
0.0 -0.0 3.0 0
-1.466 -1.371 2.709 0
-1.414 -1.305 2.699 0
-1.434 -1.308 2.674 16
0.0 -0.0 3.0 0
-1.458 -1.3 2.627 0
-1.412 -1.245 2.619 0
-1.424 -1.242 2.596 0
-1.341 -1.158 2.601 0
-1.308 -1.118 2.593 0
-1.274 -1.079 2.586 0
-1.24 -1.04 2.58 0
-1.223 -1.017 2.568 0
-1.206 -0.993 2.558 1
-1.206 -0.985 2.541 9
-1.2 -0.973 2.526 9
-1.194 -0.96 2.511 12
-1.184 -0.944 2.498 13
-1.177 -0.932 2.483 12
-1.17 -0.92 2.469 0
-1.124 -0.877 2.473 0
-1.13 -0.877 2.452 0
-1.119 -0.863 2.44 0
-1.104 -0.846 2.429 0
-1.119 -0.852 2.403 0
-1.101 -0.834 2.394 0
-1.097 -0.826 2.377 0
-1.064 -0.797 2.377 0
-1.08 -0.805 2.348 0
0.0 -0.0 3.0 0
0.0 -0.0 3.0 0
0.0 -0.0 3.0 0
0.0 -0.0 3.0 0
-1.465 -1.377 2.707 0
-1.393 -1.294 2.701 0
-1.43 -1.312 2.673 19
0.0 -0.0 3.0 0
-1.453 -1.304 2.626 0
-1.393 -1.236 2.622 0
-1.373 -1.205 2.609 0
-1.355 -1.177 2.595 0
-1.295 -1.114 2.594 0
-1.268 -1.079 2.586 0
-1.219 -1.029 2.584 0
-1.214 -1.015 2.569 0
-1.22 -1.012 2.55 2
-1.206 -0.992 2.538 11
-1.2 -0.978 2.523 11
-1.188 -0.961 2.51 9
-1.181 -0.948 2.496 14
-1.171 -0.933 2.483 1
-1.149 -0.909 2.475 0
-1.141 -0.897 2.461 0
-1.118 -0.873 2.454 0
-1.119 -0.868 2.436 0
-1.113 -0.858 2.421 0
-1.11 -0.851 2.404 0
-1.092 -0.832 2.395 0
-1.071 -0.812 2.388 0
-1.084 -0.817 2.362 0
-1.094 -0.82 2.336 0
0.0 -0.0 3.0 0
0.0 -0.0 3.0 0
0.0 -0.0 3.0 0
0.0 -0.0 3.0 0
-1.432 -1.354 2.712 0
-1.394 -1.304 2.699 0
-1.423 -1.314 2.672 20
0.0 -0.0 3.0 0
-1.435 -1.295 2.629 0
-1.409 -1.258 2.615 0
-1.398 -1.235 2.599 0
-1.328 -1.161 2.6 0
-1.283 -1.111 2.596 0
-1.246 -1.068 2.59 0
-1.233 -1.047 2.577 0
-1.199 -1.008 2.572 1
-1.208 -1.008 2.551 8
-1.203 -0.994 2.536 10
-1.194 -0.979 2.522 11
-1.181 -0.962 2.51 13
-1.181 -0.954 2.493 12
-1.168 -0.936 2.481 0
-1.151 -0.917 2.471 0
-1.155 -0.913 2.451 0
-1.127 -0.885 2.447 0
-1.107 -0.864 2.439 0
-1.092 -0.847 2.428 0
-1.101 -0.849 2.405 0
-1.077 -0.826 2.4 0
-1.088 -0.829 2.375 0
-1.081 -0.82 2.36 0
-1.059 -0.799 2.353 0
0.0 -0.0 3.0 0
-1.106 -0.825 2.282 0
0.0 -0.0 3.0 0
0.0 -0.0 3.0 0
-1.411 -1.342 2.715 0
-1.396 -1.312 2.697 0
-1.407 -1.307 2.674 21
0.0 -0.0 3.0 0
-1.445 -1.312 2.624 0
-1.394 -1.252 2.617 0
-1.388 -1.233 2.599 0
-1.306 -1.149 2.604 0
-1.296 -1.129 2.589 0
-1.228 -1.06 2.593 0
-1.227 -1.048 2.577 0
-1.21 -1.024 2.565 2
-1.211 -1.016 2.548 11
-1.196 -0.995 2.536 10
-1.187 -0.98 2.522 10
-1.181 -0.967 2.507 14
-1.174 -0.955 2.492 2
-1.158 -0.935 2.482 0
-1.131 -0.906 2.477 0
-1.132 -0.9 2.459 0
-1.118 -0.883 2.448 0
-1.112 -0.874 2.433 0
-1.095 -0.855 2.423 0
-1.098 -0.852 2.404 0
-1.08 -0.833 2.395 0
-1.079 -0.828 2.376 0
-1.075 -0.82 2.359 0
-1.082 -0.821 2.335 0
-1.077 -0.813 2.318 0
0.0 -0.0 3.0 0
0.0 -0.0 3.0 0
0.0 -0.0 3.0 0
-2.29 -2.192 2.534 4
-1.383 -1.309 2.698 0
-1.406 -1.314 2.672 21
0.0 -0.0 3.0 0
-1.429 -1.306 2.626 0
-1.398 -1.264 2.614 0
-1.343 -1.201 2.61 0
-1.288 -1.139 2.608 0
-1.246 -1.092 2.602 0
-1.228 -1.065 2.591 0
-1.211 -1.042 2.579 1
-1.206 -1.028 2.564 8
-1.207 -1.02 2.546 11
-1.196 -1.001 2.533 12
-1.178 -0.978 2.523 11
-1.178 -0.971 2.505 13
-1.156 -0.946 2.497 0
-1.135 -0.921 2.489 0
-1.136 -0.916 2.471 0
-1.117 -0.894 2.463 0
-1.1 -0.875 2.453 0
-1.115 -0.881 2.428 0
-1.095 -0.86 2.42 0
-1.083 -0.846 2.408 0
-1.065 -0.827 2.399 0
-1.073 -0.828 2.376 0
-1.049 -0.805 2.371 0
-1.07 -0.817 2.339 0
-1.094 -0.83 2.303 0
-1.08 -0.815 2.291 0
0.0 -0.0 3.0 0
0.0 -0.0 3.0 0
