# .PCD v0.7 - Point Cloud Data file format
VERSION 0.7
FIELDS x y z intensity
SIZE 4 4 4 4
TYPE F F F F
COUNT 1 1 1 1
WIDTH 1983
HEIGHT 1
VIEWPOINT 0 0 0 1 0 0 0
POINTS 1983
DATA ascii
-15.546 -9.961 -3.224 44
-15.742 -10.039 -3.519 35
-17.131 -10.879 -4.338 10
-14.675 -9.281 -3.499 24
-14.405 -9.078 -3.596 18
-14.175 -8.901 -3.707 25
-14.35 -8.985 -4.02 36
-13.774 -8.6 -3.964 8
-13.323 -8.294 -3.959 24
-12.899 -8.009 -3.963 13
-9.615 -7.61 1.658 9
-9.69 -7.557 1.531 0
0.0 -0.0 3.0 0
0.0 -0.0 3.0 0
0.0 -0.0 3.0 0
-54.833 -40.483 -7.847 11
-12.795 -9.33 0.325 2
-31.325 -22.569 -3.9 25
-31.179 -22.198 -4.213 18
-12.444 -8.763 -0.017 4
-31.185 -21.713 -4.903 17
-30.576 -21.083 -5.093 21
0.0 -0.0 3.0 0
0.0 -0.0 3.0 0
0.0 -0.0 3.0 0
-25.297 -16.829 -4.848 5
-12.542 -8.278 -1.037 10
-12.637 -8.283 -1.22 1
-21.869 -14.239 -4.571 5
-20.935 -13.543 -4.507 7
-20.059 -12.904 -4.45 8
-15.544 -9.944 -2.975 58
-15.562 -9.908 -3.191 45
-15.84 -10.037 -3.518 12
-17.216 -10.864 -4.328 10
-14.782 -9.291 -3.506 18
-14.461 -9.058 -3.581 19
-14.164 -8.84 -3.661 18
-14.396 -8.959 -4.0 47
-13.834 -8.586 -3.953 9
-13.386 -8.284 -3.951 18
-12.963 -8.003 -3.957 15
-9.628 -7.576 1.664 3
-11.571 -8.97 1.256 11
-11.697 -8.94 1.1 8
0.0 -0.0 3.0 0
0.0 -0.0 3.0 0
-54.965 -40.328 -7.806 21
-12.745 -9.235 0.352 6
-31.259 -22.378 -3.842 13
-31.145 -22.032 -4.159 255
-12.473 -8.726 -0.005 7
-31.198 -21.581 -4.855 11
-30.762 -21.074 -5.09 21
0.0 -0.0 3.0 0
0.0 -0.0 3.0 0
0.0 -0.0 3.0 0
-25.458 -16.825 -4.845 5
-12.541 -8.223 -1.011 22
-23.027 -14.993 -4.639 5
-22.0 -14.231 -4.567 6
-21.058 -13.535 -4.502 6
-20.176 -12.895 -4.445 8
-15.557 -9.888 -2.942 59
-15.586 -9.86 -3.161 55
-17.952 -11.303 -4.34 8
-17.306 -10.853 -4.32 10
-14.819 -9.256 -3.481 26
-14.465 -9.005 -3.543 4
-14.686 -9.111 -3.866 22
-14.47 -8.951 -3.994 41
-13.906 -8.58 -3.948 12
-13.448 -8.274 -3.943 19
-13.021 -7.992 -3.948 14
-9.653 -7.551 1.669 0
-11.582 -8.925 1.265 0
-11.531 -8.76 1.138 10
0.0 -0.0 3.0 0
-57.602 -42.564 -7.612 8
-12.681 -9.246 0.523 6
-12.956 -9.329 0.325 16
-31.205 -22.198 -3.787 9
-31.139 -21.887 -4.111 255
-12.488 -8.681 0.011 0
-31.137 -21.399 -4.789 10
-30.871 -21.011 -5.065 10
0.0 -0.0 3.0 0
0.0 -0.0 3.0 0
0.0 -0.0 3.0 0
-25.62 -16.82 -4.843 5
-12.573 -8.19 -0.994 18
-23.157 -14.979 -4.632 5
-22.131 -14.222 -4.562 6
-21.17 -13.518 -4.493 6
-20.29 -12.884 -4.439 8
-15.583 -9.841 -2.913 61
-15.605 -9.808 -3.129 61
-18.061 -11.299 -4.337 7
-17.394 -10.84 -4.311 10
-14.892 -9.244 -3.472 21
-14.727 -9.111 -3.62 15
-14.666 -9.042 -3.814 31
-14.544 -8.943 -3.987 37
-13.976 -8.572 -3.941 12
-13.516 -8.267 -3.937 12
-13.076 -7.98 -3.937 13
-32.331 -25.143 -1.433 26
-11.728 -8.984 1.254 8
-11.639 -8.789 1.132 11
0.0 -0.0 3.0 0
-59.413 -43.632 -7.879 5
-11.622 -8.421 0.744 5
-12.893 -9.224 0.355 3
-31.17 -22.032 -3.736 37
-31.148 -21.753 -4.068 255
-31.016 -21.419 -4.375 14
-12.591 -8.597 -0.129 14
-30.861 -20.866 -5.01 10
0.0 -0.0 3.0 0
0.0 -0.0 3.0 0
0.0 -0.0 3.0 0
-12.549 -8.184 -0.816 8
-12.615 -8.163 -0.981 1
-23.294 -14.968 -4.627 5
-22.262 -14.212 -4.557 6
-21.293 -13.507 -4.487 6
-20.401 -12.87 -4.43 8
-15.616 -9.798 -2.887 59
-15.612 -9.75 -3.092 61
-18.159 -11.288 -4.331 4
-17.479 -10.823 -4.3 11
-14.967 -9.232 -3.465 29
-14.783 -9.09 -3.604 15
-14.674 -8.993 -3.777 17
-14.539 -8.886 -3.943 20
-14.042 -8.561 -3.933 10
-13.578 -8.257 -3.928 12
-13.134 -7.969 -3.928 14
-32.29 -24.964 -1.402 26
-93.798 -71.426 -10.884 27
-11.58 -8.692 1.153 16
0.0 -0.0 3.0 0
-12.982 -9.475 0.638 19
-11.651 -8.39 0.752 1
-31.237 -22.208 -3.368 4
-31.163 -21.887 -3.691 24
-31.16 -21.622 -4.025 255
-31.089 -21.331 -4.345 8
-12.678 -8.6 -0.13 27
-31.109 -20.896 -5.021 6
0.0 -0.0 3.0 0
0.0 -0.0 3.0 0
0.0 -0.0 3.0 0
-12.561 -8.138 -0.795 21
-24.626 -15.829 -4.721 19
-23.431 -14.957 -4.621 5
-22.394 -14.202 -4.551 6
-21.409 -13.492 -4.479 6
-20.518 -12.86 -4.424 9
-15.67 -9.769 -2.87 46
-15.644 -9.707 -3.066 59
-18.262 -11.28 -4.325 4
-17.553 -10.801 -4.286 22
-15.011 -9.201 -3.443 23
-14.852 -9.075 -3.594 13
-14.459 -8.807 -3.636 63
-14.648 -8.899 -3.953 38
-14.106 -8.549 -3.923 10
-13.634 -8.242 -3.916 15
-13.195 -7.96 -3.92 13
-32.252 -24.789 -1.371 26
-32.138 -24.327 -1.729 24
-11.73 -8.751 1.14 0
0.0 -0.0 3.0 0
-13.055 -9.47 0.639 4
-12.616 -9.027 0.581 3
-12.951 -9.149 0.376 0
-13.988 -9.762 0.016 6
-31.211 -21.517 -3.991 86
-13.134 -8.954 -0.083 6
-12.693 -8.554 -0.114 31
-31.497 -21.018 -5.068 17
-30.016 -19.83 -5.012 13
-12.605 -8.252 -0.503 11
0.0 -0.0 3.0 0
-12.589 -8.102 -0.778 26
-24.789 -15.829 -4.72 21
-23.578 -14.951 -4.618 5
-22.525 -14.192 -4.546 6
-21.539 -13.485 -4.475 6
-20.636 -12.849 -4.419 8
-15.757 -9.759 -2.864 38
-15.65 -9.648 -3.029 49
-18.348 -11.261 -4.313 4
-17.651 -10.793 -4.28 11
-15.144 -9.225 -3.459 22
-14.824 -9.003 -3.541 16
-14.711 -8.906 -3.711 28
-14.716 -8.886 -3.943 46
-14.169 -8.537 -3.913 11
-13.702 -8.235 -3.91 12
-13.252 -7.949 -3.91 14
-32.207 -24.609 -1.339 25
-32.095 -24.151 -1.694 24
-11.803 -8.753 1.14 0
0.0 -0.0 3.0 0
-13.171 -9.495 0.633 2
-11.912 -8.471 0.73 16
-12.895 -9.053 0.404 9
0.0 -0.0 3.0 0
-31.221 -21.386 -3.949 18
-13.186 -8.931 -0.075 6
-12.757 -8.541 -0.109 32
-31.59 -20.942 -5.039 21
-30.171 -19.801 -5.0 28
-12.696 -8.255 -0.504 10
-12.584 -8.111 -0.611 7
-12.633 -8.077 -0.766 8
-24.942 -15.822 -4.717 22
-23.726 -14.945 -4.615 5
-22.654 -14.178 -4.539 5
-21.668 -13.476 -4.47 6
-20.744 -12.832 -4.408 9
-15.864 -9.761 -2.865 34
-15.675 -9.601 -3.0 50
-18.444 -11.247 -4.304 4
-17.732 -10.774 -4.267 15
-15.178 -9.187 -3.433 23
-14.71 -8.878 -3.45 17
-14.862 -8.942 -3.738 18
-14.857 -8.918 -3.967 33
-14.232 -8.524 -3.903 11
-13.771 -8.228 -3.904 13
-13.317 -7.941 -3.903 14
-32.164 -24.432 -1.308 23
-32.058 -23.978 -1.661 24
0.0 -0.0 3.0 0
-11.683 -8.486 1.041 3
-12.653 -9.065 0.74 5
-12.72 -8.988 0.592 25
-11.872 -8.281 0.626 6
-13.355 -9.201 0.187 25
-31.134 -21.188 -3.884 11
-13.238 -8.907 -0.067 20
-12.746 -8.477 -0.085 25
-12.862 -8.47 -0.251 4
-12.774 -8.328 -0.365 0
-12.681 -8.192 -0.477 15
-12.602 -8.068 -0.592 58
-26.498 -16.828 -4.847 4
-25.102 -15.817 -4.715 22
-23.853 -14.926 -4.605 5
-22.796 -14.173 -4.536 6
-21.788 -13.462 -4.462 6
-20.868 -12.824 -4.404 9
-15.671 -9.579 -2.756 0
-15.706 -9.558 -2.973 38
-18.54 -11.234 -4.295 3
-17.823 -10.76 -4.258 20
-15.263 -9.181 -3.429 26
-14.755 -8.85 -3.43 20
-14.7 -8.791 -3.624 3
-14.931 -8.908 -3.96 19
-14.302 -8.514 -3.895 11
-13.836 -8.218 -3.896 15
-13.374 -7.93 -3.893 14
-32.126 -24.26 -1.278 26
-32.02 -23.807 -1.628 26
0.0 -0.0 3.0 0
-11.805 -8.523 1.032 19
-12.068 -8.591 0.858 3
-13.113 -9.207 0.533 10
-12.323 -8.541 0.551 16
-11.365 -7.779 0.622 19
-31.193 -21.091 -3.853 9
-13.209 -8.83 -0.04 22
-12.807 -8.462 -0.08 28
-12.527 -8.195 -0.146 9
-12.796 -8.287 -0.348 16
-12.561 -8.06 -0.421 17
-12.636 -8.036 -0.578 32
-26.661 -16.819 -4.843 4
-25.256 -15.807 -4.71 24
-24.011 -14.925 -4.604 5
-22.924 -14.158 -4.528 6
-21.911 -13.449 -4.455 6
-20.986 -12.812 -4.397 8
-15.728 -9.552 -2.739 3
-15.777 -9.539 -2.961 11
-18.606 -11.201 -4.274 3
-17.921 -10.75 -4.251 23
-15.325 -9.161 -3.414 8
-14.846 -8.849 -3.429 17
-15.534 -9.233 -3.957 31
-14.98 -8.883 -3.94 32
-14.365 -8.501 -3.884 10
-13.898 -8.207 -3.886 12
-13.439 -7.922 -3.886 15
-32.085 -24.086 -1.247 25
-31.977 -23.634 -1.594 25
-11.801 -8.593 1.173 0
-11.715 -8.405 1.06 7
-13.743 -9.722 0.576 23
-12.899 -9.0 0.589 32
-12.132 -8.355 0.604 15
-11.409 -7.759 0.628 21
-13.33 -8.955 0.09 2
-13.244 -8.795 -0.028 20
-12.874 -8.45 -0.076 29
-12.515 -8.133 -0.122 10
-12.508 -8.047 -0.251 18
-12.582 -8.02 -0.404 22
-12.654 -7.993 -0.559 40
-26.844 -16.821 -4.844 4
-25.423 -15.806 -4.709 25
-24.158 -14.916 -4.6 5
-23.07 -14.153 -4.525 5
-22.031 -13.433 -4.446 6
-21.104 -12.799 -4.389 9
-15.812 -9.54 -2.732 14
-19.451 -11.684 -4.301 35
-18.159 -10.862 -4.054 21
-18.012 -10.736 -4.242 24
-15.456 -9.181 -3.428 22
-14.894 -8.823 -3.41 22
-15.15 -8.949 -3.744 62
-15.071 -8.883 -3.94 38
-14.435 -8.491 -3.876 10
-13.957 -8.193 -3.875 12
-13.503 -7.913 -3.879 14
-32.043 -23.914 -1.217 25
-11.762 -8.642 1.32 0
-11.923 -8.629 1.166 0
-11.801 -8.416 1.057 5
-11.894 -8.363 0.915 1
-13.382 -9.277 0.514 20
-11.392 -7.796 0.765 0
-11.457 -7.741 0.633 9
-13.326 -8.893 0.11 1
-13.269 -8.754 -0.014 23
-12.912 -8.419 -0.064 21
-12.568 -8.113 -0.114 15
-12.522 -8.001 -0.233 40
-12.754 -8.075 -0.428 19
-12.691 -7.963 -0.545 9
-27.028 -16.823 -4.845 5
-25.59 -15.803 -4.708 27
-24.31 -14.909 -4.597 5
-23.212 -14.146 -4.521 5
-22.174 -13.43 -4.445 7
-21.222 -12.786 -4.382 9
-15.876 -9.516 -2.718 17
-19.555 -11.671 -4.293 33
-18.178 -10.804 -4.016 29
-18.113 -10.727 -4.236 17
-15.503 -9.151 -3.407 22
-14.93 -8.788 -3.385 22
-15.676 -9.203 -3.935 41
-15.126 -8.861 -3.923 39
-14.505 -8.481 -3.868 10
-14.016 -8.18 -3.863 12
-13.564 -7.904 -3.871 14
-32.009 -23.748 -1.187 24
-11.64 -8.501 1.348 16
-11.81 -8.496 1.194 14
-11.891 -8.427 1.055 4
-12.095 -8.451 0.893 3
-13.43 -9.253 0.521 18
-11.822 -8.038 0.695 74
-11.475 -7.704 0.645 2
-13.463 -8.926 0.1 11
-13.387 -8.773 -0.021 16
-12.983 -8.409 -0.061 24
-12.45 -7.983 -0.064 21
-12.566 -7.976 -0.222 13
-12.769 -8.03 -0.409 16
-26.923 -16.78 -4.471 2
-27.205 -16.819 -4.843 5
-25.751 -15.796 -4.704 30
-24.464 -14.904 -4.594 5
-23.344 -14.131 -4.514 5
-22.311 -13.423 -4.441 7
-21.337 -12.77 -4.373 9
-20.496 -12.204 -4.333 7
-19.669 -11.663 -4.288 34
-18.244 -10.773 -3.996 8
-18.207 -10.714 -4.227 13
-15.536 -9.113 -3.381 17
-15.001 -8.776 -3.376 20
-15.823 -9.232 -3.957 40
-15.197 -8.849 -3.914 35
-14.571 -8.47 -3.859 11
-14.085 -8.171 -3.857 12
-13.634 -7.899 -3.866 14
-31.975 -23.583 -1.158 25
-11.552 -8.386 1.37 11
-13.153 -9.404 1.001 10
-12.027 -8.471 1.044 15
-12.127 -8.42 0.901 3
-13.449 -9.207 0.533 17
-11.51 -7.776 0.77 5
-11.187 -7.462 0.719 0
-13.446 -8.857 0.122 2
-13.336 -8.683 0.01 24
-13.017 -8.375 -0.048 23
-12.473 -7.945 -0.05 22
-31.42 -19.81 -5.004 20
-12.693 -7.929 -0.366 13
-27.193 -16.834 -4.495 2
-27.396 -16.823 -4.845 5
-25.912 -15.788 -4.7 31
-24.613 -14.893 -4.589 5
-23.48 -14.119 -4.507 6
-22.448 -13.416 -4.436 5
-21.458 -12.758 -4.366 9
-20.609 -12.191 -4.325 7
-19.777 -11.65 -4.28 29
-18.801 -11.03 -4.163 15
-18.292 -10.696 -4.214 16
-15.621 -9.104 -3.375 16
-15.507 -9.015 -3.55 22
-15.909 -9.225 -3.952 20
-15.265 -8.835 -3.902 36
-14.641 -8.459 -3.85 11
-14.15 -8.16 -3.847 12
-13.692 -7.887 -3.856 13
-31.924 -23.407 -1.127 25
-11.673 -8.423 1.363 0
-11.899 -8.456 1.203 9
-12.147 -8.502 1.037 7
-12.113 -8.358 0.916 12
-12.241 -8.327 0.769 7
-11.114 -7.461 0.861 14
-11.399 -7.554 0.69 3
-12.025 -7.869 0.443 0
-13.335 -8.625 0.03 25
-12.426 -7.942 0.109 14
-12.47 -7.89 -0.029 7
-31.646 -19.818 -5.007 20
-12.714 -7.888 -0.348 30
-27.28 -16.774 -4.468 0
-27.573 -16.817 -4.842 5
-26.083 -15.784 -4.698 31
-24.768 -14.887 -4.585 5
-23.616 -14.105 -4.5 5
-22.585 -13.408 -4.432 5
-21.573 -12.741 -4.356 9
-20.722 -12.177 -4.317 7
-19.888 -11.639 -4.273 34
-19.107 -11.137 -4.232 7
-18.39 -10.684 -4.206 26
-15.736 -9.113 -3.381 26
-15.319 -8.85 -3.43 2
-15.956 -9.195 -3.929 35
-15.33 -8.818 -3.89 39
-14.714 -8.45 -3.843 11
-14.209 -8.146 -3.836 12
-13.75 -7.874 -3.845 13
-31.891 -23.245 -1.099 24
-11.601 -8.321 1.383 3
-11.464 -8.097 1.279 13
-11.873 -8.259 1.093 15
-12.041 -8.256 0.942 14
-12.195 -8.243 0.791 4
-11.378 -7.588 0.824 88
-11.284 -7.429 0.729 1
-12.05 -7.833 0.455 37
-12.261 -7.878 0.288 7
-12.409 -7.879 0.132 18
-12.493 -7.851 -0.014 17
-31.898 -19.842 -5.017 21
-12.72 -7.839 -0.327 42
-29.41 -17.961 -4.997 4
-27.755 -16.814 -4.84 6
-26.257 -15.783 -4.698 31
-24.92 -14.876 -4.58 5
-23.762 -14.098 -4.496 5
-22.716 -13.395 -4.425 6
-21.698 -12.729 -4.349 10
-20.845 -12.168 -4.311 8
-19.996 -11.625 -4.264 33
-19.193 -11.115 -4.218 15
-18.484 -10.67 -4.197 27
-15.842 -9.116 -3.383 15
-15.276 -8.77 -3.372 2
-15.547 -8.905 -3.71 20
-15.424 -8.818 -3.89 26
-14.781 -8.438 -3.833 10
-14.271 -8.134 -3.825 12
-13.814 -7.865 -3.837 14
-11.441 -8.29 1.538 23
-11.502 -8.2 1.406 0
-10.948 -7.685 1.366 21
-10.87 -7.514 1.265 0
-13.919 -9.484 0.635 35
-11.908 -7.998 0.857 0
-11.398 -7.553 0.834 2
-11.212 -7.334 0.758 21
-11.466 -7.405 0.594 19
-12.356 -7.886 0.285 0
-12.511 -7.891 0.128 27
-12.466 -7.782 0.013 33
-32.145 -19.861 -5.024 27
-12.744 -7.8 -0.311 6
-29.604 -17.957 -4.995 4
-27.936 -16.809 -4.838 5
-26.426 -15.776 -4.695 33
-25.092 -14.878 -4.581 4
-23.905 -14.087 -4.49 5
-22.85 -13.383 -4.418 7
-21.83 -12.721 -4.345 9
-20.948 -12.148 -4.299 7
-20.104 -11.611 -4.255 36
-19.319 -11.114 -4.218 8
-18.576 -10.654 -4.186 28
-15.937 -9.113 -3.381 15
-15.273 -8.713 -3.33 12
-15.645 -8.905 -3.71 19
-15.469 -8.79 -3.868 40
-14.85 -8.427 -3.824 11
-14.333 -8.121 -3.815 14
-13.878 -7.855 -3.829 20
-13.495 -9.721 1.286 0
-10.917 -7.736 1.496 16
-10.964 -7.65 1.374 21
-10.899 -7.488 1.271 11
-13.535 -9.164 0.715 23
-11.396 -7.605 0.962 0
-11.204 -7.377 0.885 14
-11.348 -7.374 0.746 10
-12.117 -7.773 0.474 6
-12.488 -7.918 0.274 84
-12.654 -7.927 0.115 11
-12.425 -7.705 0.042 27
-32.378 -19.869 -5.028 21
-31.598 -19.21 -5.154 14
-29.816 -17.963 -4.998 4
-28.121 -16.805 -4.836 6
-26.578 -15.759 -4.686 10
-25.254 -14.872 -4.578 5
-24.052 -14.077 -4.485 5
-22.974 -13.366 -4.409 7
-21.955 -12.709 -4.337 9
-21.068 -12.136 -4.292 7
-20.212 -11.597 -4.247 38
-19.432 -11.107 -4.213 7
-18.677 -10.643 -4.179 27
-16.049 -9.119 -3.385 16
-15.327 -8.69 -3.313 15
-15.825 -8.951 -3.745 39
-15.55 -8.783 -3.862 35
-14.914 -8.412 -3.812 11
-14.402 -8.112 -3.807 12
-13.933 -7.841 -3.816 16
-13.575 -9.72 1.286 3
-10.916 -7.689 1.505 3
-10.883 -7.547 1.396 29
-10.984 -7.5 1.269 1
-11.909 -8.012 1.002 3
-11.443 -7.588 0.967 5
-11.29 -7.385 0.882 12
-12.077 -7.797 0.616 10
-12.507 -7.971 0.41 3
-12.448 -7.839 0.301 27
-12.553 -7.811 0.157 12
-12.431 -7.655 0.061 22
-32.616 -19.879 -5.032 21
-31.818 -19.212 -5.155 15
-30.039 -17.973 -5.002 4
-28.31 -16.802 -4.835 5
-26.763 -15.761 -4.687 8
-25.417 -14.866 -4.575 5
-24.208 -14.073 -4.483 5
-23.111 -13.355 -4.403 6
-22.081 -12.696 -4.33 9
-21.189 -12.125 -4.285 7
-20.331 -11.588 -4.241 29
-19.535 -11.093 -4.204 7
-18.775 -10.63 -4.17 25
-16.089 -9.083 -3.36 19
-15.582 -8.778 -3.378 13
-15.763 -8.861 -3.677 38
-15.625 -8.771 -3.853 29
-14.984 -8.401 -3.803 11
-14.471 -8.102 -3.799 12
-13.994 -7.83 -3.806 20
-13.681 -9.738 1.283 8
-11.03 -7.723 1.499 12
-11.444 -7.888 1.323 8
-11.101 -7.533 1.261 33
-11.232 -7.509 1.128 14
-11.381 -7.498 0.991 4
-11.237 -7.303 0.906 14
-12.527 -8.034 0.544 2
-11.487 -7.273 0.637 7
-12.616 -7.892 0.282 14
-12.609 -7.793 0.164 9
-12.503 -7.649 0.064 28
-12.798 -7.747 -0.13 7
-32.05 -19.221 -5.159 13
-30.244 -17.972 -5.002 4
-28.495 -16.797 -4.832 5
-26.935 -15.754 -4.684 7
-25.58 -14.859 -4.571 5
-24.352 -14.06 -4.476 5
-23.246 -13.342 -4.396 6
-22.203 -12.68 -4.321 8
-21.285 -12.099 -4.27 7
-20.446 -11.577 -4.234 8
-19.639 -11.078 -4.194 7
-18.877 -10.619 -4.162 24
-16.182 -9.077 -3.356 27
-15.664 -8.769 -3.371 13
-16.152 -9.024 -3.8 21
-15.69 -8.753 -3.839 31
-15.057 -8.391 -3.795 11
-14.529 -8.087 -3.786 12
-14.058 -7.82 -3.798 20
-10.941 -7.741 1.635 0
-11.065 -7.701 1.503 7
-10.986 -7.525 1.4 19
-11.147 -7.516 1.265 6
-12.037 -7.997 1.006 6
-11.344 -7.427 1.01 17
-11.33 -7.315 0.902 10
-12.29 -7.83 0.606 1
-11.557 -7.269 0.638 0
-12.742 -7.918 0.274 23
-12.628 -7.752 0.179 24
-12.478 -7.581 0.09 7
-12.81 -7.702 -0.112 43
-32.26 -19.214 -5.156 14
-30.461 -17.977 -5.004 4
-28.698 -16.8 -4.834 5
-27.111 -15.748 -4.681 7
-25.742 -14.852 -4.567 5
-24.482 -14.039 -4.464 6
-23.377 -13.326 -4.387 7
-22.335 -12.67 -4.315 8
-21.409 -12.088 -4.263 7
-20.547 -11.558 -4.222 7
-19.749 -11.068 -4.187 7
-16.859 -9.422 -3.355 1
-16.297 -9.083 -3.36 15
-15.732 -8.751 -3.358 16
-15.936 -8.847 -3.667 18
-15.712 -8.712 -3.807 22
-15.123 -8.378 -3.784 10
-14.598 -8.077 -3.778 12
-14.116 -7.807 -3.786 20
-10.96 -7.709 1.641 16
-11.052 -7.645 1.514 1
-11.018 -7.501 1.406 35
-11.104 -7.441 1.282 20
-11.909 -7.862 1.04 8
-11.53 -7.499 0.991 5
-11.785 -7.559 0.832 0
-12.105 -7.662 0.658 10
-12.447 -7.776 0.473 27
-13.117 -8.096 0.212 22
-12.647 -7.711 0.193 20
-35.186 -21.232 -5.15 17
-12.843 -7.668 -0.098 24
-32.494 -19.221 -5.159 15
-30.69 -17.988 -5.009 6
-28.89 -16.797 -4.832 6
-27.284 -15.739 -4.676 7
-25.906 -14.844 -4.563 5
-24.636 -14.03 -4.46 5
-23.525 -13.32 -4.383 7
-22.457 -12.653 -4.305 9
-21.519 -12.068 -4.251 7
-19.898 -11.118 -3.947 22
-19.852 -11.052 -4.177 7
-19.083 -10.595 -4.147 12
-16.347 -9.053 -3.339 19
-16.081 -8.889 -3.458 14
-16.432 -9.066 -3.832 30
-15.75 -8.68 -3.782 13
-15.197 -8.367 -3.775 12
-14.67 -8.069 -3.771 12
-14.177 -7.794 -3.776 22
-10.959 -7.663 1.649 29
-10.995 -7.56 1.531 22
-10.876 -7.359 1.436 10
-11.192 -7.453 1.279 10
-11.522 -7.558 1.116 3
-11.815 -7.636 0.954 4
-11.672 -7.439 0.867 1
-11.912 -7.49 0.71 2
-11.785 -7.313 0.624 1
-13.22 -8.105 0.209 21
-12.645 -7.659 0.212 10
-13.515 -8.099 -0.109 2
-12.876 -7.635 -0.085 6
-32.721 -19.221 -5.159 14
-30.911 -17.993 -5.011 5
-29.084 -16.792 -4.83 5
-27.47 -15.737 -4.676 7
-26.069 -14.834 -4.559 5
-24.79 -14.021 -4.455 6
-23.656 -13.302 -4.374 7
-22.587 -12.64 -4.298 8
-21.64 -12.055 -4.243 7
-19.985 -11.092 -3.931 255
-19.952 -11.035 -4.166 7
-19.185 -10.583 -4.138 9
-16.39 -9.019 -3.315 15
-16.107 -8.847 -3.428 5
-16.099 -8.827 -3.652 25
-15.815 -8.662 -3.767 13
-15.263 -8.353 -3.764 11
-14.735 -8.057 -3.761 13
-14.235 -7.781 -3.764 21
-10.977 -7.629 1.655 3
-11.043 -7.547 1.533 4
-11.823 -7.951 1.31 47
-11.734 -7.765 1.207 8
-11.638 -7.586 1.109 0
-11.829 -7.595 0.965 10
-11.815 -7.481 0.855 27
-11.657 -7.282 0.774 9
-11.637 -7.174 0.669 9
-13.351 -8.13 0.201 22
-12.684 -7.629 0.223 19
-35.678 -21.236 -5.152 25
-12.749 -7.509 -0.034 26
-32.941 -19.218 -5.157 14
-31.104 -17.98 -5.005 10
-29.284 -16.791 -4.83 6
-27.657 -15.735 -4.674 7
-26.233 -14.825 -4.554 5
-24.941 -14.009 -4.449 5
-23.785 -13.283 -4.363 7
-22.723 -12.629 -4.292 9
-21.76 -12.04 -4.234 7
-20.038 -11.047 -3.903 36
-20.069 -11.026 -4.16 7
-17.211 -9.432 -3.362 1
-16.389 -8.96 -3.274 15
-16.209 -8.846 -3.427 5
-16.32 -8.892 -3.701 31
-15.89 -8.649 -3.758 13
-15.333 -8.341 -3.754 12
-14.801 -8.045 -3.751 13
-14.296 -7.769 -3.753 19
-11.588 -8.007 1.588 2
-11.2 -7.608 1.521 7
-11.292 -7.546 1.396 32
-11.621 -7.642 1.236 27
-11.784 -7.631 1.097 19
-11.659 -7.438 1.007 13
-11.625 -7.311 0.903 2
-11.637 -7.221 0.792 19
-11.872 -7.269 0.638 0
-13.438 -8.128 0.201 23
-12.625 -7.542 0.255 11
-35.883 -21.212 -5.142 21
-12.798 -7.486 -0.025 30
-33.173 -19.218 -5.158 12
-31.352 -17.997 -5.013 7
-29.464 -16.777 -4.823 5
-27.834 -15.726 -4.67 7
-26.4 -14.816 -4.549 5
-25.102 -14.003 -4.445 5
-23.933 -13.274 -4.358 7
-22.852 -12.615 -4.283 9
-21.878 -12.023 -4.224 7
-21.008 -11.505 -4.189 7
-20.176 -11.012 -4.151 7
-17.169 -9.348 -3.305 9
-16.505 -8.965 -3.277 20
-16.224 -8.799 -3.392 0
-16.64 -9.01 -3.79 30
-15.967 -8.638 -3.749 13
-15.4 -8.326 -3.742 11
-14.866 -8.032 -3.74 14
-14.357 -7.757 -3.743 19
-11.568 -7.945 1.599 18
-11.146 -7.525 1.537 28
-11.258 -7.478 1.411 22
-11.415 -7.459 1.278 15
-11.667 -7.508 1.128 8
-11.665 -7.394 1.019 9
-11.614 -7.257 0.919 0
-11.673 -7.196 0.8 14
-11.993 -7.294 0.63 4
-11.847 -7.117 0.549 0
-12.646 -7.504 0.269 25
-12.935 -7.594 0.085 24
-12.854 -7.466 -0.016 19
-33.384 -19.207 -5.153 13
-31.563 -17.993 -5.011 4
-29.674 -16.779 -4.824 5
-28.027 -15.725 -4.67 7
-26.564 -14.804 -4.543 5
-25.243 -13.984 -4.435 5
-24.055 -13.25 -4.345 7
-22.985 -12.602 -4.276 9
-21.998 -12.008 -4.215 5
-20.484 -11.143 -3.963 7
-20.276 -10.993 -4.139 7
-17.427 -9.426 -3.358 5
-16.571 -8.943 -3.262 18
-16.14 -8.697 -3.319 14
-16.444 -8.848 -3.667 29
-16.035 -8.622 -3.736 12
-15.473 -8.316 -3.734 11
-14.938 -8.023 -3.732 13
-14.424 -7.747 -3.735 23
-11.548 -7.884 1.61 21
-11.178 -7.501 1.542 16
-11.243 -7.422 1.422 13
-11.52 -7.481 1.273 11
-11.733 -7.502 1.13 8
-11.617 -7.316 1.04 7
-13.733 -8.525 0.555 14
-11.635 -7.124 0.822 12
-11.828 -7.145 0.678 11
-11.89 -7.095 0.557 5
-12.667 -7.465 0.283 8
-12.96 -7.556 0.1 38
-12.896 -7.438 -0.005 12
-33.599 -19.196 -5.148 12
-31.788 -17.994 -5.011 4
-29.906 -16.792 -4.83 11
-28.198 -15.711 -4.663 7
-26.738 -14.798 -4.54 5
-25.414 -13.982 -4.434 6
-24.187 -13.231 -4.334 7
-23.111 -12.584 -4.266 9
-22.116 -11.99 -4.204 7
-21.226 -11.468 -4.166 7
-20.39 -10.981 -4.131 7
-17.495 -9.4 -3.341 14
-16.667 -8.936 -3.257 17
-16.305 -8.73 -3.343 5
-16.633 -8.894 -3.702 36
-16.113 -8.61 -3.727 13
-15.539 -8.3 -3.721 11
-15.01 -8.014 -3.724 12
-14.485 -7.735 -3.724 20
-11.564 -7.848 1.616 4
-11.203 -7.472 1.548 27
-11.242 -7.375 1.432 22
-12.249 -7.904 1.175 8
-11.495 -7.303 1.179 15
-12.402 -7.759 0.921 7
-13.713 -8.457 0.575 24
-13.18 -8.017 0.549 19
-13.654 -8.193 0.338 10
-46.868 -27.773 -6.563 2
-12.41 -7.263 0.357 12
-13.009 -7.532 0.109 1
-12.935 -7.409 0.007 25
-33.807 -19.18 -5.141 11
-32.027 -18.002 -5.015 4
-30.086 -16.775 -4.822 19
-28.392 -15.708 -4.661 7
-26.909 -14.789 -4.535 5
-25.566 -13.967 -4.426 6
-24.332 -13.219 -4.327 7
-23.248 -12.572 -4.258 8
-22.24 -11.975 -4.195 7
-21.345 -11.455 -4.158 8
-20.493 -10.963 -4.12 7
-17.572 -9.38 -3.327 7
-16.743 -8.919 -3.245 16
-16.57 -8.815 -3.405 5
-16.875 -8.966 -3.756 45
-16.191 -8.598 -3.717 12
-15.613 -8.289 -3.712 11
-15.079 -8.003 -3.715 13
-14.546 -7.721 -3.712 20
-11.415 -7.7 1.642 10
-11.496 -7.621 1.519 27
-11.2 -7.302 1.448 21
-11.762 -7.541 1.259 0
-11.732 -7.406 1.154 12
-11.655 -7.244 1.059 8
-12.265 -7.514 0.846 37
-12.938 -7.816 0.61 0
-12.548 -7.478 0.57 12
-47.304 -27.841 -6.586 2
-12.383 -7.197 0.381 8
-36.957 -21.25 -5.157 21
-12.881 -7.327 0.04 23
-34.029 -19.17 -5.137 10
-32.259 -18.006 -5.017 5
-30.329 -16.791 -4.83 15
-28.584 -15.703 -4.659 7
-27.084 -14.78 -4.531 5
-25.731 -13.96 -4.422 6
-24.481 -13.207 -4.321 8
-23.374 -12.554 -4.248 8
-22.361 -11.958 -4.185 7
-20.584 -10.972 -3.856 73
-20.493 -10.89 -4.072 30
-17.633 -9.35 -3.307 10
-16.866 -8.926 -3.25 25
-17.58 -9.293 -3.752 17
-17.001 -8.976 -3.764 31
-16.269 -8.586 -3.708 12
-15.692 -8.28 -3.705 19
-15.147 -7.991 -3.705 13
-14.62 -7.715 -3.707 15
-11.559 -7.751 1.633 24
-11.584 -7.633 1.516 4
-11.288 -7.313 1.446 26
-11.382 -7.252 1.326 22
-11.882 -7.452 1.142 10
-11.583 -7.153 1.083 9
-12.515 -7.615 0.816 21
-13.637 -8.184 0.498 1
-12.541 -7.423 0.588 29
-12.977 -7.585 0.388 2
-12.393 -7.153 0.396 24
-12.414 -7.088 0.279 0
-12.902 -7.288 0.056 19
-34.234 -19.15 -5.129 10
-32.482 -18.002 -5.015 5
-30.53 -16.784 -4.826 15
-28.778 -15.698 -4.657 7
-27.252 -14.768 -4.525 5
-25.879 -13.942 -4.413 6
-24.617 -13.188 -4.31 7
-23.511 -12.54 -4.24 9
-22.485 -11.942 -4.176 7
-20.599 -10.906 -3.815 255
-20.535 -10.84 -4.039 19
-17.731 -9.341 -3.3 13
-16.841 -8.855 -3.2 22
-16.826 -8.837 -3.42 15
-17.09 -8.966 -3.757 37
-16.346 -8.574 -3.698 12
-15.762 -8.267 -3.694 11
-15.223 -7.983 -3.699 14
-14.688 -7.706 -3.699 15
-11.561 -7.706 1.641 1
-11.117 -7.28 1.585 35
-11.57 -7.449 1.417 18
-11.414 -7.227 1.332 30
-11.76 -7.328 1.173 3
-11.602 -7.117 1.093 6
-12.4 -7.496 0.851 10
-12.512 -7.458 0.72 10
-12.545 -7.376 0.604 22
-13.168 -7.644 0.368 1
-12.499 -7.164 0.393 19
-12.578 -7.132 0.262 0
-12.961 -7.269 0.063 24
-34.453 -19.138 -5.123 9
-32.718 -18.005 -5.016 5
-30.746 -16.783 -4.826 13
-28.974 -15.693 -4.654 7
-27.423 -14.756 -4.518 4
-26.045 -13.933 -4.408 6
-24.763 -13.174 -4.302 8
-23.644 -12.524 -4.231 9
-22.613 -11.928 -4.167 7
-20.615 -10.84 -3.774 255
-20.632 -10.817 -4.025 9
-17.826 -9.328 -3.292 16
-17.305 -9.039 -3.329 22
-16.935 -8.837 -3.42 19
-17.15 -8.94 -3.737 44
-16.428 -8.562 -3.689 13
-15.842 -8.258 -3.687 12
-15.288 -7.969 -3.687 14
-14.752 -7.695 -3.689 15
-12.781 -8.469 1.507 9
-11.395 -7.417 1.558 18
0.0 -0.0 3.0 0
-11.402 -7.174 1.344 7
-11.698 -7.243 1.194 13
-11.603 -7.072 1.105 15
-12.505 -7.509 0.847 5
-12.522 -7.414 0.733 22
-12.626 -7.373 0.604 21
-13.278 -7.655 0.364 27
-12.638 -7.193 0.382 29
-12.907 -7.266 0.211 4
-12.965 -7.22 0.083 25
-34.683 -19.129 -5.12 8
-32.969 -18.015 -5.021 5
-30.965 -16.783 -4.826 14
-29.172 -15.689 -4.652 7
-27.599 -14.745 -4.513 4
-26.211 -13.923 -4.403 6
-24.899 -13.154 -4.291 6
-23.781 -12.509 -4.222 9
-22.735 -11.909 -4.156 7
-20.62 -10.768 -3.729 255
-20.515 -10.683 -3.938 32
-17.948 -9.329 -3.293 19
-17.149 -8.898 -3.231 18
-16.802 -8.711 -3.329 25
-17.209 -8.915 -3.718 48
-16.502 -8.548 -3.678 12
-15.919 -8.247 -3.679 11
-15.357 -7.958 -3.677 20
-14.819 -7.684 -3.68 15
-12.864 -8.472 1.506 18
-11.44 -7.4 1.562 1
-11.738 -7.463 1.414 8
-11.43 -7.145 1.35 20
-11.625 -7.151 1.217 13
-11.598 -7.022 1.118 19
-12.559 -7.491 0.852 8
-12.597 -7.408 0.735 21
-12.66 -7.342 0.615 10
-12.852 -7.358 0.466 22
-12.59 -7.116 0.41 13
-12.77 -7.139 0.26 16
-13.01 -7.195 0.093 6
-34.892 -19.107 -5.111 8
-33.202 -18.013 -5.02 4
-31.182 -16.779 -4.824 15
-29.378 -15.688 -4.651 7
-27.767 -14.731 -4.506 4
-26.376 -13.912 -4.397 6
-25.048 -13.139 -4.283 6
-23.922 -12.495 -4.214 7
-20.746 -10.793 -3.485 35
-20.631 -10.701 -3.687 255
-21.023 -10.874 -4.062 8
-17.971 -9.28 -3.259 18
-17.211 -8.873 -3.213 18
-17.039 -8.777 -3.377 17
-17.312 -8.911 -3.715 37
-16.573 -8.531 -3.665 15
-15.989 -8.233 -3.667 11
-15.429 -7.947 -3.668 20
-14.894 -7.677 -3.674 14
-11.066 -7.245 1.723 15
-11.668 -7.502 1.542 1
-11.259 -7.114 1.488 16
-11.36 -7.056 1.371 14
-11.42 -6.979 1.26 21
-11.518 -6.928 1.144 7
-12.762 -7.562 0.832 20
-12.685 -7.409 0.735 13
-12.81 -7.378 0.603 20
-12.91 -7.34 0.473 16
-12.607 -7.076 0.425 16
-12.728 -7.065 0.288 24
-13.027 -7.153 0.11 6
-35.123 -19.097 -5.106 9
-33.454 -18.02 -5.023 5
-31.409 -16.781 -4.825 14
-29.567 -15.675 -4.645 7
-27.96 -14.727 -4.504 4
-26.549 -13.904 -4.393 6
-25.205 -13.128 -4.277 3
-24.063 -12.48 -4.205 7
-20.761 -10.725 -3.444 26
-20.639 -10.631 -3.643 255
-21.018 -10.798 -4.012 24
-18.056 -9.26 -3.246 17
-17.661 -9.044 -3.333 7
-17.115 -8.759 -3.364 20
-17.374 -8.887 -3.697 36
-16.651 -8.518 -3.655 26
-16.069 -8.224 -3.659 12
-15.498 -7.934 -3.657 16
-14.955 -7.663 -3.662 14
-11.133 -7.245 1.723 18
-11.743 -7.503 1.541 21
-11.3 -7.095 1.492 1
-12.155 -7.501 1.268 23
-11.458 -6.957 1.265 26
-11.587 -6.923 1.145 0
-13.434 -7.906 0.733 5
-12.709 -7.372 0.746 7
-12.782 -7.311 0.625 11
-13.318 -7.52 0.411 8
-12.64 -7.044 0.436 26
-12.8 -7.055 0.292 10
-13.006 -7.09 0.135 6
-35.353 -19.084 -5.101 8
-33.695 -18.019 -5.023 5
-31.625 -16.776 -4.823 17
-29.774 -15.672 -4.644 7
-28.157 -14.724 -4.502 4
-26.712 -13.89 -4.385 6
-25.344 -13.108 -4.266 4
-24.193 -12.46 -4.194 7
-23.123 -11.863 -4.128 7
-20.643 -10.56 -3.599 255
-20.992 -10.712 -3.956 26
-18.093 -9.218 -3.218 22
-17.795 -9.053 -3.339 51
-17.448 -8.872 -3.446 22
-17.454 -8.87 -3.684 36
-16.732 -8.506 -3.646 13
-16.149 -8.214 -3.651 12
-15.57 -7.923 -3.649 18
-15.022 -7.653 -3.653 14
-11.652 -7.537 1.671 2
-12.369 -7.855 1.473 14
-11.28 -7.039 1.504 9
-12.042 -7.384 1.295 21
-11.788 -7.11 1.227 15
-12.674 -7.522 0.984 3
-13.332 -7.794 0.765 9
-13.205 -7.608 0.674 1
-12.861 -7.305 0.626 14
-12.82 -7.187 0.525 28
-12.784 -7.075 0.425 24
-13.027 -7.129 0.264 3
-13.058 -7.068 0.144 1
-35.58 -19.07 -5.095 9
-33.95 -18.026 -5.026 4
-31.842 -16.769 -4.82 15
-29.981 -15.667 -4.641 29
-28.336 -14.712 -4.496 4
-26.879 -13.876 -4.378 6
-25.505 -13.097 -4.26 4
-24.324 -12.439 -4.182 6
-23.251 -11.845 -4.117 7
-20.667 -10.5 -3.561 52
-21.349 -10.82 -4.026 7
-18.208 -9.214 -3.215 16
-17.838 -9.015 -3.312 26
-17.633 -8.908 -3.472 24
-17.547 -8.861 -3.677 35
-16.817 -8.496 -3.638 12
-16.229 -8.204 -3.644 11
-15.655 -7.919 -3.645 15
-15.09 -7.642 -3.643 15
-17.243 -11.086 1.045 9
-12.489 -7.883 1.468 35
-11.311 -7.014 1.509 0
-12.182 -7.423 1.286 32
-11.795 -7.069 1.238 18
-12.756 -7.521 0.985 5
-13.48 -7.827 0.756 4
-65.234 -37.328 -8.412 5
-12.936 -7.297 0.629 19
-12.812 -7.133 0.544 14
-12.859 -7.065 0.428 20
-13.199 -7.172 0.247 11
-37.2 -19.991 -5.077 24
-35.811 -19.056 -5.089 8
-34.206 -18.031 -5.028 5
-32.074 -16.769 -4.82 12
-30.16 -15.648 -4.632 40
-28.519 -14.701 -4.49 4
-27.056 -13.868 -4.374 6
-25.638 -13.072 -4.246 5
-24.461 -12.421 -4.171 6
-23.376 -11.826 -4.106 7
-20.815 -10.502 -3.563 26
-21.487 -10.816 -4.024 7
-18.378 -9.237 -3.231 22
-17.707 -8.89 -3.225 21
-17.549 -8.808 -3.399 0
-17.609 -8.835 -3.658 40
-16.895 -8.481 -3.626 15
-16.312 -8.196 -3.637 12
-15.734 -7.911 -3.638 15
-15.167 -7.636 -3.637 15
-17.928 -11.456 0.98 10
-12.451 -7.81 1.482 49
-12.536 -7.724 1.358 41
-12.18 -7.374 1.298 29
-11.817 -7.035 1.246 20
-13.363 -7.827 0.903 9
-13.398 -7.726 0.785 3
-13.235 -7.522 0.7 1
-12.987 -7.275 0.636 8
-13.267 -7.334 0.475 18
-12.924 -7.05 0.434 13
-13.206 -7.125 0.265 21
-37.558 -20.038 -5.096 22
-36.036 -19.036 -5.08 8
-34.442 -18.023 -5.025 5
-32.27 -16.749 -4.81 9
-30.364 -15.639 -4.628 40
-28.699 -14.687 -4.483 4
-27.229 -13.856 -4.368 6
-25.802 -13.062 -4.24 4
-24.588 -12.398 -4.158 6
-23.508 -11.81 -4.096 7
-21.951 -10.999 -3.873 21
-21.595 -10.795 -4.01 7
-18.37 -9.172 -3.186 34
-17.678 -8.816 -3.173 24
-17.66 -8.805 -3.397 17
-17.689 -8.818 -3.645 28
-16.973 -8.467 -3.615 13
-16.382 -8.18 -3.624 12
-15.799 -7.896 -3.626 20
-15.235 -7.625 -3.628 14
-12.242 -7.776 1.629 4
-12.288 -7.659 1.511 8
-12.074 -7.393 1.429 23
-12.11 -7.285 1.318 16
-12.36 -7.311 1.177 14
-16.92 -9.843 0.362 24
-13.652 -7.82 0.758 4
-13.225 -7.464 0.718 0
-13.124 -7.3 0.628 35
-13.363 -7.335 0.474 15
-13.255 -7.18 0.387 18
-13.236 -7.09 0.279 13
-37.858 -20.052 -5.102 23
-36.267 -19.02 -5.073 8
-34.712 -18.033 -5.029 5
-32.54 -16.768 -4.819 4
-30.575 -15.633 -4.625 41
-28.893 -14.679 -4.479 4
-27.393 -13.84 -4.359 6
-25.969 -13.053 -4.235 4
-24.726 -12.378 -4.147 6
-23.633 -11.789 -4.083 4
-22.622 -11.256 -4.033 6
-21.713 -10.78 -4.001 7
-18.427 -9.138 -3.164 35
-17.764 -8.8 -3.162 26
-17.609 -8.723 -3.337 23
-17.778 -8.806 -3.636 33
-17.058 -8.456 -3.606 13
-16.462 -8.169 -3.615 11
-15.878 -7.888 -3.619 15
-15.305 -7.615 -3.62 15
-12.278 -7.752 1.633 3
-12.337 -7.643 1.514 6
-12.119 -7.373 1.433 21
-12.947 -7.737 1.214 11
-12.506 -7.349 1.168 2
-12.683 -7.33 1.036 6
-13.439 -7.645 0.808 3
-66.196 -37.102 -8.343 25
-13.005 -7.184 0.666 11
-13.037 -7.106 0.553 18
-13.206 -7.102 0.415 36
-13.235 -7.039 0.298 18
-38.162 -20.067 -5.108 22
-34.093 -17.75 -4.534 17
-34.972 -18.036 -5.03 5
-32.769 -16.762 -4.816 4
-30.782 -15.625 -4.621 40
-29.067 -14.66 -4.47 5
-27.563 -13.824 -4.351 6
-26.155 -13.051 -4.234 6
-24.871 -12.362 -4.137 5
-22.017 -10.905 -3.552 0
-22.748 -11.24 -4.024 7
-18.507 -9.125 -2.926 13
-18.518 -9.121 -3.152 22
-17.854 -8.786 -3.152 20
-17.665 -8.692 -3.315 22
-17.861 -8.79 -3.624 31
-17.142 -8.444 -3.597 15
-16.542 -8.158 -3.607 11
-15.94 -7.87 -3.604 19
-15.373 -7.603 -3.609 15
-13.284 -8.336 1.53 20
-13.429 -8.268 1.393 21
-12.062 -7.292 1.45 9
-12.56 -7.457 1.278 25
-12.795 -7.469 1.138 11
-16.413 -9.421 0.476 21
-13.462 -7.607 0.819 10
-66.441 -36.983 -8.307 20
-13.198 -7.239 0.648 15
-13.091 -7.085 0.561 25
-12.906 -6.892 0.492 18
-13.283 -7.013 0.308 20
-38.473 -20.083 -5.114 24
-34.083 -17.615 -4.477 16
-35.233 -18.037 -5.03 5
-33.005 -16.759 -4.815 4
-30.997 -15.618 -4.618 39
-29.278 -14.659 -4.469 4
-27.745 -13.815 -4.345 6
-26.288 -13.023 -4.219 6
-25.019 -12.347 -4.128 5
-23.912 -11.76 -4.066 4
-22.872 -11.222 -4.012 7
-18.453 -9.036 -2.868 35
-18.644 -9.12 -3.152 8
-17.975 -8.786 -3.152 22
-17.768 -8.686 -3.311 5
-17.944 -8.774 -3.612 23
-17.224 -8.43 -3.586 14
-16.612 -8.142 -3.593 12
-16.015 -7.86 -3.595 18
-15.447 -7.595 -3.602 15
-13.264 -8.272 1.541 23
-13.599 -8.321 1.383 3
-12.035 -7.23 1.463 11
-12.53 -7.392 1.294 8
-12.938 -7.502 1.13 21
-12.68 -7.229 1.063 2
-13.742 -7.712 0.789 8
-66.73 -36.886 -8.277 22
-13.048 -7.106 0.691 16
-13.538 -7.275 0.495 16
-12.887 -6.832 0.513 12
-41.36 -21.678 -5.321 20
-38.789 -20.101 -5.121 17
-34.07 -17.479 -4.42 33
-35.494 -18.037 -5.031 6
-33.248 -16.759 -4.815 5
-31.209 -15.61 -4.613 35
-29.469 -14.647 -4.463 4
-27.922 -13.801 -4.338 5
-26.446 -13.006 -4.209 6
-25.178 -12.336 -4.122 6
-24.027 -11.733 -4.05 4
-22.995 -11.204 -4.001 8
-18.475 -8.984 -2.834 38
-18.646 -9.059 -3.11 5
-18.206 -8.84 -3.189 6
-18.554 -9.011 -3.547 18
-18.02 -8.754 -3.597 30
-17.312 -8.42 -3.579 13
-16.696 -8.133 -3.586 12
-16.087 -7.847 -3.585 15
-15.511 -7.581 -3.59 15
-13.134 -8.143 1.564 11
-15.418 -9.375 1.178 15
-12.698 -7.58 1.389 51
-12.274 -7.194 1.339 38
-12.957 -7.464 1.139 1
-12.674 -7.177 1.077 9
-13.676 -7.622 0.814 17
-17.006 -9.335 0.146 11
-12.956 -7.007 0.723 15
-14.123 -7.535 0.405 22
-12.885 -6.781 0.532 19
-41.732 -21.713 -5.335 18
-34.082 -17.532 -4.084 30
-34.052 -17.341 -4.361 31
-35.755 -18.036 -5.03 5
-33.471 -16.746 -4.809 29
-31.431 -15.605 -4.611 37
-29.671 -14.638 -4.458 4
-28.093 -13.784 -4.329 6
-26.625 -12.999 -4.206 7
-25.323 -12.317 -4.112 6
-24.166 -11.716 -4.04 4
-18.491 -8.945 -2.59 3
-18.514 -8.94 -2.806 29
-18.772 -9.058 -3.11 0
-18.231 -8.792 -3.156 20
0.0 -0.0 3.0 0
-18.086 -8.729 -3.578 17
-17.397 -8.408 -3.569 14
-16.769 -8.118 -3.573 12
-16.163 -7.837 -3.576 14
-15.582 -7.571 -3.581 15
-16.324 -10.058 1.226 0
-13.469 -8.139 1.418 12
-12.539 -7.438 1.419 18
-12.179 -7.092 1.363 15
-12.659 -7.244 1.194 2
-12.765 -7.18 1.076 1
-13.89 -7.688 0.795 19
-13.685 -7.459 0.719 1
-12.727 -6.834 0.779 11
-13.844 -7.333 0.475 3
-13.096 -6.843 0.509 2
-42.067 -21.728 -5.341 20
-34.06 -17.392 -4.027 21
-34.02 -17.197 -4.3 36
-34.004 -17.025 -4.58 20
-33.743 -16.757 -4.814 14
-31.654 -15.599 -4.608 36
-29.87 -14.628 -4.453 4
-28.268 -13.769 -4.321 6
-26.783 -12.981 -4.195 7
-25.472 -12.3 -4.102 6
-24.288 -11.691 -4.025 4
-18.457 -8.866 -2.54 31
-18.602 -8.921 -2.793 6
-20.588 -9.866 -3.655 9
-18.149 -8.693 -3.087 20
-18.911 -9.063 -3.585 21
-18.134 -8.696 -3.553 13
-17.478 -8.393 -3.558 13
-16.852 -8.107 -3.565 12
-16.231 -7.822 -3.563 16
-15.656 -7.562 -3.574 15
-16.369 -10.025 1.232 16
-13.236 -7.948 1.455 27
-12.033 -7.091 1.493 24
-12.485 -7.223 1.333 27
-12.666 -7.2 1.205 13
-13.59 -7.593 0.965 4
-13.382 -7.357 0.891 2
-13.555 -7.337 0.757 3
-12.801 -6.826 0.782 6
-13.57 -7.136 0.543 2
-50.298 -26.09 -6.496 3
-34.121 -17.495 -3.716 6
-34.038 -17.252 -3.97 33
-34.008 -17.064 -4.243 38
-33.988 -16.891 -4.52 33
-33.924 -16.721 -4.797 16
-31.888 -15.597 -4.607 36
-30.076 -14.619 -4.449 5
-28.468 -13.763 -4.318 5
-26.955 -12.969 -4.189 7
-25.624 -12.284 -4.092 6
-24.428 -11.674 -4.014 4
-18.468 -8.808 -2.504 37
-19.726 -9.393 -3.1 19
-19.742 -9.395 -3.337 14
-18.218 -8.668 -3.069 20
-18.916 -9.005 -3.543 28
-18.22 -8.681 -3.541 12
-17.566 -8.383 -3.549 13
-16.929 -8.093 -3.554 14
-16.307 -7.81 -3.554 18
-15.72 -7.548 -3.562 15
-16.38 -9.97 1.242 18
-13.111 -7.825 1.479 38
-12.746 -7.464 1.413 17
-12.375 -7.113 1.358 28
-12.812 -7.235 1.196 7
-12.736 -7.068 1.106 1
-14.055 -7.673 0.8 5
-13.17 -7.079 0.836 29
-13.582 -7.19 0.664 10
-13.663 -7.133 0.544 3
-50.85 -26.185 -6.53 3
-34.109 -17.359 -3.664 29
-34.018 -17.115 -3.915 31
-33.992 -16.929 -4.186 38
-33.965 -16.754 -4.459 34
-34.245 -16.753 -4.812 8
-32.111 -15.589 -4.603 34
-30.271 -14.605 -4.441 4
-28.643 -13.746 -4.309 5
-27.092 -12.939 -4.172 6
-25.776 -12.267 -4.082 6
-18.475 -8.765 -2.267 0
-18.51 -8.766 -2.477 32
-20.004 -9.459 -3.143 8
-20.2 -9.548 -3.44 6
-18.287 -8.642 -3.051 18
-19.107 -9.036 -3.565 23
-18.31 -8.666 -3.53 11
-17.648 -8.367 -3.537 13
-16.996 -8.075 -3.539 21
-16.382 -7.799 -3.544 14
-15.788 -7.535 -3.55 15
-14.976 -9.06 1.403 6
-12.733 -7.551 1.532 29
0.0 -0.0 3.0 0
-12.565 -7.175 1.344 66
-12.647 -7.094 1.231 5
-14.022 -7.728 0.929 29
-14.198 -7.697 0.793 7
-13.301 -7.099 0.83 16
-13.562 -7.129 0.684 7
-13.609 -7.054 0.571 0
-51.417 -26.282 -6.566 3
-34.089 -17.222 -3.611 31
-34.002 -16.979 -3.86 35
-33.993 -16.803 -4.132 40
-33.966 -16.629 -4.404 35
-34.448 -16.726 -4.799 20
-32.348 -15.588 -4.603 31
-30.474 -14.592 -4.435 4
-28.832 -13.734 -4.303 5
-27.282 -12.933 -4.169 4
-25.922 -12.247 -4.071 5
-18.436 -8.684 -2.218 26
-18.576 -8.735 -2.458 2
-19.877 -9.333 -3.061 17
-20.091 -9.43 -3.361 17
-18.374 -8.623 -3.038 24
-18.783 -8.823 -3.41 5
-18.399 -8.652 -3.52 16
-17.736 -8.355 -3.528 13
-17.089 -8.068 -3.533 14
-16.451 -7.784 -3.531 14
-15.855 -7.522 -3.539 15
-15.52 -9.331 1.355 11
-12.672 -7.468 1.548 9
-12.007 -6.942 1.524 7
-12.327 -6.993 1.386 23
-12.703 -7.077 1.235 2
-12.838 -7.027 1.117 2
-14.295 -7.696 0.793 24
-13.46 -7.133 0.819 21
-13.568 -7.08 0.699 8
-13.699 -7.049 0.573 11
-13.382 -6.79 0.529 12
-34.128 -17.114 -3.569 2
-33.992 -16.848 -3.807 35
-33.976 -16.668 -4.075 37
-33.96 -16.5 -4.346 34
-34.672 -16.708 -4.791 19
-32.562 -15.572 -4.595 15
-30.687 -14.585 -4.431 5
-29.036 -13.727 -4.299 6
-27.448 -12.915 -4.159 5
-26.071 -12.227 -4.059 6
-18.449 -8.627 -2.184 35
-23.758 -11.091 -3.931 4
-19.938 -9.295 -3.037 19
-19.243 -8.969 -3.05 1
-18.575 -8.658 -3.063 17
-18.901 -8.819 -3.408 15
-18.489 -8.637 -3.509 16
-17.828 -8.345 -3.52 13
-17.166 -8.054 -3.522 14
-16.53 -7.774 -3.523 15
-15.929 -7.513 -3.531 15
-15.553 -9.294 1.361 13
-12.669 -7.42 1.558 0
-12.0 -6.892 1.535 16
-12.123 -6.832 1.423 25
-12.62 -6.983 1.259 1
-12.831 -6.976 1.131 11
-13.563 -7.251 0.921 1
-13.99 -7.361 0.749 1
-14.381 -7.451 0.579 18
-13.676 -6.985 0.595 2
-13.4 -6.749 0.544 15
-34.076 -16.96 -3.51 2
-33.988 -16.72 -3.755 35
-33.972 -16.541 -4.021 37
-33.97 -16.38 -4.293 34
-34.899 -16.691 -4.783 14
-32.856 -15.594 -4.606 7
-30.912 -14.581 -4.429 4
-29.225 -13.714 -4.292 5
-27.624 -12.902 -4.152 6
-26.234 -12.213 -4.051 5
-18.494 -8.585 -2.158 27
-23.9 -11.077 -3.922 5
-19.996 -9.257 -3.012 19
-19.233 -8.903 -3.005 4
-18.613 -8.618 -3.034 15
-19.079 -8.843 -3.425 5
-18.6 -8.632 -3.505 13
-17.923 -8.336 -3.513 13
-17.243 -8.04 -3.511 13
-16.595 -7.756 -3.508 15
-15.99 -7.497 -3.517 16
-12.622 -7.496 1.678 4
-13.581 -7.903 1.464 6
-12.603 -7.193 1.471 34
-12.198 -6.829 1.423 24
-12.71 -6.986 1.258 9
-12.674 -6.842 1.167 7
-13.771 -7.311 0.904 92
-13.027 -6.806 0.919 11
-14.468 -7.441 0.582 14
-13.441 -6.816 0.653 12
-13.447 -6.723 0.553 17
-34.15 -16.87 -3.476 2
-33.984 -16.592 -3.704 32
-33.968 -16.414 -3.967 40
-33.98 -16.261 -4.24 36
-35.13 -16.673 -4.775 9
-33.088 -15.584 -4.601 6
-31.104 -14.561 -4.419 4
-29.429 -13.705 -4.287 6
-27.786 -12.881 -4.14 5
-18.422 -8.512 -1.914 38
-18.556 -8.551 -2.138 1
-24.003 -11.044 -3.901 15
-20.113 -9.245 -3.004 20
-19.22 -8.834 -2.959 5
-18.801 -8.644 -3.053 5
-19.135 -8.809 -3.4 6
-18.689 -8.617 -3.493 15
-18.005 -8.32 -3.5 13
-17.323 -8.026 -3.5 15
-16.67 -7.744 -3.498 14
-16.061 -7.485 -3.506 16
-12.65 -7.467 1.683 1
-13.617 -7.874 1.469 16
0.0 -0.0 3.0 0
-12.176 -6.772 1.437 24
-12.853 -7.017 1.25 22
-14.276 -7.654 0.949 16
0.0 -0.0 3.0 0
-13.09 -6.79 0.924 8
-14.495 -7.402 0.595 10
-13.445 -6.767 0.67 11
-13.547 -6.722 0.553 9
-34.145 -16.742 -3.427 2
-33.983 -16.466 -3.653 35
-33.964 -16.287 -3.913 39
-33.979 -16.137 -4.184 38
-35.415 -16.681 -4.778 6
-33.32 -15.575 -4.596 6
-31.336 -14.558 -4.418 4
-29.637 -13.698 -4.283 6
-27.959 -12.864 -4.131 5
-18.424 -8.45 -1.879 40
-25.285 -11.566 -3.95 3
-24.053 -10.987 -3.866 32
-19.268 -8.793 -2.71 5
-19.213 -8.769 -2.915 4
-19.052 -8.7 -3.092 6
-19.124 -8.745 -3.354 5
-18.786 -8.605 -3.484 13
-18.093 -8.307 -3.49 13
-17.407 -8.015 -3.49 13
-16.746 -7.731 -3.487 13
-16.138 -7.476 -3.499 16
-17.44 -10.232 1.196 21
-13.632 -7.834 1.477 10
-12.461 -7.021 1.508 25
-12.673 -7.001 1.384 0
-13.391 -7.262 1.189 11
-12.593 -6.706 1.203 1
-13.788 -7.217 0.93 20
-13.129 -6.761 0.933 0
-14.388 -7.294 0.63 15
-13.701 -6.845 0.643 20
-13.555 -6.676 0.57 3
-34.155 -16.62 -3.38 2
-33.985 -16.342 -3.603 43
-33.966 -16.163 -3.861 39
-33.992 -16.019 -4.132 40
-35.729 -16.699 -4.787 16
-33.552 -15.562 -4.59 7
-31.54 -14.54 -4.409 4
-29.824 -13.68 -4.274 6
-18.459 -8.43 -1.673 0
-18.471 -8.409 -1.855 34
-25.425 -11.544 -3.937 3
-24.109 -10.933 -3.832 23
-19.25 -8.722 -2.664 4
-19.202 -8.703 -2.87 4
-18.96 -8.598 -3.021 14
-19.117 -8.683 -3.309 6
-18.921 -8.609 -3.487 15
-18.185 -8.295 -3.481 14
-17.497 -8.005 -3.482 15
-16.821 -7.718 -3.476 14
-16.202 -7.461 -3.486 16
-15.444 -9.005 1.412 0
-13.415 -7.66 1.511 9
-12.391 -6.936 1.526 0
-12.686 -6.962 1.393 2
-13.034 -7.021 1.25 1
-13.578 -7.18 1.076 11
-13.659 -7.1 0.964 13
-13.164 -6.731 0.942 0
-14.199 -7.145 0.678 37
-13.719 -6.803 0.657 16
-13.573 -6.635 0.585 2
-34.171 -16.502 -3.334 2
-33.987 -16.218 -3.553 44
-33.96 -16.037 -3.807 40
-33.997 -15.898 -4.078 40
-34.02 -15.778 -4.357 18
-33.787 -15.552 -4.585 6
-31.769 -14.534 -4.405 5
-30.025 -13.667 -4.267 6
-18.404 -8.341 -1.623 28
-18.526 -8.371 -1.833 13
-24.099 -10.862 -3.526 29
-24.36 -10.966 -3.853 5
-19.239 -8.655 -2.62 4
-19.194 -8.638 -2.826 4
-19.173 -8.635 -3.046 4
-19.12 -8.626 -3.267 8
-19.039 -8.605 -3.484 12
-18.277 -8.283 -3.472 14
-17.574 -7.99 -3.47 14
-16.893 -7.703 -3.464 14
-15.928 -7.29 -3.337 43
-15.445 -8.95 1.422 18
-15.625 -8.866 1.277 19
-15.352 -8.538 1.185 11
-13.593 -7.41 1.289 3
-13.087 -7.001 1.254 7
-12.711 -6.675 1.211 0
-14.315 -7.388 0.882 10
-14.327 -7.272 0.777 21
-14.349 -7.168 0.671 32
-13.759 -6.773 0.668 18
-13.581 -6.589 0.602 21
-34.151 -16.367 -3.283 1
-33.988 -16.094 -3.503 21
-33.972 -15.918 -3.757 33
-34.005 -15.779 -4.025 40
-34.1 -15.693 -4.318 33
-34.016 -15.536 -4.577 6
-18.437 -8.37 -1.265 13
-18.468 -8.342 -1.435 18
-18.398 -8.275 -1.587 40
-27.042 -12.127 -4.001 6
-24.135 -10.797 -3.488 255
-24.548 -10.97 -3.855 4
-19.224 -8.585 -2.575 4
-19.179 -8.571 -2.781 4
-19.166 -8.572 -3.002 4
-19.14 -8.576 -3.231 6
-19.153 -8.599 -3.48 15
-18.362 -8.268 -3.46 14
-17.664 -7.98 -3.462 13
-16.965 -7.689 -3.452 14
-15.929 -7.248 -3.3 48
-15.445 -8.895 1.432 19
-15.612 -8.802 1.289 24
-15.45 -8.536 1.186 15
-12.692 -6.873 1.413 6
-12.869 -6.838 1.295 12
-12.795 -6.672 1.212 17
-14.391 -7.374 0.885 6
-14.119 -7.115 0.825 41
-14.265 -7.074 0.701 17
-13.806 -6.746 0.677 20
-13.595 -6.546 0.617 11
-34.091 -16.214 -3.224 27
-18.032 -8.473 -0.423 18
-18.155 -8.442 -0.583 27
-18.235 -8.395 -0.738 12
-18.286 -8.35 -0.894 25
-18.373 -8.326 -1.061 22
-18.445 -8.309 -1.233 40
-18.479 -8.283 -1.404 39
-18.406 -8.215 -1.553 44
-27.209 -12.11 -3.992 6
-24.184 -10.738 -3.452 1
-23.761 -10.541 -3.587 4
-19.216 -8.52 -2.533 4
-19.178 -8.509 -2.739 8
-19.161 -8.51 -2.959 4
-19.224 -8.555 -3.216 2
-19.253 -8.587 -3.471 14
-18.454 -8.256 -3.45 14
-17.744 -7.965 -3.45 12
-15.889 -7.157 -3.006 23
-16.387 -7.411 -3.442 19
-15.466 -8.852 1.439 24
-15.65 -8.768 1.296 22
-16.081 -8.827 1.124 12
-12.628 -6.792 1.432 32
-12.963 -6.84 1.294 11
-13.199 -6.835 1.169 10
-13.844 -7.044 0.98 14
-14.085 -7.047 0.846 17
-14.412 -7.094 0.695 13
-13.767 -6.676 0.701 24
-13.602 -6.5 0.634 19
-17.902 -8.449 -0.243 15
-18.057 -8.42 -0.402 21
-18.173 -8.385 -0.559 34
-18.257 -8.34 -0.713 34
-18.308 -8.295 -0.868 45
-18.402 -8.274 -1.036 33
-18.495 -8.267 -1.212 27
-18.558 -8.254 -1.389 20
-18.46 -8.176 -1.532 16
-23.956 -10.581 -3.109 2
-26.029 -11.472 -3.893 4
-23.763 -10.464 -3.539 60
-19.211 -8.456 -2.491 4
-19.18 -8.45 -2.699 10
-19.145 -8.444 -2.913 8
-19.359 -8.557 -3.217 3
-19.347 -8.572 -3.459 13
-18.539 -8.24 -3.438 14
-17.818 -7.948 -3.436 13
-15.859 -7.099 -2.957 54
-16.506 -7.42 -3.451 15
-15.441 -8.783 1.451 16
-15.64 -8.707 1.308 18
-15.903 -8.672 1.157 24
-12.689 -6.78 1.435 2
-13.332 -6.987 1.258 11
-13.11 -6.741 1.194 28
-13.045 -6.59 1.11 13
-13.812 -6.859 0.903 15
-14.445 -7.058 0.707 23
-13.86 -6.671 0.703 22
-13.656 -6.476 0.643 32
-17.93 -8.397 -0.223 25
-34.088 -15.771 -3.372 2
-18.227 -8.343 -0.542 0
-18.439 -8.357 -0.721 2
-18.351 -8.249 -0.847 13
-18.595 -8.296 -1.046 6
-18.542 -8.223 -1.19 0
-18.283 -8.069 -1.29 30
-18.518 -8.138 -1.511 7
-23.983 -10.512 -3.069 255
-23.946 -10.474 -3.293 2
-19.68 -8.602 -2.375 0
-19.195 -8.388 -2.447 5
-19.164 -8.383 -2.654 4
-19.137 -8.381 -2.868 4
-19.474 -8.549 -3.211 3
-19.447 -8.558 -3.449 12
-18.648 -8.234 -3.433 14
-15.924 -7.058 -2.716 41
-15.884 -7.066 -2.929 45
-16.559 -7.399 -3.432 16
-17.37 -9.819 1.269 19
-15.723 -8.698 1.309 13
-12.579 -6.815 1.551 3
-12.814 -6.801 1.43 11
-13.166 -6.852 1.292 10
-12.886 -6.58 1.237 5
-12.93 -6.484 1.141 21
-13.752 -6.78 0.927 16
-14.222 -6.897 0.759 13
-13.813 -6.598 0.728 20
-13.72 -6.456 0.65 24
-17.99 -8.361 -0.209 22
-34.116 -15.66 -3.327 2
-34.01 -15.446 -3.557 37
-18.586 -8.358 -0.721 1
-18.681 -8.331 -0.885 1
-18.617 -8.24 -1.019 43
-31.68 -13.939 -4.102 1
-18.29 -8.009 -1.259 35
-29.3 -12.778 -4.083 55
-27.702 -12.05 -3.957 6
-23.926 -10.387 -3.241 5
-19.792 -8.587 -2.366 0
-19.196 -8.327 -2.408 4
-19.162 -8.322 -2.613 4
-19.255 -8.373 -2.863 2
-19.603 -8.546 -3.209 4
-19.547 -8.545 -3.439 13
-18.761 -8.23 -3.43 17
-15.852 -6.981 -2.653 43
-15.943 -7.049 -2.915 26
-15.985 -7.1 -3.172 40
-16.153 -9.074 1.4 17
-15.744 -8.654 1.318 15
-15.844 -8.527 1.188 22
-12.686 -6.688 1.456 6
-13.179 -6.812 1.302 1
-13.685 -6.939 1.141 11
-12.556 -6.252 1.207 28
-13.631 -6.671 0.961 28
-14.19 -6.83 0.781 24
-13.828 -6.555 0.743 21
-13.788 -6.439 0.657 20
-17.972 -8.286 -0.181 30
-34.086 -15.524 -3.272 1
-34.055 -15.344 -3.513 34
-31.788 -14.181 -3.314 3
-18.663 -8.257 -0.85 34
-18.667 -8.197 -0.998 0
-18.276 -7.978 -1.065 13
-18.329 -7.964 -1.234 33
-29.506 -12.768 -4.078 57
-27.87 -12.03 -3.945 6
-23.881 -10.288 -3.182 149
-19.933 -8.584 -2.364 1
-19.19 -8.264 -2.367 4
-19.149 -8.256 -2.569 17
-19.391 -8.373 -2.863 2
-19.714 -8.535 -3.201 7
-19.644 -8.529 -3.427 13
-15.909 -6.933 -2.417 3
-15.82 -6.923 -2.606 45
-15.912 -6.992 -2.867 53
-15.965 -7.048 -3.127 55
-16.073 -8.973 1.418 19
-15.887 -8.676 1.314 3
-15.879 -8.49 1.195 19
-13.96 -7.31 1.312 0
-13.46 -6.909 1.277 14
-12.504 -6.294 1.313 15
-12.61 -6.233 1.213 8
-13.288 -6.456 1.026 18
-14.19 -6.779 0.797 22
-13.842 -6.511 0.758 34
-13.956 -6.466 0.647 24
-16.587 -7.589 0.087 0
-34.052 -15.386 -3.217 26
-34.19 -15.283 -3.487 19
-18.741 -8.294 -0.693 12
-18.688 -8.202 -0.825 19
-31.762 -13.836 -3.748 53
-18.283 -7.918 -1.034 42
-18.397 -7.93 -1.216 5
-29.706 -12.754 -4.07 57
-28.049 -12.014 -3.936 5
-23.921 -10.227 -3.145 3
-20.043 -8.566 -2.353 3
-19.18 -8.198 -2.324 5
-19.15 -8.197 -2.529 4
-19.541 -8.378 -2.867 2
-19.826 -8.525 -3.194 6
-19.745 -8.516 -3.417 13
-15.895 -6.882 -2.377 15
-15.831 -6.883 -2.574 52
-15.937 -6.959 -2.839 62
-16.024 -7.031 -3.112 0
-15.731 -8.728 1.461 22
-16.646 -9.032 1.244 24
-15.878 -8.433 1.207 17
-15.206 -7.908 1.174 3
-13.962 -7.118 1.225 10
-12.533 -6.265 1.321 17
-12.722 -6.243 1.21 12
-13.529 -6.524 1.005 32
-14.216 -6.74 0.81 24
-13.855 -6.468 0.773 24
-14.469 -6.653 0.579 14
-16.577 -7.524 0.112 11
-34.096 -15.284 -3.175 32
-34.429 -15.268 -3.481 9
-18.838 -8.271 -0.682 38
-31.79 -13.841 -3.454 53
-18.266 -7.893 -0.85 31
-18.332 -7.876 -1.013 29
-31.687 -13.551 -4.205 5
-29.902 -12.738 -4.061 53
-23.984 -10.193 -2.885 48
-24.771 -10.51 -3.315 27
-20.177 -8.558 -2.348 2
-19.21 -8.15 -2.293 3
-19.261 -8.185 -2.521 1
-19.67 -8.374 -2.864 1
-19.959 -8.522 -3.192 5
-19.849 -8.502 -3.407 13
-15.909 -6.843 -2.346 14
-15.841 -6.844 -2.542 51
-15.961 -6.927 -2.812 56
-16.89 -7.367 -3.404 16
-15.748 -8.683 1.469 25
-16.264 -8.769 1.296 20
-13.987 -7.38 1.431 2
-13.111 -6.773 1.436 1
-14.079 -7.127 1.223 7
-12.983 -6.443 1.274 39
-12.841 -6.256 1.206 13
-13.643 -6.53 1.004 14
-14.28 -6.719 0.817 12
-14.196 -6.576 0.736 39
-14.502 -6.615 0.592 0
-16.58 -7.467 0.134 16
-34.176 -15.199 -3.141 27
-18.854 -8.294 -0.521 15
-18.924 -8.241 -0.669 6
-18.17 -7.848 -0.659 6
-18.265 -7.83 -0.819 39
-31.924 -13.606 -3.932 30
-31.911 -13.539 -4.199 5
-30.113 -12.727 -4.055 43
-24.002 -10.121 -2.844 52
-24.608 -10.361 -3.226 161
-20.308 -8.549 -2.342 2
-19.317 -8.135 -2.283 2
-19.401 -8.184 -2.52 1
-19.81 -8.374 -2.864 2
-20.081 -8.515 -3.187 6
-19.95 -8.488 -3.396 14
-15.771 -6.739 -2.265 26
-15.861 -6.809 -2.514 56
-16.013 -6.906 -2.795 39
-16.957 -7.352 -3.391 16
-15.373 -8.423 1.515 24
-16.222 -8.689 1.311 24
-16.342 -8.566 1.179 12
-13.803 -7.081 1.365 7
-12.651 -6.36 1.414 7
-12.567 -6.192 1.341 19
-12.878 -6.228 1.214 18
-14.222 -6.756 0.935 1
-14.211 -6.636 0.844 16
-14.498 -6.664 0.705 20
-14.505 -6.565 0.611 4
-16.619 -7.425 0.15 27
-18.746 -8.27 -0.341 12
-18.878 -8.238 -0.497 34
-31.811 -13.742 -3.118 31
-18.158 -7.779 -0.627 36
-18.339 -7.798 -0.803 14
-31.758 -13.427 -3.841 26
-32.129 -13.522 -4.19 4
-30.331 -12.717 -4.049 32
-24.045 -10.06 -2.808 6
