# .PCD v0.7 - Point Cloud Data file format
VERSION 0.7
FIELDS x y z intensity
SIZE 4 4 4 4
TYPE F F F F
COUNT 1 1 1 1
WIDTH 2317
HEIGHT 1
VIEWPOINT 0 0 0 1 0 0 0
POINTS 2317
DATA ascii
-63.767 -8.155 -1.336 44
-63.343 -8.432 -1.674 9
-51.032 -7.13 -1.116 8
-47.954 -7.058 -1.241 11
-49.215 -7.654 -1.783 14
-45.495 -7.476 -1.855 9
-42.345 -7.353 -1.96 6
-39.235 -7.186 -2.032 18
-36.684 -7.077 -2.141 24
-6.231 -1.262 2.049 5
-5.855 -1.244 2.028 6
0.0 -0.0 3.0 0
-2.148 -0.498 2.582 2
-1.204 -0.29 2.748 26
0.0 -0.0 3.0 0
0.0 -0.0 3.0 0
0.0 -0.0 3.0 0
-45.185 -11.038 0.452 18
-45.992 -10.502 0.382 16
-47.253 -10.064 0.303 22
-49.914 -9.894 0.163 41
-53.213 -9.807 0.002 23
-54.087 -9.257 -0.008 21
0.0 -0.0 3.0 0
0.0 -0.0 3.0 0
0.0 -0.0 3.0 0
0.0 -0.0 3.0 0
-129.064 -16.13 -3.847 12
-29.483 -3.563 1.413 38
0.0 -0.0 3.0 0
0.0 -0.0 3.0 0
-64.093 -7.773 -0.961 13
-63.615 -7.969 -1.237 42
-63.175 -8.252 -1.574 32
-53.606 -7.365 -1.252 36
-47.848 -6.939 -1.169 36
-49.574 -7.61 -1.755 11
-45.832 -7.445 -1.835 8
-42.708 -7.342 -1.952 4
-39.486 -7.167 -2.019 18
0.0 -0.0 3.0 0
-6.268 -1.262 2.049 4
-1.955 -0.413 2.678 0
-3.078 -0.68 2.449 0
-1.302 -0.3 2.748 1
-1.204 -0.289 2.749 26
0.0 -0.0 3.0 0
-44.553 -12.309 0.607 4
0.0 -0.0 3.0 0
-45.444 -11.026 0.455 15
-46.232 -10.475 0.388 16
-47.135 -9.952 0.333 15
-49.875 -9.787 0.194 50
-53.509 -9.75 0.019 24
-54.397 -9.189 0.014 20
0.0 -0.0 3.0 0
0.0 -0.0 3.0 0
0.0 -0.0 3.0 0
-129.714 -16.626 -3.717 17
0.0 -0.0 3.0 0
-29.503 -3.48 1.451 0
0.0 -0.0 3.0 0
0.0 -0.0 3.0 0
-64.916 -7.694 -0.92 4
-63.455 -7.782 -1.138 43
-63.027 -8.077 -1.477 42
-53.798 -7.266 -1.195 4
-47.856 -6.836 -1.108 33
-50.04 -7.582 -1.738 7
-46.177 -7.416 -1.816 9
-43.125 -7.34 -1.951 11
-39.729 -7.148 -2.005 7
-6.76 -1.284 2.067 4
-6.317 -1.263 2.049 7
-1.987 -0.417 2.675 0
-1.821 -0.4 2.676 0
-1.299 -0.298 2.75 1
-1.205 -0.288 2.75 25
0.0 -0.0 3.0 0
-44.54 -12.239 0.621 70
0.0 -0.0 3.0 0
-45.738 -11.022 0.455 3
-46.515 -10.459 0.392 17
-47.334 -9.907 0.345 20
-48.636 -9.449 0.29 5
-53.798 -9.691 0.037 21
-31.523 -5.256 1.292 10
0.0 -0.0 3.0 0
0.0 -0.0 3.0 0
0.0 -0.0 3.0 0
0.0 -0.0 3.0 0
0.0 -0.0 3.0 0
-119.639 -13.768 -3.13 13
-55.648 -6.3 0.062 9
0.0 -0.0 3.0 0
-100.614 -11.65 -2.936 11
-63.302 -7.599 -1.04 39
-53.653 -6.745 -0.739 3
-53.914 -7.159 -1.133 5
-54.834 -7.717 -1.637 7
-50.532 -7.557 -1.722 6
-46.541 -7.39 -1.799 9
-43.373 -7.308 -1.929 15
-40.057 -7.145 -2.003 4
-6.794 -1.28 2.07 4
-6.374 -1.265 2.046 9
0.0 -0.0 3.0 0
-1.902 -0.416 2.663 0
-1.303 -0.298 2.75 1
-1.205 -0.287 2.751 25
0.0 -0.0 3.0 0
0.0 -0.0 3.0 0
0.0 -0.0 3.0 0
-46.47 -11.124 0.432 26
-46.767 -10.437 0.398 13
-47.594 -9.875 0.354 20
-48.945 -9.416 0.3 26
-54.11 -9.637 0.054 21
-31.48 -5.181 1.317 14
-70.331 -10.701 -0.685 6
0.0 -0.0 3.0 0
0.0 -0.0 3.0 0
0.0 -0.0 3.0 0
-29.481 -3.434 1.543 188
-120.538 -13.524 -3.021 11
-55.689 -6.144 0.135 233
0.0 -0.0 3.0 0
0.0 -0.0 3.0 0
-63.136 -7.414 -0.942 42
-53.606 -6.608 -0.663 21
-52.784 -6.889 -0.978 27
-57.205 -7.93 -1.765 3
-50.982 -7.525 -1.702 6
-46.878 -7.359 -1.779 9
-43.657 -7.283 -1.913 16
-40.398 -7.143 -2.002 7
-6.836 -1.278 2.071 4
-2.136 -0.421 2.683 0
-3.075 -0.637 2.502 0
-2.169 -0.472 2.618 0
-1.258 -0.286 2.76 0
-1.202 -0.285 2.753 25
0.0 -0.0 3.0 0
0.0 -0.0 3.0 0
0.0 -0.0 3.0 0
-46.488 -11.055 0.448 12
-47.015 -10.413 0.404 15
-47.878 -9.85 0.361 15
-49.199 -9.372 0.313 26
-54.421 -9.583 0.07 21
-31.527 -5.121 1.336 8
0.0 -0.0 3.0 0
0.0 -0.0 3.0 0
0.0 -0.0 3.0 0
0.0 -0.0 3.0 0
0.0 -0.0 3.0 0
-120.159 -13.135 -2.848 15
-55.678 -5.982 0.211 255
-120.097 -12.935 -3.309 17
-104.391 -11.516 -2.868 19
-62.985 -7.234 -0.846 44
-53.726 -6.493 -0.599 2
-52.804 -6.773 -0.91 41
-57.724 -7.883 -1.736 3
-51.561 -7.511 -1.694 6
-47.226 -7.33 -1.76 8
-43.956 -7.261 -1.898 16
-7.436 -1.303 2.088 0
-6.889 -1.279 2.071 4
-2.164 -0.424 2.681 0
-1.974 -0.407 2.682 0
-3.121 -0.675 2.453 1
-1.258 -0.285 2.761 0
-1.203 -0.284 2.754 26
-44.565 -12.849 0.734 49
0.0 -0.0 3.0 0
0.0 -0.0 3.0 0
0.0 -0.0 3.0 0
-47.321 -10.403 0.406 14
-48.154 -9.823 0.368 16
-49.523 -9.343 0.321 23
-51.163 -8.909 0.276 6
-55.663 -8.924 0.101 20
-60.483 -8.929 -0.075 10
0.0 -0.0 3.0 0
-131.451 -16.546 -3.351 17
-29.473 -3.457 1.603 10
0.0 -0.0 3.0 0
0.0 -0.0 3.0 0
-55.619 -5.815 0.288 255
0.0 -0.0 3.0 0
-107.217 -11.536 -2.878 16
-53.66 -6.025 -0.204 2
-52.853 -6.261 -0.47 6
-52.899 -6.668 -0.85 23
-58.263 -7.837 -1.709 3
-52.211 -7.507 -1.691 5
-47.594 -7.305 -1.744 8
-44.247 -7.238 -1.882 13
-7.466 -1.298 2.091 4
-6.97 -1.284 2.067 9
-6.494 -1.264 2.048 0
-2.029 -0.415 2.675 0
-2.147 -0.462 2.626 0
-1.232 -0.277 2.767 0
-1.203 -0.283 2.754 26
-44.573 -12.793 0.744 4
0.0 -0.0 3.0 0
-46.446 -11.695 0.514 15
0.0 -0.0 3.0 0
-47.548 -10.377 0.413 14
-48.441 -9.799 0.374 18
-49.639 -9.275 0.34 42
-51.457 -8.86 0.291 7
-55.97 -8.858 0.122 21
0.0 -0.0 3.0 0
-130.571 -17.444 -3.349 15
0.0 -0.0 3.0 0
-29.484 -3.38 1.634 255
0.0 -0.0 3.0 0
0.0 -0.0 3.0 0
-55.571 -5.649 0.366 255
0.0 -0.0 3.0 0
0.0 -0.0 3.0 0
-53.628 -5.884 -0.128 25
-52.777 -6.126 -0.396 40
-61.938 -7.671 -1.429 4
-58.865 -7.798 -1.686 4
-51.239 -7.272 -1.544 4
-47.961 -7.279 -1.727 8
-44.6 -7.225 -1.874 9
-7.515 -1.296 2.093 4
-2.349 -0.429 2.688 0
0.0 -0.0 3.0 0
-2.161 -0.44 2.656 1
-2.171 -0.465 2.623 1
-2.188 -0.491 2.588 1
-1.2 -0.281 2.756 27
0.0 -0.0 3.0 0
0.0 -0.0 3.0 0
-46.485 -11.64 0.526 21
0.0 -0.0 3.0 0
-47.842 -10.366 0.415 14
-48.72 -9.775 0.381 19
-50.014 -9.256 0.346 19
-54.818 -9.335 0.146 41
-56.29 -8.793 0.143 20
-57.188 -8.189 0.18 7
0.0 -0.0 3.0 0
0.0 -0.0 3.0 0
0.0 -0.0 3.0 0
0.0 -0.0 3.0 0
-119.266 -12.008 -2.346 15
-55.515 -5.483 0.443 255
0.0 -0.0 3.0 0
0.0 -0.0 3.0 0
-53.71 -5.757 -0.061 3
-52.804 -6.005 -0.328 38
-61.738 -7.512 -1.337 44
0.0 -0.0 3.0 0
-51.316 -7.189 -1.492 3
-48.344 -7.255 -1.712 8
-44.946 -7.212 -1.865 3
-7.573 -1.294 2.094 4
-2.623 -0.476 2.654 1
-2.178 -0.419 2.685 0
-2.158 -0.437 2.659 2
-2.18 -0.465 2.624 1
-2.189 -0.489 2.59 2
-1.2 -0.28 2.757 27
0.0 -0.0 3.0 0
0.0 -0.0 3.0 0
0.0 -0.0 3.0 0
0.0 -0.0 3.0 0
-48.107 -10.35 0.419 11
-49.022 -9.755 0.386 20
-49.932 -9.154 0.375 16
-54.753 -9.221 0.181 37
-56.609 -8.729 0.164 20
-57.599 -8.124 0.203 17
0.0 -0.0 3.0 0
-29.488 -3.489 1.661 8
0.0 -0.0 3.0 0
0.0 -0.0 3.0 0
0.0 -0.0 3.0 0
-55.478 -5.32 0.519 255
0.0 -0.0 3.0 0
0.0 -0.0 3.0 0
0.0 -0.0 3.0 0
-52.94 -5.896 -0.268 14
-61.608 -7.363 -1.251 40
-60.037 -7.716 -1.636 3
-54.137 -7.487 -1.678 8
-48.754 -7.237 -1.699 7
-8.313 -1.321 2.109 2
-7.669 -1.3 2.09 7
-3.01 -0.542 2.606 10
-2.167 -0.414 2.688 0
-2.162 -0.435 2.66 1
-2.184 -0.463 2.625 1
-2.178 -0.484 2.594 2
-1.204 -0.279 2.757 25
0.0 -0.0 3.0 0
-46.457 -12.325 0.604 11
0.0 -0.0 3.0 0
0.0 -0.0 3.0 0
0.0 -0.0 3.0 0
-49.277 -9.728 0.393 16
-50.184 -9.114 0.387 20
-51.627 -8.6 0.371 3
-56.959 -8.671 0.183 19
-57.946 -8.05 0.228 21
0.0 -0.0 3.0 0
-29.494 -3.417 1.688 19
0.0 -0.0 3.0 0
0.0 -0.0 3.0 0
0.0 -0.0 3.0 0
-55.461 -5.159 0.594 69
0.0 -0.0 3.0 0
-53.636 -5.192 0.355 32
-54.775 -5.595 0.025 7
-63.647 -6.941 -0.848 7
-61.478 -7.218 -1.167 45
-51.197 -6.481 -0.894 39
-54.633 -7.459 -1.661 8
-49.157 -7.216 -1.686 7
-8.363 -1.317 2.112 4
-2.559 -0.431 2.698 1
-3.027 -0.542 2.606 5
-2.187 -0.415 2.688 1
-2.171 -0.435 2.66 1
-2.181 -0.46 2.627 1
-2.19 -0.485 2.593 1
-1.193 -0.276 2.76 20
0.0 -0.0 3.0 0
-46.468 -12.271 0.615 25
0.0 -0.0 3.0 0
-48.346 -11.074 0.443 15
0.0 -0.0 3.0 0
-49.595 -9.713 0.397 17
-50.479 -9.084 0.395 18
-51.887 -8.551 0.386 26
-57.277 -8.609 0.203 20
-58.269 -7.973 0.255 20
-80.768 -10.045 -0.656 6
0.0 -0.0 3.0 0
-120.881 -12.579 -2.082 10
0.0 -0.0 3.0 0
0.0 -0.0 3.0 0
-55.375 -4.992 0.672 7
0.0 -0.0 3.0 0
-53.729 -5.057 0.423 3
-54.832 -5.464 0.095 4
-62.016 -6.621 -0.67 28
-61.485 -7.09 -1.093 51
-51.34 -6.4 -0.846 17
-55.341 -7.459 -1.661 7
-49.637 -7.208 -1.681 8
-8.424 -1.314 2.114 4
-2.583 -0.431 2.698 0
-3.024 -0.538 2.609 5
-2.184 -0.412 2.689 2
-2.16 -0.43 2.664 2
-2.178 -0.457 2.63 1
-2.191 -0.483 2.595 1
-1.19 -0.274 2.762 18
0.0 -0.0 3.0 0
0.0 -0.0 3.0 0
0.0 -0.0 3.0 0
-48.404 -11.023 0.455 19
0.0 -0.0 3.0 0
-49.845 -9.687 0.404 16
-50.774 -9.054 0.404 17
-52.203 -8.511 0.398 28
-57.619 -8.551 0.222 19
0.0 -0.0 3.0 0
-29.48 -3.601 1.689 22
0.0 -0.0 3.0 0
0.0 -0.0 3.0 0
0.0 -0.0 3.0 0
0.0 -0.0 3.0 0
0.0 -0.0 3.0 0
-55.129 -4.849 0.635 9
0.0 -0.0 3.0 0
0.0 -0.0 3.0 0
-62.15 -6.494 -0.6 30
-61.592 -6.975 -1.027 36
-61.88 -7.599 -1.566 3
-55.754 -7.42 -1.637 4
-9.411 -1.352 2.122 0
-8.529 -1.318 2.111 6
0.0 -0.0 3.0 0
-2.384 -0.421 2.694 0
-2.189 -0.41 2.691 1
-2.168 -0.43 2.664 3
-2.175 -0.454 2.632 1
-1.219 -0.267 2.776 0
-1.19 -0.273 2.762 17
-46.498 -13.017 0.705 28
0.0 -0.0 3.0 0
0.0 -0.0 3.0 0
0.0 -0.0 3.0 0
0.0 -0.0 3.0 0
-50.131 -9.668 0.409 16
-51.068 -9.026 0.412 16
-52.502 -8.47 0.41 25
-54.331 -7.962 0.413 3
-42.016 -5.578 1.079 2
-29.497 -3.538 1.712 2
0.0 -0.0 3.0 0
0.0 -0.0 3.0 0
0.0 -0.0 3.0 0
0.0 -0.0 3.0 0
0.0 -0.0 3.0 0
-53.656 -4.569 0.771 41
-54.789 -4.866 0.521 16
0.0 -0.0 3.0 0
-62.379 -6.379 -0.536 23
-61.781 -6.871 -0.967 37
-62.572 -7.569 -1.548 3
-56.296 -7.398 -1.623 19
-9.433 -1.341 2.129 4
-2.875 -0.44 2.703 1
-2.941 -0.483 2.662 0
-2.228 -0.391 2.716 2
-2.181 -0.407 2.694 1
-2.173 -0.429 2.665 2
-2.179 -0.454 2.633 1
-1.2 -0.262 2.78 1
-1.194 -0.273 2.762 14
0.0 -0.0 3.0 0
0.0 -0.0 3.0 0
-48.345 -11.736 0.506 15
0.0 -0.0 3.0 0
0.0 -0.0 3.0 0
-50.431 -9.654 0.413 14
-51.397 -9.005 0.418 16
-52.833 -8.435 0.421 22
-54.587 -7.901 0.433 8
-59.303 -7.756 0.329 7
0.0 -0.0 3.0 0
0.0 -0.0 3.0 0
0.0 -0.0 3.0 0
0.0 -0.0 3.0 0
0.0 -0.0 3.0 0
0.0 -0.0 3.0 0
-53.715 -4.425 0.842 4
-54.844 -4.726 0.592 3
0.0 -0.0 3.0 0
-62.671 -6.27 -0.475 18
-61.989 -6.77 -0.909 27
0.0 -0.0 3.0 0
-56.902 -7.384 -1.614 9
-9.511 -1.338 2.131 4
-8.691 -1.319 2.11 0
-2.785 -0.454 2.682 1
-2.209 -0.385 2.72 2
-2.178 -0.404 2.696 3
-2.166 -0.425 2.668 2
-1.322 -0.274 2.778 0
-1.189 -0.259 2.783 0
-1.187 -0.271 2.765 12
0.0 -0.0 3.0 0
0.0 -0.0 3.0 0
-48.37 -11.686 0.516 25
0.0 -0.0 3.0 0
-50.263 -10.393 0.409 42
-50.704 -9.635 0.418 12
-51.667 -8.974 0.427 17
-53.135 -8.397 0.433 18
-58.629 -8.382 0.277 20
-29.495 -3.801 1.691 22
0.0 -0.0 3.0 0
0.0 -0.0 3.0 0
0.0 -0.0 3.0 0
-121.702 -10.468 -1.443 12
0.0 -0.0 3.0 0
-53.746 -4.227 1.029 2
-54.59 -4.344 0.881 7
0.0 -0.0 3.0 0
0.0 -0.0 3.0 0
-84.906 -8.309 -1.606 8
-62.276 -6.679 -0.856 16
-63.967 -7.509 -1.512 6
-57.281 -7.342 -1.588 10
-4.108 -0.572 2.628 1
0.0 -0.0 3.0 0
-2.865 -0.463 2.676 1
-2.19 -0.379 2.725 2
-2.175 -0.401 2.698 3
-2.155 -0.421 2.671 1
-1.183 -0.244 2.803 1
-1.132 -0.245 2.794 1
-1.153 -0.262 2.772 5
0.0 -0.0 3.0 0
0.0 -0.0 3.0 0
0.0 -0.0 3.0 0
0.0 -0.0 3.0 0
0.0 -0.0 3.0 0
0.0 -0.0 3.0 0
-51.996 -8.955 0.432 16
-52.96 -8.286 0.467 19
-58.961 -8.327 0.294 19
-29.511 -3.746 1.71 0
0.0 -0.0 3.0 0
-88.712 -9.019 -0.462 5
0.0 -0.0 3.0 0
0.0 -0.0 3.0 0
0.0 -0.0 3.0 0
-53.661 -4.067 1.104 43
-54.757 -4.205 0.949 20
0.0 -0.0 3.0 0
0.0 -0.0 3.0 0
-85.513 -8.185 -1.537 10
0.0 -0.0 3.0 0
0.0 -0.0 3.0 0
-10.836 -1.372 2.143 1
-3.272 -0.451 2.707 0
-2.976 -0.444 2.701 0
-3.101 -0.498 2.651 1
-2.211 -0.38 2.724 2
-2.179 -0.4 2.699 3
-1.464 -0.284 2.778 0
-1.121 -0.231 2.813 2
-1.109 -0.239 2.799 3
-1.1 -0.249 2.784 3
0.0 -0.0 3.0 0
-48.414 -12.466 0.577 28
0.0 -0.0 3.0 0
0.0 -0.0 3.0 0
0.0 -0.0 3.0 0
0.0 -0.0 3.0 0
-52.301 -8.934 0.438 15
-53.262 -8.25 0.478 20
-54.718 -7.636 0.519 6
-59.462 -7.439 0.438 7
-61.389 -6.848 0.507 13
0.0 -0.0 3.0 0
0.0 -0.0 3.0 0
0.0 -0.0 3.0 0
0.0 -0.0 3.0 0
-53.722 -3.917 1.173 4
0.0 -0.0 3.0 0
0.0 -0.0 3.0 0
0.0 -0.0 3.0 0
0.0 -0.0 3.0 0
0.0 -0.0 3.0 0
0.0 -0.0 3.0 0
-10.918 -1.366 2.147 4
-4.094 -0.558 2.637 38
-2.985 -0.442 2.702 2
-3.094 -0.493 2.655 1
-2.184 -0.374 2.729 4
-2.172 -0.396 2.702 1
0.0 -0.0 3.0 0
-1.133 -0.232 2.812 3
-1.109 -0.239 2.8 4
-1.096 -0.247 2.785 4
0.0 -0.0 3.0 0
-48.418 -12.42 0.586 2
0.0 -0.0 3.0 0
-50.288 -11.09 0.44 37
0.0 -0.0 3.0 0
-52.173 -9.708 0.399 23
-52.585 -8.91 0.445 15
-53.595 -8.222 0.486 17
-55.04 -7.592 0.533 22
-59.373 -7.321 0.479 4
-61.801 -6.771 0.535 22
0.0 -0.0 3.0 0
0.0 -0.0 3.0 0
0.0 -0.0 3.0 0
0.0 -0.0 3.0 0
-54.924 -3.847 1.206 4
0.0 -0.0 3.0 0
0.0 -0.0 3.0 0
-110.786 -9.172 -1.877 13
0.0 -0.0 3.0 0
0.0 -0.0 3.0 0
0.0 -0.0 3.0 0
-3.657 -0.452 2.718 0
-3.27 -0.442 2.713 0
-3.1 -0.455 2.693 1
-2.184 -0.346 2.758 2
-2.173 -0.37 2.731 5
0.0 -0.0 3.0 0
-1.43 -0.275 2.785 0
-1.169 -0.238 2.807 3
-1.113 -0.239 2.8 7
-1.1 -0.247 2.785 5
0.0 -0.0 3.0 0
-126.228 -32.26 -3.271 20
0.0 -0.0 3.0 0
0.0 -0.0 3.0 0
0.0 -0.0 3.0 0
-52.224 -9.654 0.413 9
-52.921 -8.897 0.449 14
-53.916 -8.193 0.495 18
-55.429 -7.557 0.545 24
-61.105 -7.427 0.443 13
-62.17 -6.69 0.565 19
0.0 -0.0 3.0 0
0.0 -0.0 3.0 0
0.0 -0.0 3.0 0
-53.673 -3.727 1.341 58
-54.806 -3.682 1.283 17
0.0 -0.0 3.0 0
0.0 -0.0 3.0 0
0.0 -0.0 3.0 0
0.0 -0.0 3.0 0
0.0 -0.0 3.0 0
-12.595 -1.395 2.162 0
-3.852 -0.47 2.706 0
-3.172 -0.424 2.724 0
-3.116 -0.454 2.694 2
-2.176 -0.342 2.76 3
-2.165 -0.366 2.734 2
0.0 -0.0 3.0 0
-1.399 -0.268 2.79 1
-1.149 -0.233 2.811 3
-1.113 -0.238 2.8 8
-1.104 -0.248 2.784 8
0.0 -0.0 3.0 0
0.0 -0.0 3.0 0
-50.307 -11.895 0.472 2
0.0 -0.0 3.0 0
0.0 -0.0 3.0 0
0.0 -0.0 3.0 0
-53.209 -8.877 0.455 15
-54.24 -8.167 0.503 17
-55.771 -7.518 0.557 22
-61.456 -7.365 0.464 6
-62.541 -6.611 0.594 19
0.0 -0.0 3.0 0
0.0 -0.0 3.0 0
0.0 -0.0 3.0 0
-53.737 -3.581 1.406 5
0.0 -0.0 3.0 0
0.0 -0.0 3.0 0
0.0 -0.0 3.0 0
0.0 -0.0 3.0 0
0.0 -0.0 3.0 0
0.0 -0.0 3.0 0
-12.713 -1.388 2.166 4
-3.81 -0.46 2.712 0
-3.157 -0.419 2.728 2
-3.105 -0.449 2.697 3
-2.173 -0.34 2.762 2
-1.982 -0.333 2.758 2
0.0 -0.0 3.0 0
-1.384 -0.264 2.794 1
-1.154 -0.233 2.811 3
-1.118 -0.238 2.8 9
-1.097 -0.245 2.787 8
0.0 -0.0 3.0 0
0.0 -0.0 3.0 0
-50.267 -11.839 0.484 41
0.0 -0.0 3.0 0
-52.161 -10.423 0.401 15
0.0 -0.0 3.0 0
-53.547 -8.868 0.457 11
-54.564 -8.142 0.511 15
-56.107 -7.48 0.57 22
-57.969 -6.852 0.641 6
-62.921 -6.535 0.621 20
0.0 -0.0 3.0 0
0.0 -0.0 3.0 0
0.0 -0.0 3.0 0
0.0 -0.0 3.0 0
-55.688 -3.423 1.404 17
0.0 -0.0 3.0 0
0.0 -0.0 3.0 0
0.0 -0.0 3.0 0
0.0 -0.0 3.0 0
0.0 -0.0 3.0 0
-12.859 -1.384 2.168 5
-4.71 -0.563 2.648 3
-3.126 -0.41 2.734 2
-3.106 -0.445 2.7 4
-2.13 -0.33 2.769 1
-1.916 -0.32 2.767 2
-1.593 -0.285 2.786 1
-1.38 -0.262 2.795 2
-1.185 -0.239 2.807 3
-1.118 -0.237 2.801 10
-1.097 -0.245 2.787 10
0.0 -0.0 3.0 0
0.0 -0.0 3.0 0
0.0 -0.0 3.0 0
0.0 -0.0 3.0 0
-52.211 -10.38 0.412 15
0.0 -0.0 3.0 0
-54.067 -8.89 0.451 33
-54.903 -8.121 0.517 19
-56.274 -7.422 0.588 14
-59.017 -6.881 0.631 15
-63.296 -6.461 0.648 21
-75.933 -6.743 0.412 4
0.0 -0.0 3.0 0
-53.688 -3.626 1.461 70
-54.806 -3.346 1.51 14
-56.067 -3.286 1.468 8
0.0 -0.0 3.0 0
0.0 -0.0 3.0 0
0.0 -0.0 3.0 0
0.0 -0.0 3.0 0
0.0 -0.0 3.0 0
-4.787 -0.508 2.695 0
-4.703 -0.556 2.653 19
-3.127 -0.407 2.736 2
-3.103 -0.441 2.702 3
-2.044 -0.315 2.779 3
-1.865 -0.31 2.775 2
-1.515 -0.27 2.797 2
-1.392 -0.264 2.794 2
-1.243 -0.25 2.798 3
-1.103 -0.234 2.804 9
-1.093 -0.243 2.789 13
0.0 -0.0 3.0 0
0.0 -0.0 3.0 0
0.0 -0.0 3.0 0
0.0 -0.0 3.0 0
0.0 -0.0 3.0 0
0.0 -0.0 3.0 0
0.0 -0.0 3.0 0
-55.234 -8.101 0.523 16
-56.273 -7.344 0.614 17
-58.977 -6.786 0.664 25
-63.69 -6.39 0.674 17
-68.261 -5.926 0.725 4
0.0 -0.0 3.0 0
-53.742 -3.493 1.517 6
0.0 -0.0 3.0 0
-56.421 -3.146 1.533 6
-57.71 -3.317 1.382 34
0.0 -0.0 3.0 0
0.0 -0.0 3.0 0
0.0 -0.0 3.0 0
-15.185 -1.412 2.185 2
-4.578 -0.48 2.712 1
-4.707 -0.55 2.656 17
-3.111 -0.402 2.739 3
-2.035 -0.288 2.806 0
-2.048 -0.315 2.78 3
-1.771 -0.293 2.787 2
-1.515 -0.269 2.797 2
-1.393 -0.263 2.795 3
-1.305 -0.261 2.788 3
-1.099 -0.232 2.805 9
-1.094 -0.243 2.789 12
0.0 -0.0 3.0 0
0.0 -0.0 3.0 0
0.0 -0.0 3.0 0
-52.195 -11.21 0.412 13
0.0 -0.0 3.0 0
-54.075 -9.702 0.4 24
0.0 -0.0 3.0 0
-55.565 -8.083 0.529 16
-56.616 -7.314 0.624 15
-58.563 -6.652 0.71 11
-64.016 -6.316 0.701 19
0.0 -0.0 3.0 0
0.0 -0.0 3.0 0
0.0 -0.0 3.0 0
0.0 -0.0 3.0 0
0.0 -0.0 3.0 0
-58.124 -3.183 1.448 27
0.0 -0.0 3.0 0
0.0 -0.0 3.0 0
0.0 -0.0 3.0 0
-6.754 -0.618 2.643 0
-4.793 -0.496 2.702 12
-3.123 -0.361 2.774 2
-3.104 -0.397 2.742 3
-2.007 -0.282 2.81 0
-2.009 -0.307 2.785 3
-1.619 -0.266 2.806 4
-1.527 -0.27 2.797 3
-1.416 -0.267 2.792 3
-1.279 -0.255 2.794 2
-1.099 -0.232 2.806 11
-1.105 -0.245 2.787 12
0.0 -0.0 3.0 0
0.0 -0.0 3.0 0
0.0 -0.0 3.0 0
-52.243 -11.179 0.419 5
0.0 -0.0 3.0 0
-54.124 -9.659 0.412 6
0.0 -0.0 3.0 0
-55.927 -8.073 0.532 18
-56.967 -7.287 0.632 15
-58.482 -6.559 0.741 25
-64.023 -6.214 0.738 36
-65.565 -5.446 0.91 11
0.0 -0.0 3.0 0
-54.871 -3.294 1.602 11
0.0 -0.0 3.0 0
0.0 -0.0 3.0 0
-58.354 -3.038 1.518 8
0.0 -0.0 3.0 0
0.0 -0.0 3.0 0
0.0 -0.0 3.0 0
-6.756 -0.608 2.649 2
-4.715 -0.481 2.711 20
-3.112 -0.357 2.777 4
-2.357 -0.3 2.805 1
-2.016 -0.281 2.81 0
-1.951 -0.296 2.792 2
-1.588 -0.26 2.811 9
-1.539 -0.271 2.796 4
-1.389 -0.26 2.797 2
-1.302 -0.259 2.79 2
-1.099 -0.231 2.806 10
-1.113 -0.246 2.786 14
0.0 -0.0 3.0 0
0.0 -0.0 3.0 0
0.0 -0.0 3.0 0
0.0 -0.0 3.0 0
0.0 -0.0 3.0 0
0.0 -0.0 3.0 0
-55.984 -8.968 0.428 4
-56.264 -8.061 0.536 14
-57.329 -7.264 0.64 17
-58.845 -6.52 0.755 41
-63.962 -6.109 0.777 35
-66.002 -5.364 0.941 18
-89.92 -6.143 0.518 9
0.0 -0.0 3.0 0
0.0 -0.0 3.0 0
-125.414 -5.917 0.241 17
-58.7 -2.897 1.587 4
0.0 -0.0 3.0 0
-127.274 -8.334 -1.431 16
-100.353 -7.677 -1.255 13
-5.161 -0.456 2.736 3
-4.08 -0.411 2.753 3
-3.104 -0.353 2.78 2
-2.31 -0.291 2.811 1
-2.012 -0.279 2.812 0
-1.837 -0.277 2.806 2
-1.592 -0.26 2.811 9
-1.516 -0.266 2.8 2
-1.393 -0.26 2.797 2
-1.314 -0.261 2.789 2
-1.1 -0.23 2.807 8
-1.11 -0.245 2.787 14
0.0 -0.0 3.0 0
0.0 -0.0 3.0 0
-130.838 -30.203 -3.42 17
0.0 -0.0 3.0 0
-54.065 -10.513 0.379 14
0.0 -0.0 3.0 0
-55.961 -8.913 0.444 36
-56.621 -8.054 0.538 14
-57.719 -7.248 0.645 16
-59.292 -6.493 0.764 19
-63.901 -6.009 0.813 32
-66.403 -5.282 0.973 17
0.0 -0.0 3.0 0
0.0 -0.0 3.0 0
0.0 -0.0 3.0 0
-125.394 -5.558 0.408 15
0.0 -0.0 3.0 0
0.0 -0.0 3.0 0
0.0 -0.0 3.0 0
0.0 -0.0 3.0 0
-5.015 -0.437 2.748 1
-4.041 -0.403 2.758 10
-2.728 -0.306 2.809 2
-2.295 -0.287 2.813 1
-2.012 -0.277 2.813 1
-1.829 -0.275 2.808 2
-1.592 -0.259 2.812 10
-1.524 -0.266 2.8 2
-1.401 -0.261 2.796 2
-1.31 -0.259 2.79 1
-1.115 -0.233 2.804 7
-1.117 -0.246 2.786 14
0.0 -0.0 3.0 0
0.0 -0.0 3.0 0
0.0 -0.0 3.0 0
0.0 -0.0 3.0 0
-54.108 -10.481 0.387 7
0.0 -0.0 3.0 0
0.0 -0.0 3.0 0
0.0 -0.0 3.0 0
-58.049 -7.228 0.652 14
-59.706 -6.466 0.774 18
-61.689 -5.714 0.92 7
-66.8 -5.203 1.003 19
-54.305 -3.494 1.588 7
0.0 -0.0 3.0 0
-100.676 -4.49 1.001 8
0.0 -0.0 3.0 0
-60.084 -2.645 1.71 4
0.0 -0.0 3.0 0
0.0 -0.0 3.0 0
-4.875 -0.357 2.802 0
-4.992 -0.428 2.753 3
-3.06 -0.302 2.819 0
-2.808 -0.313 2.805 3
-2.366 -0.294 2.809 2
-2.028 -0.278 2.812 2
-1.814 -0.271 2.81 1
-1.581 -0.256 2.814 14
-1.536 -0.267 2.798 3
-1.417 -0.264 2.794 1
-1.322 -0.261 2.789 1
-1.15 -0.24 2.798 2
-1.121 -0.246 2.786 13
0.0 -0.0 3.0 0
-130.797 -32.473 -3.312 17
0.0 -0.0 3.0 0
0.0 -0.0 3.0 0
0.0 -0.0 3.0 0
0.0 -0.0 3.0 0
0.0 -0.0 3.0 0
-57.852 -8.121 0.517 27
-58.398 -7.212 0.657 14
-59.781 -6.405 0.795 9
-63.792 -5.824 0.88 29
-67.216 -5.13 1.031 19
-54.381 -3.397 1.628 7
0.0 -0.0 3.0 0
0.0 -0.0 3.0 0
0.0 -0.0 3.0 0
0.0 -0.0 3.0 0
0.0 -0.0 3.0 0
0.0 -0.0 3.0 0
-4.88 -0.351 2.805 3
-4.085 -0.345 2.801 2
-2.977 -0.29 2.826 2
-2.824 -0.312 2.805 4
-2.291 -0.283 2.817 3
-2.068 -0.282 2.81 1
-1.795 -0.267 2.813 1
-1.581 -0.255 2.814 17
-1.552 -0.269 2.797 2
-1.394 -0.258 2.798 1
-1.345 -0.265 2.785 1
-1.204 -0.251 2.79 2
-1.133 -0.248 2.784 11
0.0 -0.0 3.0 0
0.0 -0.0 3.0 0
0.0 -0.0 3.0 0
0.0 -0.0 3.0 0
0.0 -0.0 3.0 0
-55.966 -9.765 0.383 42
0.0 -0.0 3.0 0
0.0 -0.0 3.0 0
-58.778 -7.202 0.66 16
-59.888 -6.351 0.813 18
-63.688 -5.735 0.913 32
-67.623 -5.061 1.057 15
-54.535 -3.308 1.663 3
0.0 -0.0 3.0 0
-101.73 -3.996 1.221 9
-99.646 -3.565 1.338 28
-124.788 -4.841 0.639 15
-61.646 -2.903 1.521 4
-130.054 -7.561 -1.02 15
-4.876 -0.343 2.81 12
-3.627 -0.303 2.825 1
-2.965 -0.286 2.828 2
-2.797 -0.307 2.808 4
-2.296 -0.282 2.817 2
-2.025 -0.275 2.815 0
-1.807 -0.268 2.812 1
-1.577 -0.254 2.816 15
-1.544 -0.268 2.798 1
-1.421 -0.262 2.795 1
-4.758 -0.935 2.243 1
-1.204 -0.25 2.79 3
-1.145 -0.251 2.782 9
0.0 -0.0 3.0 0
-131.174 -32.437 -3.305 17
0.0 -0.0 3.0 0
0.0 -0.0 3.0 0
0.0 -0.0 3.0 0
0.0 -0.0 3.0 0
0.0 -0.0 3.0 0
0.0 -0.0 3.0 0
-59.158 -7.197 0.662 15
-60.277 -6.331 0.82 17
-63.652 -5.657 0.941 38
-67.994 -4.995 1.083 19
0.0 -0.0 3.0 0
0.0 -0.0 3.0 0
-99.963 -3.666 1.368 18
-99.51 -3.275 1.473 32
-61.306 -2.221 1.917 29
0.0 -0.0 3.0 0
-8.642 -0.488 2.74 0
-4.865 -0.336 2.814 16
-3.763 -0.309 2.821 3
-2.993 -0.286 2.828 3
-2.63 -0.286 2.821 3
-2.252 -0.275 2.822 1
-2.029 -0.274 2.815 0
-1.811 -0.268 2.812 1
-1.573 -0.252 2.817 19
-1.552 -0.268 2.798 1
-1.461 -0.269 2.79 0
-7.059 -1.384 1.879 9
-1.193 -0.248 2.792 3
-1.16 -0.254 2.78 10
-130.751 -34.761 -3.129 21
0.0 -0.0 3.0 0
0.0 -0.0 3.0 0
0.0 -0.0 3.0 0
-55.979 -10.707 0.331 9
0.0 -0.0 3.0 0
-57.868 -8.996 0.42 27
0.0 -0.0 3.0 0
-59.509 -7.192 0.663 12
-60.661 -6.316 0.825 14
-62.376 -5.476 1.007 18
-68.46 -4.939 1.104 17
0.0 -0.0 3.0 0
0.0 -0.0 3.0 0
-99.814 -3.405 1.484 21
-99.369 -2.987 1.607 30
-61.829 -2.083 1.984 4
0.0 -0.0 3.0 0
-7.809 -0.429 2.772 0
-4.845 -0.329 2.818 17
-3.819 -0.31 2.821 6
-3.03 -0.287 2.828 2
-2.567 -0.277 2.827 2
-2.253 -0.273 2.822 1
-2.061 -0.277 2.813 1
-1.811 -0.267 2.813 0
-1.574 -0.251 2.817 20
-1.591 -0.273 2.794 0
-7.658 -1.409 1.899 4
-7.098 -1.389 1.875 8
-1.193 -0.247 2.793 4
-1.168 -0.255 2.779 10
0.0 -0.0 3.0 0
0.0 -0.0 3.0 0
0.0 -0.0 3.0 0
0.0 -0.0 3.0 0
-56.051 -10.693 0.334 12
0.0 -0.0 3.0 0
-57.882 -8.964 0.43 3
0.0 -0.0 3.0 0
-59.884 -7.193 0.663 13
-61.053 -6.305 0.829 14
-62.777 -5.449 1.017 26
-68.63 -4.869 1.131 45
0.0 -0.0 3.0 0
-94.656 -4.004 1.3 12
-99.652 -3.149 1.598 23
-99.215 -2.7 1.741 31
-4.865 -0.152 2.926 1
-4.723 -0.195 2.901 0
-7.925 -0.424 2.774 87
-4.822 -0.321 2.822 18
-3.848 -0.309 2.821 5
-2.982 -0.28 2.832 3
-2.56 -0.275 2.828 2
-2.288 -0.276 2.821 2
-2.077 -0.278 2.813 0
-1.784 -0.262 2.817 0
-1.57 -0.25 2.818 19
-4.888 -0.839 2.367 16
-4.702 -0.864 2.325 0
-7.149 -1.397 1.869 9
-1.193 -0.247 2.793 7
-1.168 -0.254 2.779 6
0.0 -0.0 3.0 0
0.0 -0.0 3.0 0
0.0 -0.0 3.0 0
0.0 -0.0 3.0 0
0.0 -0.0 3.0 0
0.0 -0.0 3.0 0
0.0 -0.0 3.0 0
-59.724 -8.168 0.503 23
0.0 -0.0 3.0 0
-61.44 -6.297 0.832 13
-63.193 -5.428 1.024 18
-68.548 -4.788 1.162 36
-70.586 -3.846 1.446 16
0.0 -0.0 3.0 0
-4.838 -0.141 2.937 0
-99.088 -2.414 1.874 30
-4.854 -0.14 2.932 9
-4.723 -0.186 2.905 2
-4.939 -0.258 2.863 0
-4.559 -0.299 2.834 6
-3.617 -0.288 2.834 4
-2.978 -0.277 2.833 3
-2.588 -0.276 2.827 2
-2.328 -0.279 2.819 1
-3.527 -0.47 2.683 4
-3.363 -0.492 2.656 4
-1.566 -0.249 2.819 17
-4.693 -0.804 2.394 17
-4.671 -0.857 2.331 2
-7.193 -1.403 1.864 8
-1.197 -0.247 2.793 8
-1.168 -0.254 2.779 4
0.0 -0.0 3.0 0
0.0 -0.0 3.0 0
0.0 -0.0 3.0 0
0.0 -0.0 3.0 0
0.0 -0.0 3.0 0
-57.892 -9.946 0.335 34
0.0 -0.0 3.0 0
-59.788 -8.145 0.51 13
0.0 -0.0 3.0 0
-61.839 -6.295 0.832 16
-63.409 -5.395 1.036 43
-65.745 -4.527 1.262 3
-71.019 -3.78 1.473 16
-85.888 -3.331 1.586 7
-4.814 -0.129 2.943 2
-98.928 -2.129 2.007 29
-4.842 -0.129 2.937 8
-4.72 -0.178 2.909 9
-4.924 -0.251 2.867 1
-4.564 -0.295 2.836 6
-3.577 -0.281 2.838 4
-2.995 -0.277 2.833 2
-2.627 -0.279 2.826 2
-4.712 -0.564 2.634 35
-3.543 -0.471 2.683 5
-3.399 -0.495 2.653 4
-1.57 -0.249 2.819 15
-4.713 -0.806 2.393 26
-4.652 -0.851 2.335 18
-7.24 -1.411 1.858 8
-1.186 -0.245 2.795 8
-1.165 -0.253 2.78 3
0.0 -0.0 3.0 0
0.0 -0.0 3.0 0
0.0 -0.0 3.0 0
0.0 -0.0 3.0 0
0.0 -0.0 3.0 0
0.0 -0.0 3.0 0
0.0 -0.0 3.0 0
0.0 -0.0 3.0 0
-61.617 -7.29 0.631 25
-62.221 -6.296 0.832 15
-63.513 -5.358 1.05 14
-66.089 -4.492 1.276 5
-71.475 -3.724 1.495 17
-84.875 -3.161 1.658 11
-4.826 -0.119 2.947 12
-4.815 -0.09 2.958 1
-4.846 -0.118 2.942 4
-4.716 -0.171 2.913 19
-4.932 -0.246 2.869 4
-4.763 -0.304 2.831 21
-3.586 -0.28 2.838 2
-3.062 -0.282 2.831 2
-5.029 -0.532 2.668 27
-4.724 -0.563 2.634 26
-3.543 -0.469 2.683 5
-3.533 -0.514 2.64 3
-1.562 -0.247 2.82 13
-4.729 -0.807 2.392 24
-4.684 -0.856 2.331 30
-7.295 -1.419 1.851 8
-1.182 -0.244 2.796 8
-1.176 -0.255 2.778 4
0.0 -0.0 3.0 0
0.0 -0.0 3.0 0
0.0 -0.0 3.0 0
0.0 -0.0 3.0 0
0.0 -0.0 3.0 0
0.0 -0.0 3.0 0
-59.743 -9.147 0.377 8
0.0 -0.0 3.0 0
-61.66 -7.268 0.638 5
-62.606 -6.303 0.83 14
-63.835 -5.347 1.054 18
-68.339 -4.593 1.237 45
-71.911 -3.676 1.515 15
0.0 -0.0 3.0 0
-4.823 -0.108 2.952 32
-4.803 -0.076 2.965 2
-4.855 -0.108 2.947 4
-4.728 -0.165 2.916 30
-4.916 -0.241 2.872 19
-4.883 -0.309 2.829 31
-3.645 -0.282 2.837 0
-4.745 -0.434 2.739 38
-4.99 -0.526 2.672 25
-4.737 -0.563 2.634 30
-3.559 -0.471 2.683 4
-1.595 -0.231 2.838 0
-1.566 -0.248 2.82 11
-4.749 -0.81 2.39 33
-4.688 -0.855 2.332 45
-7.338 -1.426 1.845 9
-1.178 -0.243 2.796 8
-1.18 -0.256 2.778 5
0.0 -0.0 3.0 0
0.0 -0.0 3.0 0
-78.656 -17.793 -0.782 14
0.0 -0.0 3.0 0
0.0 -0.0 3.0 0
0.0 -0.0 3.0 0
-59.773 -9.134 0.381 16
0.0 -0.0 3.0 0
0.0 -0.0 3.0 0
-62.995 -6.315 0.826 13
-64.236 -5.346 1.054 15
-68.251 -4.544 1.256 30
-72.35 -3.638 1.53 16
-76.326 -2.647 1.876 4
-4.811 -0.099 2.956 40
-4.808 -0.063 2.971 23
-4.855 -0.098 2.952 16
-4.733 -0.159 2.919 32
-4.913 -0.236 2.875 15
-4.792 -0.299 2.834 21
-4.853 -0.373 2.784 18
-4.749 -0.432 2.74 41
-4.919 -0.516 2.678 23
-4.749 -0.563 2.635 31
-3.591 -0.474 2.68 4
-1.619 -0.234 2.836 0
-1.555 -0.245 2.822 9
-4.757 -0.81 2.39 28
-4.696 -0.856 2.331 41
-7.393 -1.435 1.838 8
-1.182 -0.243 2.796 10
-1.184 -0.257 2.777 3
0.0 -0.0 3.0 0
0.0 -0.0 3.0 0
0.0 -0.0 3.0 0
0.0 -0.0 3.0 0
0.0 -0.0 3.0 0
0.0 -0.0 3.0 0
0.0 -0.0 3.0 0
-61.611 -8.304 0.461 22
0.0 -0.0 3.0 0
-63.423 -6.335 0.819 12
-64.673 -5.356 1.051 15
-66.482 -4.392 1.314 18
-72.792 -3.612 1.541 14
0.0 -0.0 3.0 0
-4.803 -0.091 2.96 41
-4.804 -0.049 2.977 25
-4.851 -0.091 2.956 24
-4.741 -0.156 2.921 26
-4.917 -0.233 2.876 18
-4.712 -0.292 2.838 30
-4.805 -0.367 2.788 14
-4.753 -0.431 2.741 42
-4.911 -0.514 2.679 29
-4.749 -0.561 2.635 26
-3.607 -0.475 2.68 2
-1.619 -0.234 2.836 0
-1.547 -0.244 2.823 9
-4.773 -0.812 2.388 28
-4.712 -0.859 2.329 32
-7.444 -1.444 1.83 8
-1.186 -0.244 2.795 12
-1.223 -0.265 2.769 0
0.0 -0.0 3.0 0
0.0 -0.0 3.0 0
0.0 -0.0 3.0 0
0.0 -0.0 3.0 0
0.0 -0.0 3.0 0
0.0 -0.0 3.0 0
0.0 -0.0 3.0 0
-61.648 -8.297 0.463 6
0.0 -0.0 3.0 0
0.0 -0.0 3.0 0
-65.098 -5.371 1.045 13
-66.935 -4.396 1.312 20
-73.161 -3.593 1.548 19
-4.757 -0.157 2.934 0
-4.799 -0.084 2.963 31
-4.78 -0.034 2.984 40
-4.851 -0.084 2.959 31
-4.805 -0.154 2.922 27
-4.925 -0.231 2.877 27
-4.708 -0.29 2.839 30
-4.817 -0.366 2.789 16
-4.758 -0.43 2.742 38
-4.891 -0.511 2.681 34
-4.761 -0.562 2.635 20
-3.627 -0.477 2.679 1
-1.619 -0.234 2.836 0
-1.555 -0.245 2.822 8
-4.785 -0.813 2.387 23
-4.7 -0.856 2.331 2
-7.498 -1.454 1.822 8
-1.19 -0.245 2.795 12
-1.196 -0.259 2.775 0
0.0 -0.0 3.0 0
0.0 -0.0 3.0 0
0.0 -0.0 3.0 0
0.0 -0.0 3.0 0
0.0 -0.0 3.0 0
0.0 -0.0 3.0 0
0.0 -0.0 3.0 0
0.0 -0.0 3.0 0
-63.518 -7.422 0.589 32
0.0 -0.0 3.0 0
-65.513 -5.393 1.037 15
-67.355 -4.406 1.309 19
-56.758 -2.769 1.881 3
-4.781 -0.155 2.934 3
-4.803 -0.08 2.965 11
-4.772 -0.021 2.99 44
-4.755 -0.077 2.962 34
-4.841 -0.152 2.922 25
-4.889 -0.227 2.879 26
-4.716 -0.289 2.84 27
-4.877 -0.37 2.786 24
-4.762 -0.429 2.742 35
-4.832 -0.503 2.685 39
-4.781 -0.564 2.634 16
-4.84 -0.636 2.571 54
-1.599 -0.231 2.838 0
-1.555 -0.244 2.822 7
-1.706 -0.29 2.781 0
-4.704 -0.856 2.331 0
-7.545 -1.462 1.816 9
-1.186 -0.244 2.796 11
-1.219 -0.264 2.77 0
0.0 -0.0 3.0 0
0.0 -0.0 3.0 0
0.0 -0.0 3.0 0
0.0 -0.0 3.0 0
0.0 -0.0 3.0 0
0.0 -0.0 3.0 0
-61.671 -9.39 0.308 41
0.0 -0.0 3.0 0
0.0 -0.0 3.0 0
-65.364 -6.496 0.763 13
-65.936 -5.422 1.027 16
-67.814 -4.428 1.3 20
-56.634 -2.753 1.888 9
-4.773 -0.154 2.935 14
-4.795 -0.077 2.966 3
-4.776 -0.007 2.997 54
-4.735 -0.075 2.963 34
-4.889 -0.153 2.922 27
-4.837 -0.224 2.881 44
-4.732 -0.29 2.839 20
-4.901 -0.372 2.785 52
-4.718 -0.425 2.744 28
-4.76 -0.495 2.69 35
-4.801 -0.566 2.632 15
-4.998 -0.657 2.557 30
-1.627 -0.235 2.835 0
-1.606 -0.252 2.817 12
-1.706 -0.29 2.782 8
-1.73 -0.315 2.754 0
-7.595 -1.472 1.808 10
-1.182 -0.243 2.796 11
-1.223 -0.265 2.77 1
0.0 -0.0 3.0 0
0.0 -0.0 3.0 0
0.0 -0.0 3.0 0
0.0 -0.0 3.0 0
0.0 -0.0 3.0 0
0.0 -0.0 3.0 0
0.0 -0.0 3.0 0
0.0 -0.0 3.0 0
0.0 -0.0 3.0 0
-65.388 -6.5 0.762 13
-66.362 -5.457 1.014 15
-67.754 -4.425 1.302 16
-70.559 -3.431 1.614 5
-4.777 -0.154 2.935 13
-4.799 -0.077 2.966 3
-4.784 -0.006 2.997 55
-4.739 -0.075 2.963 33
-4.829 -0.151 2.923 22
-4.785 -0.222 2.882 19
-4.752 -0.29 2.839 15
-4.905 -0.372 2.785 58
-4.722 -0.425 2.745 32
-4.705 -0.49 2.694 28
-4.825 -0.569 2.631 36
-5.021 -0.659 2.555 23
-1.631 -0.236 2.835 0
-1.618 -0.254 2.815 13
-1.71 -0.29 2.782 11
-1.715 -0.312 2.756 1
-7.479 -1.449 1.826 5
-1.175 -0.241 2.798 10
-1.223 -0.265 2.77 1
0.0 -0.0 3.0 0
0.0 -0.0 3.0 0
0.0 -0.0 3.0 0
0.0 -0.0 3.0 0
0.0 -0.0 3.0 0
0.0 -0.0 3.0 0
0.0 -0.0 3.0 0
-63.531 -8.545 0.388 44
0.0 -0.0 3.0 0
0.0 -0.0 3.0 0
-66.8 -5.501 0.998 13
-68.129 -4.458 1.289 15
-4.845 -0.237 2.904 1
-4.785 -0.155 2.934 11
-4.783 -0.079 2.965 23
-4.772 -0.02 2.991 51
-4.767 -0.077 2.962 32
-4.777 -0.15 2.924 23
-4.861 -0.226 2.88 33
-4.796 -0.294 2.837 15
-4.901 -0.372 2.785 50
-4.726 -0.426 2.744 37
-4.717 -0.491 2.693 29
-4.809 -0.567 2.632 46
-5.01 -0.658 2.556 18
-1.654 -0.239 2.832 4
-1.637 -0.257 2.813 12
-1.714 -0.291 2.781 12
-1.734 -0.315 2.754 0
-1.168 -0.226 2.817 0
-1.175 -0.241 2.798 10
-1.215 -0.263 2.772 2
0.0 -0.0 3.0 0
0.0 -0.0 3.0 0
0.0 -0.0 3.0 0
0.0 -0.0 3.0 0
0.0 -0.0 3.0 0
0.0 -0.0 3.0 0
0.0 -0.0 3.0 0
0.0 -0.0 3.0 0
-65.371 -7.652 0.514 14
0.0 -0.0 3.0 0
-67.193 -5.549 0.98 14
-56.7 -3.726 1.57 4
-72.742 -3.576 1.555 29
-4.785 -0.158 2.933 34
-4.795 -0.084 2.963 39
-4.76 -0.034 2.984 45
-4.823 -0.082 2.96 39
-4.769 -0.152 2.922 24
-4.841 -0.226 2.88 31
-4.884 -0.301 2.833 17
-4.905 -0.373 2.785 45
-4.734 -0.428 2.743 33
-4.732 -0.494 2.692 31
-4.638 -0.547 2.644 17
-4.994 -0.656 2.557 14
-1.65 -0.239 2.833 9
-1.629 -0.257 2.814 15
-1.698 -0.288 2.783 14
-7.67 -1.396 1.909 6
-1.188 -0.23 2.814 0
-1.19 -0.244 2.795 10
-1.234 -0.267 2.768 2
0.0 -0.0 3.0 0
0.0 -0.0 3.0 0
0.0 -0.0 3.0 0
0.0 -0.0 3.0 0
0.0 -0.0 3.0 0
0.0 -0.0 3.0 0
0.0 -0.0 3.0 0
0.0 -0.0 3.0 0
-65.385 -7.67 0.508 17
0.0 -0.0 3.0 0
-67.641 -5.608 0.959 6
-69.011 -4.563 1.249 14
-70.938 -3.525 1.576 9
-4.769 -0.161 2.932 44
-4.791 -0.091 2.96 60
-4.76 -0.047 2.978 43
-4.859 -0.09 2.956 35
-4.777 -0.156 2.921 22
-4.841 -0.229 2.878 22
-5.0 -0.309 2.828 30
-4.889 -0.373 2.785 33
-4.746 -0.43 2.742 23
-4.8 -0.501 2.687 32
-4.626 -0.547 2.645 21
-4.677 -0.616 2.585 13
-1.654 -0.24 2.832 10
-1.649 -0.26 2.811 25
-1.706 -0.29 2.781 22
-1.715 -0.312 2.756 0
-1.184 -0.229 2.814 0
-1.229 -0.252 2.788 10
-1.35 -0.292 2.746 4
0.0 -0.0 3.0 0
0.0 -0.0 3.0 0
0.0 -0.0 3.0 0
0.0 -0.0 3.0 0
0.0 -0.0 3.0 0
0.0 -0.0 3.0 0
0.0 -0.0 3.0 0
0.0 -0.0 3.0 0
0.0 -0.0 3.0 0
-67.25 -6.747 0.677 34
0.0 -0.0 3.0 0
-69.475 -4.63 1.223 15
-71.451 -3.6 1.546 17
-4.757 -0.165 2.93 47
-4.799 -0.099 2.956 55
-4.764 -0.061 2.972 39
-4.851 -0.098 2.952 19
-4.797 -0.161 2.918 18
-4.881 -0.233 2.876 16
-5.055 -0.315 2.825 39
-4.897 -0.375 2.783 31
-4.773 -0.434 2.739 25
-4.855 -0.508 2.682 45
-4.63 -0.548 2.644 18
-1.659 -0.219 2.852 0
-1.654 -0.24 2.832 11
-1.653 -0.26 2.811 27
-1.698 -0.289 2.782 23
-7.327 -1.335 1.957 5
-1.195 -0.232 2.812 0
-1.317 -0.271 2.773 18
-1.315 -0.285 2.752 4
0.0 -0.0 3.0 0
0.0 -0.0 3.0 0
0.0 -0.0 3.0 0
0.0 -0.0 3.0 0
0.0 -0.0 3.0 0
0.0 -0.0 3.0 0
0.0 -0.0 3.0 0
-65.431 -8.865 0.29 40
0.0 -0.0 3.0 0
0.0 -0.0 3.0 0
-69.101 -5.796 0.89 39
-69.919 -4.705 1.194 16
-71.898 -3.683 1.512 17
-4.748 -0.17 2.928 40
-4.791 -0.108 2.952 44
-4.763 -0.073 2.966 34
-5.07 -0.112 2.945 32
-4.876 -0.169 2.914 16
-4.968 -0.241 2.872 18
-5.055 -0.318 2.823 43
-4.905 -0.378 2.782 32
-4.785 -0.436 2.738 24
-4.855 -0.51 2.681 48
-4.63 -0.55 2.643 15
-1.651 -0.218 2.853 2
-1.654 -0.24 2.832 18
-1.661 -0.262 2.809 27
-1.698 -0.289 2.782 24
-7.167 -1.307 1.979 6
-1.219 -0.237 2.808 0
-1.368 -0.281 2.764 17
-1.299 -0.282 2.755 5
0.0 -0.0 3.0 0
0.0 -0.0 3.0 0
0.0 -0.0 3.0 0
0.0 -0.0 3.0 0
0.0 -0.0 3.0 0
0.0 -0.0 3.0 0
0.0 -0.0 3.0 0
0.0 -0.0 3.0 0
0.0 -0.0 3.0 0
0.0 -0.0 3.0 0
0.0 -0.0 3.0 0
-70.401 -4.792 1.16 14
-72.373 -3.78 1.473 29
-4.744 -0.177 2.925 37
-4.79 -0.118 2.948 29
-4.835 -0.089 2.959 24
-5.126 -0.123 2.94 37
-5.068 -0.182 2.907 38
-4.988 -0.246 2.869 20
-5.071 -0.323 2.821 43
-4.916 -0.382 2.78 25
-4.832 -0.443 2.734 35
-4.95 -0.522 2.674 57
-4.638 -0.552 2.641 14
-1.635 -0.216 2.854 6
-1.65 -0.24 2.832 21
-1.657 -0.262 2.81 29
-1.694 -0.289 2.782 29
-1.718 -0.314 2.755 0
-1.218 -0.237 2.808 0
-1.395 -0.287 2.759 16
-1.284 -0.278 2.758 5
0.0 -0.0 3.0 0
0.0 -0.0 3.0 0
0.0 -0.0 3.0 0
0.0 -0.0 3.0 0
0.0 -0.0 3.0 0
0.0 -0.0 3.0 0
0.0 -0.0 3.0 0
0.0 -0.0 3.0 0
-67.243 -8.004 0.399 37
0.0 -0.0 3.0 0
0.0 -0.0 3.0 0
-70.867 -4.887 1.124 12
-72.34 -3.86 1.441 14
-4.74 -0.184 2.922 29
-4.794 -0.129 2.943 9
-4.851 -0.102 2.952 6
-5.09 -0.134 2.935 38
-5.072 -0.19 2.903 44
-5.016 -0.254 2.865 19
-4.979 -0.321 2.822 41
-4.908 -0.385 2.778 29
-4.824 -0.445 2.733 44
-4.862 -0.515 2.678 41
-4.629 -0.553 2.641 13
-1.623 -0.215 2.855 8
-1.65 -0.24 2.832 21
-1.66 -0.263 2.809 30
-1.694 -0.289 2.782 28
-1.711 -0.313 2.756 0
-1.284 -0.25 2.798 0
-1.441 -0.297 2.751 23
-1.284 -0.279 2.758 5
0.0 -0.0 3.0 0
0.0 -0.0 3.0 0
0.0 -0.0 3.0 0
0.0 -0.0 3.0 0
0.0 -0.0 3.0 0
0.0 -0.0 3.0 0
0.0 -0.0 3.0 0
0.0 -0.0 3.0 0
0.0 -0.0 3.0 0
-69.118 -7.095 0.557 38
0.0 -0.0 3.0 0
-71.328 -4.991 1.084 12
-72.766 -3.975 1.394 15
-4.747 -0.192 2.918 5
-4.782 -0.139 2.938 1
-4.842 -0.116 2.946 4
-4.882 -0.14 2.932 20
-5.063 -0.197 2.899 45
-5.043 -0.261 2.861 20
-4.91 -0.321 2.822 28
-4.864 -0.385 2.778 24
-4.836 -0.449 2.73 36
-4.759 -0.506 2.684 30
-4.657 -0.558 2.637 15
-1.631 -0.217 2.854 11
-1.642 -0.24 2.832 25
-1.66 -0.264 2.809 31
-1.694 -0.29 2.782 28
-6.717 -1.23 2.039 7
-1.377 -0.269 2.782 1
-1.475 -0.304 2.745 29
-1.265 -0.275 2.761 5
0.0 -0.0 3.0 0
0.0 -0.0 3.0 0
0.0 -0.0 3.0 0
0.0 -0.0 3.0 0
0.0 -0.0 3.0 0
0.0 -0.0 3.0 0
0.0 -0.0 3.0 0
0.0 -0.0 3.0 0
0.0 -0.0 3.0 0
0.0 -0.0 3.0 0
-17.059 -1.484 2.46 2
-71.808 -5.104 1.041 11
-73.262 -4.104 1.342 13
-4.743 -0.201 2.915 1
-82.043 -2.592 1.846 19
-4.858 -0.131 2.939 5
-4.877 -0.151 2.926 24
-4.835 -0.197 2.899 35
-5.099 -0.27 2.856 39
-4.922 -0.326 2.819 26
-4.8 -0.383 2.779 22
-4.867 -0.455 2.726 35
-4.679 -0.501 2.687 26
-4.771 -0.575 2.627 5
-1.623 -0.217 2.854 15
-1.638 -0.24 2.832 27
-1.66 -0.264 2.808 31
-1.693 -0.29 2.781 28
-6.58 -1.207 2.057 7
-1.439 -0.281 2.773 1
-1.506 -0.311 2.739 25
-1.314 -0.286 2.751 11
0.0 -0.0 3.0 0
0.0 -0.0 3.0 0
0.0 -0.0 3.0 0
0.0 -0.0 3.0 0
0.0 -0.0 3.0 0
0.0 -0.0 3.0 0
0.0 -0.0 3.0 0
0.0 -0.0 3.0 0
0.0 -0.0 3.0 0
0.0 -0.0 3.0 0
-16.767 -1.476 2.463 2
-72.77 -5.26 0.981 26
-73.746 -4.242 1.286 15
-75.753 -3.352 1.577 6
-82.079 -2.799 1.754 41
-4.861 -0.145 2.932 1
-4.881 -0.163 2.921 30
-4.811 -0.205 2.896 41
-4.887 -0.266 2.859 29
-4.901 -0.331 2.817 25
-4.803 -0.388 2.776 32
-4.918 -0.464 2.721 28
-4.651 -0.5 2.687 25
-4.763 -0.576 2.626 1
-1.631 -0.218 2.853 19
-1.634 -0.24 2.832 28
-1.656 -0.264 2.808 29
-1.689 -0.29 2.782 29
-6.459 -1.187 2.073 7
-1.466 -0.287 2.768 2
-1.522 -0.315 2.736 26
-1.326 -0.288 2.749 14
0.0 -0.0 3.0 0
0.0 -0.0 3.0 0
0.0 -0.0 3.0 0
0.0 -0.0 3.0 0
0.0 -0.0 3.0 0
0.0 -0.0 3.0 0
0.0 -0.0 3.0 0
0.0 -0.0 3.0 0
-69.122 -8.429 0.261 15
0.0 -0.0 3.0 0
-16.526 -1.473 2.464 2
0.0 -0.0 3.0 0
-74.221 -4.39 1.226 13
-76.304 -3.531 1.501 19
-83.133 -3.049 1.643 9
-4.857 -0.159 2.926 3
-4.884 -0.176 2.914 29
-4.798 -0.214 2.891 39
-1.697 -0.095 2.95 1
-4.901 -0.337 2.813 24
-4.846 -0.396 2.771 36
-4.898 -0.466 2.72 19
-4.65 -0.504 2.685 22
-9.319 -1.133 2.264 19
-1.623 -0.218 2.853 20
-1.638 -0.241 2.831 29
-1.656 -0.265 2.808 29
-1.685 -0.29 2.782 28
-6.33 -1.165 2.09 7
-1.478 -0.289 2.766 3
-1.518 -0.314 2.736 30
-1.287 -0.28 2.756 6
0.0 -0.0 3.0 0
0.0 -0.0 3.0 0
0.0 -0.0 3.0 0
0.0 -0.0 3.0 0
0.0 -0.0 3.0 0
0.0 -0.0 3.0 0
0.0 -0.0 3.0 0
0.0 -0.0 3.0 0
0.0 -0.0 3.0 0
-14.159 -1.504 2.482 2
-16.285 -1.471 2.465 2
0.0 -0.0 3.0 0
-74.747 -4.549 1.162 14
-76.846 -3.72 1.421 33
-83.587 -3.283 1.538 16
-4.848 -0.172 2.92 21
-4.872 -0.188 2.908 23
-4.781 -0.223 2.887 26
-1.688 -0.097 2.948 2
-4.829 -0.338 2.813 28
-4.858 -0.402 2.768 40
-4.858 -0.466 2.72 13
-4.669 -0.51 2.681 15
-9.23 -1.129 2.267 11
-1.623 -0.219 2.852 22
-1.626 -0.241 2.832 28
-1.656 -0.265 2.807 29
-1.689 -0.291 2.781 28
-6.208 -1.145 2.105 8
-1.482 -0.291 2.764 5
-1.513 -0.314 2.736 28
-1.195 -0.261 2.773 6
0.0 -0.0 3.0 0
0.0 -0.0 3.0 0
0.0 -0.0 3.0 0
0.0 -0.0 3.0 0
0.0 -0.0 3.0 0
0.0 -0.0 3.0 0
0.0 -0.0 3.0 0
0.0 -0.0 3.0 0
0.0 -0.0 3.0 0
-13.97 -1.501 2.483 2
-16.124 -1.477 2.462 3
0.0 -0.0 3.0 0
-75.228 -4.714 1.095 13
-77.255 -3.909 1.341 16
-84.127 -3.527 1.43 13
-4.876 -0.187 2.913 18
-4.859 -0.199 2.903 18
-4.765 -0.233 2.881 34
-1.684 -0.1 2.947 3
-4.928 -0.352 2.805 23
-4.881 -0.41 2.763 44
-4.833 -0.469 2.718 13
-4.677 -0.515 2.678 23
-9.035 -1.112 2.278 11
-1.618 -0.22 2.851 26
-1.622 -0.241 2.832 29
-1.652 -0.265 2.807 28
-1.685 -0.291 2.781 28
-6.091 -1.126 2.12 8
-1.485 -0.292 2.763 6
-1.486 -0.309 2.741 22
-1.172 -0.256 2.777 6
0.0 -0.0 3.0 0
0.0 -0.0 3.0 0
0.0 -0.0 3.0 0
0.0 -0.0 3.0 0
0.0 -0.0 3.0 0
0.0 -0.0 3.0 0
0.0 -0.0 3.0 0
0.0 -0.0 3.0 0
-12.156 -1.517 2.507 0
-13.797 -1.498 2.484 2
-15.914 -1.479 2.462 2
-74.651 -5.829 0.763 30
-15.411 -0.994 2.598 1
-77.289 -4.087 1.265 8
-4.786 -0.213 2.905 0
-4.883 -0.201 2.906 35
-4.814 -0.211 2.897 11
-4.756 -0.242 2.877 33
-1.668 -0.102 2.946 3
-4.939 -0.36 2.8 17
-4.996 -0.426 2.754 36
-4.829 -0.474 2.715 17
-4.68 -0.519 2.676 26
-8.674 -1.074 2.303 9
-1.614 -0.22 2.851 27
-1.613 -0.241 2.831 28
-1.648 -0.266 2.807 27
-1.685 -0.292 2.78 28
-5.996 -1.112 2.131 8
-1.489 -0.294 2.762 9
-1.347 -0.28 2.765 23
-1.164 -0.255 2.778 10
0.0 -0.0 3.0 0
0.0 -0.0 3.0 0
0.0 -0.0 3.0 0
0.0 -0.0 3.0 0
0.0 -0.0 3.0 0
0.0 -0.0 3.0 0
0.0 -0.0 3.0 0
0.0 -0.0 3.0 0
-12.031 -1.515 2.508 2
-13.624 -1.496 2.485 2
-15.709 -1.482 2.461 3
0.0 -0.0 3.0 0
-13.805 -0.918 2.629 0
-15.452 -0.853 2.638 10
-4.794 -0.227 2.899 6
-4.878 -0.215 2.9 37
-4.754 -0.221 2.892 33
-4.752 -0.253 2.871 31
-1.676 -0.106 2.944 4
-1.678 -0.124 2.931 1
-5.071 -0.439 2.747 37
-4.824 -0.479 2.712 26
-4.683 -0.524 2.672 26
-8.677 -1.082 2.298 18
-1.614 -0.222 2.851 24
-1.558 -0.233 2.837 24
-1.632 -0.265 2.808 23
-1.681 -0.293 2.779 27
-5.984 -1.112 2.131 11
-1.489 -0.294 2.762 12
-1.328 -0.277 2.768 22
-1.137 -0.249 2.783 6
0.0 -0.0 3.0 0
0.0 -0.0 3.0 0
0.0 -0.0 3.0 0
0.0 -0.0 3.0 0
0.0 -0.0 3.0 0
0.0 -0.0 3.0 0
0.0 -0.0 3.0 0
0.0 -0.0 3.0 0
-11.898 -1.513 2.509 2
-13.539 -1.504 2.482 2
-15.551 -1.49 2.458 2
0.0 -0.0 3.0 0
-13.735 -0.941 2.62 22
-13.833 -0.797 2.662 0
-4.797 -0.24 2.893 3
-4.873 -0.228 2.894 43
-4.737 -0.232 2.887 33
-4.743 -0.263 2.866 29
-1.672 -0.109 2.942 4
-1.662 -0.126 2.93 3
-5.09 -0.448 2.742 35
-4.827 -0.484 2.709 24
-4.691 -0.53 2.669 24
-8.616 -1.081 2.298 4
-1.523 -0.211 2.858 25
-1.393 -0.21 2.853 34
-1.486 -0.242 2.825 30
-1.676 -0.293 2.779 26
-5.971 -1.113 2.13 9
-1.488 -0.295 2.761 14
-1.316 -0.275 2.769 18
-1.121 -0.247 2.786 10
0.0 -0.0 3.0 0
0.0 -0.0 3.0 0
0.0 -0.0 3.0 0
0.0 -0.0 3.0 0
0.0 -0.0 3.0 0
0.0 -0.0 3.0 0
0.0 -0.0 3.0 0
-10.524 -1.523 2.534 2
-11.765 -1.51 2.509 2
-13.338 -1.5 2.483 4
-15.362 -1.496 2.455 2
-76.48 -6.367 0.556 18
-13.664 -0.965 2.61 24
-13.815 -0.829 2.648 34
-16.225 -0.856 2.619 1
-4.809 -0.239 2.888 33
-4.728 -0.244 2.881 34
-4.798 -0.277 2.859 28
-1.675 -0.112 2.941 6
-1.638 -0.127 2.93 3
-5.093 -0.455 2.737 3
-4.818 -0.489 2.706 25
-4.872 -0.555 2.653 26
-8.559 -1.083 2.297 4
-1.499 -0.208 2.859 25
-1.404 -0.212 2.851 31
-1.412 -0.231 2.832 29
-1.668 -0.292 2.78 24
-5.881 -1.1 2.141 1
-1.484 -0.295 2.761 13
-1.231 -0.258 2.784 15
-1.121 -0.247 2.785 7
0.0 -0.0 3.0 0
0.0 -0.0 3.0 0
0.0 -0.0 3.0 0
0.0 -0.0 3.0 0
0.0 -0.0 3.0 0
0.0 -0.0 3.0 0
0.0 -0.0 3.0 0
-10.427 -1.521 2.535 2
-11.632 -1.508 2.51 2
-13.248 -1.509 2.48 4
-15.172 -1.503 2.453 2
0.0 -0.0 3.0 0
-13.642 -0.993 2.599 45
-15.421 -0.963 2.591 9
-16.206 -0.899 2.6 8
-4.768 -0.251 2.883 43
-4.723 -0.257 2.874 37
-4.825 -0.291 2.852 29
-1.663 -0.114 2.939 8
-1.562 -0.124 2.931 6
-1.571 -0.143 2.918 0
-4.817 -0.495 2.702 25
-4.935 -0.568 2.645 36
-8.127 -1.036 2.327 0
-1.511 -0.211 2.857 24
-1.424 -0.216 2.849 28
-1.403 -0.23 2.833 27
-1.566 -0.275 2.793 19
-5.841 -1.096 2.143 13
-1.476 -0.294 2.762 14
-1.219 -0.256 2.785 14
-1.056 -0.233 2.797 10
0.0 -0.0 3.0 0
0.0 -0.0 3.0 0
0.0 -0.0 3.0 0
0.0 -0.0 3.0 0
0.0 -0.0 3.0 0
-13.183 -2.384 2.361 6
-9.333 -1.529 2.562 0
-10.327 -1.519 2.536 2
-11.583 -1.517 2.507 5
-13.063 -1.508 2.481 5
-14.966 -1.507 2.451 2
-17.126 -1.49 2.428 6
-12.136 -0.91 2.632 5
-12.154 -0.79 2.665 3
-16.199 -0.944 2.58 8
-4.759 -0.264 2.877 43
-4.726 -0.27 2.868 31
-4.828 -0.302 2.846 13
-1.651 -0.117 2.938 8
-1.569 -0.127 2.93 8
-1.559 -0.144 2.917 2
-4.825 -0.503 2.698 23
-4.962 -0.576 2.64 16
-7.955 -1.022 2.336 0
-1.499 -0.211 2.858 16
-1.349 -0.206 2.856 21
-1.376 -0.227 2.835 19
-1.422 -0.251 2.811 33
-1.638 -0.308 2.759 4
-1.464 -0.293 2.763 14
-1.23 -0.259 2.783 14
-1.044 -0.231 2.799 12
0.0 -0.0 3.0 0
0.0 -0.0 3.0 0
0.0 -0.0 3.0 0
0.0 -0.0 3.0 0
0.0 -0.0 3.0 0
-13.18 -2.398 2.358 86
-9.261 -1.528 2.562 2
-10.226 -1.517 2.536 2
-11.477 -1.519 2.507 7
-12.945 -1.513 2.479 4
-14.784 -1.515 2.449 2
-17.007 -1.514 2.419 2
-12.062 -0.931 2.624 20
-12.143 -0.82 2.652 21
-16.0 -0.977 2.565 5
-4.754 -0.277 2.871 42
-4.741 -0.284 2.861 21
-4.851 -0.316 2.839 3
-1.654 -0.121 2.936 6
-1.601 -0.132 2.927 11
-1.543 -0.144 2.917 7
-1.58 -0.167 2.9 3
-4.965 -0.583 2.635 1
-7.792 -1.01 2.344 0
-1.459 -0.207 2.86 11
-1.337 -0.205 2.856 18
-1.274 -0.211 2.847 13
-1.425 -0.253 2.809 33
-1.634 -0.309 2.759 8
-1.456 -0.292 2.764 11
-1.141 -0.241 2.798 11
-1.051 -0.233 2.797 12
0.0 -0.0 3.0 0
0.0 -0.0 3.0 0
0.0 -0.0 3.0 0
0.0 -0.0 3.0 0
-11.83 -2.371 2.409 0
-13.181 -2.413 2.353 85
-9.184 -1.526 2.562 2
-10.129 -1.516 2.536 2
-11.356 -1.52 2.506 10
-12.8 -1.517 2.478 3
-14.61 -1.523 2.446 2
-10.478 -0.954 2.634 0
-12.012 -0.956 2.614 22
-10.526 -0.738 2.687 0
-15.885 -1.014 2.548 9
-4.757 -0.291 2.864 35
-4.756 -0.298 2.855 26
-4.838 -0.327 2.833 0
-1.646 -0.123 2.934 3
-1.593 -0.135 2.925 10
-1.535 -0.147 2.915 7
-1.576 -0.168 2.899 3
-1.608 -0.191 2.881 0
-7.612 -0.995 2.354 0
-1.423 -0.203 2.863 11
-1.305 -0.202 2.858 15
-1.277 -0.213 2.845 12
-1.421 -0.253 2.809 29
-1.622 -0.307 2.76 7
-1.437 -0.289 2.766 11
-1.083 -0.23 2.807 10
-1.047 -0.233 2.797 12
0.0 -0.0 3.0 0
0.0 -0.0 3.0 0
0.0 -0.0 3.0 0
0.0 -0.0 3.0 0
-11.792 -2.376 2.408 69
-8.314 -1.532 2.59 3
-9.099 -1.523 2.563 2
-10.071 -1.521 2.535 3
-11.247 -1.521 2.506 10
-12.658 -1.522 2.476 4
-14.412 -1.53 2.443 3
-10.448 -0.973 2.626 50
-11.985 -0.982 2.603 18
-10.523 -0.765 2.675 30
-15.81 -1.053 2.531 30
-4.768 -0.305 2.858 31
-4.775 -0.312 2.848 6
-9.531 -0.668 2.66 0
-1.638 -0.127 2.933 1
-1.568 -0.136 2.925 14
-1.538 -0.15 2.914 8
-1.544 -0.168 2.899 7
-1.584 -0.19 2.881 3
-7.444 -0.982 2.362 0
-1.375 -0.197 2.867 9
-1.261 -0.196 2.862 16
-1.246 -0.209 2.848 12
-1.3 -0.233 2.825 13
-1.563 -0.298 2.767 3
-1.417 -0.285 2.769 11
-1.079 -0.229 2.807 10
-1.04 -0.232 2.798 13
0.0 -0.0 3.0 0
0.0 -0.0 3.0 0
0.0 -0.0 3.0 0
-10.367 -2.283 2.473 0
-11.786 -2.387 2.405 85
-8.253 -1.53 2.59 3
-9.034 -1.524 2.563 2
-10.002 -1.525 2.534 5
-11.133 -1.524 2.505 7
-12.524 -1.527 2.474 4
-14.258 -1.541 2.439 2
-10.41 -0.992 2.619 110
-10.513 -0.885 2.642 5
-15.983 -1.204 2.489 5
-15.2 -1.055 2.53 39
-4.819 -0.323 2.85 26
-4.762 -0.324 2.842 2
-9.489 -0.689 2.649 10
-4.749 -0.379 2.798 0
-1.564 -0.139 2.923 13
-1.538 -0.152 2.912 12
-1.547 -0.17 2.898 7
-1.58 -0.192 2.88 6
-7.293 -0.971 2.369 0
-1.375 -0.199 2.866 11
-1.261 -0.198 2.862 16
-1.238 -0.208 2.849 15
-1.257 -0.226 2.83 11
-1.497 -0.286 2.777 10
-1.382 -0.279 2.774 9
-1.083 -0.231 2.806 10
-1.055 -0.236 2.795 13
0.0 -0.0 3.0 0
0.0 -0.0 3.0 0
0.0 -0.0 3.0 0
-10.173 -2.251 2.48 56
-7.598 -1.548 2.614 0
-8.2 -1.53 2.59 2
-8.957 -1.523 2.563 2
-9.909 -1.525 2.534 10
-11.028 -1.527 2.504 10
-12.414 -1.536 2.471 4
-14.084 -1.549 2.436 3
-10.372 -1.011 2.612 98
-10.466 -0.907 2.634 14
-15.883 -1.238 2.474 9
-15.153 -1.095 2.512 45
-4.814 -0.335 2.844 5
-12.577 -0.892 2.565 17
-9.438 -0.71 2.638 11
-9.372 -0.769 2.591 15
-1.556 -0.141 2.922 14
-1.538 -0.155 2.91 16
-1.547 -0.172 2.896 10
-1.56 -0.192 2.88 7
-7.141 -0.959 2.377 0
-1.434 -0.21 2.859 10
-1.288 -0.203 2.858 16
-1.245 -0.211 2.847 15
-1.241 -0.224 2.831 12
-1.415 -0.272 2.788 12
-1.355 -0.275 2.777 8
-1.086 -0.232 2.805 10
-1.058 -0.237 2.794 13
0.0 -0.0 3.0 0
0.0 -0.0 3.0 0
-9.413 -2.26 2.52 0
-10.077 -2.241 2.483 59
-7.542 -1.546 2.615 3
-8.139 -1.53 2.59 2
-8.896 -1.525 2.563 3
-9.819 -1.525 2.534 8
-10.95 -1.534 2.501 5
-12.264 -1.539 2.47 2
-13.826 -1.549 2.436 6
-10.353 -1.032 2.604 55
-10.416 -0.928 2.625 20
-15.811 -1.275 2.459 26
-15.001 -1.126 2.499 13
-4.844 -0.352 2.836 1
-9.536 -0.703 2.657 0
-9.412 -0.732 2.627 12
-9.326 -0.787 2.582 102
-1.559 -0.144 2.92 17
-1.557 -0.16 2.908 20
-1.539 -0.174 2.896 11
-1.551 -0.193 2.88 8
-1.591 -0.216 2.86 0
-1.587 -0.234 2.842 8
-1.323 -0.21 2.853 14
-1.249 -0.212 2.846 16
-1.221 -0.222 2.833 16
-1.364 -0.263 2.794 12
-1.323 -0.27 2.782 8
-1.094 -0.235 2.803 11
-1.058 -0.238 2.793 12
0.0 -0.0 3.0 0
0.0 -0.0 3.0 0
-9.41 -2.27 2.518 26
-10.07 -2.251 2.48 58
-7.493 -1.545 2.615 3
-8.082 -1.529 2.59 2
-8.901 -1.539 2.559 8
-9.769 -1.533 2.531 11
-10.816 -1.534 2.502 5
-12.123 -1.544 2.468 3
-13.751 -1.568 2.429 13
-10.339 -1.054 2.596 32
-10.453 -0.957 2.613 18
-15.234 -1.269 2.461 58
-14.017 -1.092 2.514 1
-12.728 -0.961 2.552 27
-9.49 -0.726 2.646 10
-9.394 -0.755 2.615 12
-9.299 -0.806 2.571 255
-1.583 -0.15 2.917 13
-1.545 -0.162 2.907 18
-1.538 -0.176 2.894 18
-1.551 -0.195 2.878 11
-1.571 -0.216 2.86 3
-1.63 -0.242 2.837 10
-1.327 -0.212 2.851 13
-1.256 -0.215 2.844 16
-1.228 -0.224 2.831 15
-1.328 -0.257 2.799 15
-1.28 -0.262 2.788 8
-1.094 -0.236 2.802 11
-1.058 -0.238 2.793 12
0.0 -0.0 3.0 0
0.0 -0.0 3.0 0
-9.376 -2.273 2.517 29
-6.938 -1.559 2.64 3
-7.444 -1.544 2.615 3
-8.029 -1.531 2.59 2
-8.808 -1.535 2.56 17
-9.68 -1.535 2.531 14
-10.73 -1.541 2.499 7
-12.0 -1.552 2.466 8
-8.865 -1.029 2.625 4
-8.845 -0.922 2.646 0
-10.458 -0.984 2.602 17
-8.853 -0.762 2.677 6
-12.778 -1.032 2.541 6
-12.525 -0.982 2.542 12
-9.439 -0.748 2.635 11
-9.375 -0.778 2.604 12
-9.146 -0.814 2.567 255
-1.602 -0.155 2.914 11
-1.525 -0.162 2.906 20
-1.534 -0.179 2.892 21
-1.547 -0.197 2.877 13
-1.527 -0.211 2.863 6
-1.634 -0.245 2.835 13
-1.366 -0.22 2.846 25
-1.26 -0.217 2.842 16
-1.236 -0.227 2.829 14
-1.27 -0.247 2.807 13
-1.238 -0.254 2.794 11
-1.097 -0.237 2.801 11
-1.069 -0.242 2.789 12
0.0 -0.0 3.0 0
-8.956 -2.342 2.545 0
-9.343 -2.276 2.516 31
-6.889 -1.557 2.641 3
-7.391 -1.544 2.615 3
-7.98 -1.533 2.589 3
-8.751 -1.539 2.559 5
-9.582 -1.535 2.531 7
-10.637 -1.546 2.498 6
-11.886 -1.559 2.463 4
-8.787 -1.039 2.622 20
-8.831 -0.94 2.639 17
-8.852 -0.855 2.654 0
-14.867 -1.319 2.44 20
-12.759 -1.066 2.525 49
-9.53 -0.774 2.639 1
-9.409 -0.772 2.623 11
-9.357 -0.801 2.592 20
-8.765 -0.802 2.574 255
-1.59 -0.158 2.912 6
-1.524 -0.165 2.905 18
-1.533 -0.182 2.891 20
-1.538 -0.199 2.876 19
-1.507 -0.211 2.863 7
-1.59 -0.24 2.838 13
-1.373 -0.223 2.844 27
-1.271 -0.22 2.84 16
-1.239 -0.228 2.828 16
-1.242 -0.243 2.81 13
-1.28 -0.264 2.786 10
-1.101 -0.239 2.8 11
-1.069 -0.243 2.789 12
-7.982 -2.241 2.605 0
-8.903 -2.338 2.545 41
-6.422 -1.572 2.666 1
-6.852 -1.558 2.64 3
-7.346 -1.544 2.615 3
-7.974 -1.543 2.587 4
-8.689 -1.542 2.558 18
-9.521 -1.542 2.529 5
-10.523 -1.549 2.497 6
-11.756 -1.566 2.461 8
-8.76 -1.055 2.616 14
-8.784 -0.957 2.633 25
-8.846 -0.878 2.645 24
-14.011 -1.281 2.456 2
-12.719 -1.099 2.511 16
-9.487 -0.798 2.628 10
-9.398 -0.798 2.611 12
-9.314 -0.821 2.581 66
-8.675 -0.815 2.567 255
-1.601 -0.162 2.91 0
-1.54 -0.17 2.902 19
-1.529 -0.183 2.89 20
-1.522 -0.199 2.876 22
-1.499 -0.212 2.862 8
-1.57 -0.239 2.839 18
-1.4 -0.229 2.84 26
-1.302 -0.227 2.835 21
-1.243 -0.23 2.826 15
-1.223 -0.24 2.813 14
-1.287 -0.267 2.784 11
-1.097 -0.239 2.8 12
