# .PCD v0.7 - Point Cloud Data file format
VERSION 0.7
FIELDS x y z intensity
SIZE 4 4 4 4
TYPE F F F F
COUNT 1 1 1 1
WIDTH 2063
HEIGHT 1
VIEWPOINT 0 0 0 1 0 0 0
POINTS 2063
DATA ascii
75.893 -28.035 -3.472 33
75.048 -26.807 -3.684 15
75.081 -25.953 -3.954 12
0.0 -0.0 3.0 0
69.105 -22.464 -3.868 5
33.666 -10.639 -0.457 8
33.891 -10.428 -0.591 4
34.119 -10.25 -0.731 8
34.923 -10.261 -0.939 11
0.0 -0.0 3.0 0
0.0 -0.0 3.0 0
59.959 -16.787 -4.474 3
54.701 -15.157 -4.068 7
50.137 -13.801 -3.731 17
46.053 -12.627 -3.434 7
42.448 -11.628 -3.182 6
39.396 -10.818 -2.997 15
36.173 -9.979 -2.762 10
33.704 -9.37 -2.63 9
31.63 -8.875 -2.546 11
29.788 -8.457 -2.492 13
26.59 -7.646 -2.157 0
26.414 -7.707 -2.397 21
21.5 -6.369 -1.627 1
20.391 -6.14 -1.627 4
18.494 -5.661 -1.423 0
0.0 -0.0 3.0 0
17.832 -5.648 -1.739 2
17.747 -5.718 -1.97 0
56.486 -23.288 -1.106 45
58.947 -23.483 -1.565 17
60.377 -23.241 -1.94 16
75.244 -28.009 -3.466 5
75.051 -27.025 -3.738 21
67.931 -23.682 -3.346 8
0.0 -0.0 3.0 0
66.17 -21.71 -3.637 5
33.633 -10.733 -0.487 9
33.801 -10.506 -0.617 12
33.835 -10.27 -0.738 18
34.935 -10.374 -0.982 5
35.114 -10.235 -1.135 2
0.0 -0.0 3.0 0
59.344 -16.801 -4.48 3
54.189 -15.184 -4.081 10
49.638 -13.818 -3.739 21
45.653 -12.656 -3.449 8
42.117 -11.662 -3.201 7
38.748 -10.755 -2.961 8
35.894 -10.006 -2.777 11
33.511 -9.41 -2.654 11
31.425 -8.903 -2.563 12
29.589 -8.479 -2.506 11
27.799 -8.065 -2.44 20
26.276 -7.732 -2.414 22
21.404 -6.392 -1.644 1
20.379 -6.183 -1.659 3
18.439 -5.685 -1.442 0
0.0 -0.0 3.0 0
17.826 -5.683 -1.769 0
17.759 -5.758 -2.005 0
56.482 -23.44 -1.133 56
58.441 -23.443 -1.557 20
0.0 -0.0 3.0 0
77.119 -28.928 -3.678 15
75.063 -27.247 -3.793 22
64.858 -22.802 -3.11 4
28.356 -9.671 0.227 255
66.086 -21.883 -3.69 13
33.612 -10.829 -0.519 5
33.996 -10.671 -0.674 9
34.46 -10.567 -0.846 9
34.962 -10.492 -1.028 14
35.053 -10.328 -1.173 5
0.0 -0.0 3.0 0
58.774 -16.824 -4.491 3
53.667 -15.205 -4.09 13
49.238 -13.859 -3.759 14
45.281 -12.691 -3.467 7
41.794 -11.698 -3.22 6
38.451 -10.786 -2.979 14
35.631 -10.035 -2.794 11
33.304 -9.446 -2.676 11
31.212 -8.928 -2.579 12
29.405 -8.505 -2.523 11
27.655 -8.095 -2.46 21
26.123 -7.752 -2.428 20
21.32 -6.418 -1.663 1
20.344 -6.22 -1.687 1
18.406 -5.716 -1.466 0
0.0 -0.0 3.0 0
17.801 -5.713 -1.794 1
17.756 -5.792 -2.035 0
56.496 -23.599 -1.161 35
58.006 -23.429 -1.554 16
28.374 -11.081 0.645 1
75.89 -28.684 -3.622 7
75.015 -27.449 -3.844 14
66.697 -23.647 -3.336 9
28.332 -9.748 0.205 7
65.938 -22.035 -3.737 20
35.062 -11.405 -0.706 3
33.723 -10.691 -0.681 12
34.338 -10.638 -0.872 10
35.011 -10.617 -1.076 2
0.0 -0.0 3.0 0
64.155 -18.802 -4.981 3
58.19 -16.84 -4.498 4
53.141 -15.222 -4.098 17
48.736 -13.868 -3.764 5
44.901 -12.722 -3.482 8
41.444 -11.725 -3.235 9
38.082 -10.795 -2.983 11
35.395 -10.071 -2.815 12
33.097 -9.481 -2.697 11
31.018 -8.959 -2.598 12
29.221 -8.529 -2.539 13
27.518 -8.126 -2.481 20
25.98 -7.775 -2.444 21
21.239 -6.445 -1.682 1
20.346 -6.268 -1.724 3
18.377 -5.75 -1.492 0
0.0 -0.0 3.0 0
17.783 -5.744 -1.82 4
17.772 -5.833 -2.071 0
52.025 -21.874 -0.857 7
57.541 -23.402 -1.549 22
0.0 -0.0 3.0 0
75.311 -28.683 -3.622 10
74.226 -27.378 -3.826 12
65.385 -23.376 -3.264 9
64.5 -22.387 -3.419 9
0.0 -0.0 3.0 0
34.464 -11.317 -0.677 10
33.644 -10.771 -0.709 12
34.254 -10.72 -0.902 13
36.781 -11.271 -1.327 2
0.0 -0.0 3.0 0
0.0 -0.0 3.0 0
57.583 -16.846 -4.5 4
52.676 -15.254 -4.113 10
48.23 -13.874 -3.767 4
44.536 -12.755 -3.499 8
41.148 -11.766 -3.256 7
37.744 -10.811 -2.992 9
35.154 -10.104 -2.834 10
32.871 -9.509 -2.713 12
30.825 -8.988 -2.616 11
29.041 -8.555 -2.555 12
27.401 -8.163 -2.506 16
25.823 -7.793 -2.457 21
21.124 -6.462 -1.695 1
20.337 -6.314 -1.758 2
18.362 -5.787 -1.521 0
0.0 -0.0 3.0 0
17.773 -5.779 -1.849 4
17.743 -5.861 -2.095 0
55.779 -23.606 -1.162 15
56.486 -23.132 -1.496 37
0.0 -0.0 3.0 0
74.077 -28.428 -3.563 23
75.066 -27.909 -3.958 20
64.476 -23.244 -3.228 8
64.352 -22.531 -3.461 10
28.35 -9.648 0.05 5
36.019 -11.94 -0.88 10
34.037 -11.003 -0.789 11
34.144 -10.793 -0.928 7
36.809 -11.396 -1.374 6
35.56 -10.815 -1.37 5
35.372 -10.591 -1.496 11
57.008 -16.858 -4.506 4
52.075 -15.244 -4.108 5
47.786 -13.894 -3.777 22
44.145 -12.779 -3.511 5
40.837 -11.8 -3.274 6
37.432 -10.832 -3.004 10
34.925 -10.14 -2.854 12
32.641 -9.535 -2.729 12
30.658 -9.024 -2.639 12
28.88 -8.585 -2.575 11
27.279 -8.198 -2.529 15
25.674 -7.813 -2.471 20
21.043 -6.489 -1.714 1
20.321 -6.357 -1.79 2
18.321 -5.816 -1.544 0
0.0 -0.0 3.0 0
17.759 -5.812 -1.877 4
17.758 -5.902 -2.13 0
55.348 -23.578 -1.157 20
56.502 -23.298 -1.529 52
70.719 -28.225 -3.0 12
74.857 -28.946 -3.683 23
68.067 -25.509 -3.36 5
63.942 -23.244 -3.228 8
64.489 -22.776 -3.531 13
64.744 -22.234 -3.798 13
66.508 -22.253 -4.231 10
33.806 -11.035 -0.8 5
34.011 -10.858 -0.952 5
77.328 -24.187 -6.284 6
0.0 -0.0 3.0 0
34.963 -10.579 -1.491 15
56.417 -16.862 -4.508 4
51.569 -15.259 -4.115 5
47.383 -13.925 -3.792 25
43.735 -12.794 -3.519 5
40.525 -11.833 -3.292 6
37.148 -10.86 -3.02 11
34.693 -10.174 -2.874 10
32.433 -9.567 -2.749 13
30.461 -9.05 -2.655 11
28.718 -8.614 -2.594 12
27.127 -8.223 -2.546 12
25.52 -7.831 -2.484 20
20.955 -6.513 -1.732 1
20.285 -6.394 -1.818 2
18.329 -5.861 -1.579 0
0.0 -0.0 3.0 0
17.752 -5.848 -1.907 3
17.762 -5.94 -2.164 0
54.931 -23.553 -1.153 21
56.211 -23.338 -1.536 20
70.173 -28.21 -2.996 13
74.827 -29.154 -3.731 24
74.979 -28.322 -4.062 23
63.92 -23.429 -3.278 8
64.145 -22.85 -3.552 12
65.96 -22.855 -3.988 12
28.384 -9.586 -0.115 2
33.722 -11.114 -0.827 2
36.132 -11.651 -1.24 2
36.976 -11.683 -1.485 2
0.0 -0.0 3.0 0
61.458 -18.793 -4.977 3
55.858 -16.873 -4.512 3
51.079 -15.274 -4.122 5
46.886 -13.926 -3.792 14
43.394 -12.828 -3.536 6
40.211 -11.864 -3.308 6
36.882 -10.893 -3.038 11
34.457 -10.206 -2.892 10
32.234 -9.6 -2.769 15
30.278 -9.081 -2.674 11
28.55 -8.641 -2.612 12
26.968 -8.246 -2.562 12
25.408 -7.862 -2.505 19
20.866 -6.537 -1.75 1
20.268 -6.438 -1.851 3
18.314 -5.898 -1.608 0
0.0 -0.0 3.0 0
17.741 -5.883 -1.936 2
17.744 -5.971 -2.191 0
54.507 -23.525 -1.148 21
55.744 -23.303 -1.53 21
69.571 -28.17 -2.988 12
74.834 -29.378 -3.782 15
74.867 -28.504 -4.107 25
63.846 -23.596 -3.323 17
63.553 -22.835 -3.548 11
64.61 -22.588 -3.906 10
0.0 -0.0 3.0 0
33.393 -11.111 -0.826 1
36.416 -11.857 -1.316 8
75.835 -24.203 -6.291 6
0.0 -0.0 3.0 0
60.833 -18.795 -4.978 2
34.854 -10.639 -1.737 19
50.605 -15.292 -4.131 6
46.553 -13.972 -3.815 5
43.049 -12.86 -3.553 5
39.922 -11.9 -3.327 6
36.575 -10.912 -3.048 11
34.205 -10.231 -2.907 10
31.978 -9.616 -2.778 13
30.108 -9.113 -2.695 11
28.37 -8.664 -2.626 11
26.79 -8.263 -2.573 12
25.292 -7.891 -2.525 18
20.815 -6.573 -1.775 1
20.273 -6.488 -1.889 3
18.295 -5.934 -1.636 0
0.0 -0.0 3.0 0
17.741 -5.922 -1.969 2
17.77 -6.017 -2.23 0
54.087 -23.497 -1.143 20
55.291 -23.272 -1.524 19
0.0 -0.0 3.0 0
74.729 -29.558 -3.824 45
63.342 -24.307 -3.06 9
63.809 -23.777 -3.371 12
62.139 -22.519 -3.457 7
0.0 -0.0 3.0 0
35.918 -12.357 -1.015 13
34.692 -11.654 -1.013 11
35.743 -11.753 -1.278 14
75.101 -24.21 -6.293 5
0.0 -0.0 3.0 0
28.369 -8.856 -0.759 4
54.771 -16.893 -4.521 4
34.722 -10.603 -1.944 16
46.144 -13.994 -3.826 5
42.701 -12.888 -3.567 5
39.627 -11.933 -3.345 6
36.321 -10.944 -3.067 11
33.969 -10.26 -2.924 11
31.763 -9.642 -2.793 15
29.914 -9.139 -2.711 11
28.201 -8.689 -2.643 12
26.635 -8.285 -2.588 13
25.209 -7.93 -2.552 20
20.744 -6.603 -1.797 0
20.267 -6.535 -1.924 2
18.301 -5.979 -1.672 0
17.707 -5.865 -1.749 0
17.73 -5.957 -1.998 1
17.784 -6.059 -2.267 0
53.69 -23.477 -1.14 20
0.0 -0.0 3.0 0
0.0 -0.0 3.0 0
74.95 -29.869 -3.896 17
63.33 -24.493 -3.107 5
63.976 -24.034 -3.44 8
0.0 -0.0 3.0 0
63.176 -22.482 -3.873 19
65.117 -22.607 -4.345 14
28.371 -9.621 -0.313 11
36.727 -12.193 -1.438 12
74.345 -24.204 -6.291 5
0.0 -0.0 3.0 0
28.293 -8.923 -0.788 9
54.247 -16.905 -4.527 4
34.704 -10.707 -1.993 3
34.794 -10.662 -2.2 15
42.36 -12.916 -3.581 5
39.362 -11.973 -3.366 6
36.048 -10.971 -3.081 10
33.722 -10.285 -2.938 10
31.59 -9.681 -2.817 15
29.743 -9.17 -2.73 11
28.014 -8.709 -2.655 11
26.494 -8.312 -2.607 12
25.097 -7.959 -2.573 16
20.674 -6.632 -1.819 0
20.267 -6.584 -1.962 2
18.3 -6.022 -1.705 0
17.699 -5.902 -1.78 1
17.733 -5.997 -2.032 1
17.772 -6.093 -2.296 0
53.274 -23.448 -1.134 21
0.0 -0.0 3.0 0
0.0 -0.0 3.0 0
75.094 -30.151 -3.961 18
74.82 -29.164 -4.271 10
61.892 -23.442 -3.281 4
61.58 -22.698 -3.509 13
62.846 -22.562 -3.898 9
65.085 -22.802 -4.409 16
34.644 -11.859 -1.083 7
0.0 -0.0 3.0 0
73.39 -24.13 -6.263 5
0.0 -0.0 3.0 0
28.274 -9.008 -0.824 2
53.723 -16.914 -4.531 4
49.184 -15.331 -4.149 5
34.775 -10.765 -2.25 4
41.997 -12.937 -3.592 4
39.096 -12.012 -3.387 5
35.779 -10.997 -3.096 10
33.512 -10.321 -2.959 10
31.39 -9.71 -2.835 14
29.542 -9.192 -2.744 10
27.849 -8.733 -2.672 11
26.343 -8.335 -2.622 12
24.954 -7.979 -2.587 15
20.637 -6.673 -1.848 0
20.268 -6.634 -1.999 2
18.299 -6.065 -1.739 0
17.71 -5.946 -1.815 5
17.725 -6.033 -2.063 1
17.793 -6.139 -2.336 1
52.876 -23.424 -1.13 22
28.366 -12.187 0.631 7
79.36 -33.068 -4.029 8
74.07 -29.963 -3.918 15
74.375 -29.218 -4.285 35
0.0 -0.0 3.0 0
61.692 -22.932 -3.576 16
63.447 -22.977 -4.025 10
62.768 -22.19 -4.21 4
34.719 -11.996 -1.13 1
0.0 -0.0 3.0 0
72.552 -24.089 -6.247 5
0.0 -0.0 3.0 0
58.349 -18.778 -4.971 3
53.117 -16.893 -4.521 4
48.711 -15.339 -4.153 5
44.953 -14.058 -3.857 6
34.773 -10.82 -2.513 28
38.854 -12.058 -3.411 6
35.492 -11.016 -3.106 12
33.254 -10.339 -2.969 9
31.199 -9.742 -2.853 14
29.36 -9.218 -2.76 11
27.672 -8.755 -2.685 11
26.18 -8.354 -2.635 12
24.816 -8.0 -2.601 12
20.615 -6.717 -1.88 0
20.394 -6.725 -2.068 1
18.298 -6.108 -1.772 0
17.731 -5.994 -1.854 0
17.724 -6.073 -2.095 1
17.774 -6.17 -2.363 2
52.479 -23.4 -1.126 25
28.335 -12.256 0.618 28
78.758 -33.051 -4.025 13
75.085 -30.6 -4.065 23
74.901 -29.654 -4.394 13
60.638 -23.342 -3.254 6
60.603 -22.718 -3.514 9
61.778 -22.569 -3.9 18
66.422 -23.694 -4.699 12
34.711 -12.104 -1.168 9
28.363 -9.691 -0.527 5
71.626 -24.013 -6.218 5
0.0 -0.0 3.0 0
57.776 -18.78 -4.971 2
52.648 -16.913 -4.53 22
48.273 -15.356 -4.16 5
44.567 -14.078 -3.867 5
34.757 -10.923 -2.566 7
38.619 -12.103 -3.435 6
35.389 -11.091 -3.148 21
33.011 -10.362 -2.982 11
31.007 -9.771 -2.871 12
29.197 -9.25 -2.78 10
27.496 -8.775 -2.699 12
26.047 -8.381 -2.653 12
24.673 -8.019 -2.615 15
0.0 -0.0 3.0 0
20.541 -6.825 -2.143 3
18.3 -6.153 -1.807 0
17.807 -6.061 -1.908 0
17.716 -6.109 -2.126 0
17.776 -6.209 -2.398 3
51.529 -23.127 -1.078 22
28.263 -12.309 0.607 26
78.171 -33.039 -4.023 12
75.038 -30.809 -4.113 22
61.148 -24.397 -3.083 4
62.375 -24.205 -3.486 11
61.254 -23.155 -3.639 14
61.769 -22.761 -3.959 20
61.552 -22.153 -4.198 6
76.216 -26.822 -6.236 21
0.0 -0.0 3.0 0
70.802 -23.966 -6.2 5
0.0 -0.0 3.0 0
57.207 -18.781 -4.972 4
52.061 -16.893 -4.521 14
47.835 -15.369 -4.167 6
44.198 -14.102 -3.878 5
40.97 -13.004 -3.626 5
34.856 -11.032 -2.866 31
35.143 -11.121 -3.164 19
32.786 -10.389 -2.998 11
30.819 -9.802 -2.89 13
29.015 -9.275 -2.796 11
27.335 -8.8 -2.715 12
25.914 -8.409 -2.672 13
24.564 -8.048 -2.635 12
20.562 -6.805 -1.944 0
20.36 -6.815 -2.136 1
18.305 -6.198 -1.843 0
17.78 -6.093 -1.934 1
17.729 -6.154 -2.164 0
17.768 -6.244 -2.428 4
51.518 -23.273 -1.104 55
28.231 -12.379 0.594 12
0.0 -0.0 3.0 0
74.258 -30.716 -4.091 7
61.124 -24.576 -3.128 6
59.268 -23.184 -3.212 9
60.948 -23.23 -3.661 7
61.424 -22.83 -3.98 16
65.137 -23.653 -4.685 12
76.014 -26.997 -6.296 19
76.821 -26.745 -6.734 13
28.382 -9.699 -0.723 0
62.477 -21.012 -5.49 3
56.616 -18.77 -4.968 3
51.582 -16.904 -4.526 15
47.394 -15.379 -4.171 6
43.783 -14.109 -3.882 5
40.687 -13.043 -3.646 5
34.844 -11.136 -2.921 12
34.889 -11.146 -3.178 18
32.543 -10.409 -3.01 10
30.619 -9.829 -2.906 11
28.867 -9.31 -2.818 12
27.182 -8.826 -2.732 12
25.755 -8.427 -2.684 12
24.444 -8.073 -2.653 15
20.572 -6.862 -1.985 0
20.312 -6.85 -2.162 0
18.292 -6.238 -1.874 0
17.764 -6.129 -1.963 2
17.724 -6.192 -2.196 0
17.77 -6.284 -2.463 4
51.34 -23.344 -1.116 26
28.243 -12.468 0.576 9
0.0 -0.0 3.0 0
75.068 -31.28 -4.222 15
0.0 -0.0 3.0 0
59.153 -23.325 -3.25 12
61.276 -23.55 -3.753 12
60.613 -22.723 -3.947 11
65.642 -24.048 -4.814 16
12.373 -4.434 1.473 20
76.09 -26.738 -6.732 11
13.098 -4.519 1.265 0
61.734 -20.964 -5.47 3
56.037 -18.76 -4.963 3
51.125 -16.92 -4.533 16
46.881 -15.364 -4.164 8
43.433 -14.134 -3.894 5
40.382 -13.072 -3.66 5
37.911 -12.234 -3.505 9
34.535 -11.139 -3.174 13
32.327 -10.437 -3.026 10
30.439 -9.86 -2.925 12
28.696 -9.338 -2.835 11
27.028 -8.852 -2.749 11
25.614 -8.451 -2.701 12
24.328 -8.099 -2.671 15
0.0 -0.0 3.0 0
19.254 -6.541 -1.929 1
18.253 -6.269 -1.898 0
17.744 -6.164 -1.992 2
17.729 -6.234 -2.231 0
17.931 -6.381 -2.547 1
50.94 -23.313 -1.111 23
28.255 -12.558 0.559 7
0.0 -0.0 3.0 0
75.092 -31.522 -4.277 21
0.0 -0.0 3.0 0
59.315 -23.576 -3.317 11
59.536 -23.071 -3.616 13
60.41 -22.841 -3.983 19
61.932 -22.889 -4.437 15
12.31 -4.452 1.467 19
73.043 -25.905 -6.429 11
13.068 -4.551 1.253 18
61.134 -20.961 -5.469 9
55.485 -18.757 -4.962 3
50.818 -16.984 -4.562 8
46.516 -15.395 -4.179 21
43.011 -14.135 -3.894 14
40.076 -13.099 -3.674 4
34.082 -11.104 -2.904 10
34.345 -11.183 -3.199 16
32.103 -10.46 -3.039 10
30.255 -9.89 -2.942 12
28.499 -9.355 -2.846 14
26.878 -8.879 -2.766 11
25.47 -8.473 -2.715 13
24.204 -8.122 -2.687 14
20.744 -7.026 -2.104 1
19.159 -6.557 -1.941 1
18.288 -6.326 -1.943 2
17.76 -6.212 -2.03 2
17.731 -6.276 -2.266 0
18.105 -6.483 -2.636 17
50.505 -23.264 -1.102 16
0.0 -0.0 3.0 0
75.11 -32.657 -3.941 12
75.089 -31.753 -4.331 25
63.919 -26.298 -3.557 9
59.128 -23.688 -3.347 11
59.553 -23.267 -3.672 8
60.437 -23.045 -4.046 15
61.957 -23.099 -4.505 16
75.291 -27.474 -6.46 25
72.345 -25.895 -6.425 16
13.023 -4.578 1.243 4
28.371 -9.82 -0.968 6
54.926 -18.747 -4.958 3
50.242 -16.954 -4.548 3
46.102 -15.406 -4.184 18
42.725 -14.178 -3.915 25
39.794 -13.133 -3.692 5
34.065 -11.205 -2.958 20
34.089 -11.204 -3.211 18
31.894 -10.489 -3.056 12
30.063 -9.916 -2.958 13
28.306 -9.374 -2.858 15
26.721 -8.902 -2.781 11
25.337 -8.499 -2.732 13
24.076 -8.144 -2.702 14
22.824 -7.79 -2.66 15
19.045 -6.566 -1.948 1
18.058 -6.29 -1.914 0
17.732 -6.245 -2.057 1
17.718 -6.312 -2.296 0
18.02 -6.493 -2.644 18
0.0 -0.0 3.0 0
14.073 -6.341 1.768 6
74.245 -32.508 -3.91 15
75.097 -31.99 -4.385 23
57.606 -23.881 -2.954 6
55.867 -22.559 -3.045 4
60.098 -23.673 -3.788 16
60.155 -23.132 -4.072 12
61.376 -23.083 -4.5 7
12.49 -4.599 1.416 0
71.69 -25.895 -6.425 21
12.989 -4.609 1.231 0
28.346 -9.904 -1.002 0
54.45 -18.763 -4.964 3
49.771 -16.957 -4.55 5
45.696 -15.418 -4.19 16
42.421 -14.212 -3.932 8
39.489 -13.158 -3.704 4
33.745 -11.205 -2.958 18
33.847 -11.229 -3.224 16
31.681 -10.515 -3.071 10
29.879 -9.943 -2.975 11
28.14 -9.4 -2.874 14
26.582 -8.931 -2.8 11
25.207 -8.525 -2.75 13
23.952 -8.166 -2.718 15
22.706 -7.809 -2.673 15
18.957 -6.584 -1.961 1
17.993 -6.313 -1.932 0
17.73 -6.287 -2.091 1
17.737 -6.36 -2.337 0
17.93 -6.501 -2.651 18
0.0 -0.0 3.0 0
13.973 -6.338 1.768 27
75.113 -33.121 -4.04 16
75.096 -32.224 -4.44 20
0.0 -0.0 3.0 0
59.428 -24.187 -3.481 6
57.269 -22.743 -3.521 10
58.049 -22.51 -3.882 10
12.346 -4.683 1.478 0
12.379 -4.598 1.417 18
69.457 -25.318 -6.215 33
0.0 -0.0 3.0 0
59.38 -20.944 -5.462 9
0.0 -0.0 3.0 0
49.226 -16.933 -4.539 9
45.298 -15.431 -4.195 16
42.068 -14.229 -3.94 8
39.23 -13.196 -3.724 4
33.226 -11.137 -2.922 16
33.594 -11.249 -3.235 19
31.491 -10.547 -3.089 12
29.669 -9.962 -2.986 11
27.962 -9.422 -2.888 14
26.44 -8.958 -2.818 12
25.074 -8.549 -2.767 13
23.802 -8.18 -2.727 14
22.594 -7.83 -2.689 14
18.862 -6.599 -1.973 1
17.958 -6.345 -1.957 0
17.728 -6.328 -2.124 1
17.727 -6.398 -2.368 0
17.852 -6.512 -2.661 17
0.0 -0.0 3.0 0
13.956 -6.373 1.761 25
75.107 -33.351 -4.089 22
75.106 -32.464 -4.495 15
75.132 -31.622 -4.884 7
58.794 -24.117 -3.462 12
13.204 -5.287 1.484 1
57.717 -22.57 -3.9 6
12.317 -4.713 1.469 1
12.364 -4.633 1.405 14
12.951 -4.763 1.266 0
12.933 -4.675 1.206 16
58.653 -20.881 -5.437 3
28.362 -9.96 -1.228 4
48.928 -16.991 -4.565 7
28.654 -9.854 -1.595 3
41.715 -14.244 -3.947 10
38.936 -13.221 -3.736 4
32.881 -11.125 -2.915 15
33.357 -11.272 -3.248 28
31.29 -10.575 -3.105 10
29.489 -9.989 -3.002 11
27.787 -9.444 -2.901 12
26.301 -8.986 -2.836 11
24.952 -8.578 -2.786 12
23.667 -8.197 -2.74 14
22.487 -7.852 -2.705 15
18.777 -6.618 -1.987 1
17.904 -6.37 -1.977 0
17.71 -6.364 -2.154 2
17.739 -6.443 -2.407 1
17.766 -6.522 -2.669 25
0.0 -0.0 3.0 0
13.921 -6.4 1.756 31
75.122 -33.592 -4.14 15
75.107 -32.701 -4.55 19
63.866 -27.085 -3.753 13
55.855 -23.091 -3.187 8
13.096 -5.286 1.484 20
57.012 -22.481 -3.873 19
61.494 -23.731 -4.711 16
12.442 -4.704 1.38 33
12.917 -4.794 1.255 19
64.682 -23.593 -6.057 3
58.03 -20.852 -5.425 3
52.834 -18.728 -4.949 3
28.539 -10.004 -1.454 35
28.624 -9.938 -1.634 35
41.31 -14.239 -3.945 22
38.658 -13.251 -3.752 4
32.468 -11.087 -2.895 19
33.108 -11.291 -3.259 28
31.096 -10.604 -3.122 11
29.309 -10.015 -3.018 11
27.628 -9.471 -2.918 12
26.166 -9.015 -2.854 11
24.83 -8.605 -2.804 11
23.547 -8.22 -2.755 15
22.376 -7.872 -2.719 14
18.703 -6.64 -2.003 1
17.886 -6.408 -2.007 0
17.711 -6.408 -2.189 2
17.729 -6.481 -2.439 1
17.68 -6.531 -2.677 16
59.62 -28.364 -2.001 20
13.897 -6.432 1.75 21
13.407 -6.037 1.717 20
12.559 -5.508 1.728 1
63.701 -27.218 -3.786 11
56.603 -23.583 -3.319 3
13.099 -5.329 1.472 17
60.37 -24.003 -4.338 5
61.19 -23.816 -4.738 16
13.147 -5.013 1.274 15
12.905 -4.832 1.241 27
63.89 -23.517 -6.027 3
57.476 -20.843 -5.421 3
52.394 -18.746 -4.957 4
28.493 -10.082 -1.489 5
28.582 -10.017 -1.671 19
40.988 -14.262 -3.956 23
38.388 -13.281 -3.767 4
32.142 -11.078 -2.89 26
32.878 -11.315 -3.272 21
30.884 -10.626 -3.135 13
29.125 -10.04 -3.033 11
27.473 -9.499 -2.935 12
26.016 -9.038 -2.869 17
24.697 -8.628 -2.819 12
23.43 -8.243 -2.772 14
22.257 -7.89 -2.732 15
18.63 -6.662 -2.02 1
17.846 -6.439 -2.031 0
17.737 -6.46 -2.232 1
17.974 -6.614 -2.549 2
17.594 -6.539 -2.684 15
59.187 -28.34 -1.997 19
13.84 -6.448 1.747 24
13.355 -6.056 1.713 29
12.525 -5.533 1.723 24
63.865 -27.493 -3.855 4
59.142 -24.833 -3.654 13
13.046 -5.351 1.466 21
57.869 -23.198 -4.092 8
75.025 -29.449 -6.568 20
13.083 -5.033 1.267 17
12.852 -4.855 1.233 26
63.202 -23.474 -6.011 4
56.9 -20.824 -5.413 3
51.864 -18.728 -4.949 4
28.373 -10.133 -1.511 4
43.776 -15.484 -4.22 10
40.666 -14.281 -3.965 23
38.118 -13.309 -3.781 4
31.895 -11.093 -2.898 31
32.619 -11.328 -3.279 20
30.679 -10.65 -3.149 10
28.945 -10.065 -3.048 12
27.317 -9.525 -2.952 12
25.878 -9.065 -2.887 13
24.56 -8.649 -2.834 11
23.318 -8.267 -2.789 15
22.153 -7.912 -2.748 14
18.56 -6.685 -2.037 1
17.85 -6.485 -2.067 0
17.733 -6.502 -2.265 2
17.733 -6.567 -2.51 2
17.523 -6.553 -2.696 14
58.621 -28.251 -1.981 5
13.848 -6.495 1.737 28
13.324 -6.084 1.707 23
12.528 -5.573 1.713 7
56.869 -24.665 -3.15 10
58.666 -24.824 -3.651 12
12.982 -5.367 1.461 23
55.97 -22.622 -3.916 3
75.236 -29.781 -6.676 16
13.048 -5.063 1.257 25
12.833 -4.891 1.22 32
0.0 -0.0 3.0 0
56.295 -20.791 -5.4 3
51.373 -18.722 -4.947 4
28.435 -10.249 -1.563 25
28.422 -10.147 -1.732 9
40.355 -14.303 -3.976 24
37.851 -13.338 -3.796 5
31.736 -11.139 -2.923 30
32.338 -11.331 -3.281 27
30.445 -10.662 -3.156 10
28.761 -10.088 -3.062 12
27.165 -9.553 -2.969 12
25.739 -9.09 -2.903 11
24.42 -8.669 -2.847 12
23.19 -8.286 -2.802 14
22.038 -7.93 -2.762 14
18.515 -6.717 -2.062 0
17.814 -6.518 -2.092 0
17.704 -6.535 -2.292 2
17.736 -6.611 -2.547 6
17.49 -6.582 -2.721 18
0.0 -0.0 3.0 0
13.002 -6.139 1.807 30
13.296 -6.114 1.7 25
12.505 -5.604 1.706 23
55.161 -24.103 -3.01 3
55.223 -23.547 -3.309 9
13.04 -5.434 1.442 24
56.066 -22.847 -3.985 4
12.485 -4.983 1.381 1
13.006 -5.09 1.248 21
12.802 -4.922 1.209 22
61.856 -23.387 -5.978 3
55.735 -20.771 -5.392 3
50.874 -18.709 -4.942 4
28.396 -10.329 -1.599 27
28.339 -10.21 -1.761 28
28.673 -10.257 -2.003 4
37.585 -13.366 -3.81 4
31.597 -11.19 -2.95 26
32.064 -11.335 -3.283 25
30.248 -10.687 -3.17 13
28.585 -10.112 -3.076 12
27.01 -9.578 -2.985 12
25.593 -9.113 -2.918 12
24.283 -8.688 -2.86 12
23.055 -8.301 -2.813 14
21.931 -7.951 -2.777 15
18.459 -6.746 -2.083 0
17.777 -6.549 -2.117 0
17.711 -6.582 -2.33 15
17.728 -6.65 -2.58 13
17.451 -6.608 -2.744 18
0.0 -0.0 3.0 0
13.04 -6.198 1.795 35
12.665 -5.864 1.754 17
12.507 -5.645 1.697 31
56.053 -24.675 -3.152 7
12.729 -5.47 1.534 16
12.965 -5.445 1.439 26
12.65 -5.197 1.411 10
12.281 -4.943 1.394 30
12.768 -5.04 1.265 23
12.819 -4.972 1.19 21
61.156 -23.329 -5.955 3
55.175 -20.747 -5.382 3
50.399 -18.703 -4.939 4
46.335 -17.009 -4.573 8
28.337 -10.303 -1.804 24
28.64 -10.339 -2.042 21
37.315 -13.391 -3.823 4
31.713 -11.333 -3.026 15
31.864 -11.365 -3.3 29
30.055 -10.711 -3.184 12
28.387 -10.129 -3.086 11
26.858 -9.604 -3.001 11
25.45 -9.137 -2.933 13
24.15 -8.71 -2.875 12
22.924 -8.318 -2.824 10
21.82 -7.969 -2.79 14
18.396 -6.771 -2.102 0
17.766 -6.591 -2.149 0
18.024 -6.743 -2.46 14
17.756 -6.704 -2.626 13
17.397 -6.628 -2.762 18
68.025 -33.42 -2.893 10
12.904 -6.175 1.8 18
12.591 -5.87 1.752 19
12.499 -5.682 1.688 32
55.101 -24.436 -3.093 4
12.735 -5.514 1.522 21
12.944 -5.48 1.429 27
12.63 -5.231 1.401 12
12.17 -4.94 1.395 28
12.667 -5.043 1.264 23
12.766 -4.994 1.182 2
60.553 -23.303 -5.945 3
54.661 -20.737 -5.378 3
49.92 -18.693 -4.935 4
45.913 -17.008 -4.572 7
28.457 -10.441 -1.869 4
28.404 -10.346 -2.046 21
37.057 -13.418 -3.837 4
31.236 -11.263 -2.989 11
30.563 -10.998 -3.096 8
29.832 -10.724 -3.192 11
28.225 -10.158 -3.103 12
26.71 -9.631 -3.018 11
25.327 -9.166 -2.953 12
24.02 -8.731 -2.889 12
22.789 -8.333 -2.835 11
21.716 -7.99 -2.805 14
18.351 -6.803 -2.126 0
17.783 -6.643 -2.19 0
17.706 -6.668 -2.4 20
17.745 -6.743 -2.658 10
17.339 -6.647 -2.778 17
67.563 -33.406 -2.89 21
12.374 -5.961 1.841 24
12.561 -5.896 1.747 25
12.512 -5.729 1.677 20
54.631 -24.407 -3.085 16
12.711 -5.546 1.514 26
13.048 -5.567 1.404 25
12.603 -5.262 1.391 0
12.114 -4.958 1.389 23
12.334 -4.952 1.295 38
64.338 -25.386 -6.24 17
59.896 -23.252 -5.926 3
54.118 -20.713 -5.369 4
49.471 -18.691 -4.934 4
45.514 -17.012 -4.574 7
28.428 -10.525 -1.908 0
28.342 -10.417 -2.081 33
36.784 -13.439 -3.847 4
30.83 -11.215 -2.963 25
30.32 -11.006 -3.101 16
29.609 -10.736 -3.198 15
28.038 -10.176 -3.114 12
26.547 -9.652 -3.031 11
25.192 -9.191 -2.968 11
23.88 -8.749 -2.901 17
22.672 -8.354 -2.849 13
21.59 -8.003 -2.814 14
18.295 -6.831 -2.147 0
17.76 -6.681 -2.219 0
17.777 -6.74 -2.458 5
17.726 -6.779 -2.688 13
17.289 -6.669 -2.797 16
12.485 -6.212 1.905 6
12.304 -5.967 1.84 18
12.595 -5.953 1.735 24
12.521 -5.774 1.667 27
55.294 -24.885 -3.204 10
12.779 -5.618 1.495 25
13.039 -5.607 1.392 19
59.94 -25.227 -4.713 17
12.216 -5.04 1.362 22
12.388 -5.016 1.273 37
14.291 -5.687 0.93 1
59.225 -23.192 -5.903 2
53.602 -20.697 -5.362 3
49.005 -18.679 -4.929 4
45.111 -17.013 -4.574 7
28.376 -10.6 -1.943 19
28.405 -10.534 -2.138 15
36.526 -13.463 -3.86 4
30.654 -11.25 -2.982 17
30.197 -11.057 -3.129 13
29.417 -10.758 -3.211 10
27.885 -10.205 -3.132 12
26.399 -9.677 -3.047 11
25.079 -9.223 -2.99 12
23.751 -8.77 -2.915 16
22.538 -8.367 -2.858 13
21.478 -8.02 -2.827 14
18.254 -6.864 -2.172 0
17.77 -6.73 -2.258 0
17.697 -6.754 -2.469 18
17.71 -6.817 -2.72 35
17.249 -6.694 -2.819 17
12.536 -6.278 1.893 22
12.278 -5.993 1.835 27
12.593 -5.993 1.726 21
12.526 -5.817 1.657 11
51.902 -23.53 -2.867 3
12.831 -5.683 1.477 21
13.022 -5.644 1.382 27
12.103 -5.135 1.43 4
12.196 -5.073 1.352 25
12.728 -5.196 1.211 20
14.254 -5.721 0.918 1
58.673 -23.175 -5.896 2
53.071 -20.672 -5.352 3
13.062 -5.023 0.868 0
44.676 -16.999 -4.568 5
28.339 -10.681 -1.981 17
28.449 -10.645 -2.192 1
28.416 -10.567 -2.384 45
30.433 -11.267 -2.991 23
29.759 -10.991 -3.092 17
29.261 -10.793 -3.231 12
27.713 -10.227 -3.145 12
26.248 -9.701 -3.062 12
24.933 -9.243 -3.003 11
23.596 -8.781 -2.923 12
22.417 -8.385 -2.871 13
21.36 -8.035 -2.838 13
18.234 -6.905 -2.204 0
17.783 -6.782 -2.298 0
17.696 -6.799 -2.506 2
17.698 -6.856 -2.753 3
17.184 -6.71 -2.833 16
12.495 -6.298 1.889 6
12.333 -6.06 1.822 23
12.562 -6.019 1.721 28
12.571 -5.879 1.643 28
50.889 -23.24 -2.794 15
12.76 -5.694 1.474 26
13.078 -5.711 1.362 29
12.054 -5.155 1.424 25
12.104 -5.076 1.351 27
12.642 -5.204 1.208 24
14.272 -5.777 0.897 4
14.381 -5.729 0.801 7
52.556 -20.65 -5.343 3
13.037 -5.057 0.853 18
44.297 -17.003 -4.57 5
41.028 -15.6 -4.275 6
38.296 -14.456 -4.05 4
28.401 -10.655 -2.429 73
30.109 -11.245 -2.979 24
29.934 -11.151 -3.181 10
29.134 -10.837 -3.257 29
27.548 -10.251 -3.159 11
26.107 -9.728 -3.079 12
24.787 -9.263 -3.015 11
23.445 -8.792 -2.931 16
22.308 -8.407 -2.887 14
21.249 -8.052 -2.85 13
18.196 -6.939 -2.229 0
17.771 -6.823 -2.331 0
17.694 -6.843 -2.541 1
17.778 -6.931 -2.816 14
17.115 -6.725 -2.846 16
12.475 -6.327 1.884 11
12.36 -6.113 1.812 10
12.538 -6.049 1.714 24
12.59 -5.93 1.631 1
50.616 -23.284 -2.805 3
12.757 -5.737 1.463 22
12.988 -5.716 1.361 34
12.052 -5.195 1.412 26
12.223 -5.167 1.321 24
12.361 -5.131 1.233 25
61.732 -25.197 -6.171 14
14.362 -5.771 0.785 28
52.03 -20.621 -5.332 3
13.017 -5.094 0.838 19
43.892 -16.996 -4.567 15
40.697 -15.611 -4.28 6
38.01 -14.473 -4.059 4
28.43 -10.759 -2.482 255
28.444 -10.715 -2.697 5
29.391 -11.043 -3.121 3
28.971 -10.868 -3.275 27
27.369 -10.27 -3.171 12
25.963 -9.753 -3.094 13
24.645 -9.283 -3.028 11
23.29 -8.802 -2.937 16
22.195 -8.428 -2.901 14
21.145 -8.071 -2.864 13
18.193 -6.988 -2.266 1
17.787 -6.876 -2.372 0
17.85 -6.949 -2.627 1
17.723 -6.953 -2.835 14
17.047 -6.739 -2.858 16
0.0 -0.0 3.0 0
12.521 -6.235 1.788 21
12.331 -5.99 1.727 22
70.584 -33.481 -4.73 7
51.916 -24.056 -2.998 9
12.733 -5.769 1.454 24
12.938 -5.738 1.355 25
11.989 -5.209 1.408 23
12.444 -5.304 1.277 69
11.994 -5.019 1.272 19
14.264 -5.871 0.863 0
14.2 -5.754 0.791 25
12.871 -5.145 0.921 0
12.955 -5.114 0.829 33
43.572 -17.02 -4.578 25
40.382 -15.626 -4.286 6
37.742 -14.497 -4.071 4
28.421 -10.85 -2.528 255
28.358 -10.775 -2.729 34
28.904 -10.953 -3.071 15
28.639 -10.834 -3.255 25
27.208 -10.293 -3.185 11
25.826 -9.78 -3.111 16
24.517 -9.308 -3.044 12
23.175 -8.827 -2.954 15
22.082 -8.448 -2.915 13
21.041 -8.09 -2.877 12
18.205 -7.042 -2.307 0
17.785 -6.922 -2.408 0
17.726 -6.947 -2.625 0
17.664 -6.974 -2.852 15
16.982 -6.755 -2.872 17
12.53 -6.437 1.865 0
12.287 -6.158 1.803 8
12.268 -5.999 1.725 22
12.56 -5.999 1.615 16
51.846 -24.198 -3.033 6
12.879 -5.878 1.425 15
12.887 -5.76 1.348 25
12.042 -5.272 1.388 25
12.23 -5.254 1.293 25
11.934 -5.035 1.266 28
14.475 -6.008 0.813 3
14.199 -5.803 0.772 30
12.846 -5.18 0.907 17
12.916 -5.143 0.817 14
43.183 -17.014 -4.575 25
40.07 -15.64 -4.293 6
37.46 -14.514 -4.079 4
28.376 -10.926 -2.567 85
28.342 -10.861 -2.775 29
27.542 -10.525 -2.834 19
28.439 -10.848 -3.263 25
27.043 -10.316 -3.198 12
25.693 -9.808 -3.129 12
24.375 -9.327 -3.057 12
23.061 -8.85 -2.97 12
21.955 -8.463 -2.926 16
20.937 -8.109 -2.891 13
19.953 -7.773 -2.857 16
17.807 -6.979 -2.452 0
17.738 -6.997 -2.666 0
17.612 -6.998 -2.872 16
16.924 -6.773 -2.888 16
12.477 -6.451 1.863 6
0.0 -0.0 3.0 0
12.251 -6.032 1.718 29
12.604 -6.062 1.6 25
0.0 -0.0 3.0 0
12.861 -5.913 1.416 23
12.924 -5.82 1.331 26
12.036 -5.312 1.376 28
12.126 -5.252 1.294 24
11.929 -5.074 1.253 31
14.43 -6.039 0.802 12
14.172 -5.841 0.758 30
12.759 -5.188 0.904 24
12.924 -5.19 0.797 25
42.831 -17.021 -4.578 24
39.755 -15.652 -4.299 6
37.181 -14.53 -4.087 4
28.348 -11.009 -2.61 3
33.023 -12.763 -3.786 5
27.519 -10.606 -2.879 27
28.419 -10.931 -3.311 28
26.879 -10.336 -3.211 12
25.542 -9.828 -3.141 12
24.229 -9.344 -3.068 11
22.939 -8.871 -2.984 15
21.835 -8.479 -2.937 14
20.836 -8.128 -2.905 13
19.858 -7.79 -2.87 15
17.894 -7.061 -2.516 0
18.202 -7.228 -2.853 4
17.552 -7.019 -2.89 14
16.862 -6.79 -2.902 16
12.485 -6.496 1.855 11
12.218 -6.204 1.794 19
12.274 -6.084 1.707 23
12.568 -6.088 1.594 28
13.729 -6.5 1.379 29
12.858 -5.956 1.404 26
12.903 -5.855 1.321 31
12.009 -5.341 1.367 24
12.12 -5.29 1.281 27
11.974 -5.135 1.232 28
14.392 -6.072 0.79 25
14.171 -5.889 0.739 22
12.661 -5.192 0.902 29
13.03 -5.278 0.76 49
42.505 -17.037 -4.585 17
39.448 -15.665 -4.305 6
36.914 -14.55 -4.096 4
34.762 -13.615 -3.937 4
32.806 -12.787 -3.799 6
27.214 -10.576 -2.862 28
27.347 -10.606 -3.123 1
26.707 -10.355 -3.222 12
25.398 -9.851 -3.156 13
24.094 -9.365 -3.082 10
22.824 -8.894 -2.999 12
21.704 -8.491 -2.946 16
20.729 -8.144 -2.917 12
19.777 -7.812 -2.887 15
0.0 -0.0 3.0 0
18.202 -7.276 -2.892 13
17.493 -7.04 -2.907 15
16.793 -6.804 -2.915 16
12.429 -6.508 1.853 27
12.329 -6.301 1.775 11
12.243 -6.11 1.701 28
12.555 -6.124 1.586 28
12.177 -5.807 1.552 0
12.188 -5.688 1.476 33
12.881 -5.889 1.311 29
12.173 -5.455 1.332 21
12.151 -5.346 1.263 28
12.023 -5.197 1.21 29
14.266 -6.069 0.791 19
12.63 -5.292 0.968 12
12.662 -5.236 0.885 31
13.813 -5.642 0.605 27
42.183 -17.053 -4.592 13
39.134 -15.673 -4.308 6
36.636 -14.564 -4.103 4
34.516 -13.634 -3.947 5
32.592 -12.811 -3.812 6
26.976 -10.571 -2.86 24
27.335 -10.688 -3.171 8
26.554 -10.378 -3.236 11
25.257 -9.875 -3.17 15
23.938 -9.376 -3.089 10
22.688 -8.908 -3.009 16
21.602 -8.514 -2.961 14
20.614 -8.158 -2.927 14
19.692 -7.834 -2.903 15
18.876 -7.549 -2.898 11
18.127 -7.293 -2.906 12
17.444 -7.065 -2.928 14
16.721 -6.816 -2.925 16
12.425 -6.547 1.846 16
12.822 -6.596 1.718 17
12.329 -6.194 1.683 18
12.609 -6.193 1.57 20
12.185 -5.852 1.541 4
12.035 -5.657 1.484 32
13.098 -6.033 1.27 75
12.167 -5.496 1.32 20
12.134 -5.382 1.251 15
12.064 -5.257 1.19 33
14.108 -6.051 0.798 21
12.631 -5.337 0.951 17
12.808 -5.341 0.842 23
12.133 -4.997 0.879 0
41.788 -17.036 -4.585 8
38.831 -15.684 -4.313 6
36.384 -14.587 -4.115 4
34.275 -13.653 -3.957 4
32.365 -12.828 -3.821 6
26.647 -10.529 -2.836 26
26.991 -10.641 -3.143 24
26.368 -10.389 -3.242 13
25.124 -9.9 -3.186 12
23.8 -9.394 -3.101 10
22.563 -8.926 -3.021 11
21.482 -8.529 -2.972 14
20.496 -8.169 -2.935 13
19.604 -7.853 -2.918 14
18.8 -7.57 -2.915 14
18.063 -7.314 -2.923 12
17.381 -7.084 -2.944 14
16.662 -6.834 -2.941 16
11.401 -6.045 1.934 6
12.23 -6.333 1.769 39
0.0 -0.0 3.0 0
12.537 -6.201 1.568 23
12.143 -5.874 1.536 12
11.86 -5.616 1.495 24
13.396 -6.218 1.217 29
12.215 -5.559 1.3 21
12.117 -5.416 1.24 21
12.066 -5.3 1.175 26
14.11 -6.101 0.779 32
12.529 -5.338 0.951 21
12.772 -5.37 0.83 32
12.156 -5.05 0.857 24
41.335 -16.994 -4.566 14
38.543 -15.699 -4.321 6
36.111 -14.6 -4.121 4
34.03 -13.669 -3.965 4
32.159 -12.853 -3.834 6
26.413 -10.522 -2.833 29
26.979 -10.723 -3.191 28
26.197 -10.404 -3.252 11
24.98 -9.922 -3.2 18
23.643 -9.405 -3.108 11
22.434 -8.942 -3.032 14
21.369 -8.546 -2.984 17
20.399 -8.189 -2.95 13
19.523 -7.875 -2.934 15
18.731 -7.593 -2.932 14
18.002 -7.338 -2.942 12
17.311 -7.1 -2.958 14
16.604 -6.852 -2.956 16
11.36 -6.061 1.931 22
12.383 -6.455 1.745 28
12.588 -6.411 1.637 19
12.498 -6.225 1.563 34
12.165 -5.926 1.522 17
11.742 -5.601 1.499 30
11.928 -5.577 1.401 18
12.411 -5.692 1.26 45
12.446 -5.606 1.178 74
12.023 -5.323 1.167 27
14.09 -6.142 0.765 29
12.584 -5.405 0.925 32
12.565 -5.327 0.848 19
11.909 -4.988 0.883 28
41.007 -17.001 -4.569 8
38.229 -15.702 -4.322 7
35.87 -14.624 -4.133 4
33.799 -13.691 -3.976 4
31.931 -12.868 -3.842 5
26.238 -10.539 -2.842 24
26.472 -10.606 -3.123 13
26.094 -10.446 -3.277 12
24.84 -9.943 -3.213 18
23.491 -9.416 -3.115 11
22.301 -8.956 -3.041 9
21.267 -8.568 -2.999 15
20.309 -8.211 -2.965 15
19.446 -7.898 -2.952 14
18.658 -7.615 -2.949 13
17.938 -7.359 -2.959 12
17.251 -7.12 -2.975 15
16.546 -6.869 -2.972 15
11.315 -6.076 1.929 21
12.037 -6.315 1.773 32
13.307 -6.822 1.55 20
12.473 -6.255 1.556 19
12.172 -5.973 1.511 25
11.675 -5.61 1.497 24
11.799 -5.559 1.406 23
12.137 -5.609 1.285 30
12.248 -5.561 1.193 2
12.002 -5.357 1.156 26
12.548 -5.514 0.993 8
12.552 -5.435 0.914 18
12.191 -5.211 0.895 27
11.739 -4.958 0.896 32
40.712 -17.02 -4.578 6
37.938 -15.713 -4.327 6
35.601 -14.635 -4.138 4
33.558 -13.706 -3.984 4
31.715 -12.886 -3.852 5
26.142 -10.586 -2.868 23
26.282 -10.615 -3.129 15
26.014 -10.497 -3.307 27
24.7 -9.964 -3.226 18
23.346 -9.429 -3.123 10
22.172 -8.971 -3.051 3
21.147 -8.582 -3.009 13
20.219 -8.233 -2.982 13
19.365 -7.92 -2.968 14
18.582 -7.634 -2.965 14
17.873 -7.381 -2.977 12
17.163 -7.129 -2.982 14
16.487 -6.887 -2.987 15
11.292 -6.101 1.924 21
10.565 -5.578 1.916 23
11.321 -5.842 1.758 4
12.476 -6.3 1.545 46
12.098 -5.978 1.51 19
11.659 -5.643 1.488 26
11.793 -5.597 1.395 21
12.037 -5.605 1.286 20
12.227 -5.594 1.183 7
11.566 -5.203 1.209 30
11.625 -5.149 1.126 21
12.465 -5.441 0.911 6
12.195 -5.256 0.876 23
11.955 -5.091 0.839 35
40.435 -17.044 -4.589 4
37.633 -15.716 -4.329 7
35.346 -14.651 -4.146 4
33.336 -13.728 -3.995 4
31.513 -12.91 -3.864 5
25.963 -10.6 -2.875 22
25.651 -10.443 -3.029 12
25.9 -10.534 -3.329 26
24.56 -9.984 -3.239 18
23.201 -9.442 -3.132 11
22.072 -8.997 -3.068 6
21.038 -8.6 -3.022 13
20.126 -8.253 -2.996 15
19.287 -7.943 -2.985 12
18.509 -7.656 -2.982 13
17.805 -7.401 -2.993 13
17.104 -7.149 -2.998 15
16.425 -6.903 -3.001 15
11.328 -6.159 1.914 18
10.532 -5.597 1.912 20
11.336 -5.89 1.748 30
13.178 -6.699 1.453 25
12.393 -6.168 1.462 28
11.595 -5.653 1.485 34
11.668 -5.579 1.4 28
12.102 -5.678 1.264 23
11.964 -5.516 1.208 22
11.52 -5.223 1.202 25
11.583 -5.172 1.118 28
12.609 -5.549 0.87 1
12.159 -5.283 0.866 23
11.687 -5.017 0.87 25
11.613 -4.936 0.803 7
37.368 -15.734 -4.337 7
35.099 -14.669 -4.155 4
33.106 -13.745 -4.004 4
31.286 -12.922 -3.871 5
25.686 -10.571 -2.86 24
25.433 -10.438 -3.026 11
25.791 -10.572 -3.352 21
24.43 -10.009 -3.255 18
23.088 -9.468 -3.148 11
21.944 -9.011 -3.078 6
20.929 -8.618 -3.034 14
20.019 -8.267 -3.006 15
19.209 -7.965 -3.002 13
18.447 -7.681 -3.001 13
17.741 -7.421 -3.01 15
17.033 -7.164 -3.011 14
16.366 -6.921 -3.016 15
11.252 -6.157 1.914 30
10.463 -5.597 1.912 25
11.267 -5.892 1.748 22
13.198 -6.756 1.44 28
12.219 -6.123 1.473 26
11.589 -5.69 1.475 22
11.63 -5.601 1.394 1
11.869 -5.611 1.285 0
11.936 -5.545 1.198 20
11.46 -5.236 1.197 29
11.606 -5.223 1.099 21
12.215 -5.419 0.92 20
12.138 -5.317 0.852 22
11.58 -5.012 0.872 24
11.473 -4.916 0.811 33
37.081 -15.743 -4.341 6
34.841 -14.682 -4.161 4
32.869 -13.759 -4.011 4
31.071 -12.937 -3.879 5
25.566 -10.606 -2.879 26
24.923 -10.31 -2.952 13
25.641 -10.593 -3.365 23
24.305 -10.035 -3.27 17
22.961 -9.487 -3.161 11
21.818 -9.026 -3.088 11
20.809 -8.63 -3.043 14
19.936 -8.291 -3.024 16
19.128 -7.986 -3.018 12
18.378 -7.703 -3.019 14
17.69 -7.449 -3.032 12
16.963 -7.18 -3.024 14
16.301 -6.935 -3.029 15
11.274 -6.207 1.906 25
10.406 -5.602 1.911 24
11.211 -5.902 1.745 20
13.206 -6.806 1.429 15
12.35 -6.232 1.446 31
11.607 -5.74 1.462 22
12.895 -6.257 1.206 27
11.744 -5.593 1.29 30
11.918 -5.58 1.187 22
11.483 -5.287 1.18 25
11.581 -5.253 1.088 22
12.172 -5.443 0.911 22
12.087 -5.338 0.843 27
11.96 -5.219 0.785 33
11.438 -4.941 0.8 29
36.799 -15.751 -4.345 7
34.594 -14.697 -4.168 4
32.644 -13.776 -4.019 4
30.873 -12.959 -3.89 5
25.427 -10.634 -2.894 23
24.551 -10.236 -2.91 12
24.805 -10.328 -3.206 4
24.147 -10.046 -3.277 17
22.827 -9.503 -3.171 10
21.708 -9.047 -3.102 14
20.729 -8.658 -3.062 15
19.853 -8.315 -3.041 17
19.054 -8.009 -3.035 12
18.319 -7.73 -3.039 13
17.633 -7.472 -3.051 12
16.9 -7.198 -3.04 14
16.245 -6.953 -3.045 16
11.145 -6.175 1.911 29
10.418 -5.645 1.903 24
11.233 -5.953 1.735 19
13.557 -7.035 1.376 34
11.892 -6.043 1.493 33
11.554 -5.755 1.458 22
12.797 -6.255 1.206 30
11.669 -5.599 1.288 17
11.757 -5.546 1.198 24
11.505 -5.339 1.162 28
11.694 -5.346 1.054 20
12.172 -5.486 0.894 26
12.105 -5.388 0.823 22
11.82 -5.199 0.793 39
11.583 -5.044 0.754 41
36.538 -15.766 -4.352 7
34.351 -14.712 -4.175 4
32.418 -13.792 -4.027 4
30.658 -12.971 -3.897 5
25.191 -10.619 -2.886 13
23.87 -10.031 -2.792 21
24.908 -10.451 -3.28 30
23.982 -10.054 -3.282 12
22.689 -9.516 -3.18 10
21.608 -9.071 -3.119 14
20.627 -8.678 -3.077 14
19.753 -8.33 -3.052 16
18.987 -8.036 -3.056 13
18.253 -7.753 -3.058 13
17.568 -7.493 -3.068 12
16.84 -7.217 -3.056 13
16.176 -6.966 -3.055 16
11.09 -6.183 1.91 24
10.479 -5.715 1.889 29
11.318 -6.038 1.717 26
13.202 -6.898 1.408 24
12.008 -6.145 1.468 32
11.537 -5.787 1.449 21
12.664 -6.235 1.212 13
11.623 -5.619 1.282 15
11.697 -5.559 1.194 22
11.534 -5.394 1.143 32
11.841 -5.456 1.014 33
12.179 -5.533 0.876 30
12.127 -5.441 0.802 30
11.355 -5.036 0.862 19
11.411 -5.009 0.77 19
36.278 -15.781 -4.359 7
34.105 -14.725 -4.182 4
32.189 -13.805 -4.034 4
30.46 -12.992 -3.908 5
28.798 -12.235 -3.782 13
23.658 -10.02 -2.785 23
24.63 -10.415 -3.258 25
23.842 -10.071 -3.293 16
22.566 -9.535 -3.192 9
21.49 -9.088 -3.13 13
20.542 -8.704 -3.095 13
19.677 -8.357 -3.072 16
18.912 -8.059 -3.073 13
18.183 -7.775 -3.074 14
17.493 -7.509 -3.081 13
16.783 -7.238 -3.074 13
16.121 -6.984 -3.071 15
11.108 -6.232 1.901 16
10.544 -5.787 1.875 7
11.178 -6.003 1.724 30
13.46 -7.08 1.366 22
11.895 -6.13 1.472 24
11.509 -5.814 1.442 21
12.677 -6.286 1.198 14
11.599 -5.648 1.273 6
11.722 -5.614 1.176 29
11.499 -5.418 1.134 29
11.508 -5.343 1.055 29
12.131 -5.555 0.868 27
12.062 -5.455 0.796 29
11.334 -5.067 0.849 28
11.361 -5.028 0.762 28
35.999 -15.786 -4.361 7
33.852 -14.733 -4.186 4
31.986 -13.827 -4.045 4
30.256 -13.007 -3.916 5
28.604 -12.249 -3.789 12
23.486 -10.025 -2.788 24
24.213 -10.317 -3.199 26
23.713 -10.092 -3.306 12
22.442 -9.553 -3.204 7
21.383 -9.108 -3.144 19
20.455 -8.729 -3.112 13
19.602 -8.383 -3.091 16
18.838 -8.081 -3.09 14
18.117 -7.798 -3.093 13
17.424 -7.528 -3.096 14
16.719 -7.256 -3.088 9
16.051 -6.996 -3.082 15
11.06 -6.243 1.899 28
10.531 -5.817 1.869 1
11.14 -6.022 1.72 31
13.099 -6.936 1.399 26
11.686 -6.064 1.488 28
11.566 -5.884 1.423 33
11.773 -5.881 1.314 38
11.663 -5.721 1.251 16
11.743 -5.667 1.159 31
11.642 -5.528 1.096 45
11.537 -5.398 1.035 23
12.106 -5.587 0.855 17
12.018 -5.478 0.787 22
11.288 -5.086 0.841 34
11.311 -5.046 0.753 27
35.743 -15.8 -4.368 6
33.635 -14.756 -4.197 4
31.75 -13.836 -4.05 4
30.059 -13.026 -3.926 5
28.434 -12.272 -3.803 14
23.236 -9.995 -2.771 23
24.091 -10.344 -3.215 24
23.599 -10.119 -3.323 16
22.319 -9.572 -3.216 8
21.272 -9.127 -3.156 14
20.37 -8.755 -3.13 14
19.533 -8.412 -3.112 14
18.753 -8.1 -3.104 18
18.058 -7.824 -3.113 13
17.353 -7.545 -3.11 13
16.656 -7.273 -3.103 7
15.992 -7.013 -3.096 15
11.119 -6.316 1.886 24
11.469 -6.375 1.761 24
11.077 -6.028 1.719 23
12.047 -6.422 1.517 17
11.756 -6.142 1.469 31
11.537 -5.912 1.416 30
11.656 -5.864 1.318 27
11.613 -5.739 1.245 1
14.282 -6.943 0.744 9
11.903 -5.695 1.039 24
11.547 -5.446 1.018 26
12.08 -5.618 0.843 19
11.932 -5.482 0.785 24
11.289 -5.127 0.824 20
11.254 -5.06 0.747 23
35.48 -15.809 -4.372 7
33.397 -14.769 -4.203 4
31.533 -13.85 -4.057 5
29.848 -13.036 -3.931 5
28.247 -12.287 -3.811 14
23.039 -9.988 -2.766 23
23.775 -10.286 -3.181 22
23.488 -10.148 -3.341 31
22.2 -9.591 -3.228 9
21.158 -9.144 -3.168 14
20.283 -8.779 -3.147 15
19.461 -8.439 -3.131 14
18.693 -8.129 -3.125 19
17.992 -7.847 -3.131 13
17.263 -7.554 -3.117 12
16.599 -7.294 -3.12 6
15.926 -7.027 -3.108 15
10.68 -6.104 1.924 23
11.256 -6.297 1.776 24
11.106 -6.082 1.707 31
12.021 -6.451 1.511 21
11.991 -6.309 1.427 22
11.491 -5.93 1.411 1
11.645 -5.901 1.308 25
13.795 -6.868 0.9 21
12.19 -5.97 1.06 5
11.934 -5.754 1.019 23
11.879 -5.645 0.945 20
12.054 -5.65 0.831 19
11.995 -5.554 0.756 26
11.243 -5.147 0.815 22
11.198 -5.075 0.74 25
35.232 -15.822 -4.378 7
33.155 -14.778 -4.208 4
31.316 -13.863 -4.064 4
29.655 -13.054 -3.941 5
28.079 -12.309 -3.823 9
22.885 -9.998 -2.772 23
23.182 -10.106 -3.072 22
23.376 -10.176 -3.359 31
22.073 -9.606 -3.239 6
21.051 -9.163 -3.18 14
20.198 -8.804 -3.165 14
19.378 -8.461 -3.147 13
18.618 -8.151 -3.142 16
17.936 -7.874 -3.152 13
17.195 -7.573 -3.132 12
16.535 -7.311 -3.135 9
15.86 -7.04 -3.119 15
10.739 -6.176 1.911 24
10.899 -6.136 1.807 24
11.119 -6.13 1.697 19
11.53 -6.23 1.562 36
12.028 -6.371 1.411 24
11.491 -5.972 1.4 19
11.62 -5.93 1.299 29
13.858 -6.95 0.875 23
11.742 -5.794 1.117 1
12.303 -5.976 0.942 6
11.825 -5.663 0.939 22
12.271 -5.796 0.775 2
11.952 -5.577 0.747 10
11.196 -5.166 0.807 27
11.173 -5.104 0.727 32
34.983 -15.836 -4.384 7
32.928 -14.793 -4.215 4
31.109 -13.88 -4.072 5
29.437 -13.06 -3.944 5
27.91 -12.329 -3.834 7
22.764 -10.021 -2.786 23
22.986 -10.096 -3.066 26
23.255 -10.198 -3.372 24
21.954 -9.625 -3.25 16
20.947 -9.184 -3.195 14
20.114 -8.83 -3.183 14
19.306 -8.487 -3.166 14
18.547 -8.174 -3.16 16
17.87 -7.897 -3.169 13
17.13 -7.593 -3.149 12
16.465 -7.325 -3.147 13
15.798 -7.054 -3.132 15
10.891 -6.302 1.889 27
10.857 -6.152 1.804 21
12.156 -6.746 1.566 21
11.599 -6.31 1.543 28
12.041 -6.422 1.399 5
11.451 -5.993 1.394 20
11.573 -5.949 1.294 28
13.797 -6.97 0.869 22
12.386 -6.157 0.999 1
13.396 -6.556 0.743 21
11.863 -5.724 0.916 29
12.134 -5.775 0.783 6
11.94 -5.616 0.731 2
11.147 -5.183 0.8 26
11.173 -5.144 0.71 30
34.71 -15.836 -4.384 6
32.69 -14.802 -4.219 4
30.893 -13.892 -4.078 5
29.241 -13.074 -3.951 5
27.72 -12.341 -3.841 7
22.629 -10.037 -2.795 23
21.883 -9.684 -2.819 18
23.062 -10.189 -3.367 31
21.873 -9.659 -3.272 14
20.854 -9.209 -3.211 15
20.037 -8.857 -3.202 15
19.223 -8.509 -3.182 14
18.487 -8.203 -3.181 18
17.811 -7.922 -3.189 13
17.061 -7.611 -3.163 12
16.397 -7.341 -3.16 14
15.742 -7.072 -3.147 15
10.819 -6.3 1.889 26
10.798 -6.157 1.803 33
12.307 -6.874 1.539 47
11.218 -6.142 1.582 29
11.556 -6.205 1.453 0
11.482 -6.051 1.379 0
11.59 -6.001 1.279 27
14.03 -7.139 0.817 0
12.345 -6.182 0.991 5
12.286 -6.058 0.914 6
12.012 -5.84 0.874 19
12.047 -5.778 0.782 7
9.62 -4.559 1.158 0
11.115 -5.208 0.789 26
11.18 -5.188 0.69 26
34.459 -15.844 -4.388 7
32.471 -14.817 -4.227 4
30.69 -13.908 -4.086 5
29.052 -13.089 -3.96 5
27.551 -12.359 -3.851 7
22.511 -10.061 -2.809 23
21.976 -9.799 -2.888 24
22.916 -10.199 -3.373 25
21.757 -9.678 -3.285 14
20.775 -9.24 -3.232 14
19.952 -8.882 -3.219 13
19.147 -8.533 -3.2 14
18.426 -8.23 -3.202 15
17.737 -7.94 -3.204 13
17.0 -7.631 -3.18 12
16.334 -7.357 -3.174 13
15.676 -7.085 -3.159 15
10.774 -6.312 1.887 18
10.532 -6.044 1.825 20
11.372 -6.393 1.641 26
11.165 -6.155 1.579 32
11.485 -6.209 1.452 22
11.51 -6.107 1.364 9
11.54 -6.017 1.275 0
10.943 -5.609 1.285 25
12.308 -6.209 0.983 12
12.468 -6.194 0.867 6
12.276 -6.014 0.811 4
12.102 -5.849 0.755 6
9.583 -4.577 1.151 18
11.065 -5.225 0.782 31
11.134 -5.206 0.682 26
34.197 -15.847 -4.389 6
32.234 -14.824 -4.23 4
30.485 -13.923 -4.094 5
28.856 -13.102 -3.966 5
27.372 -12.373 -3.859 7
22.422 -10.097 -2.83 21
22.023 -9.893 -2.944 24
22.777 -10.212 -3.381 24
21.631 -9.691 -3.294 12
20.689 -9.267 -3.251 15
19.882 -8.912 -3.24 14
19.085 -8.565 -3.222 14
18.369 -8.259 -3.224 14
17.678 -7.966 -3.223 20
16.938 -7.652 -3.196 12
16.27 -7.374 -3.188 14
15.627 -7.105 -3.177 15
10.732 -6.327 1.884 27
10.436 -6.027 1.828 22
10.567 -5.979 1.729 17
11.147 -6.186 1.572 29
11.477 -6.248 1.442 0
11.67 -6.236 1.329 17
11.075 -5.816 1.332 1
10.82 -5.586 1.292 25
12.267 -6.233 0.975 14
12.345 -6.178 0.873 2
12.224 -6.033 0.804 9
13.076 -6.368 0.556 22
9.529 -4.586 1.147 21
11.083 -5.274 0.761 25
11.127 -5.244 0.665 1
33.957 -15.858 -4.395 7
32.011 -14.835 -4.236 4
30.283 -13.937 -4.101 5
28.675 -13.119 -3.976 5
27.193 -12.386 -3.866 6
22.248 -10.094 -2.828 21
21.669 -9.807 -2.893 27
22.489 -10.157 -3.347 28
21.494 -9.7 -3.299 20
20.621 -9.302 -3.274 14
19.804 -8.939 -3.259 13
19.019 -8.593 -3.243 14
18.308 -8.287 -3.245 13
17.611 -7.987 -3.24 20
16.873 -7.671 -3.212 12
16.206 -7.39 -3.201 13
15.568 -7.121 -3.191 15
10.715 -6.355 1.88 34
10.46 -6.079 1.818 33
10.72 -6.105 1.702 25
11.073 -6.186 1.572 29
11.413 -6.254 1.441 15
11.448 -6.159 1.35 16
10.966 -5.799 1.337 25
10.525 -5.472 1.327 37
12.247 -6.269 0.963 10
10.772 -5.432 1.13 8
12.162 -6.048 0.799 8
11.978 -5.878 0.744 4
9.882 -4.792 1.064 8
11.065 -5.306 0.748 26
11.886 -5.644 0.487 29
33.732 -15.874 -4.402 7
31.792 -14.848 -4.242 4
30.074 -13.948 -4.107 5
28.469 -13.124 -3.978 4
27.022 -12.402 -3.874 7
22.183 -10.141 -2.855 22
21.348 -9.733 -2.848 21
22.442 -10.21 -3.38 25
21.343 -9.701 -3.3 16
20.542 -9.332 -3.294 15
19.73 -8.968 -3.28 14
18.964 -8.627 -3.268 15
18.237 -8.31 -3.262 14
17.527 -8.001 -3.251 19
16.804 -7.688 -3.226 12
16.149 -7.41 -3.217 13
15.509 -7.137 -3.204 15
10.697 -6.384 1.874 30
10.209 -5.971 1.839 21
10.405 -5.964 1.732 25
11.01 -6.191 1.571 21
11.377 -6.277 1.435 6
11.363 -6.156 1.351 22
10.913 -5.812 1.334 22
10.655 -5.58 1.294 20
12.237 -6.31 0.95 6
10.755 -5.462 1.119 18
11.034 -5.528 0.988 0
9.569 -4.731 1.184 8
9.498 -4.641 1.125 21
11.022 -5.325 0.74 30
11.133 -5.328 0.628 41
33.475 -15.874 -4.402 6
31.563 -14.854 -4.245 4
29.872 -13.961 -4.113 5
28.302 -13.147 -3.991 4
26.857 -12.42 -3.884 7
22.15 -10.202 -2.89 17
21.08 -9.683 -2.818 20
21.582 -9.891 -3.18 67
21.206 -9.708 -3.305 16
20.466 -9.364 -3.316 15
19.656 -8.996 -3.299 13
18.909 -8.659 -3.291 14
18.179 -8.339 -3.284 14
17.454 -8.019 -3.265 21
16.732 -7.704 -3.238 12
16.081 -7.425 -3.23 14
15.449 -7.152 -3.217 15
10.656 -6.398 1.872 27
10.443 -6.146 1.805 27
10.681 -6.161 1.69 24
11.054 -6.257 1.555 34
11.303 -6.278 1.435 22
11.062 -6.035 1.383 30
10.853 -5.82 1.331 25
10.497 -5.537 1.307 28
12.203 -6.338 0.941 0
10.712 -5.481 1.113 10
11.054 -5.58 0.969 41
9.504 -4.734 1.183 24
9.479 -4.667 1.114 26
10.915 -5.314 0.744 45
11.005 -5.307 0.637 28
10.268 -4.907 0.712 0
31.359 -14.871 -4.253 4
29.675 -13.973 -4.12 5
28.117 -13.161 -3.998 4
26.686 -12.433 -3.892 6
22.022 -10.218 -2.899 1
21.091 -9.759 -2.864 18
21.645 -9.992 -3.244 21
21.126 -9.74 -3.326 17
20.405 -9.401 -3.341 14
19.592 -9.029 -3.322 14
18.85 -8.691 -3.314 14
18.125 -8.369 -3.306 14
17.384 -8.038 -3.28 22
16.674 -7.725 -3.256 12
16.021 -7.442 -3.244 14
15.383 -7.164 -3.228 15
10.679 -6.451 1.863 20
10.155 -6.014 1.831 22
10.684 -6.204 1.681 24
11.06 -6.301 1.545 22
11.322 -6.331 1.421 25
11.089 -6.09 1.368 25
10.842 -5.855 1.321 28
10.487 -5.571 1.297 28
13.991 -7.319 0.622 24
10.666 -5.498 1.107 33
11.036 -5.611 0.958 47
9.502 -4.769 1.17 17
9.565 -4.745 1.083 24
10.826 -5.311 0.746 28
10.994 -5.342 0.622 28
10.297 -4.958 0.688 6
31.141 -14.88 -4.257 4
29.47 -13.983 -4.125 5
27.923 -13.169 -4.002 4
26.522 -12.449 -3.901 6
25.259 -11.807 -3.817 19
20.916 -9.749 -2.858 19
21.272 -9.891 -3.18 24
21.178 -9.835 -3.387 20
20.326 -9.43 -3.361 15
19.525 -9.06 -3.344 14
18.801 -8.727 -3.341 13
18.067 -8.397 -3.328 14
17.307 -8.055 -3.293 13
16.605 -7.742 -3.27 12
15.96 -7.459 -3.259 14
15.327 -7.181 -3.242 15
10.739 -6.528 1.849 3
10.148 -6.048 1.824 23
10.497 -6.135 1.696 23
11.09 -6.36 1.532 22
11.217 -6.314 1.426 26
11.049 -6.11 1.363 31
10.834 -5.892 1.31 28
10.672 -5.709 1.255 20
13.947 -7.348 0.612 11
10.634 -5.521 1.099 26
10.982 -5.625 0.953 21
9.483 -4.794 1.16 33
9.669 -4.832 1.048 20
10.812 -5.344 0.731 27
10.373 -5.078 0.739 58
10.262 -4.978 0.679 20
30.919 -14.886 -4.26 4
29.273 -13.994 -4.13 5
27.746 -13.184 -4.01 4
26.365 -12.468 -3.911 7
25.105 -11.822 -3.826 17
20.818 -9.774 -2.873 20
21.146 -9.903 -3.188 21
21.108 -9.872 -3.411 33
20.257 -9.464 -3.384 14
19.458 -9.091 -3.366 14
18.749 -8.762 -3.366 14
17.992 -8.417 -3.343 14
17.244 -8.077 -3.311 13
16.54 -7.76 -3.284 12
15.896 -7.475 -3.272 13
15.267 -7.196 -3.255 15
10.67 -6.526 1.849 4
10.152 -6.088 1.817 17
10.308 -6.062 1.711 24
11.033 -6.369 1.53 17
11.187 -6.341 1.419 29
11.076 -6.167 1.348 28
11.125 -6.092 1.253 33
10.682 -5.755 1.241 16
53.391 -28.333 -6.206 16
10.683 -5.587 1.076 25
10.999 -5.676 0.934 30
9.516 -4.847 1.139 29
9.582 -4.825 1.051 35
10.801 -5.379 0.717 26
10.271 -5.066 0.744 19
10.21 -4.991 0.673 29
30.712 -14.899 -4.267 4
29.079 -14.006 -4.136 4
27.562 -13.194 -4.015 5
26.208 -12.486 -3.921 9
24.954 -11.838 -3.834 8
20.758 -9.817 -2.899 19
20.796 -9.809 -3.129 21
20.842 -9.816 -3.375 27
20.188 -9.498 -3.406 13
19.397 -9.125 -3.389 13
18.683 -8.789 -3.386 14
17.921 -8.439 -3.359 16
17.177 -8.098 -3.327 13
16.474 -7.778 -3.299 12
15.835 -7.492 -3.287 13
15.211 -7.212 -3.269 14
10.889 -6.7 1.819 2
10.175 -6.141 1.806 25
10.298 -6.095 1.704 24
11.018 -6.402 1.522 25
11.165 -6.37 1.412 22
11.036 -6.187 1.342 27
11.2 -6.176 1.229 31
10.573 -5.736 1.246 5
10.569 -5.649 1.164 1
10.714 -5.643 1.057 32
10.973 -5.703 0.924 32
9.517 -4.884 1.125 4
9.643 -4.891 1.024 24
10.066 -5.05 0.856 65
10.207 -5.073 0.742 28
10.182 -5.015 0.662 30
30.495 -14.904 -4.269 4
28.882 -14.015 -4.141 4
