# .PCD v0.7 - Point Cloud Data file format
VERSION 0.7
FIELDS x y z intensity
SIZE 4 4 4 4
TYPE F F F F
COUNT 1 1 1 1
WIDTH 2001
HEIGHT 1
VIEWPOINT 0 0 0 1 0 0 0
POINTS 2001
DATA ascii
-2.338 -12.447 -5.083 10
-2.276 -12.023 -5.11 9
-2.221 -11.631 -5.144 6
-2.166 -11.252 -5.175 12
-2.115 -10.885 -5.202 11
-2.063 -10.529 -5.226 12
-2.013 -10.189 -5.251 12
-1.967 -9.86 -5.273 14
-1.92 -9.539 -5.292 36
-5.413 -33.587 -2.922 28
-5.441 -33.494 -3.511 20
-4.252 -26.001 -2.527 0
0.0 -0.0 3.0 0
-4.205 -25.34 -3.318 54
-4.249 -25.43 -3.814 16
-4.227 -25.1 -4.197 6
-4.032 -23.781 -4.271 5
-3.859 -22.583 -4.338 5
-3.694 -21.472 -4.394 10
-3.551 -20.482 -4.455 9
-3.419 -19.586 -4.518 41
-3.31 -18.81 -4.6 8
-3.191 -18.01 -4.645 7
-3.09 -17.297 -4.701 8
-2.991 -16.627 -4.753 8
-2.897 -15.971 -4.79 9
-2.813 -15.397 -4.845 7
-2.727 -14.819 -4.879 8
-2.651 -14.289 -4.921 9
-2.582 -13.815 -4.976 7
-2.515 -13.343 -5.017 8
-2.445 -12.873 -5.044 8
-2.385 -12.447 -5.083 9
-2.323 -12.027 -5.112 9
-2.266 -11.629 -5.143 10
-2.21 -11.253 -5.176 11
-2.158 -10.886 -5.203 11
-2.105 -10.527 -5.225 12
-2.054 -10.19 -5.252 12
-2.008 -9.861 -5.274 14
-1.96 -9.54 -5.293 30
-5.505 -33.5 -2.907 17
-5.551 -33.516 -3.515 29
-4.343 -26.042 -2.535 8
0.0 -0.0 3.0 0
-4.29 -25.354 -3.321 55
-4.333 -25.437 -3.816 16
-4.311 -25.107 -4.199 7
-4.111 -23.784 -4.271 6
-3.936 -22.593 -4.341 5
-3.767 -21.473 -4.394 9
-3.622 -20.486 -4.456 9
-3.486 -19.583 -4.517 33
-3.376 -18.811 -4.6 8
-3.255 -18.015 -4.647 7
-3.151 -17.295 -4.7 7
-3.049 -16.622 -4.751 8
-2.954 -15.973 -4.791 9
-2.867 -15.393 -4.843 7
-2.781 -14.819 -4.879 8
-2.704 -14.293 -4.923 9
-2.633 -13.815 -4.976 7
-2.565 -13.34 -5.015 8
-2.493 -12.867 -5.04 8
-2.432 -12.444 -5.082 9
-2.368 -12.021 -5.108 10
-2.31 -11.623 -5.139 10
-2.254 -11.25 -5.174 11
-2.201 -10.884 -5.201 11
-2.146 -10.525 -5.223 10
-2.095 -10.188 -5.25 12
-2.047 -9.856 -5.271 14
-1.998 -9.539 -5.292 37
-5.602 -33.449 -2.898 24
-5.657 -33.511 -3.514 21
-4.439 -26.118 -2.552 6
0.0 -0.0 3.0 0
-4.375 -25.364 -3.324 54
-4.419 -25.45 -3.819 17
-4.396 -25.117 -4.202 7
-4.193 -23.798 -4.276 5
-4.013 -22.596 -4.342 5
-3.842 -21.483 -4.397 9
-3.693 -20.49 -4.458 9
-3.554 -19.583 -4.517 15
-3.442 -18.813 -4.601 8
-3.318 -18.013 -4.646 7
-3.212 -17.297 -4.701 8
-3.109 -16.623 -4.752 7
-3.012 -15.976 -4.792 9
-2.923 -15.392 -4.843 7
-2.834 -14.815 -4.877 8
-2.756 -14.289 -4.92 8
-2.684 -13.811 -4.974 8
-2.614 -13.335 -5.013 8
-2.541 -12.867 -5.04 8
-2.479 -12.441 -5.079 9
-2.414 -12.022 -5.109 9
-2.356 -11.63 -5.143 10
-2.297 -11.248 -5.172 11
-2.243 -10.881 -5.2 11
-2.189 -10.529 -5.226 10
-2.136 -10.189 -5.251 12
-2.088 -9.86 -5.274 14
-2.036 -9.534 -5.288 36
-5.745 -33.665 -2.936 2
-5.764 -33.513 -3.514 21
-4.551 -26.278 -2.586 2
0.0 -0.0 3.0 0
-4.459 -25.374 -3.326 53
-4.505 -25.46 -3.822 17
-4.481 -25.126 -4.205 6
-4.274 -23.804 -4.278 5
-4.09 -22.599 -4.343 5
-3.915 -21.487 -4.399 10
-3.764 -20.494 -4.459 9
-3.626 -19.607 -4.526 10
-3.507 -18.813 -4.601 8
-3.382 -18.018 -4.648 7
-3.274 -17.298 -4.702 8
-3.168 -16.622 -4.751 8
-3.069 -15.974 -4.791 9
-2.979 -15.39 -4.842 7
-2.889 -14.817 -4.879 8
-2.808 -14.284 -4.918 9
-2.736 -13.814 -4.976 7
-2.665 -13.342 -5.017 8
-2.59 -12.867 -5.04 7
-2.527 -12.445 -5.082 9
-2.459 -12.018 -5.106 9
-2.401 -11.628 -5.142 10
-2.342 -11.252 -5.175 11
-2.286 -10.878 -5.197 11
-2.23 -10.527 -5.225 12
-2.177 -10.19 -5.252 13
-2.127 -9.856 -5.27 14
-2.075 -9.533 -5.286 34
-6.665 -38.346 -3.761 6
-5.877 -33.543 -3.52 22
-5.715 -32.395 -3.886 14
0.0 -0.0 3.0 0
-4.545 -25.391 -3.331 55
-4.591 -25.472 -3.825 19
-4.565 -25.132 -4.206 5
-4.356 -23.814 -4.281 6
-4.169 -22.614 -4.348 5
-3.99 -21.494 -4.401 9
-3.834 -20.494 -4.459 9
-3.695 -19.614 -4.529 9
-3.572 -18.81 -4.6 8
-3.445 -18.012 -4.646 6
-3.335 -17.3 -4.702 8
-3.227 -16.62 -4.75 8
-3.126 -15.969 -4.788 9
-3.036 -15.396 -4.845 7
-2.942 -14.812 -4.876 9
-2.862 -14.29 -4.921 8
-2.787 -13.814 -4.975 8
-2.714 -13.338 -5.014 7
-2.638 -12.864 -5.038 8
-2.573 -12.438 -5.077 10
-2.506 -12.022 -5.109 9
-2.446 -11.628 -5.142 11
-2.385 -11.246 -5.171 11
-2.329 -10.879 -5.198 12
-2.273 -10.528 -5.226 12
-2.217 -10.185 -5.248 11
-2.166 -9.854 -5.268 12
-2.115 -9.534 -5.287 34
-6.79 -38.365 -3.765 7
-5.988 -33.567 -3.525 28
-5.821 -32.409 -3.889 13
0.0 -0.0 3.0 0
-4.63 -25.4 -3.333 54
-4.678 -25.485 -3.829 20
-4.651 -25.14 -4.209 6
-4.437 -23.82 -4.282 5
-4.245 -22.612 -4.347 4
-4.063 -21.493 -4.401 9
-3.906 -20.501 -4.462 9
-3.762 -19.607 -4.526 9
-3.639 -18.819 -4.603 8
-3.509 -18.016 -4.648 5
-3.395 -17.293 -4.7 8
-3.286 -16.618 -4.749 8
-3.184 -15.97 -4.789 9
-3.091 -15.395 -4.844 7
-2.997 -14.818 -4.879 8
-2.914 -14.286 -4.919 9
-2.838 -13.813 -4.975 7
-2.764 -13.337 -5.014 8
-2.687 -12.866 -5.04 9
-2.621 -12.441 -5.079 9
-2.553 -12.022 -5.109 9
-2.491 -11.625 -5.14 10
-2.429 -11.246 -5.171 10
-2.371 -10.876 -5.196 11
-2.314 -10.525 -5.223 11
-2.258 -10.183 -5.246 12
-2.207 -9.855 -5.269 13
-2.153 -9.532 -5.286 28
-6.917 -38.395 -3.77 6
-6.092 -33.545 -3.521 31
-5.926 -32.41 -3.889 14
0.0 -0.0 3.0 0
-4.716 -25.417 -3.337 54
-4.764 -25.498 -3.832 21
-4.735 -25.141 -4.209 6
-4.517 -23.821 -4.283 6
-4.323 -22.622 -4.35 5
-4.139 -21.507 -4.406 9
-3.978 -20.509 -4.465 9
-3.832 -19.618 -4.531 9
-3.704 -18.815 -4.602 8
-3.573 -18.02 -4.649 7
-3.457 -17.294 -4.7 7
-3.346 -16.623 -4.751 8
-3.243 -15.976 -4.792 9
-3.146 -15.389 -4.841 7
-3.051 -14.813 -4.876 8
-2.967 -14.289 -4.92 8
-2.891 -13.818 -4.978 7
-2.814 -13.337 -5.014 7
-2.735 -12.863 -5.038 8
-2.669 -12.441 -5.079 9
-2.599 -12.022 -5.109 9
-2.536 -11.625 -5.14 10
-2.474 -11.247 -5.171 10
-2.415 -10.88 -5.199 12
-2.356 -10.526 -5.224 12
-2.299 -10.183 -5.246 15
-2.247 -9.855 -5.269 14
-2.193 -9.533 -5.287 34
-7.048 -38.44 -3.778 6
-6.206 -33.585 -3.528 23
-6.031 -32.412 -3.889 14
0.0 -0.0 3.0 0
-4.801 -25.425 -3.339 53
-4.852 -25.514 -3.836 22
-4.822 -25.161 -4.215 6
-4.599 -23.83 -4.286 6
-4.401 -22.628 -4.352 5
-4.212 -21.506 -4.405 8
-4.051 -20.519 -4.468 9
-3.901 -19.621 -4.532 8
-3.772 -18.823 -4.605 8
-3.636 -18.017 -4.648 7
-3.517 -17.288 -4.697 8
-3.405 -16.62 -4.75 8
-3.301 -15.977 -4.792 9
-3.201 -15.384 -4.839 8
-3.106 -14.818 -4.879 8
-3.019 -14.284 -4.918 8
-2.942 -13.814 -4.975 7
-2.864 -13.336 -5.013 8
-2.784 -12.862 -5.037 8
-2.717 -12.444 -5.081 9
-2.645 -12.018 -5.106 10
-2.581 -11.624 -5.14 11
-2.517 -11.244 -5.169 10
-2.458 -10.878 -5.197 11
-2.398 -10.523 -5.222 12
-2.341 -10.184 -5.247 13
-2.286 -9.85 -5.265 13
-2.232 -9.531 -5.285 34
-7.175 -38.469 -3.783 6
-6.322 -33.628 -3.537 23
-6.137 -32.417 -3.89 13
-4.885 -25.601 -2.91 6
-4.888 -25.442 -3.343 53
-4.938 -25.526 -3.84 23
-4.909 -25.173 -4.218 7
-4.681 -23.843 -4.289 6
-4.48 -22.637 -4.355 4
-4.288 -21.519 -4.41 10
-4.121 -20.517 -4.468 12
-3.969 -19.624 -4.533 9
-3.837 -18.819 -4.603 8
-3.701 -18.025 -4.651 8
-3.58 -17.295 -4.7 8
-3.465 -16.618 -4.749 8
-3.357 -15.971 -4.79 9
-3.258 -15.388 -4.841 7
-3.16 -14.817 -4.878 8
-3.073 -14.285 -4.918 9
-2.992 -13.806 -4.971 7
-2.914 -13.332 -5.01 8
-2.833 -12.861 -5.037 7
-2.764 -12.44 -5.078 9
-2.691 -12.018 -5.106 10
-2.625 -11.618 -5.135 10
-2.561 -11.241 -5.167 11
-2.501 -10.877 -5.197 12
-2.441 -10.527 -5.225 9
-2.381 -10.181 -5.245 12
-2.326 -9.851 -5.266 14
-2.27 -9.525 -5.28 34
-7.303 -38.498 -3.788 6
-6.432 -33.636 -3.538 22
-6.243 -32.421 -3.891 14
-4.97 -25.608 -2.912 34
-4.974 -25.453 -3.346 51
-5.026 -25.541 -3.844 25
-4.994 -25.178 -4.22 6
-4.762 -23.844 -4.29 6
-4.56 -22.653 -4.361 4
-4.363 -21.525 -4.412 9
-4.19 -20.509 -4.465 33
-4.038 -19.628 -4.534 9
-3.904 -18.822 -4.604 8
-3.763 -18.017 -4.648 5
-3.642 -17.296 -4.701 8
-3.525 -16.622 -4.751 7
-3.415 -15.972 -4.79 9
-3.314 -15.387 -4.84 7
-3.215 -14.818 -4.879 8
-3.125 -14.284 -4.918 9
-3.045 -13.815 -4.976 7
-2.965 -13.338 -5.014 8
-2.881 -12.861 -5.036 8
-2.811 -12.435 -5.076 10
-2.738 -12.018 -5.106 10
-2.67 -11.615 -5.133 10
-2.605 -11.241 -5.167 11
-2.544 -10.874 -5.194 11
-2.481 -10.518 -5.217 10
-2.422 -10.179 -5.243 13
-2.367 -9.851 -5.266 13
-2.31 -9.53 -5.284 30
-7.433 -38.534 -3.795 6
-6.537 -33.625 -3.536 35
-6.35 -32.433 -3.894 15
-5.062 -25.651 -2.922 0
-5.062 -25.473 -3.351 51
-5.111 -25.542 -3.844 32
-5.079 -25.182 -4.221 6
-4.845 -23.856 -4.294 6
-4.636 -22.648 -4.359 5
-4.437 -21.527 -4.412 10
-4.263 -20.518 -4.468 24
-4.106 -19.627 -4.534 8
-3.97 -18.825 -4.606 8
-3.829 -18.025 -4.651 7
-3.704 -17.3 -4.702 8
-3.585 -16.623 -4.751 7
-3.473 -15.973 -4.791 9
-3.371 -15.391 -4.842 7
-3.269 -14.817 -4.878 8
-3.179 -14.285 -4.919 8
-3.097 -13.813 -4.975 8
-3.015 -13.333 -5.011 8
-2.931 -12.863 -5.037 8
-2.859 -12.438 -5.077 10
-2.784 -12.017 -5.106 9
-2.717 -11.621 -5.137 9
-2.649 -11.24 -5.166 10
-2.587 -10.875 -5.195 11
-2.524 -10.521 -5.22 13
-2.463 -10.179 -5.243 12
-2.406 -9.849 -5.264 14
-2.349 -9.527 -5.282 37
-7.563 -38.569 -3.801 6
-6.655 -33.671 -3.545 22
-6.456 -32.437 -3.895 14
0.0 -0.0 3.0 0
-5.149 -25.488 -3.355 53
-5.195 -25.537 -3.843 41
-5.166 -25.196 -4.225 6
-4.928 -23.868 -4.297 6
-4.715 -22.656 -4.361 5
-4.514 -21.54 -4.417 9
-4.335 -20.521 -4.469 24
-4.177 -19.636 -4.538 9
-4.037 -18.828 -4.607 8
-3.892 -18.024 -4.651 7
-3.766 -17.3 -4.702 8
-3.645 -16.623 -4.751 8
-3.531 -15.971 -4.789 9
-3.427 -15.389 -4.841 7
-3.323 -14.81 -4.875 8
-3.231 -14.28 -4.916 9
-3.148 -13.811 -4.974 8
-3.066 -13.335 -5.012 7
-2.98 -12.865 -5.039 8
-2.907 -12.437 -5.077 10
-2.83 -12.013 -5.103 10
-2.761 -11.617 -5.134 10
-2.694 -11.24 -5.166 12
-2.629 -10.868 -5.19 12
-2.566 -10.521 -5.22 11
-2.504 -10.176 -5.241 12
-2.446 -9.846 -5.262 12
-2.388 -9.527 -5.282 33
-7.691 -38.593 -3.805 6
-6.766 -33.685 -3.548 18
-6.562 -32.44 -3.895 15
-5.397 -26.473 -3.112 2
-5.234 -25.496 -3.357 47
-5.277 -25.522 -3.839 47
-5.252 -25.203 -4.227 6
-5.01 -23.875 -4.299 6
-4.795 -22.672 -4.367 5
-4.587 -21.538 -4.416 10
-4.404 -20.512 -4.466 19
-4.245 -19.635 -4.537 9
-4.104 -18.831 -4.608 8
-3.957 -18.028 -4.652 7
-3.829 -17.303 -4.704 8
-3.705 -16.623 -4.752 7
-3.59 -15.974 -4.791 9
-3.485 -15.397 -4.845 7
-3.378 -14.815 -4.877 8
-3.284 -14.282 -4.917 9
-3.2 -13.813 -4.975 7
-3.117 -13.336 -5.013 7
-3.029 -12.864 -5.038 8
-2.954 -12.436 -5.076 9
-2.878 -12.019 -5.107 10
-2.807 -11.616 -5.134 9
-2.738 -11.24 -5.166 10
-2.674 -10.878 -5.197 11
-2.609 -10.521 -5.22 10
-2.544 -10.173 -5.238 12
-2.487 -9.846 -5.262 13
-2.427 -9.525 -5.28 35
-7.824 -38.643 -3.814 6
-6.883 -33.726 -3.556 19
-6.667 -32.44 -3.895 14
-5.435 -26.235 -3.057 9
-5.321 -25.506 -3.359 49
-5.359 -25.51 -3.835 11
-5.34 -25.218 -4.231 5
-5.093 -23.887 -4.303 6
-4.873 -22.676 -4.368 5
-4.662 -21.539 -4.416 7
-4.478 -20.524 -4.47 11
-4.314 -19.637 -4.538 9
-4.17 -18.829 -4.608 8
-4.02 -18.023 -4.65 8
-3.89 -17.3 -4.702 7
-3.766 -16.626 -4.753 8
-3.648 -15.975 -4.792 9
-3.542 -15.397 -4.845 7
-3.433 -14.816 -4.878 7
-3.337 -14.279 -4.915 8
-3.252 -13.812 -4.974 6
-3.166 -13.331 -5.01 7
-3.078 -12.862 -5.037 8
-3.002 -12.435 -5.075 10
-2.924 -12.014 -5.104 10
-2.852 -11.616 -5.133 10
-2.783 -11.242 -5.168 11
-2.716 -10.871 -5.192 11
-2.65 -10.518 -5.218 11
-2.586 -10.174 -5.239 10
-2.527 -9.847 -5.263 14
-2.466 -9.522 -5.277 33
-7.957 -38.69 -3.822 6
-6.991 -33.721 -3.555 30
-6.773 -32.442 -3.896 15
-5.533 -26.291 -3.07 9
-5.406 -25.509 -3.36 50
-5.462 -25.596 -3.858 1
-5.427 -25.228 -4.234 6
-5.176 -23.894 -4.305 5
-4.952 -22.68 -4.369 5
-4.738 -21.547 -4.419 7
-4.552 -20.537 -4.475 9
-4.383 -19.636 -4.537 9
-4.235 -18.825 -4.606 8
-4.084 -18.022 -4.65 7
-3.953 -17.303 -4.704 6
-3.825 -16.623 -4.751 8
-3.704 -15.968 -4.788 9
-3.599 -15.397 -4.845 7
-3.489 -14.817 -4.878 7
-3.39 -14.277 -4.914 9
-3.304 -13.813 -4.975 6
-3.216 -13.33 -5.009 7
-3.126 -12.857 -5.034 9
-3.05 -12.434 -5.075 9
-2.971 -12.017 -5.106 9
-2.897 -11.612 -5.131 9
-2.827 -11.241 -5.167 9
-2.759 -10.87 -5.191 11
-2.693 -10.518 -5.217 11
-2.627 -10.173 -5.238 11
-2.567 -9.844 -5.26 13
-2.505 -9.519 -5.275 33
-8.091 -38.734 -3.83 6
-7.097 -33.707 -3.552 23
-6.88 -32.449 -3.897 16
-5.632 -26.351 -3.084 8
-5.489 -25.504 -3.359 51
-5.532 -25.523 -3.839 1
-5.515 -25.242 -4.238 6
-5.258 -23.901 -4.307 6
-5.033 -22.695 -4.374 4
-4.814 -21.555 -4.422 11
-4.624 -20.542 -4.477 9
-4.454 -19.644 -4.541 9
-4.303 -18.83 -4.608 8
-4.149 -18.025 -4.651 7
-4.015 -17.305 -4.705 7
-3.885 -16.623 -4.751 7
-3.764 -15.975 -4.792 8
-3.655 -15.398 -4.846 8
-3.543 -14.814 -4.877 8
-3.443 -14.278 -4.914 9
-3.356 -13.81 -4.973 6
-3.268 -13.334 -5.012 8
-3.177 -12.862 -5.037 8
-3.097 -12.432 -5.074 10
-3.016 -12.009 -5.1 10
-2.944 -11.617 -5.134 10
-2.872 -11.241 -5.167 10
-2.802 -10.866 -5.188 11
-2.736 -10.521 -5.22 13
-2.668 -10.171 -5.236 13
-2.607 -9.844 -5.26 14
-2.545 -9.523 -5.278 33
-8.223 -38.772 -3.837 6
-7.187 -33.621 -3.535 21
-6.988 -32.459 -3.899 16
-5.733 -26.417 -3.099 8
-5.574 -25.507 -3.36 51
-5.619 -25.529 -3.841 8
-5.601 -25.248 -4.24 7
-5.34 -23.903 -4.308 6
-5.11 -22.695 -4.374 5
-4.889 -21.559 -4.424 15
-4.695 -20.539 -4.476 9
-4.522 -19.642 -4.54 9
-4.371 -18.836 -4.61 7
-4.214 -18.03 -4.653 8
-4.077 -17.304 -4.704 8
-3.946 -16.625 -4.753 8
-3.822 -15.971 -4.79 9
-3.713 -15.402 -4.848 8
-3.597 -14.811 -4.875 8
-3.498 -14.282 -4.917 9
-3.407 -13.808 -4.972 8
-3.317 -13.326 -5.007 8
-3.225 -12.857 -5.034 8
-3.145 -12.431 -5.073 9
-3.064 -12.014 -5.104 10
-2.988 -11.612 -5.131 10
-2.915 -11.234 -5.162 9
-2.846 -10.869 -5.19 11
-2.777 -10.514 -5.214 12
-2.708 -10.167 -5.233 13
-2.647 -9.84 -5.257 13
-2.583 -9.517 -5.273 34
-8.355 -38.805 -3.842 6
-7.301 -33.641 -3.539 13
-7.094 -32.457 -3.899 15
-5.839 -26.503 -3.119 7
-5.66 -25.513 -3.361 52
-5.708 -25.545 -3.845 4
-5.688 -25.258 -4.243 6
-5.425 -23.918 -4.312 6
-5.19 -22.702 -4.376 5
-4.96 -21.545 -4.419 28
-4.768 -20.544 -4.477 10
-4.592 -19.647 -4.542 9
-4.438 -18.838 -4.611 7
-4.279 -18.033 -4.655 8
-4.139 -17.3 -4.702 8
-4.005 -16.622 -4.751 5
-3.881 -15.974 -4.791 9
-3.77 -15.402 -4.848 8
-3.653 -14.815 -4.877 8
-3.551 -14.28 -4.915 9
-3.459 -13.806 -4.971 8
-3.368 -13.33 -5.009 7
-3.274 -12.855 -5.033 8
-3.193 -12.429 -5.072 9
-3.111 -12.012 -5.102 10
-3.035 -11.615 -5.133 9
-2.96 -11.235 -5.163 10
-2.89 -10.869 -5.19 11
-2.82 -10.516 -5.216 12
-2.751 -10.17 -5.235 12
-2.688 -9.841 -5.257 14
-2.622 -9.514 -5.27 28
-7.304 -33.423 -2.893 5
-7.418 -33.677 -3.546 17
-7.201 -32.462 -3.9 16
-5.949 -26.608 -3.143 5
-5.746 -25.514 -3.361 50
-5.808 -25.608 -3.862 10
-5.776 -25.267 -4.245 6
-5.511 -23.939 -4.319 6
-5.27 -22.713 -4.38 5
-5.037 -21.552 -4.421 20
-4.841 -20.551 -4.48 10
-4.663 -19.655 -4.545 9
-4.504 -18.831 -4.608 7
-4.343 -18.028 -4.652 7
-4.201 -17.299 -4.702 7
-4.069 -16.634 -4.757 4
-3.939 -15.974 -4.791 9
-3.826 -15.401 -4.847 8
-3.708 -14.815 -4.877 8
-3.604 -14.276 -4.913 8
-3.512 -13.809 -4.973 7
-3.42 -13.334 -5.012 7
-3.324 -12.859 -5.035 8
-3.242 -12.43 -5.072 9
-3.157 -12.011 -5.102 10
-3.079 -11.61 -5.13 10
-3.004 -11.232 -5.16 10
-2.933 -10.867 -5.189 10
-2.862 -10.515 -5.215 12
-2.794 -10.175 -5.24 11
-2.727 -9.837 -5.255 14
-2.662 -9.517 -5.273 36
-8.626 -38.901 -3.859 6
-7.52 -33.643 -3.54 25
-7.308 -32.464 -3.9 16
-6.082 -26.803 -3.188 4
-5.834 -25.531 -3.366 47
-5.891 -25.598 -3.859 71
-5.866 -25.287 -4.251 7
-5.592 -23.933 -4.317 5
-5.351 -22.723 -4.383 5
-5.116 -21.57 -4.427 13
-4.913 -20.552 -4.48 10
-4.733 -19.656 -4.545 9
-4.572 -18.837 -4.611 7
-4.408 -18.033 -4.655 7
-4.265 -17.308 -4.706 7
-4.129 -16.633 -4.756 7
-4.0 -15.98 -4.794 9
-3.883 -15.401 -4.847 7
-3.764 -14.815 -4.877 8
-3.657 -14.277 -4.914 9
-3.564 -13.807 -4.971 7
-3.469 -13.325 -5.006 8
-3.373 -12.854 -5.032 8
-3.289 -12.425 -5.069 10
-3.204 -12.01 -5.101 10
-3.125 -11.609 -5.129 9
-3.049 -11.234 -5.162 12
-2.977 -10.867 -5.189 10
-2.905 -10.515 -5.215 11
-2.834 -10.168 -5.234 11
-2.767 -9.834 -5.252 14
-2.7 -9.511 -5.268 34
-8.762 -38.948 -3.868 6
-7.652 -33.743 -3.559 22
-7.417 -32.476 -3.903 15
-7.065 -30.69 -4.085 5
-5.924 -25.551 -3.371 44
-5.972 -25.577 -3.853 24
-5.953 -25.291 -4.252 7
-5.676 -23.946 -4.321 6
-5.43 -22.726 -4.384 5
-5.193 -21.581 -4.431 7
-4.987 -20.559 -4.483 9
-4.803 -19.66 -4.547 8
-4.64 -18.842 -4.612 8
-4.474 -18.038 -4.657 7
-4.329 -17.31 -4.707 8
-4.189 -16.629 -4.754 8
-4.056 -15.972 -4.79 8
-3.941 -15.404 -4.849 8
-3.819 -14.815 -4.877 7
-3.71 -14.274 -4.912 9
-3.616 -13.803 -4.969 7
-3.522 -13.333 -5.011 5
-3.422 -12.852 -5.031 8
-3.338 -12.43 -5.072 9
-3.251 -12.007 -5.099 10
-3.17 -11.607 -5.128 10
-3.093 -11.232 -5.161 11
-3.019 -10.862 -5.185 11
-2.947 -10.511 -5.212 12
-2.876 -10.171 -5.236 11
-2.808 -9.834 -5.251 13
-2.74 -9.511 -5.268 34
-8.896 -38.984 -3.874 7
-7.753 -33.705 -3.552 31
-7.525 -32.481 -3.904 14
-7.163 -30.672 -4.081 6
-6.016 -25.579 -3.377 40
-6.065 -25.604 -3.861 10
-6.041 -25.304 -4.256 7
-5.76 -23.955 -4.324 6
-5.51 -22.732 -4.386 5
-5.272 -21.595 -4.436 7
-5.061 -20.567 -4.486 9
-4.872 -19.658 -4.546 6
-4.708 -18.845 -4.614 8
-4.54 -18.042 -4.659 7
-4.392 -17.312 -4.708 8
-4.251 -16.634 -4.757 8
-4.117 -15.979 -4.793 8
-3.998 -15.404 -4.849 8
-3.872 -14.808 -4.874 8
-3.763 -14.27 -4.91 9
-3.67 -13.81 -4.973 8
-3.572 -13.33 -5.009 5
-3.471 -12.849 -5.029 8
-3.386 -12.427 -5.07 9
-3.297 -12.006 -5.098 10
-3.217 -11.609 -5.128 10
-3.137 -11.228 -5.157 10
-3.064 -10.864 -5.187 11
-2.988 -10.507 -5.209 13
-2.916 -10.164 -5.231 12
-2.849 -9.836 -5.253 14
-2.779 -9.507 -5.265 30
-9.035 -39.041 -3.884 6
-7.893 -33.834 -3.577 17
-7.634 -32.492 -3.906 14
-7.269 -30.693 -4.086 6
-6.11 -25.614 -3.386 38
-6.15 -25.6 -3.86 1
-6.129 -25.312 -4.258 7
-5.844 -23.96 -4.325 6
-5.59 -22.737 -4.388 5
-5.348 -21.601 -4.438 8
-5.134 -20.57 -4.487 10
-4.945 -19.672 -4.551 5
-4.777 -18.85 -4.616 7
-4.606 -18.044 -4.659 7
-4.454 -17.31 -4.707 8
-4.311 -16.633 -4.756 8
-4.173 -15.971 -4.789 9
-4.055 -15.403 -4.848 8
-3.929 -14.811 -4.875 8
-3.818 -14.273 -4.912 9
-3.72 -13.801 -4.968 7
-3.622 -13.324 -5.006 5
-3.521 -12.85 -5.029 7
-3.434 -12.425 -5.069 9
-3.345 -12.007 -5.099 10
-3.262 -11.606 -5.127 10
-3.182 -11.225 -5.156 11
-3.107 -10.863 -5.186 11
-3.032 -10.512 -5.213 12
-2.958 -10.163 -5.23 13
-2.89 -9.835 -5.253 12
-2.819 -9.507 -5.264 25
-9.171 -39.083 -3.891 7
-8.029 -33.941 -3.597 21
-7.74 -32.484 -3.905 11
-7.377 -30.716 -4.091 6
-6.204 -25.649 -3.395 7
-6.264 -25.71 -3.889 1
-6.218 -25.324 -4.262 7
-5.928 -23.969 -4.328 6
-5.67 -22.747 -4.391 5
-5.427 -21.615 -4.443 7
-5.207 -20.573 -4.488 9
-5.014 -19.668 -4.55 4
-4.845 -18.854 -4.617 5
-4.668 -18.034 -4.655 8
-4.516 -17.307 -4.706 8
-4.373 -16.634 -4.757 8
-4.234 -15.976 -4.792 9
-4.113 -15.405 -4.849 8
-3.982 -14.803 -4.871 8
-3.872 -14.273 -4.912 8
-3.773 -13.804 -4.97 8
-3.675 -13.331 -5.01 6
-3.57 -12.851 -5.03 8
-3.481 -12.419 -5.065 10
-3.392 -12.004 -5.097 10
-3.309 -11.608 -5.128 10
-3.227 -11.228 -5.157 10
-3.149 -10.855 -5.18 11
-3.074 -10.507 -5.209 13
-3.0 -10.165 -5.232 12
-2.93 -9.834 -5.252 12
-2.86 -9.512 -5.269 22
-9.307 -39.121 -3.898 7
-8.164 -34.043 -3.617 23
-7.849 -32.496 -3.907 11
-7.485 -30.743 -4.098 6
-6.319 -25.766 -3.424 1
-6.34 -25.668 -3.878 25
-6.308 -25.335 -4.265 6
-6.013 -23.981 -4.332 5
-5.753 -22.762 -4.396 4
-5.502 -21.614 -4.442 8
-5.28 -20.576 -4.489 9
-5.086 -19.679 -4.554 4
-4.912 -18.855 -4.618 8
-4.735 -18.042 -4.659 8
-4.58 -17.312 -4.708 8
-4.433 -16.633 -4.756 8
-4.293 -15.978 -4.793 8
-4.169 -15.4 -4.847 8
-4.038 -14.806 -4.872 8
-3.926 -14.272 -4.911 8
-3.825 -13.8 -4.968 8
-3.724 -13.324 -5.006 8
-3.621 -12.854 -5.032 8
-3.53 -12.42 -5.066 10
-3.439 -12.006 -5.098 10
-3.355 -11.606 -5.127 9
-3.273 -11.229 -5.158 11
-3.193 -10.856 -5.181 11
-3.117 -10.506 -5.208 13
-3.041 -10.161 -5.228 13
-2.97 -9.831 -5.249 14
-2.899 -9.508 -5.265 22
-9.449 -39.181 -3.909 7
-8.274 -34.037 -3.616 34
-7.958 -32.502 -3.909 14
-7.593 -30.766 -4.103 6
-6.473 -26.037 -3.492 3
-6.744 -26.934 -4.217 5
-6.397 -25.345 -4.268 7
-6.096 -23.982 -4.332 5
-5.836 -22.775 -4.4 4
-5.58 -21.623 -4.445 8
-5.356 -20.589 -4.494 9
-5.156 -19.678 -4.554 6
-4.979 -18.851 -4.616 6
-4.8 -18.042 -4.659 7
-4.643 -17.309 -4.706 8
-4.495 -16.634 -4.757 7
-4.352 -15.976 -4.792 8
-4.226 -15.399 -4.846 8
-4.095 -14.808 -4.874 8
-3.98 -14.272 -4.911 6
-3.878 -13.8 -4.968 8
-3.775 -13.321 -5.004 7
-3.67 -12.848 -5.028 8
-3.579 -12.424 -5.068 8
-3.486 -12.003 -5.096 10
-3.4 -11.604 -5.125 10
-3.317 -11.226 -5.156 11
-3.237 -10.855 -5.18 11
-3.159 -10.505 -5.207 12
-3.082 -10.16 -5.227 12
-3.012 -9.833 -5.251 12
-2.938 -9.505 -5.262 17
-9.596 -39.264 -3.923 11
-8.396 -34.078 -3.624 24
-8.064 -32.497 -3.908 14
-7.7 -30.781 -4.106 7
-7.235 -28.714 -4.159 7
-6.837 -26.94 -4.219 5
-6.485 -25.353 -4.27 6
-6.183 -23.997 -4.337 5
-5.914 -22.773 -4.399 5
-5.657 -21.625 -4.446 10
-5.429 -20.592 -4.495 9
-5.226 -19.678 -4.554 9
-5.048 -18.854 -4.617 6
-4.866 -18.043 -4.659 7
-4.705 -17.306 -4.705 8
-4.555 -16.632 -4.755 8
-4.411 -15.974 -4.791 9
-4.284 -15.401 -4.847 8
-4.149 -14.804 -4.871 8
-3.745 -13.249 -4.344 1
-3.708 -13.02 -4.517 1
-3.827 -13.323 -5.005 8
-3.72 -12.848 -5.028 8
-3.626 -12.418 -5.064 9
-3.533 -12.0 -5.094 10
-3.446 -11.602 -5.124 9
-3.361 -11.222 -5.153 10
-3.282 -10.86 -5.183 11
-3.201 -10.5 -5.203 12
-3.124 -10.159 -5.226 13
-3.054 -9.837 -5.254 12
-2.977 -9.501 -5.259 17
-9.732 -39.296 -3.929 11
-8.548 -34.239 -3.655 24
-8.174 -32.504 -3.909 14
-7.81 -30.811 -4.113 6
-7.336 -28.733 -4.164 7
-6.931 -26.95 -4.221 5
-6.576 -25.367 -4.274 6
-6.267 -24.005 -4.339 6
-5.996 -22.784 -4.403 5
-5.734 -21.63 -4.448 7
-5.504 -20.598 -4.497 9
-5.298 -19.684 -4.556 9
-5.118 -18.864 -4.622 8
-4.931 -18.043 -4.659 6
-4.767 -17.3 -4.702 7
-4.617 -16.633 -4.756 7
-4.47 -15.976 -4.792 9
-4.343 -15.403 -4.848 7
-3.791 -13.347 -4.097 0
-3.713 -12.964 -4.186 5
-3.727 -12.912 -4.455 9
-3.878 -13.32 -5.003 7
-3.771 -12.851 -5.03 9
-3.676 -12.421 -5.066 10
-3.581 -12.001 -5.095 9
-3.492 -11.599 -5.122 9
-3.405 -11.22 -5.152 11
-3.325 -10.854 -5.179 12
-3.244 -10.502 -5.205 12
-3.167 -10.163 -5.23 11
-3.092 -9.827 -5.246 14
-3.016 -9.5 -5.258 15
-9.875 -39.355 -3.939 10
-8.652 -34.206 -3.649 24
-8.282 -32.505 -3.909 13
-7.918 -30.829 -4.117 6
-7.436 -28.745 -4.167 7
-7.028 -26.97 -4.227 5
-6.666 -25.381 -4.278 6
-6.353 -24.016 -4.342 5
-6.075 -22.782 -4.402 6
-5.812 -21.639 -4.451 8
-5.579 -20.607 -4.5 9
-5.37 -19.69 -4.558 12
-5.186 -18.864 -4.622 6
-4.997 -18.043 -4.659 7
-4.832 -17.307 -4.706 7
-4.679 -16.637 -4.758 7
-4.531 -15.98 -4.794 9
-4.401 -15.404 -4.849 8
-3.779 -13.127 -3.98 13
-3.734 -12.865 -4.131 2
-3.707 -12.674 -4.317 10
-3.708 -12.568 -4.552 1
-3.819 -12.845 -5.026 8
-3.723 -12.415 -5.062 10
-3.627 -11.998 -5.093 10
-3.537 -11.596 -5.12 10
-3.45 -11.218 -5.15 10
-3.369 -10.856 -5.18 11
-3.287 -10.5 -5.203 12
-3.208 -10.159 -5.226 11
-3.134 -9.829 -5.247 13
-3.057 -9.502 -5.26 15
-10.005 -39.364 -3.941 11
-8.776 -34.252 -3.658 40
-8.391 -32.511 -3.91 13
-8.025 -30.843 -4.121 6
-7.538 -28.764 -4.172 7
-7.124 -26.986 -4.231 5
-6.755 -25.386 -4.279 7
-6.441 -24.034 -4.348 6
-6.161 -22.804 -4.409 5
-5.892 -21.65 -4.455 8
-5.653 -20.608 -4.501 9
-5.441 -19.693 -4.559 32
-5.253 -18.86 -4.62 6
-5.063 -18.046 -4.66 7
-4.895 -17.308 -4.706 7
-4.741 -16.638 -4.758 7
-4.591 -15.981 -4.795 9
-4.457 -15.399 -4.846 8
-3.815 -13.082 -3.956 29
-3.749 -12.75 -4.067 9
-3.719 -12.549 -4.245 12
-3.733 -12.492 -4.506 0
-3.87 -12.847 -5.028 8
-3.773 -12.418 -5.064 9
-3.675 -11.998 -5.093 9
-3.584 -11.597 -5.12 11
-3.497 -11.221 -5.153 9
-3.414 -10.857 -5.181 11
-3.331 -10.501 -5.204 12
-3.25 -10.157 -5.225 12
-3.176 -9.83 -5.249 13
-3.097 -9.501 -5.259 14
-10.142 -39.395 -3.946 11
-8.92 -34.37 -3.681 26
-8.499 -32.508 -3.91 13
-8.137 -30.876 -4.128 6
-7.64 -28.782 -4.176 7
-7.22 -27.002 -4.235 4
-6.847 -25.404 -4.284 6
-6.528 -24.048 -4.352 6
-6.241 -22.807 -4.411 5
-5.968 -21.651 -4.455 7
-5.727 -20.613 -4.503 9
-5.508 -19.68 -4.554 39
-5.324 -18.869 -4.624 5
-5.131 -18.053 -4.663 7
-4.96 -17.312 -4.708 7
-4.802 -16.638 -4.758 8
-4.65 -15.979 -4.793 9
-3.981 -13.58 -3.919 0
-3.851 -13.034 -3.93 30
-3.767 -12.645 -4.009 37
-3.74 -12.458 -4.193 14
-3.759 -12.416 -4.46 1
-3.913 -12.824 -5.014 5
-3.82 -12.411 -5.06 9
-3.721 -11.992 -5.089 10
-3.63 -11.594 -5.119 11
-3.541 -11.218 -5.151 10
-3.458 -10.855 -5.18 10
-3.371 -10.493 -5.198 13
-3.291 -10.153 -5.221 12
-3.217 -9.832 -5.25 13
-3.137 -9.499 -5.258 15
-10.282 -39.437 -3.954 10
-9.044 -34.409 -3.688 32
-8.61 -32.521 -3.912 12
-8.248 -30.905 -4.135 6
-7.744 -28.805 -4.182 7
-7.315 -27.014 -4.238 5
-6.937 -25.413 -4.287 6
-6.613 -24.05 -4.353 6
-6.325 -22.822 -4.415 5
-6.05 -21.671 -4.462 8
-5.803 -20.622 -4.506 7
-5.58 -19.685 -4.557 34
-5.391 -18.864 -4.622 5
-5.196 -18.052 -4.663 7
-5.024 -17.311 -4.707 7
-4.865 -16.642 -4.76 7
-4.709 -15.976 -4.792 10
-4.018 -13.531 -3.894 6
-3.887 -12.99 -3.907 31
-3.805 -12.611 -3.99 41
-3.773 -12.408 -4.164 1
-3.774 -12.306 -4.394 6
-3.769 -12.194 -4.619 0
-3.87 -12.414 -5.062 9
-3.77 -11.996 -5.091 10
-3.675 -11.592 -5.116 10
-3.586 -11.216 -5.149 10
-3.5 -10.849 -5.175 11
-3.415 -10.494 -5.199 13
-3.334 -10.156 -5.225 13
-3.256 -9.824 -5.244 13
-3.177 -9.498 -5.257 15
-10.425 -39.489 -3.963 8
-9.149 -34.377 -3.682 37
-8.72 -32.525 -3.913 12
-8.356 -30.921 -4.139 6
-7.844 -28.815 -4.184 7
-7.414 -27.037 -4.244 5
-7.03 -25.433 -4.293 6
-6.7 -24.064 -4.357 6
-6.409 -22.837 -4.42 5
-6.126 -21.671 -4.462 8
-5.88 -20.634 -4.51 7
-5.65 -19.684 -4.556 30
-5.46 -18.866 -4.622 8
-5.262 -18.051 -4.662 7
-5.087 -17.311 -4.707 7
-4.928 -16.645 -4.762 8
-4.77 -15.98 -4.794 8
-4.052 -13.475 -3.866 11
-3.926 -12.954 -3.888 6
-3.84 -12.566 -3.965 43
-3.804 -12.354 -4.133 1
-3.799 -12.232 -4.35 31
-3.798 -12.134 -4.582 0
-3.919 -12.414 -5.062 9
-3.817 -11.992 -5.088 10
-3.723 -11.594 -5.118 9
-3.632 -11.217 -5.149 8
-3.545 -10.85 -5.176 11
-3.46 -10.498 -5.202 11
-3.376 -10.155 -5.223 12
-3.299 -9.829 -5.247 14
-3.218 -9.5 -5.258 14
-10.568 -39.539 -3.972 7
-9.292 -34.486 -3.703 24
-8.83 -32.53 -3.914 14
-8.469 -30.952 -4.146 6
-7.948 -28.837 -4.19 7
-7.51 -27.048 -4.248 5
-7.121 -25.445 -4.296 6
-6.789 -24.081 -4.362 6
-6.49 -22.839 -4.421 5
-6.205 -21.678 -4.464 7
-5.954 -20.634 -4.51 9
-5.725 -19.696 -4.561 12
-5.53 -18.872 -4.625 7
-5.329 -18.054 -4.663 7
-5.152 -17.314 -4.709 7
-4.987 -16.635 -4.757 7
-4.83 -15.98 -4.794 9
-4.085 -13.415 -3.835 0
-3.964 -12.92 -3.87 0
-3.879 -12.535 -3.949 44
-3.822 -12.257 -4.076 4
-3.826 -12.166 -4.31 36
-3.834 -12.098 -4.56 1
-3.967 -12.41 -5.059 9
-3.863 -11.985 -5.084 9
-3.77 -11.595 -5.119 9
-3.678 -11.217 -5.15 9
-3.59 -10.85 -5.176 11
-3.501 -10.493 -5.198 11
-3.418 -10.153 -5.221 12
-3.338 -9.821 -5.241 18
-3.257 -9.498 -5.256 14
-10.709 -39.579 -3.979 7
-9.429 -34.568 -3.719 20
-8.941 -32.536 -3.916 13
-8.583 -30.987 -4.154 6
-8.052 -28.857 -4.195 7
-7.605 -27.056 -4.25 5
-7.213 -25.458 -4.3 7
-6.873 -24.082 -4.363 6
-6.575 -22.853 -4.425 5
-6.284 -21.686 -4.467 7
-6.031 -20.646 -4.515 10
-5.803 -19.718 -4.569 9
-5.598 -18.87 -4.624 8
-5.396 -18.056 -4.665 7
-5.218 -17.32 -4.711 7
-5.051 -16.642 -4.76 7
-4.891 -15.984 -4.796 9
-4.119 -13.359 -3.807 0
-4.002 -12.882 -3.849 0
-3.917 -12.505 -3.932 39
-3.854 -12.21 -4.049 49
-3.854 -12.106 -4.274 41
-3.87 -12.062 -4.537 1
-4.017 -12.41 -5.059 9
-3.913 -11.991 -5.088 10
-3.816 -11.592 -5.117 9
-3.721 -11.211 -5.145 9
-3.633 -10.844 -5.172 11
-3.544 -10.491 -5.196 13
-3.459 -10.148 -5.217 13
-3.378 -9.817 -5.237 20
-3.296 -9.494 -5.253 14
-10.857 -39.642 -3.99 6
-9.523 -34.491 -3.704 24
-9.057 -32.563 -3.921 13
-8.692 -31.002 -4.157 7
-8.153 -28.867 -4.197 7
-7.703 -27.074 -4.255 5
-7.303 -25.466 -4.302 6
-6.961 -24.095 -4.367 6
-6.658 -22.862 -4.428 4
-6.363 -21.692 -4.469 7
-6.109 -20.657 -4.519 15
-5.873 -19.716 -4.568 9
-5.667 -18.872 -4.625 6
-5.463 -18.058 -4.665 7
-5.282 -17.319 -4.711 8
-5.112 -16.638 -4.758 7
-4.95 -15.98 -4.794 9
-4.16 -13.33 -3.792 0
-4.037 -12.837 -3.825 0
-3.955 -12.473 -3.914 0
-3.894 -12.186 -4.035 51
-3.888 -12.063 -4.248 55
-3.91 -12.038 -4.522 1
-4.066 -12.409 -5.058 9
-3.96 -11.987 -5.086 9
-3.862 -11.588 -5.114 10
-3.767 -11.21 -5.145 10
-3.678 -10.848 -5.174 11
-3.588 -10.491 -5.197 12
-3.5 -10.146 -5.216 13
-3.42 -9.817 -5.238 27
-3.338 -9.498 -5.256 14
-11.002 -39.693 -3.999 6
-9.685 -34.659 -3.737 24
-9.168 -32.569 -3.923 11
-8.806 -31.032 -4.164 6
-8.259 -28.891 -4.203 7
-7.799 -27.084 -4.257 5
-7.396 -25.481 -4.307 6
-7.048 -24.104 -4.369 6
-6.741 -22.872 -4.432 4
-6.445 -21.706 -4.474 8
-6.181 -20.65 -4.516 28
-5.947 -19.723 -4.571 9
-5.738 -18.88 -4.628 6
-5.53 -18.06 -4.666 7
-5.347 -17.321 -4.712 8
-5.176 -16.644 -4.761 7
-5.01 -15.98 -4.794 9
-4.192 -13.27 -3.762 0
-4.076 -12.805 -3.808 0
-3.998 -12.456 -3.904 0
-3.932 -12.155 -4.018 53
-3.929 -12.046 -4.238 62
-3.948 -12.008 -4.504 60
-4.115 -12.407 -5.057 9
-4.008 -11.987 -5.085 10
-3.909 -11.588 -5.114 10
-3.813 -11.211 -5.145 10
-3.722 -10.845 -5.172 12
-3.631 -10.488 -5.194 11
-3.543 -10.146 -5.216 12
-3.46 -9.815 -5.236 31
-3.378 -9.496 -5.255 16
-11.155 -39.77 -4.013 6
-9.77 -34.555 -3.717 24
-9.285 -32.594 -3.928 9
-8.919 -31.059 -4.17 6
-8.364 -28.911 -4.208 7
-7.9 -27.109 -4.264 5
-7.489 -25.495 -4.311 7
-7.135 -24.112 -4.372 6
-6.825 -22.881 -4.435 5
-6.525 -21.716 -4.477 7
-6.256 -20.654 -4.517 29
-6.019 -19.728 -4.573 8
-5.808 -18.881 -4.629 6
-5.598 -18.065 -4.668 7
-5.412 -17.324 -4.713 8
-5.237 -16.64 -4.759 8
-5.073 -15.987 -4.797 9
-4.239 -13.258 -3.755 0
-4.118 -12.783 -3.797 0
0.0 -0.0 3.0 0
-3.972 -12.134 -4.006 57
-3.973 -12.036 -4.232 59
-3.989 -11.988 -4.491 48
-4.164 -12.407 -5.057 9
-4.057 -11.99 -5.087 10
-3.955 -11.588 -5.114 10
-3.858 -11.207 -5.142 10
-3.767 -10.845 -5.172 10
-3.675 -10.489 -5.195 12
-3.586 -10.147 -5.217 13
-3.502 -9.816 -5.237 33
-3.419 -9.497 -5.255 14
-11.296 -39.805 -4.019 5
-9.873 -34.51 -3.708 34
-9.404 -32.627 -3.935 10
-9.033 -31.088 -4.177 6
-8.469 -28.935 -4.214 7
-7.999 -27.127 -4.269 5
-7.583 -25.51 -4.315 7
-7.224 -24.127 -4.376 6
-6.909 -22.89 -4.438 5
-6.606 -21.725 -4.481 7
-6.331 -20.657 -4.518 21
-6.093 -19.736 -4.576 9
-5.878 -18.886 -4.63 6
-5.664 -18.063 -4.667 6
-5.476 -17.322 -4.712 8
-5.301 -16.645 -4.762 7
-5.134 -15.989 -4.799 28
-4.306 -13.312 -3.783 0
-4.145 -12.714 -3.76 0
-4.066 -12.37 -3.857 0
-4.01 -12.104 -3.988 71
-4.016 -12.021 -4.223 63
-4.032 -11.974 -4.482 1
-4.157 -12.241 -4.949 2
-4.104 -11.985 -5.084 9
-4.001 -11.584 -5.111 10
-3.905 -11.21 -5.144 9
-3.811 -10.842 -5.17 11
-3.716 -10.483 -5.19 11
-3.628 -10.144 -5.215 12
-3.543 -9.813 -5.234 37
-3.458 -9.492 -5.251 14
-11.44 -39.847 -4.026 5
-9.977 -34.469 -3.7 33
-9.524 -32.663 -3.943 8
-9.148 -31.121 -4.185 6
-8.57 -28.939 -4.215 7
-8.096 -27.139 -4.272 5
-7.676 -25.524 -4.319 6
-7.313 -24.139 -4.38 6
-6.994 -22.902 -4.441 4
-6.686 -21.735 -4.484 8
-6.412 -20.678 -4.526 10
-6.166 -19.739 -4.577 9
-5.949 -18.89 -4.632 6
-5.73 -18.06 -4.666 8
-5.543 -17.331 -4.716 8
-5.364 -16.648 -4.763 7
-5.191 -15.979 -4.793 42
-4.361 -13.323 -3.788 0
0.0 -0.0 3.0 0
-4.112 -12.362 -3.852 0
-4.051 -12.086 -3.978 255
-4.06 -12.01 -4.216 65
-4.077 -11.967 -4.478 1
-4.125 -12.004 -4.795 4
-4.151 -11.981 -5.081 9
-4.048 -11.582 -5.11 10
-3.949 -11.207 -5.142 10
-3.856 -10.841 -5.17 12
-3.762 -10.489 -5.195 12
-3.671 -10.145 -5.215 14
-3.584 -9.812 -5.233 40
-3.5 -9.496 -5.255 14
-11.587 -39.896 -4.035 5
-10.071 -34.397 -3.686 21
-9.646 -32.702 -3.951 11
-9.261 -31.142 -4.19 6
-8.677 -28.966 -4.222 6
-8.196 -27.156 -4.276 5
-7.767 -25.53 -4.321 6
-7.403 -24.154 -4.385 6
-7.077 -22.907 -4.443 4
-6.768 -21.748 -4.488 15
-6.489 -20.684 -4.528 9
-6.24 -19.746 -4.58 9
-6.021 -18.897 -4.635 8
-5.799 -18.069 -4.67 7
-5.606 -17.326 -4.714 7
-5.427 -16.646 -4.762 7
-5.252 -15.981 -4.794 41
-4.259 -12.859 -3.552 13
0.0 -0.0 3.0 0
-4.146 -12.32 -3.829 0
-4.095 -12.076 -3.972 255
-4.104 -12.0 -4.21 62
-4.134 -11.995 -4.495 1
-4.169 -11.991 -4.787 4
-4.2 -11.983 -5.083 9
-4.096 -11.585 -5.112 10
-3.995 -11.206 -5.141 7
-3.9 -10.839 -5.167 9
-3.804 -10.483 -5.19 11
-3.713 -10.142 -5.213 14
-3.624 -9.806 -5.228 40
-3.54 -9.494 -5.253 16
-11.733 -39.941 -4.043 5
-10.236 -34.564 -3.719 21
-9.769 -32.741 -3.959 11
-9.377 -31.174 -4.197 6
-8.784 -28.988 -4.228 6
-8.295 -27.172 -4.281 5
-7.861 -25.545 -4.325 6
-7.49 -24.162 -4.387 6
-7.16 -22.911 -4.444 5
-6.845 -21.742 -4.486 26
-6.57 -20.705 -4.536 8
-6.314 -19.749 -4.581 8
-6.088 -18.89 -4.632 6
-5.868 -18.073 -4.672 6
-5.672 -17.33 -4.716 8
-5.49 -16.648 -4.763 8
-5.313 -15.98 -4.794 39
-4.301 -12.837 -3.541 38
0.0 -0.0 3.0 0
-4.195 -12.325 -3.832 0
-4.138 -12.064 -3.965 226
-4.146 -11.985 -4.201 62
-4.184 -12.0 -4.499 2
-4.224 -12.011 -4.8 1
-4.247 -11.978 -5.079 9
-4.142 -11.581 -5.109 10
-4.04 -11.202 -5.139 7
-3.944 -10.837 -5.167 9
-3.848 -10.483 -5.19 12
-3.754 -10.139 -5.21 12
-3.666 -9.807 -5.229 40
-3.579 -9.488 -5.248 15
-11.878 -39.981 -4.05 5
-10.344 -34.537 -3.713 24
-9.891 -32.779 -3.967 15
-9.488 -31.191 -4.201 6
-8.888 -29.002 -4.231 6
-8.394 -27.188 -4.285 5
-7.956 -25.562 -4.33 6
-7.58 -24.176 -4.391 6
-7.247 -22.93 -4.45 5
-6.923 -21.744 -4.487 29
-6.647 -20.71 -4.538 9
-6.388 -19.756 -4.584 9
-6.16 -18.897 -4.635 6
-5.936 -18.077 -4.673 7
-5.735 -17.325 -4.713 7
-5.554 -16.65 -4.764 8
-4.494 -13.363 -3.517 0
-4.348 -12.832 -3.538 37
0.0 -0.0 3.0 0
-4.222 -12.264 -3.798 0
-4.184 -12.059 -3.962 129
-4.191 -11.978 -4.197 63
-4.225 -11.979 -4.486 5
-4.297 -12.081 -4.845 0
-4.295 -11.977 -5.079 10
-4.188 -11.577 -5.106 10
-4.087 -11.205 -5.141 8
-3.988 -10.834 -5.164 12
-3.892 -10.483 -5.19 13
-3.796 -10.136 -5.208 13
-3.708 -9.807 -5.229 38
-3.622 -9.492 -5.251 16
-12.029 -40.04 -4.06 4
-10.429 -34.434 -3.693 26
-10.011 -32.805 -3.973 15
-9.607 -31.23 -4.21 6
-8.998 -29.031 -4.238 7
-8.495 -27.207 -4.29 5
-8.051 -25.578 -4.334 6
-7.668 -24.182 -4.393 6
-7.33 -22.93 -4.451 5
-7.003 -21.749 -4.489 17
-6.726 -20.719 -4.541 9
-6.464 -19.765 -4.587 5
-6.231 -18.9 -4.636 6
-6.004 -18.078 -4.674 8
-5.801 -17.326 -4.714 8
-5.615 -16.644 -4.761 8
-4.539 -13.347 -3.51 1
-4.393 -12.82 -3.532 37
-4.282 -12.402 -3.594 17
-4.27 -12.262 -3.797 0
-4.229 -12.052 -3.958 94
-4.237 -11.973 -4.194 63
-4.268 -11.965 -4.477 4
0.0 -0.0 3.0 0
-4.345 -11.979 -5.08 9
-4.235 -11.576 -5.105 10
-4.131 -11.197 -5.135 9
-4.035 -10.837 -5.166 10
-3.935 -10.479 -5.187 12
-3.839 -10.136 -5.208 12
-3.75 -9.807 -5.229 41
-3.662 -9.489 -5.249 16
-12.176 -40.083 -4.068 5
-10.533 -34.396 -3.686 32
-10.13 -32.831 -3.979 16
-9.725 -31.264 -4.218 6
-9.104 -29.049 -4.243 6
-8.598 -27.234 -4.297 4
-8.146 -25.594 -4.339 7
-7.759 -24.2 -4.399 6
-7.42 -22.956 -4.459 5
-7.089 -21.771 -4.496 8
-6.804 -20.729 -4.545 10
-6.537 -19.767 -4.588 9
-6.301 -18.9 -4.636 6
-6.071 -18.078 -4.674 7
-5.865 -17.322 -4.712 7
-5.681 -16.652 -4.765 7
-4.591 -13.348 -3.51 5
-4.437 -12.804 -3.524 37
-4.325 -12.386 -3.586 45
-4.309 -12.237 -3.783 0
-4.275 -12.046 -3.955 77
-4.282 -11.964 -4.189 64
-4.317 -11.969 -4.479 4
-4.375 -12.026 -4.81 0
-4.392 -11.974 -5.077 10
-4.284 -11.577 -5.106 10
-4.176 -11.193 -5.132 9
-4.078 -10.833 -5.163 11
-3.98 -10.481 -5.189 12
-3.884 -10.139 -5.21 12
-3.79 -9.802 -5.224 37
-3.702 -9.487 -5.247 15
-12.322 -40.123 -4.075 5
-10.65 -34.398 -3.686 22
-10.248 -32.849 -3.982 20
-9.84 -31.287 -4.223 6
-9.214 -29.077 -4.25 6
-8.696 -27.241 -4.299 5
-8.245 -25.621 -4.347 7
-7.849 -24.209 -4.401 6
-7.502 -22.956 -4.459 5
-7.173 -21.786 -4.502 7
-6.882 -20.736 -4.547 9
-6.613 -19.777 -4.592 8
-6.373 -18.907 -4.639 6
-6.14 -18.082 -4.675 7
-5.929 -17.319 -4.711 7
-5.743 -16.65 -4.764 7
-4.64 -13.341 -3.507 11
-4.485 -12.799 -3.521 37
-4.37 -12.377 -3.581 46
-4.346 -12.206 -3.766 0
-4.322 -12.045 -3.954 72
-4.328 -11.959 -4.186 64
-4.366 -11.971 -4.481 5
-4.42 -12.015 -4.802 0
-4.439 -11.969 -5.073 8
-4.331 -11.576 -5.105 9
-4.225 -11.198 -5.136 10
-4.122 -10.829 -5.16 11
-4.022 -10.475 -5.184 11
-3.926 -10.136 -5.208 11
-3.831 -9.798 -5.222 38
-3.741 -9.481 -5.242 16
-12.471 -40.169 -4.083 5
-10.802 -34.509 -3.708 25
-10.369 -32.878 -3.988 21
-9.96 -31.325 -4.232 6
-9.324 -29.106 -4.257 6
-8.8 -27.266 -4.306 6
-8.338 -25.63 -4.349 6
-7.939 -24.222 -4.405 6
-7.589 -22.97 -4.463 5
-7.258 -21.804 -4.508 7
-6.961 -20.745 -4.551 9
-6.684 -19.772 -4.59 9
-6.444 -18.909 -4.64 6
-6.209 -18.084 -4.676 8
-5.998 -17.33 -4.716 5
-5.807 -16.651 -4.764 7
-4.687 -13.331 -3.502 22
-4.531 -12.789 -3.516 38
-4.416 -12.368 -3.576 45
-4.368 -12.134 -3.726 0
-4.368 -12.04 -3.951 68
-4.371 -11.948 -4.179 64
-4.415 -11.972 -4.481 1
-4.473 -12.025 -4.809 0
-4.489 -11.973 -5.076 10
-4.377 -11.571 -5.102 10
-4.269 -11.194 -5.133 9
-4.167 -10.828 -5.159 12
-4.068 -10.48 -5.188 11
-3.967 -10.132 -5.205 12
-3.873 -9.798 -5.222 39
-3.781 -9.479 -5.24 14
-12.623 -40.222 -4.092 5
-10.953 -34.618 -3.729 9
-10.49 -32.903 -3.994 28
-10.074 -31.343 -4.236 6
-9.431 -29.126 -4.262 7
-8.898 -27.273 -4.308 5
-8.433 -25.641 -4.352 6
-8.029 -24.231 -4.408 6
-7.677 -22.984 -4.468 5
-7.339 -21.809 -4.509 7
-7.04 -20.754 -4.554 9
-6.76 -19.781 -4.593 9
-6.515 -18.912 -4.641 6
-6.279 -18.091 -4.679 7
-6.064 -17.33 -4.716 7
-5.871 -16.652 -4.765 7
-4.736 -13.325 -3.499 30
-4.577 -12.78 -3.512 38
-4.46 -12.357 -3.57 45
-4.422 -12.151 -3.736 0
-4.414 -12.035 -3.948 67
-4.417 -11.943 -4.176 64
-4.489 -12.042 -4.525 1
-4.516 -12.011 -4.8 2
-4.538 -11.971 -5.074 10
-4.425 -11.572 -5.103 9
-4.316 -11.192 -5.131 10
-4.213 -10.827 -5.158 10
-4.11 -10.473 -5.183 14
-4.012 -10.135 -5.207 13
-3.915 -9.798 -5.222 41
-3.822 -9.479 -5.24 14
-12.776 -40.278 -4.102 5
-11.035 -34.507 -3.707 33
-10.604 -32.909 -3.995 30
-10.195 -31.384 -4.245 6
-9.543 -29.157 -4.27 6
-9.002 -27.298 -4.315 5
-8.529 -25.656 -4.357 6
-8.122 -24.251 -4.414 6
-7.764 -22.996 -4.472 4
-7.419 -21.812 -4.51 7
-7.118 -20.758 -4.555 9
-6.837 -19.793 -4.598 8
-6.589 -18.921 -4.645 6
-6.35 -18.097 -4.682 7
-6.131 -17.334 -4.717 7
-5.936 -16.655 -4.766 7
-4.787 -13.322 -3.498 24
-4.625 -12.774 -3.509 41
-4.506 -12.351 -3.567 45
-4.456 -12.113 -3.714 0
-4.459 -12.028 -3.945 67
-4.465 -11.944 -4.177 62
-4.514 -11.978 -4.485 1
-4.563 -12.005 -4.796 0
-4.586 -11.969 -5.073 10
-4.47 -11.564 -5.097 10
-4.361 -11.188 -5.128 9
-4.259 -10.829 -5.16 10
-4.154 -10.472 -5.182 13
-4.054 -10.131 -5.204 12
-3.955 -9.792 -5.216 39
-3.866 -9.484 -5.245 17
-12.934 -40.348 -4.115 5
-11.148 -34.492 -3.705 33
-10.725 -32.933 -4.0 28
-10.31 -31.401 -4.25 6
-9.648 -29.165 -4.272 6
-9.104 -27.315 -4.319 5
-8.627 -25.675 -4.362 6
-8.211 -24.256 -4.416 6
-7.853 -23.013 -4.477 4
-7.505 -21.829 -4.516 8
-7.198 -20.768 -4.559 10
-6.912 -19.798 -4.6 9
-6.659 -18.919 -4.644 6
-6.419 -18.1 -4.683 7
-6.197 -17.333 -4.717 7
-6.0 -16.655 -4.766 7
-4.838 -13.322 -3.498 21
-4.672 -12.768 -3.506 42
-4.563 -12.376 -3.58 48
-4.503 -12.11 -3.713 0
-4.508 -12.029 -3.945 66
-4.513 -11.942 -4.175 62
-4.56 -11.973 -4.482 3
0.0 -0.0 3.0 0
-4.634 -11.967 -5.072 9
-4.519 -11.565 -5.098 10
-4.409 -11.192 -5.132 9
-4.303 -10.824 -5.157 11
-4.198 -10.471 -5.181 13
-4.096 -10.128 -5.201 13
-3.999 -9.794 -5.218 39
-3.899 -9.464 -5.227 23
-13.086 -40.396 -4.123 5
-11.268 -34.5 -3.706 34
-10.84 -32.938 -4.001 30
-10.429 -31.433 -4.257 6
-9.759 -29.191 -4.278 6
-9.21 -27.343 -4.327 5
-8.724 -25.693 -4.367 6
-8.303 -24.271 -4.421 6
-7.941 -23.026 -4.482 5
-7.587 -21.836 -4.519 8
-7.278 -20.78 -4.563 10
-6.989 -19.805 -4.603 9
-6.731 -18.921 -4.645 6
-6.487 -18.098 -4.682 6
-6.265 -17.34 -4.72 7
-6.064 -16.656 -4.767 7
-4.886 -13.312 -3.492 18
-4.72 -12.762 -3.502 40
-4.605 -12.356 -3.57 49
-4.561 -12.138 -3.728 17
-4.554 -12.024 -3.942 66
-4.56 -11.939 -4.174 61
-4.607 -11.967 -4.478 4
-4.672 -12.032 -4.814 0
-4.684 -11.967 -5.072 9
-4.567 -11.567 -5.099 10
-4.454 -11.188 -5.128 11
-4.348 -10.823 -5.156 11
-4.243 -10.47 -5.18 10
-4.138 -10.124 -5.198 10
-4.04 -9.791 -5.215 40
-3.939 -9.461 -5.224 23
-13.244 -40.462 -4.135 5
-11.394 -34.522 -3.71 20
-10.96 -32.958 -4.005 28
-10.548 -31.461 -4.263 6
0.0 -0.0 3.0 0
-9.311 -27.356 -4.33 5
-8.822 -25.71 -4.372 6
-8.393 -24.279 -4.423 6
-8.023 -23.021 -4.48 6
-7.67 -21.846 -4.522 7
-7.356 -20.783 -4.564 10
-7.065 -19.813 -4.605 9
-6.805 -18.929 -4.648 6
-6.555 -18.097 -4.682 7
-6.332 -17.342 -4.721 7
-6.13 -16.662 -4.77 7
-4.936 -13.308 -3.491 16
-4.767 -12.754 -3.499 34
-4.647 -12.339 -3.561 48
-4.598 -12.109 -3.712 64
-4.6 -12.018 -3.939 56
-4.61 -11.944 -4.176 57
-4.657 -11.971 -4.48 3
-4.714 -12.014 -4.802 3
-4.731 -11.961 -5.068 9
-4.614 -11.564 -5.097 9
-4.5 -11.186 -5.127 9
-4.394 -10.824 -5.157 12
-4.286 -10.466 -5.177 11
-4.182 -10.126 -5.2 11
-4.082 -9.79 -5.215 39
-3.983 -9.466 -5.229 22
-13.401 -40.52 -4.145 5
-11.509 -34.514 -3.709 9
-11.082 -32.981 -4.01 23
-10.667 -31.489 -4.27 7
0.0 -0.0 3.0 0
-9.411 -27.364 -4.332 5
-8.919 -25.725 -4.376 7
-8.489 -24.302 -4.43 6
-8.114 -23.043 -4.487 5
-7.755 -21.858 -4.526 8
-7.435 -20.789 -4.567 8
-7.138 -19.81 -4.604 9
-6.878 -18.934 -4.65 6
-6.627 -18.106 -4.685 7
-6.401 -17.348 -4.724 7
-6.192 -16.655 -4.766 7
-4.981 -13.291 -3.482 17
-4.812 -12.741 -3.492 37
-4.692 -12.33 -3.556 48
-4.644 -12.103 -3.709 65
-4.643 -12.005 -3.931 2
-4.657 -11.94 -4.174 59
-4.71 -11.981 -4.487 3
-4.758 -12.001 -4.794 5
-4.782 -11.965 -5.07 9
-4.659 -11.556 -5.091 11
-4.546 -11.18 -5.123 10
-4.438 -10.819 -5.153 10
-4.33 -10.465 -5.176 12
-4.224 -10.122 -5.196 13
-4.123 -9.787 -5.212 40
-4.021 -9.46 -5.223 21
-13.558 -40.577 -4.155 5
-11.648 -34.576 -3.721 11
-11.199 -32.988 -4.012 29
0.0 -0.0 3.0 0
0.0 -0.0 3.0 0
-9.52 -27.398 -4.341 5
-9.016 -25.738 -4.38 6
-8.579 -24.309 -4.432 6
-8.2 -23.048 -4.489 5
-7.837 -21.864 -4.529 8
-7.516 -20.8 -4.571 10
-7.219 -19.828 -4.611 10
-6.951 -18.938 -4.651 6
-6.695 -18.104 -4.685 6
-6.466 -17.344 -4.722 5
-6.257 -16.658 -4.768 7
-5.032 -13.287 -3.481 18
-4.858 -12.731 -3.487 28
-4.735 -12.314 -3.547 42
-4.691 -12.1 -3.707 65
-4.693 -12.01 -3.934 1
-4.708 -11.947 -4.179 59
-4.848 -12.206 -4.627 7
-4.86 -12.132 -4.879 6
-4.831 -11.962 -5.068 9
-4.71 -11.562 -5.096 10
-4.593 -11.182 -5.124 10
-4.484 -10.817 -5.151 11
-4.373 -10.461 -5.173 11
-4.268 -10.121 -5.196 11
-4.165 -9.786 -5.211 36
-4.063 -9.459 -5.223 20
-13.719 -40.645 -4.167 5
-12.605 -37.037 -4.199 5
-11.319 -33.007 -4.016 31
0.0 -0.0 3.0 0
0.0 -0.0 3.0 0
-9.626 -27.421 -4.347 5
-9.111 -25.748 -4.383 6
-8.672 -24.323 -4.436 6
-8.29 -23.063 -4.494 5
-7.922 -21.877 -4.533 8
-7.597 -20.81 -4.574 10
-7.293 -19.828 -4.611 17
-7.028 -18.953 -4.657 5
-6.767 -18.113 -4.689 6
-6.532 -17.342 -4.721 5
-6.323 -16.661 -4.769 6
-5.079 -13.277 -3.475 19
-4.907 -12.728 -3.485 23
-4.781 -12.307 -3.544 48
-4.74 -12.1 -3.707 65
-4.743 -12.014 -3.936 1
-4.755 -11.945 -4.177 58
-4.898 -12.207 -4.628 6
-4.9 -12.106 -4.862 3
-4.878 -11.956 -5.064 9
-4.756 -11.556 -5.092 10
-4.641 -11.182 -5.124 10
-4.53 -10.819 -5.153 10
-4.42 -10.464 -5.176 11
-4.31 -10.116 -5.192 12
-4.206 -9.782 -5.208 39
-4.104 -9.459 -5.222 19
-13.883 -40.72 -4.18 5
-11.832 -34.417 -3.69 2
-11.445 -33.04 -4.023 32
0.0 -0.0 3.0 0
0.0 -0.0 3.0 0
-9.729 -27.436 -4.351 5
-9.213 -25.771 -4.39 6
-8.763 -24.329 -4.438 6
-8.382 -23.086 -4.501 5
-8.008 -21.889 -4.537 7
-7.678 -20.819 -4.578 8
-7.365 -19.821 -4.609 32
-7.1 -18.954 -4.658 6
-6.836 -18.114 -4.689 6
-6.602 -17.351 -4.725 5
-6.386 -16.656 -4.767 7
-5.131 -13.276 -3.475 20
-4.956 -12.724 -3.483 32
-4.829 -12.304 -3.542 47
-4.787 -12.097 -3.705 65
-4.79 -12.01 -3.934 1
-4.803 -11.942 -4.175 58
-4.857 -11.982 -4.487 0
-4.945 -12.094 -4.854 0
-4.928 -11.956 -5.064 10
-4.804 -11.554 -5.09 9
-4.686 -11.177 -5.12 11
-4.573 -10.81 -5.146 12
-4.463 -10.46 -5.172 11
-4.353 -10.115 -5.191 12
-4.25 -9.783 -5.209 33
-4.143 -9.452 -5.217 24
-14.049 -40.798 -4.194 5
-11.904 -34.285 -3.664 1
-11.566 -33.057 -4.026 29
0.0 -0.0 3.0 0
-9.524 -26.791 -3.68 0
-9.836 -27.462 -4.358 5
-9.313 -25.79 -4.395 6
-8.859 -24.35 -4.445 6
-8.471 -23.096 -4.504 5
-8.092 -21.898 -4.54 7
-7.758 -20.825 -4.58 11
-7.439 -19.82 -4.608 33
-7.171 -18.95 -4.656 6
-6.906 -18.115 -4.689 7
-6.667 -17.346 -4.723 5
-6.454 -16.665 -4.771 7
-5.18 -13.268 -3.471 20
-5.006 -12.723 -3.483 37
-4.875 -12.297 -3.539 46
-4.833 -12.091 -3.702 65
-4.839 -12.01 -3.934 1
-4.853 -11.945 -4.177 57
-4.904 -11.975 -4.483 0
-5.019 -12.153 -4.892 0
-4.978 -11.955 -5.064 9
-4.853 -11.554 -5.09 10
-4.735 -11.18 -5.123 10
-4.62 -10.812 -5.147 11
-4.506 -10.455 -5.168 13
-4.396 -10.113 -5.19 13
-4.29 -9.776 -5.203 26
-4.186 -9.454 -5.218 20
-14.205 -40.845 -4.202 5
-13.044 -37.197 -4.23 5
-11.689 -33.078 -4.031 30
0.0 -0.0 3.0 0
-9.576 -26.671 -3.65 1
-9.601 -26.539 -4.111 2
-9.409 -25.799 -4.398 6
-8.951 -24.36 -4.448 6
-8.561 -23.11 -4.509 5
-8.176 -21.906 -4.543 7
-7.841 -20.838 -4.584 9
-7.514 -19.819 -4.608 22
-7.247 -18.96 -4.661 5
-6.979 -18.122 -4.693 8
-6.737 -17.354 -4.726 6
-6.518 -16.664 -4.771 7
-5.23 -13.263 -3.469 20
-5.053 -12.716 -3.479 36
-4.924 -12.297 -3.539 47
-4.879 -12.084 -3.698 50
-4.907 -12.059 -3.962 0
-4.902 -11.944 -4.177 58
-4.95 -11.969 -4.479 42
-5.095 -12.213 -4.931 1
-5.025 -11.949 -5.06 9
-4.901 -11.554 -5.09 9
-4.78 -11.175 -5.119 10
-4.666 -10.812 -5.148 11
-4.551 -10.456 -5.169 12
-4.438 -10.108 -5.186 12
-4.334 -9.778 -5.205 18
-4.227 -9.453 -5.218 22
-14.371 -40.917 -4.215 5
-13.192 -37.251 -4.241 6
-11.811 -33.094 -4.034 28
0.0 -0.0 3.0 0
-9.643 -26.595 -3.631 3
-9.687 -26.514 -4.104 4
-9.508 -25.814 -4.402 7
-9.047 -24.377 -4.453 6
-8.65 -23.121 -4.513 5
-8.261 -21.913 -4.545 7
-7.926 -20.857 -4.591 13
-7.596 -19.84 -4.616 11
-7.317 -18.957 -4.659 5
-7.048 -18.123 -4.693 6
-6.805 -17.356 -4.727 5
-6.581 -16.659 -4.768 7
-5.281 -13.259 -3.467 20
-5.103 -12.715 -3.479 36
-4.971 -12.29 -3.535 47
-4.932 -12.093 -3.703 2
-4.971 -12.095 -3.983 0
-4.952 -11.948 -4.179 57
-5.002 -11.975 -4.483 46
-5.171 -12.273 -4.97 1
-5.075 -11.949 -5.059 9
-4.949 -11.551 -5.088 9
-4.826 -11.172 -5.117 11
-4.712 -10.81 -5.146 11
-4.596 -10.454 -5.168 11
-4.482 -10.107 -5.184 12
-4.377 -9.779 -5.206 13
-4.268 -9.449 -5.214 23
-14.532 -40.975 -4.225 4
-13.347 -37.322 -4.255 5
-11.931 -33.107 -4.037 28
0.0 -0.0 3.0 0
-9.712 -26.526 -3.614 5
-9.773 -26.489 -4.098 8
-9.606 -25.826 -4.405 6
-9.135 -24.374 -4.452 6
-8.74 -23.131 -4.516 4
-8.348 -21.928 -4.55 7
-8.002 -20.851 -4.589 25
-7.675 -19.848 -4.619 9
-7.39 -18.957 -4.659 6
-7.121 -18.131 -4.696 8
-6.874 -17.36 -4.729 7
-6.646 -16.657 -4.767 7
-5.333 -13.257 -3.466 20
-5.151 -12.708 -3.475 35
-5.018 -12.286 -3.532 46
-4.98 -12.093 -3.703 1
-5.035 -12.13 -4.003 0
-4.999 -11.944 -4.177 57
-5.05 -11.971 -4.48 47
-5.246 -12.329 -5.006 3
-5.126 -11.951 -5.061 9
-4.996 -11.547 -5.085 10
-4.874 -11.171 -5.117 11
-4.757 -10.807 -5.144 11
-4.639 -10.449 -5.164 11
-4.528 -10.112 -5.188 11
-4.418 -9.775 -5.203 12
-4.309 -9.448 -5.213 20
-14.686 -41.009 -4.231 4
-13.497 -37.379 -4.266 6
-12.063 -33.149 -4.046 28
0.0 -0.0 3.0 0
-9.799 -26.504 -3.608 4
-9.863 -26.474 -4.094 13
-9.708 -25.848 -4.412 6
-9.235 -24.401 -4.46 6
-8.828 -23.138 -4.518 4
-8.434 -21.939 -4.554 7
-8.08 -20.849 -4.588 26
-7.755 -19.862 -4.624 9
-7.469 -18.974 -4.666 6
-7.19 -18.127 -4.695 7
-6.938 -17.35 -4.725 5
-6.712 -16.659 -4.768 8
-5.386 -13.259 -3.467 20
-5.201 -12.707 -3.474 36
-5.067 -12.285 -3.532 47
0.0 -0.0 3.0 0
-5.102 -12.172 -4.027 0
-5.048 -11.943 -4.176 57
-5.101 -11.974 -4.482 46
-5.3 -12.333 -5.009 3
-5.174 -11.944 -5.057 9
-5.045 -11.547 -5.085 8
-4.921 -11.169 -5.114 10
-4.803 -10.804 -5.142 11
-4.685 -10.45 -5.164 11
-4.569 -10.103 -5.182 13
-4.46 -9.771 -5.199 13
-4.349 -9.444 -5.21 22
-14.873 -41.137 -4.254 4
-13.646 -37.431 -4.276 6
-12.192 -33.182 -4.053 23
0.0 -0.0 3.0 0
-9.884 -26.478 -3.602 13
-9.956 -26.466 -4.092 8
-9.808 -25.861 -4.416 6
-9.328 -24.409 -4.463 5
-8.921 -23.157 -4.524 5
-8.519 -21.946 -4.557 8
-8.16 -20.853 -4.59 18
-7.833 -19.866 -4.626 8
-7.541 -18.973 -4.666 6
-7.264 -18.137 -4.699 6
-7.008 -17.358 -4.728 4
-6.779 -16.663 -4.77 8
-5.438 -13.257 -3.466 20
-5.251 -12.706 -3.474 36
-5.117 -12.284 -3.532 46
0.0 -0.0 3.0 0
-5.33 -12.594 -4.271 0
-5.099 -11.946 -4.178 57
-5.149 -11.97 -4.479 45
-5.355 -12.342 -5.015 6
-5.225 -11.946 -5.058 9
-5.093 -11.544 -5.083 10
-4.968 -11.168 -5.114 10
-4.848 -10.802 -5.14 11
-4.729 -10.447 -5.162 11
-4.613 -10.104 -5.182 12
-4.502 -9.769 -5.197 12
-4.391 -9.443 -5.208 20
-15.04 -41.203 -4.265 5
-13.796 -37.482 -4.286 6
-12.324 -33.224 -4.062 22
0.0 -0.0 3.0 0
-9.975 -26.467 -3.599 10
-10.043 -26.444 -4.086 6
-9.911 -25.883 -4.422 6
-9.425 -24.428 -4.469 6
