# .PCD v0.7 - Point Cloud Data file format
VERSION 0.7
FIELDS x y z intensity
SIZE 4 4 4 4
TYPE F F F F
COUNT 1 1 1 1
WIDTH 2086
HEIGHT 1
VIEWPOINT 0 0 0 1 0 0 0
POINTS 2086
DATA ascii
5.596 -12.238 -4.947 6
5.446 -11.801 -4.96 7
5.303 -11.392 -4.977 7
5.172 -11.008 -4.998 8
5.042 -10.636 -5.015 8
4.916 -10.273 -5.026 10
4.796 -9.926 -5.038 9
4.685 -9.607 -5.061 12
4.575 -9.29 -5.076 21
14.752 -39.579 -3.979 6
12.731 -33.872 -3.584 16
12.034 -31.736 -3.746 26
11.639 -30.442 -4.028 11
11.133 -28.865 -4.197 6
8.452 -21.734 -2.824 2
8.205 -20.917 -2.998 1
8.232 -20.804 -3.36 7
8.284 -20.765 -3.747 6
8.654 -21.506 -4.405 4
8.31 -20.496 -4.46 6
8.008 -19.57 -4.512 10
7.745 -18.775 -4.586 8
7.468 -17.949 -4.619 8
7.209 -17.188 -4.652 8
6.972 -16.478 -4.684 7
0.0 -0.0 3.0 0
6.553 -15.228 -4.759 6
6.362 -14.656 -4.793 6
6.183 -14.128 -4.831 9
6.016 -13.625 -4.866 6
5.849 -13.137 -4.894 7
5.698 -12.683 -4.925 7
5.545 -12.239 -4.948 7
5.396 -11.802 -4.961 8
5.257 -11.399 -4.982 7
5.124 -11.008 -4.998 8
4.995 -10.637 -5.015 8
4.87 -10.272 -5.025 9
4.756 -9.935 -5.045 9
4.641 -9.607 -5.061 12
4.534 -9.292 -5.077 20
14.613 -39.575 -3.978 5
12.639 -33.944 -3.598 16
11.904 -31.69 -3.736 21
11.541 -30.469 -4.034 12
11.021 -28.844 -4.192 6
8.374 -21.738 -2.825 1
8.125 -20.91 -2.996 1
8.157 -20.811 -3.362 7
8.207 -20.768 -3.748 6
8.573 -21.507 -4.405 4
8.23 -20.492 -4.458 7
7.932 -19.569 -4.512 9
7.67 -18.77 -4.583 8
7.397 -17.946 -4.618 8
7.142 -17.188 -4.652 7
6.908 -16.48 -4.685 7
6.685 -15.82 -4.716 31
6.49 -15.226 -4.758 7
6.301 -14.653 -4.791 6
6.128 -14.135 -4.835 8
5.963 -13.632 -4.87 5
5.796 -13.14 -4.895 8
5.644 -12.682 -4.925 7
5.493 -12.238 -4.948 12
5.35 -11.812 -4.968 7
5.21 -11.404 -4.985 7
5.078 -11.012 -5.0 9
4.95 -10.639 -5.017 8
4.826 -10.275 -5.028 8
4.713 -9.938 -5.047 8
4.602 -9.615 -5.068 11
4.493 -9.293 -5.079 21
14.483 -39.597 -3.982 2
12.596 -34.151 -3.638 12
11.79 -31.685 -3.735 27
11.438 -30.485 -4.038 14
10.91 -28.826 -4.187 6
8.302 -21.756 -2.829 1
8.065 -20.951 -3.008 1
8.084 -20.82 -3.365 7
8.135 -20.781 -3.752 6
8.489 -21.5 -4.403 5
8.147 -20.476 -4.453 7
7.858 -19.571 -4.513 9
7.598 -18.771 -4.584 8
7.329 -17.95 -4.619 8
7.074 -17.188 -4.652 7
6.845 -16.487 -4.688 7
6.624 -15.825 -4.718 44
6.435 -15.241 -4.766 6
6.246 -14.664 -4.797 6
6.071 -14.136 -4.835 8
5.908 -13.635 -4.872 6
5.743 -13.145 -4.899 6
5.595 -12.69 -4.93 7
5.445 -12.246 -4.953 7
5.298 -11.808 -4.964 9
5.161 -11.404 -4.985 7
5.034 -11.019 -5.006 8
4.905 -10.643 -5.02 7
4.784 -10.281 -5.033 7
4.67 -9.94 -5.049 10
4.559 -9.613 -5.067 10
4.45 -9.293 -5.078 22
14.5 -40.021 -4.057 6
12.076 -33.053 -3.425 6
11.675 -31.676 -3.733 27
11.342 -30.519 -4.046 13
10.798 -28.803 -4.182 6
8.227 -21.765 -2.832 1
7.989 -20.953 -3.008 4
8.01 -20.826 -3.367 7
8.06 -20.787 -3.754 6
8.407 -21.497 -4.402 5
8.066 -20.469 -4.45 7
7.781 -19.566 -4.511 9
7.525 -18.769 -4.583 8
7.256 -17.944 -4.617 8
7.008 -17.19 -4.654 8
6.779 -16.486 -4.687 8
6.562 -15.827 -4.719 47
6.373 -15.239 -4.765 6
6.187 -14.665 -4.797 6
6.014 -14.139 -4.837 7
5.853 -13.637 -4.874 6
5.691 -13.151 -4.902 6
5.542 -12.693 -4.931 7
5.395 -12.251 -4.956 7
5.251 -11.815 -4.969 7
5.113 -11.405 -4.986 7
4.987 -11.022 -5.008 8
4.859 -10.642 -5.019 7
4.741 -10.286 -5.036 7
4.628 -9.945 -5.053 8
4.52 -9.621 -5.073 11
4.409 -9.294 -5.079 17
14.344 -39.972 -4.048 6
11.948 -33.019 -3.418 22
11.548 -31.633 -3.724 31
11.239 -30.535 -4.05 13
10.689 -28.788 -4.178 6
8.159 -21.793 -2.839 1
7.913 -20.956 -3.009 17
7.934 -20.829 -3.368 6
7.986 -20.797 -3.757 6
8.325 -21.493 -4.401 5
7.988 -20.467 -4.45 8
7.706 -19.564 -4.51 12
7.451 -18.766 -4.582 8
7.187 -17.944 -4.617 8
6.941 -17.19 -4.654 8
6.715 -16.488 -4.688 7
6.501 -15.832 -4.722 47
6.314 -15.243 -4.767 7
6.131 -14.672 -4.801 6
5.958 -14.141 -4.839 7
5.799 -13.643 -4.877 6
5.637 -13.15 -4.901 7
5.49 -12.694 -4.932 7
5.346 -12.256 -4.959 7
5.201 -11.816 -4.97 8
5.067 -11.411 -4.99 7
4.94 -11.022 -5.008 8
4.815 -10.648 -5.024 8
4.696 -10.286 -5.036 7
4.587 -9.95 -5.057 10
4.478 -9.623 -5.074 12
4.37 -9.298 -5.082 18
14.19 -39.924 -4.04 5
11.842 -33.043 -3.423 25
11.437 -31.634 -3.724 30
11.14 -30.56 -4.055 14
10.572 -28.75 -4.168 6
8.098 -21.843 -2.853 1
7.843 -20.972 -3.014 6
7.86 -20.838 -3.371 6
7.91 -20.799 -3.758 7
8.244 -21.492 -4.4 5
7.909 -20.463 -4.448 7
7.632 -19.566 -4.511 24
7.381 -18.77 -4.584 8
7.117 -17.944 -4.617 8
6.873 -17.19 -4.653 7
6.65 -16.487 -4.688 7
6.439 -15.833 -4.722 45
6.253 -15.244 -4.767 6
6.072 -14.673 -4.802 7
5.903 -14.148 -4.843 7
5.743 -13.643 -4.877 6
5.586 -13.159 -4.907 6
5.437 -12.693 -4.932 7
5.295 -12.256 -4.959 7
5.152 -11.817 -4.971 7
5.017 -11.409 -4.989 6
4.895 -11.029 -5.013 7
4.773 -10.657 -5.031 9
4.652 -10.288 -5.038 9
4.544 -9.952 -5.059 9
4.434 -9.622 -5.074 23
4.331 -9.305 -5.088 21
14.029 -39.858 -4.028 5
11.84 -33.36 -3.484 19
11.324 -31.627 -3.723 28
11.042 -30.586 -4.061 14
10.468 -28.745 -4.167 6
8.035 -21.886 -2.864 1
7.794 -21.046 -3.035 0
7.717 -20.659 -3.316 4
7.838 -20.812 -3.762 7
8.163 -21.488 -4.399 5
7.834 -20.468 -4.45 7
7.55 -19.546 -4.503 37
7.305 -18.76 -4.58 6
7.049 -17.947 -4.618 8
6.807 -17.191 -4.654 8
6.586 -16.488 -4.689 7
6.375 -15.831 -4.721 46
6.193 -15.245 -4.768 5
6.014 -14.676 -4.803 6
5.845 -14.145 -4.841 9
5.687 -13.642 -4.876 6
5.53 -13.154 -4.904 7
5.385 -12.695 -4.932 7
5.243 -12.254 -4.958 7
5.104 -11.821 -4.973 7
4.973 -11.419 -4.996 7
4.848 -11.028 -5.012 8
4.727 -10.657 -5.03 9
4.611 -10.296 -5.044 9
4.501 -9.954 -5.06 9
4.392 -9.623 -5.075 26
4.293 -9.312 -5.095 21
13.876 -39.811 -4.02 6
11.65 -33.15 -3.444 15
11.216 -31.635 -3.724 29
10.944 -30.616 -4.068 14
10.358 -28.725 -4.162 6
7.99 -21.978 -2.889 2
0.0 -0.0 3.0 0
7.693 -20.797 -3.358 1
7.764 -20.82 -3.765 7
8.081 -21.484 -4.398 5
7.755 -20.463 -4.448 8
7.476 -19.547 -4.503 35
7.238 -18.771 -4.584 8
6.981 -17.95 -4.619 8
6.739 -17.187 -4.652 8
6.522 -16.489 -4.689 7
6.314 -15.836 -4.724 46
6.131 -15.242 -4.766 7
5.955 -14.676 -4.803 6
5.79 -14.151 -4.844 9
5.633 -13.645 -4.878 4
5.479 -13.163 -4.909 7
5.337 -12.705 -4.939 7
5.195 -12.262 -4.963 7
5.055 -11.824 -4.976 8
4.926 -11.422 -4.998 7
4.803 -11.034 -5.017 16
4.683 -10.662 -5.034 9
4.567 -10.299 -5.046 8
4.459 -9.959 -5.064 10
4.35 -9.625 -5.076 23
4.252 -9.313 -5.096 17
13.72 -39.755 -4.01 5
11.834 -34.006 -3.61 20
11.105 -31.632 -3.724 27
10.844 -30.637 -4.073 14
10.247 -28.701 -4.156 6
7.963 -22.123 -2.928 1
0.0 -0.0 3.0 0
7.637 -20.853 -3.375 4
7.688 -20.822 -3.765 7
8.001 -21.483 -4.397 5
7.679 -20.465 -4.449 8
7.4 -19.54 -4.501 23
7.166 -18.771 -4.584 9
6.91 -17.946 -4.617 8
6.674 -17.192 -4.654 8
6.461 -16.498 -4.693 7
6.252 -15.837 -4.724 46
6.073 -15.249 -4.77 6
5.898 -14.679 -4.805 7
5.732 -14.15 -4.843 7
5.581 -13.653 -4.883 6
5.429 -13.171 -4.914 6
5.283 -12.703 -4.938 7
5.143 -12.26 -4.962 7
5.008 -11.831 -4.98 7
4.88 -11.428 -5.002 7
4.76 -11.043 -5.023 8
4.64 -10.668 -5.039 10
4.522 -10.298 -5.045 9
4.417 -9.96 -5.066 8
4.309 -9.626 -5.077 21
4.216 -9.326 -5.107 22
13.569 -39.71 -4.002 6
11.599 -33.665 -3.544 17
10.976 -31.58 -3.713 21
10.743 -30.658 -4.078 14
10.134 -28.669 -4.148 6
7.923 -22.23 -2.957 42
0.0 -0.0 3.0 0
7.568 -20.871 -3.381 3
7.616 -20.834 -3.769 7
7.918 -21.474 -4.394 5
7.603 -20.466 -4.449 8
7.331 -19.555 -4.506 10
7.096 -18.774 -4.585 8
6.841 -17.945 -4.617 8
6.609 -17.194 -4.655 8
6.395 -16.496 -4.692 7
6.19 -15.837 -4.724 44
6.014 -15.253 -4.772 6
5.84 -14.682 -4.807 6
5.676 -14.152 -4.845 9
5.525 -13.652 -4.882 6
5.374 -13.169 -4.913 6
5.233 -12.707 -4.94 7
5.094 -12.266 -4.966 7
4.959 -11.831 -4.98 8
4.831 -11.425 -5.0 7
4.713 -11.042 -5.023 7
4.596 -10.673 -5.043 9
4.479 -10.302 -5.049 8
4.375 -9.965 -5.069 9
4.269 -9.633 -5.083 15
4.178 -9.332 -5.112 17
13.415 -39.657 -3.993 5
11.387 -33.383 -3.489 21
10.846 -31.52 -3.7 29
10.646 -30.687 -4.085 16
10.032 -28.665 -4.147 6
7.85 -22.25 -2.962 90
0.0 -0.0 3.0 0
7.495 -20.88 -3.384 3
7.541 -20.838 -3.771 7
7.839 -21.476 -4.395 5
7.523 -20.456 -4.445 7
7.258 -19.555 -4.506 9
7.023 -18.77 -4.584 8
6.772 -17.944 -4.617 8
6.543 -17.196 -4.656 8
6.332 -16.497 -4.692 7
6.128 -15.838 -4.725 45
5.954 -15.252 -4.771 7
5.781 -14.681 -4.806 6
5.62 -14.155 -4.846 8
5.47 -13.654 -4.883 6
5.319 -13.167 -4.912 6
5.181 -12.709 -4.941 7
5.042 -12.264 -4.964 7
4.912 -11.838 -4.985 7
4.785 -11.431 -5.004 7
4.667 -11.045 -5.025 8
4.55 -10.672 -5.042 10
4.436 -10.304 -5.051 8
4.332 -9.966 -5.071 8
4.226 -9.631 -5.082 14
4.139 -9.339 -5.118 18
11.418 -34.096 -3.012 2
11.31 -33.496 -3.511 23
10.745 -31.544 -3.705 27
10.545 -30.707 -4.089 15
9.924 -28.647 -4.143 6
7.78 -22.277 -2.969 2
0.0 -0.0 3.0 0
7.425 -20.895 -3.388 3
7.471 -20.857 -3.777 8
7.76 -21.477 -4.395 5
7.446 -20.453 -4.444 8
7.183 -19.551 -4.505 9
6.953 -18.773 -4.585 8
6.703 -17.942 -4.616 8
6.476 -17.194 -4.655 8
6.267 -16.494 -4.691 7
6.068 -15.841 -4.726 47
5.893 -15.252 -4.771 6
5.725 -14.687 -4.809 6
5.566 -14.16 -4.849 7
5.415 -13.656 -4.884 6
5.266 -13.168 -4.912 6
5.132 -12.716 -4.946 7
4.994 -12.271 -4.969 7
4.864 -11.841 -4.987 7
4.737 -11.43 -5.003 7
4.622 -11.05 -5.029 9
4.506 -10.677 -5.045 8
4.394 -10.312 -5.056 7
4.291 -9.97 -5.074 10
4.186 -9.635 -5.085 12
4.103 -9.351 -5.129 21
11.349 -34.238 -3.037 1
11.2 -33.511 -3.514 26
10.644 -31.569 -3.71 27
10.445 -30.727 -4.094 14
9.814 -28.622 -4.136 6
9.256 -26.775 -4.174 6
0.0 -0.0 3.0 0
7.345 -20.884 -3.385 4
7.386 -20.832 -3.769 6
7.68 -21.475 -4.395 5
7.371 -20.457 -4.446 8
7.111 -19.555 -4.506 9
6.879 -18.765 -4.582 6
6.635 -17.944 -4.617 8
6.41 -17.195 -4.656 8
6.203 -16.495 -4.692 7
6.008 -15.848 -4.729 46
5.835 -15.255 -4.773 6
5.665 -14.683 -4.807 6
5.51 -14.162 -4.85 8
5.362 -13.66 -4.886 6
5.217 -13.179 -4.919 6
5.081 -12.72 -4.948 7
4.946 -12.277 -4.973 7
4.815 -11.84 -4.986 7
4.691 -11.436 -5.008 7
4.579 -11.059 -5.035 8
4.463 -10.682 -5.049 9
4.351 -10.314 -5.058 8
4.251 -9.978 -5.08 9
4.146 -9.642 -5.09 11
4.055 -9.335 -5.115 16
12.963 -39.512 -3.967 6
11.092 -33.533 -3.518 20
10.539 -31.582 -3.713 26
10.342 -30.74 -4.097 15
9.709 -28.607 -4.133 6
9.149 -26.741 -4.165 6
0.0 -0.0 3.0 0
7.274 -20.895 -3.388 43
7.305 -20.818 -3.764 3
7.599 -21.469 -4.392 5
7.293 -20.45 -4.443 9
7.038 -19.554 -4.506 9
6.809 -18.767 -4.582 8
6.567 -17.942 -4.616 8
6.346 -17.2 -4.658 8
6.141 -16.498 -4.693 7
5.947 -15.848 -4.729 45
5.776 -15.258 -4.774 6
5.609 -14.688 -4.81 6
5.454 -14.164 -4.851 7
5.309 -13.665 -4.889 6
5.161 -13.174 -4.915 6
5.028 -12.717 -4.946 7
4.894 -12.274 -4.971 7
4.767 -11.843 -4.988 7
4.643 -11.435 -5.007 7
4.533 -11.061 -5.036 8
4.419 -10.686 -5.053 8
4.31 -10.321 -5.064 8
4.205 -9.973 -5.076 9
4.105 -9.643 -5.091 11
4.011 -9.329 -5.11 16
12.805 -39.438 -3.954 7
10.969 -33.505 -3.513 20
10.426 -31.568 -3.71 29
10.232 -30.729 -4.094 13
9.603 -28.591 -4.129 6
9.052 -26.734 -4.163 6
0.0 -0.0 3.0 0
7.202 -20.905 -3.391 49
7.299 -21.016 -3.829 1
7.309 -20.867 -4.185 3
7.218 -20.453 -4.444 9
6.965 -19.554 -4.506 9
6.736 -18.759 -4.579 8
6.5 -17.947 -4.618 8
6.28 -17.2 -4.658 7
6.078 -16.502 -4.695 7
5.884 -15.844 -4.728 46
5.718 -15.263 -4.777 6
5.551 -14.687 -4.809 5
5.396 -14.159 -4.848 9
5.255 -13.666 -4.89 5
5.11 -13.178 -4.918 6
4.979 -12.723 -4.951 7
4.845 -12.277 -4.973 7
4.72 -11.85 -4.993 7
4.597 -11.441 -5.011 7
4.487 -11.063 -5.038 9
4.373 -10.685 -5.052 9
4.267 -10.325 -5.067 8
4.166 -9.983 -5.084 9
4.065 -9.649 -5.096 11
3.972 -9.332 -5.113 15
12.658 -39.393 -3.946 8
10.848 -33.486 -3.509 24
10.313 -31.555 -3.707 32
10.119 -30.712 -4.09 15
9.496 -28.572 -4.124 6
8.957 -26.732 -4.163 6
0.0 -0.0 3.0 0
7.129 -20.912 -3.393 49
7.287 -21.204 -3.89 5
7.236 -20.874 -4.188 5
7.143 -20.453 -4.444 9
6.893 -19.556 -4.507 10
6.666 -18.76 -4.58 8
6.433 -17.948 -4.619 8
6.215 -17.201 -4.659 7
6.016 -16.506 -4.697 7
5.824 -15.85 -4.731 41
5.659 -15.266 -4.778 6
5.494 -14.689 -4.81 4
5.342 -14.167 -4.853 7
5.201 -13.671 -4.893 6
5.059 -13.184 -4.922 7
4.927 -12.724 -4.951 8
4.796 -12.28 -4.975 7
4.669 -11.846 -4.99 7
4.55 -11.443 -5.013 7
4.444 -11.071 -5.043 8
4.33 -10.69 -5.056 9
4.223 -10.326 -5.068 9
4.124 -9.984 -5.085 10
4.023 -9.65 -5.097 9
3.935 -9.342 -5.121 18
12.502 -39.322 -3.934 9
10.716 -33.428 -3.498 23
10.196 -31.53 -3.702 32
10.009 -30.701 -4.088 15
9.388 -28.548 -4.118 5
8.854 -26.706 -4.156 6
0.0 -0.0 3.0 0
7.058 -20.926 -3.398 43
7.113 -20.918 -3.797 1
7.172 -20.909 -4.2 2
7.064 -20.442 -4.44 8
6.818 -19.551 -4.505 10
6.595 -18.759 -4.579 8
6.364 -17.945 -4.617 8
6.151 -17.205 -4.66 7
5.953 -16.506 -4.697 7
5.76 -15.843 -4.727 39
5.599 -15.265 -4.778 6
5.438 -14.694 -4.813 6
5.288 -14.171 -4.855 7
5.147 -13.671 -4.893 6
5.006 -13.185 -4.922 6
4.874 -12.72 -4.949 7
4.747 -12.283 -4.977 6
4.624 -11.854 -4.996 7
4.503 -11.446 -5.014 7
4.397 -11.069 -5.042 9
4.288 -10.697 -5.061 11
4.182 -10.333 -5.073 10
4.083 -9.99 -5.09 10
3.984 -9.656 -5.103 10
3.897 -9.35 -5.128 17
12.358 -39.283 -3.927 12
10.592 -33.396 -3.492 30
10.081 -31.508 -3.697 29
9.888 -30.656 -4.077 16
9.283 -28.532 -4.114 5
8.758 -26.7 -4.154 6
0.0 -0.0 3.0 0
6.989 -20.943 -3.403 36
7.026 -20.885 -3.786 2
7.116 -20.97 -4.22 2
6.989 -20.445 -4.441 7
6.745 -19.549 -4.504 9
6.525 -18.76 -4.58 6
6.295 -17.943 -4.616 8
6.084 -17.201 -4.659 7
5.889 -16.505 -4.696 7
5.702 -15.852 -4.732 44
5.542 -15.271 -4.781 6
5.382 -14.7 -4.816 6
5.231 -14.169 -4.854 8
5.094 -13.675 -4.895 4
4.955 -13.192 -4.926 6
4.826 -12.731 -4.955 8
4.695 -12.279 -4.974 6
4.574 -11.854 -4.995 7
4.455 -11.444 -5.013 7
4.352 -11.075 -5.046 7
4.245 -10.705 -5.066 9
4.138 -10.334 -5.074 9
4.039 -9.988 -5.088 8
3.944 -9.66 -5.105 10
3.859 -9.356 -5.133 16
12.215 -39.249 -3.921 13
10.489 -33.427 -3.498 29
9.979 -31.526 -3.701 28
9.779 -30.645 -4.075 13
9.18 -28.519 -4.111 5
8.657 -26.678 -4.148 6
7.181 -21.941 -3.291 1
6.917 -20.952 -3.406 26
6.95 -20.883 -3.785 2
7.041 -20.973 -4.222 1
6.915 -20.447 -4.442 9
6.672 -19.547 -4.504 9
6.455 -18.758 -4.579 8
6.228 -17.943 -4.617 8
6.02 -17.205 -4.66 8
5.826 -16.505 -4.696 7
5.641 -15.851 -4.731 41
5.483 -15.272 -4.782 6
5.326 -14.704 -4.818 6
5.177 -14.174 -4.857 8
5.041 -13.679 -4.898 5
4.901 -13.188 -4.924 6
4.773 -12.727 -4.953 7
4.647 -12.286 -4.978 6
4.527 -11.856 -4.997 7
4.411 -11.452 -5.019 7
4.307 -11.076 -5.047 16
4.202 -10.709 -5.07 9
4.097 -10.342 -5.08 9
3.998 -9.991 -5.091 10
3.903 -9.663 -5.108 12
3.818 -9.357 -5.134 19
12.073 -39.217 -3.915 14
10.39 -33.474 -3.507 31
9.879 -31.553 -3.707 29
9.665 -30.618 -4.069 13
9.07 -28.486 -4.102 5
8.561 -26.67 -4.146 6
7.07 -21.837 -3.262 1
6.846 -20.962 -3.409 17
6.878 -20.894 -3.789 2
6.942 -20.907 -4.199 12
6.84 -20.446 -4.442 9
6.597 -19.539 -4.5 9
6.383 -18.752 -4.576 6
6.162 -17.947 -4.618 8
5.954 -17.201 -4.659 8
5.765 -16.511 -4.699 7
5.579 -15.849 -4.73 42
5.424 -15.274 -4.783 6
5.269 -14.705 -4.819 6
5.123 -14.181 -4.86 8
4.985 -13.676 -4.896 6
4.851 -13.195 -4.928 6
4.723 -12.73 -4.955 7
4.599 -12.291 -4.982 6
4.48 -11.861 -5.001 7
4.364 -11.454 -5.02 7
4.261 -11.077 -5.048 44
4.156 -10.707 -5.068 9
4.052 -10.339 -5.078 9
3.957 -9.995 -5.094 8
3.863 -9.666 -5.111 14
3.776 -9.354 -5.131 18
11.932 -39.185 -3.909 15
10.278 -33.478 -3.507 22
9.777 -31.57 -3.71 30
9.548 -30.584 -4.061 13
8.969 -28.48 -4.101 6
8.466 -26.666 -4.145 6
6.999 -21.855 -3.267 1
6.776 -20.978 -3.414 11
6.818 -20.939 -3.804 1
7.039 -21.433 -4.38 5
6.765 -20.445 -4.441 9
6.529 -19.551 -4.505 9
6.313 -18.753 -4.577 8
6.092 -17.941 -4.615 8
5.889 -17.2 -4.658 8
5.702 -16.51 -4.699 7
5.519 -15.852 -4.732 43
5.367 -15.279 -4.785 6
5.211 -14.703 -4.818 6
5.065 -14.175 -4.857 8
4.931 -13.676 -4.896 6
4.8 -13.202 -4.932 6
4.673 -12.736 -4.958 7
4.549 -12.29 -4.981 6
4.43 -11.857 -4.998 7
4.319 -11.459 -5.024 7
4.216 -11.082 -5.051 41
4.112 -10.711 -5.072 9
4.009 -10.34 -5.078 9
3.914 -9.996 -5.094 9
3.823 -9.672 -5.115 21
3.733 -9.347 -5.126 16
11.791 -39.152 -3.904 14
10.147 -33.418 -3.496 30
9.672 -31.577 -3.712 28
9.441 -30.574 -4.059 13
8.865 -28.462 -4.096 6
8.368 -26.651 -4.141 6
6.928 -21.875 -3.272 1
6.709 -21.002 -3.421 7
6.741 -20.933 -3.802 1
6.804 -20.948 -4.213 2
6.688 -20.439 -4.439 9
6.455 -19.545 -4.503 9
6.245 -18.757 -4.578 8
6.027 -17.944 -4.617 8
5.824 -17.2 -4.658 8
5.639 -16.508 -4.698 7
5.459 -15.854 -4.732 43
5.308 -15.28 -4.786 6
5.156 -14.71 -4.821 7
5.011 -14.179 -4.859 8
4.879 -13.683 -4.9 6
4.746 -13.198 -4.93 6
4.623 -12.738 -4.96 7
4.501 -12.295 -4.984 7
4.383 -11.862 -5.001 7
4.272 -11.46 -5.025 7
4.172 -11.086 -5.055 42
4.07 -10.718 -5.077 9
3.966 -10.343 -5.081 8
3.875 -10.005 -5.102 8
3.78 -9.669 -5.113 24
3.697 -9.359 -5.136 15
11.645 -39.1 -3.894 9
10.017 -33.362 -3.485 22
9.562 -31.569 -3.71 30
9.324 -30.535 -4.05 13
8.764 -28.455 -4.095 6
8.273 -26.646 -4.14 6
6.86 -21.904 -3.281 1
6.643 -21.03 -3.429 5
6.651 -20.884 -3.786 5
6.72 -20.921 -4.204 2
6.613 -20.437 -4.438 9
6.384 -19.546 -4.503 10
6.175 -18.754 -4.577 8
5.958 -17.941 -4.615 8
5.759 -17.199 -4.658 8
5.58 -16.521 -4.704 7
5.4 -15.858 -4.735 47
5.249 -15.278 -4.784 7
5.098 -14.707 -4.82 6
4.956 -14.179 -4.859 8
4.827 -13.686 -4.902 5
4.696 -13.204 -4.934 7
4.573 -12.741 -4.961 7
4.451 -12.294 -4.984 7
4.336 -11.866 -5.004 7
4.228 -11.467 -5.03 6
4.126 -11.087 -5.055 41
4.025 -10.718 -5.077 7
3.924 -10.347 -5.084 8
3.832 -10.005 -5.102 8
3.742 -9.677 -5.12 29
3.657 -9.362 -5.138 16
11.499 -39.047 -3.885 7
9.881 -33.282 -3.469 23
9.451 -31.555 -3.707 31
9.213 -30.515 -4.045 14
8.666 -28.455 -4.095 4
7.595 -24.737 -3.628 2
6.791 -21.931 -3.289 1
6.584 -21.079 -3.444 3
6.584 -20.911 -3.795 24
6.804 -21.422 -4.376 4
6.537 -20.431 -4.436 11
6.31 -19.539 -4.501 9
6.105 -18.753 -4.577 8
5.892 -17.943 -4.617 8
5.695 -17.202 -4.659 8
5.517 -16.519 -4.703 7
5.34 -15.86 -4.735 44
5.19 -15.278 -4.785 6
5.042 -14.712 -4.822 6
4.902 -14.186 -4.863 8
4.774 -13.689 -4.903 6
4.642 -13.2 -4.932 7
4.522 -12.743 -4.963 7
4.402 -12.296 -4.985 7
4.288 -11.868 -5.005 7
4.181 -11.469 -5.031 7
4.082 -11.091 -5.058 37
3.981 -10.72 -5.078 7
3.882 -10.35 -5.086 9
3.791 -10.008 -5.104 8
3.703 -9.683 -5.125 32
3.619 -9.367 -5.143 15
11.358 -39.01 -3.879 7
9.763 -33.259 -3.465 22
9.34 -31.542 -3.704 31
9.105 -30.5 -4.042 14
7.386 -24.529 -3.116 0
7.412 -24.419 -3.543 30
6.725 -21.966 -3.299 1
6.524 -21.124 -3.458 5
6.522 -20.949 -3.807 23
6.732 -21.439 -4.382 5
6.46 -20.421 -4.433 13
6.24 -19.543 -4.502 10
6.037 -18.757 -4.578 8
5.826 -17.942 -4.616 8
5.63 -17.2 -4.658 8
5.455 -16.521 -4.704 7
5.28 -15.861 -4.736 41
5.133 -15.283 -4.787 6
4.986 -14.715 -4.824 6
4.847 -14.186 -4.863 8
4.721 -13.692 -4.905 6
4.593 -13.209 -4.937 6
4.472 -12.745 -4.964 7
4.353 -12.298 -4.986 7
4.238 -11.863 -5.002 6
4.135 -11.473 -5.034 7
4.036 -11.092 -5.059 33
3.937 -10.723 -5.081 9
3.838 -10.35 -5.087 10
3.749 -10.011 -5.107 9
3.661 -9.683 -5.125 32
3.579 -9.369 -5.145 12
11.211 -38.949 -3.868 7
9.643 -33.232 -3.46 23
9.236 -31.551 -3.706 30
8.997 -30.49 -4.039 13
7.287 -24.479 -3.103 11
7.311 -24.366 -3.529 48
6.659 -22.0 -3.308 1
6.484 -21.238 -3.493 2
6.463 -21.001 -3.824 10
6.657 -21.443 -4.384 5
6.385 -20.418 -4.432 16
6.168 -19.54 -4.501 10
5.967 -18.753 -4.577 8
5.759 -17.941 -4.616 7
5.566 -17.202 -4.659 8
5.393 -16.523 -4.705 7
5.22 -15.862 -4.736 43
5.076 -15.287 -4.789 6
4.931 -14.719 -4.826 6
4.792 -14.185 -4.863 8
4.668 -13.695 -4.907 6
4.54 -13.208 -4.936 6
4.421 -12.743 -4.963 6
4.304 -12.299 -4.987 7
4.193 -11.871 -5.007 7
4.089 -11.474 -5.034 7
3.991 -11.093 -5.059 29
3.894 -10.726 -5.083 8
3.798 -10.36 -5.094 9
3.707 -10.01 -5.106 8
3.622 -9.689 -5.13 31
3.541 -9.374 -5.149 14
11.07 -38.907 -3.86 6
9.533 -33.234 -3.46 24
9.13 -31.552 -3.707 26
8.888 -30.472 -4.035 13
7.198 -24.463 -3.099 11
7.22 -24.344 -3.523 48
6.595 -22.043 -3.321 1
6.434 -21.32 -3.518 3
6.403 -21.05 -3.839 5
6.578 -21.437 -4.382 5
6.312 -20.419 -4.432 20
6.095 -19.536 -4.499 9
5.897 -18.75 -4.575 6
5.691 -17.937 -4.614 8
5.503 -17.204 -4.66 8
5.333 -16.527 -4.707 7
5.159 -15.859 -4.735 41
5.017 -15.287 -4.789 6
4.874 -14.719 -4.826 6
4.738 -14.191 -4.866 9
4.616 -13.701 -4.91 6
4.49 -13.214 -4.94 6
4.372 -12.749 -4.967 7
4.255 -12.301 -4.989 7
4.146 -11.875 -5.01 7
4.043 -11.478 -5.037 7
3.944 -11.09 -5.057 24
3.846 -10.717 -5.076 8
3.753 -10.357 -5.092 9
3.668 -10.019 -5.114 9
3.583 -9.694 -5.134 10
3.501 -9.377 -5.151 16
10.93 -38.867 -3.853 7
9.418 -33.221 -3.457 30
9.022 -31.549 -3.706 27
7.2 -24.975 -2.766 1
7.109 -24.448 -3.095 12
7.131 -24.327 -3.518 52
6.529 -22.08 -3.331 1
6.374 -21.372 -3.534 17
6.363 -21.163 -3.876 4
6.5 -21.435 -4.381 5
6.237 -20.416 -4.431 16
6.024 -19.536 -4.499 10
5.828 -18.749 -4.575 8
5.625 -17.94 -4.615 8
5.439 -17.206 -4.661 7
5.269 -16.522 -4.704 6
5.099 -15.86 -4.735 40
4.958 -15.285 -4.788 6
4.818 -14.722 -4.828 6
4.682 -14.188 -4.864 9
4.563 -13.703 -4.912 6
4.438 -13.215 -4.941 6
4.32 -12.747 -4.965 7
4.207 -12.305 -4.991 8
4.098 -11.876 -5.01 7
3.996 -11.479 -5.038 6
3.901 -11.097 -5.062 22
3.805 -10.727 -5.083 7
3.712 -10.363 -5.096 9
3.626 -10.022 -5.116 9
3.54 -9.691 -5.132 10
3.461 -9.376 -5.151 17
10.787 -38.816 -3.844 6
9.293 -33.169 -3.447 23
8.919 -31.557 -3.708 29
7.101 -24.925 -2.754 1
7.02 -24.428 -3.091 42
7.046 -24.323 -3.517 17
6.471 -22.144 -3.35 1
6.285 -21.325 -3.52 5
6.299 -21.2 -3.888 5
6.422 -21.429 -4.379 5
6.167 -20.427 -4.435 12
5.953 -19.536 -4.499 10
5.76 -18.751 -4.576 8
5.559 -17.941 -4.616 8
5.374 -17.204 -4.66 8
5.206 -16.519 -4.703 7
5.043 -15.871 -4.741 42
4.903 -15.294 -4.793 7
4.761 -14.722 -4.828 6
4.629 -14.194 -4.868 35
4.509 -13.702 -4.911 6
4.387 -13.218 -4.942 6
4.27 -12.749 -4.966 7
4.158 -12.307 -4.992 7
4.05 -11.874 -5.009 6
3.951 -11.483 -5.04 7
3.856 -11.1 -5.064 19
3.762 -10.73 -5.085 7
3.669 -10.362 -5.096 9
3.584 -10.021 -5.115 9
3.501 -9.696 -5.136 10
3.423 -9.383 -5.157 13
10.646 -38.768 -3.836 7
9.177 -33.151 -3.444 30
8.814 -31.56 -3.708 27
6.996 -24.852 -2.738 0
6.936 -24.426 -3.09 45
6.965 -24.333 -3.52 1
7.035 -24.364 -3.986 2
6.239 -21.42 -3.549 2
6.252 -21.296 -3.919 1
6.346 -21.429 -4.379 5
6.092 -20.423 -4.434 12
5.882 -19.535 -4.499 10
5.691 -18.75 -4.576 8
5.496 -17.95 -4.619 7
5.312 -17.209 -4.662 8
5.144 -16.52 -4.703 6
4.981 -15.865 -4.738 44
4.844 -15.294 -4.793 6
4.705 -14.721 -4.827 6
4.574 -14.193 -4.867 35
4.457 -13.704 -4.912 6
4.333 -13.213 -4.939 6
4.222 -12.757 -4.972 7
4.111 -12.314 -4.997 6
4.002 -11.874 -5.009 7
3.903 -11.48 -5.038 6
3.812 -11.104 -5.067 16
3.719 -10.736 -5.09 7
3.628 -10.368 -5.1 8
3.544 -10.027 -5.12 8
3.46 -9.698 -5.137 13
3.383 -9.383 -5.156 12
10.509 -38.735 -3.83 7
9.057 -33.114 -3.437 29
8.708 -31.561 -3.708 28
0.0 -0.0 3.0 0
6.853 -24.428 -3.091 48
6.938 -24.532 -3.573 2
6.963 -24.411 -4.0 2
6.246 -21.709 -3.637 5
6.203 -21.388 -3.949 1
6.269 -21.426 -4.378 5
6.017 -20.416 -4.431 27
5.812 -19.538 -4.5 10
5.622 -18.748 -4.575 8
5.426 -17.938 -4.614 7
5.248 -17.209 -4.662 8
5.084 -16.525 -4.706 7
4.922 -15.868 -4.739 44
4.786 -15.294 -4.793 6
4.648 -14.721 -4.827 6
4.521 -14.199 -4.871 38
4.405 -13.71 -4.915 6
4.285 -13.224 -4.946 6
4.172 -12.758 -4.972 7
4.061 -12.312 -4.996 7
3.958 -11.885 -5.017 7
3.859 -11.486 -5.043 6
3.765 -11.1 -5.065 14
3.675 -10.736 -5.09 9
3.584 -10.367 -5.1 7
3.502 -10.029 -5.121 9
3.422 -9.706 -5.144 15
3.343 -9.384 -5.158 13
10.368 -38.682 -3.821 7
8.933 -33.061 -3.426 29
8.605 -31.571 -3.711 27
6.8 -24.75 -2.714 0
6.772 -24.434 -3.092 49
6.83 -24.448 -3.551 2
6.868 -24.372 -3.989 40
6.184 -21.757 -3.652 5
6.159 -21.498 -3.985 0
6.191 -21.423 -4.377 5
5.944 -20.416 -4.431 26
5.74 -19.533 -4.498 9
5.554 -18.747 -4.574 7
5.363 -17.946 -4.618 8
5.186 -17.214 -4.664 7
5.02 -16.517 -4.702 7
4.862 -15.868 -4.739 45
4.728 -15.293 -4.792 6
4.594 -14.726 -4.83 6
4.467 -14.201 -4.872 35
4.351 -13.708 -4.914 6
4.232 -13.219 -4.943 6
4.121 -12.756 -4.971 7
4.016 -12.322 -5.002 7
3.91 -11.886 -5.017 7
3.811 -11.484 -5.041 6
3.721 -11.104 -5.067 13
3.631 -10.736 -5.09 9
3.542 -10.37 -5.102 7
3.463 -10.037 -5.128 10
3.381 -9.708 -5.146 13
3.304 -9.386 -5.159 14
10.23 -38.645 -3.814 6
8.815 -33.03 -3.42 30
8.501 -31.578 -3.712 25
6.703 -24.699 -2.702 12
6.689 -24.435 -3.092 52
6.742 -24.435 -3.547 2
6.804 -24.445 -4.009 4
6.656 -23.707 -4.248 0
6.362 -22.482 -4.305 5
6.115 -21.423 -4.376 5
5.87 -20.415 -4.43 30
5.67 -19.536 -4.499 10
5.486 -18.748 -4.575 8
5.297 -17.947 -4.618 8
5.119 -17.205 -4.66 7
4.959 -16.518 -4.703 7
4.806 -15.878 -4.744 43
4.671 -15.297 -4.794 6
4.537 -14.725 -4.83 6
4.411 -14.196 -4.869 36
4.298 -13.71 -4.915 6
4.181 -13.224 -4.946 6
4.072 -12.76 -4.973 6
3.967 -12.323 -5.003 6
3.862 -11.885 -5.017 6
3.766 -11.487 -5.044 6
3.679 -11.112 -5.074 11
3.588 -10.741 -5.094 7
3.502 -10.379 -5.109 10
3.421 -10.037 -5.128 11
3.341 -9.71 -5.148 13
3.266 -9.394 -5.166 13
10.094 -38.605 -3.807 6
8.706 -33.03 -3.42 30
8.397 -31.585 -3.714 26
6.622 -24.707 -2.704 15
6.608 -24.444 -3.094 51
6.666 -24.463 -3.555 2
6.706 -24.397 -3.996 7
6.567 -23.686 -4.241 7
6.286 -22.489 -4.307 6
6.039 -21.423 -4.376 5
5.797 -20.414 -4.43 30
5.598 -19.526 -4.495 10
5.416 -18.743 -4.573 8
5.231 -17.945 -4.617 8
5.058 -17.212 -4.663 8
4.898 -16.521 -4.704 7
4.745 -15.874 -4.742 42
4.615 -15.303 -4.797 7
4.483 -14.732 -4.833 6
4.358 -14.202 -4.872 36
4.246 -13.711 -4.916 6
4.129 -13.221 -4.944 6
4.022 -12.762 -4.974 7
3.917 -12.321 -5.001 6
3.816 -11.889 -5.019 6
3.721 -11.49 -5.046 6
3.632 -11.109 -5.072 18
3.547 -10.75 -5.101 8
3.459 -10.381 -5.11 9
3.379 -10.039 -5.129 12
3.3 -9.708 -5.146 12
3.226 -9.393 -5.165 14
9.956 -38.563 -3.8 6
8.588 -32.998 -3.414 23
8.295 -31.594 -3.716 18
6.539 -24.709 -2.704 5
6.529 -24.456 -3.098 51
6.578 -24.444 -3.55 1
6.631 -24.429 -4.005 4
6.482 -23.676 -4.238 7
6.207 -22.49 -4.307 6
5.963 -21.419 -4.375 5
5.727 -20.424 -4.434 34
5.527 -19.525 -4.495 10
5.348 -18.741 -4.572 8
5.165 -17.942 -4.616 8
4.995 -17.212 -4.663 7
4.838 -16.525 -4.706 6
4.686 -15.877 -4.744 42
4.556 -15.299 -4.795 7
4.427 -14.733 -4.834 6
4.304 -14.203 -4.873 38
4.192 -13.71 -4.915 6
4.08 -13.229 -4.949 6
3.971 -12.759 -4.973 6
3.868 -12.321 -5.001 6
3.769 -11.892 -5.022 6
3.674 -11.49 -5.045 6
3.589 -11.115 -5.075 10
3.502 -10.747 -5.098 9
3.417 -10.383 -5.112 9
3.339 -10.044 -5.133 12
3.26 -9.713 -5.15 13
3.186 -9.393 -5.166 14
9.82 -38.524 -3.793 6
8.487 -33.028 -3.42 24
8.191 -31.6 -3.717 18
6.455 -24.706 -2.704 1
6.448 -24.464 -3.1 52
6.48 -24.39 -3.535 2
6.544 -24.419 -4.002 4
6.4 -23.676 -4.239 6
6.126 -22.482 -4.305 6
5.888 -21.421 -4.376 5
5.653 -20.418 -4.432 24
5.457 -19.526 -4.495 10
5.279 -18.738 -4.571 8
5.099 -17.942 -4.616 8
4.933 -17.216 -4.665 8
4.776 -16.525 -4.706 8
4.629 -15.883 -4.747 46
4.5 -15.304 -4.798 7
4.373 -14.739 -4.837 6
4.25 -14.205 -4.874 37
4.14 -13.714 -4.918 6
4.028 -13.231 -4.95 6
3.922 -12.762 -4.975 6
3.821 -12.325 -5.004 7
3.722 -11.892 -5.021 7
3.63 -11.496 -5.05 7
3.545 -11.118 -5.078 8
3.459 -10.752 -5.102 9
3.375 -10.385 -5.114 12
3.298 -10.046 -5.135 11
3.221 -9.718 -5.154 10
3.148 -9.397 -5.169 13
9.69 -38.508 -3.79 6
8.393 -33.087 -3.431 28
8.088 -31.609 -3.719 17
6.37 -24.695 -2.701 0
6.367 -24.471 -3.101 51
6.399 -24.398 -3.537 47
6.475 -24.476 -4.018 3
6.317 -23.673 -4.238 7
6.048 -22.486 -4.306 6
5.81 -21.412 -4.373 5
5.58 -20.417 -4.431 28
5.388 -19.528 -4.496 23
5.213 -18.743 -4.573 8
5.034 -17.943 -4.616 8
4.868 -17.212 -4.663 8
4.715 -16.524 -4.705 7
4.57 -15.886 -4.748 43
4.441 -15.3 -4.796 6
4.318 -14.744 -4.839 6
4.195 -14.203 -4.873 35
4.088 -13.716 -4.919 5
3.977 -13.231 -4.95 6
3.871 -12.759 -4.973 7
3.773 -12.328 -5.006 6
3.675 -11.895 -5.023 6
3.583 -11.495 -5.049 6
3.501 -11.123 -5.082 8
3.415 -10.751 -5.101 11
3.332 -10.384 -5.113 12
3.256 -10.047 -5.136 12
3.18 -9.719 -5.155 13
3.109 -9.402 -5.173 14
9.553 -38.46 -3.781 6
8.28 -33.07 -3.428 30
7.988 -31.625 -3.722 15
6.284 -24.683 -2.698 0
6.287 -24.479 -3.103 50
6.319 -24.409 -3.54 59
6.523 -24.98 -4.163 4
6.234 -23.67 -4.237 7
5.967 -22.474 -4.302 6
5.735 -21.415 -4.374 6
5.508 -20.419 -4.432 29
5.314 -19.515 -4.491 38
5.145 -18.743 -4.573 8
4.97 -17.947 -4.618 6
4.806 -17.216 -4.665 8
4.655 -16.527 -4.706 8
4.509 -15.878 -4.744 43
4.386 -15.309 -4.8 7
4.262 -14.742 -4.838 6
4.141 -14.204 -4.873 35
4.035 -13.716 -4.919 5
3.926 -13.232 -4.951 6
3.824 -12.769 -4.979 7
3.726 -12.335 -5.01 6
3.63 -11.902 -5.028 6
3.539 -11.502 -5.054 7
3.455 -11.12 -5.079 11
3.374 -10.759 -5.108 10
3.291 -10.392 -5.119 11
3.215 -10.049 -5.137 12
3.14 -9.721 -5.157 13
3.072 -9.409 -5.179 14
9.42 -38.43 -3.776 6
8.167 -33.053 -3.425 33
7.887 -31.641 -3.726 14
6.197 -24.664 -2.694 1
6.206 -24.486 -3.105 48
6.24 -24.424 -3.544 59
6.444 -25.006 -4.17 5
6.149 -23.655 -4.232 7
5.887 -22.469 -4.301 6
5.661 -21.418 -4.375 5
5.437 -20.423 -4.433 24
5.245 -19.516 -4.491 38
5.077 -18.741 -4.572 8
4.904 -17.943 -4.616 8
4.744 -17.219 -4.666 8
4.596 -16.533 -4.709 7
4.45 -15.88 -4.745 45
4.328 -15.307 -4.799 6
4.205 -14.737 -4.836 6
4.088 -14.208 -4.876 36
3.984 -13.721 -4.922 6
3.876 -13.235 -4.953 6
3.774 -12.767 -4.978 7
3.676 -12.328 -5.006 5
3.583 -11.905 -5.03 7
3.495 -11.507 -5.057 7
3.411 -11.122 -5.08 10
3.329 -10.755 -5.104 10
3.248 -10.391 -5.118 12
3.176 -10.056 -5.143 11
3.101 -9.725 -5.16 12
3.031 -9.407 -5.178 13
7.952 -32.875 -2.797 11
8.067 -33.085 -3.431 30
7.783 -31.646 -3.727 17
6.119 -24.682 -2.698 1
6.125 -24.49 -3.106 49
6.16 -24.435 -3.547 58
6.356 -24.995 -4.167 5
6.063 -23.639 -4.227 36
5.809 -22.469 -4.3 5
5.585 -21.416 -4.374 6
5.365 -20.425 -4.434 22
5.175 -19.513 -4.49 32
5.011 -18.744 -4.573 8
4.84 -17.947 -4.618 8
4.678 -17.208 -4.661 7
4.535 -16.536 -4.711 8
4.392 -15.882 -4.746 48
4.271 -15.308 -4.8 6
4.149 -14.735 -4.835 6
4.032 -14.203 -4.873 35
3.931 -13.721 -4.922 6
3.825 -13.236 -4.953 6
3.725 -12.77 -4.98 7
3.628 -12.331 -5.008 6
3.536 -11.904 -5.029 7
3.447 -11.504 -5.055 8
3.366 -11.124 -5.082 10
3.285 -10.757 -5.106 11
3.206 -10.392 -5.119 11
3.134 -10.055 -5.142 12
3.06 -9.726 -5.161 13
2.993 -9.411 -5.181 14
7.923 -33.201 -2.854 18
7.956 -33.074 -3.429 23
7.684 -31.666 -3.731 16
6.039 -24.689 -2.7 1
6.045 -24.501 -3.109 50
6.079 -24.446 -3.55 57
6.27 -24.996 -4.167 5
5.982 -23.639 -4.227 38
5.729 -22.46 -4.298 5
5.511 -21.417 -4.375 6
5.293 -20.422 -4.433 20
5.102 -19.502 -4.486 14
4.943 -18.741 -4.572 8
4.775 -17.946 -4.618 8
4.617 -17.214 -4.664 8
4.473 -16.53 -4.708 8
4.334 -15.884 -4.747 47
4.215 -15.31 -4.801 7
4.093 -14.736 -4.835 6
3.98 -14.211 -4.877 38
3.879 -13.721 -4.922 6
3.775 -13.24 -4.955 6
3.676 -12.773 -4.982 7
3.58 -12.334 -5.01 6
3.49 -11.907 -5.031 7
3.402 -11.506 -5.057 10
3.323 -11.129 -5.086 11
3.242 -10.759 -5.107 11
3.166 -10.4 -5.125 12
3.092 -10.056 -5.143 13
3.019 -9.724 -5.159 14
2.953 -9.412 -5.182 13
7.808 -33.171 -2.849 44
7.843 -33.056 -3.425 22
7.578 -31.661 -3.73 17
5.957 -24.691 -2.7 2
5.965 -24.511 -3.111 51
5.999 -24.457 -3.553 56
6.187 -25.003 -4.169 5
5.899 -23.633 -4.225 37
5.65 -22.457 -4.297 5
5.435 -21.415 -4.374 5
5.222 -20.427 -4.435 16
5.04 -19.529 -4.496 10
4.875 -18.741 -4.572 8
4.711 -17.949 -4.619 8
4.553 -17.209 -4.662 8
4.413 -16.533 -4.709 8
4.275 -15.885 -4.748 45
4.156 -15.304 -4.798 6
4.037 -14.733 -4.834 6
3.927 -14.211 -4.877 36
3.826 -13.722 -4.922 5
3.724 -13.239 -4.955 6
3.625 -12.77 -4.979 7
3.533 -12.336 -5.011 7
3.444 -11.912 -5.035 9
3.358 -11.511 -5.06 9
3.281 -11.137 -5.092 11
3.198 -10.757 -5.106 10
3.122 -10.398 -5.124 11
3.052 -10.06 -5.147 11
2.98 -9.728 -5.163 14
2.913 -9.41 -5.18 15
7.663 -33.01 -2.82 20
7.738 -33.067 -3.428 19
7.474 -31.661 -3.73 20
5.878 -24.701 -2.703 2
5.886 -24.521 -3.114 52
5.92 -24.47 -3.557 58
6.099 -24.991 -4.166 5
5.82 -23.64 -4.227 35
5.572 -22.456 -4.296 6
5.36 -21.412 -4.373 6
5.15 -20.427 -4.435 14
4.969 -19.521 -4.493 9
4.806 -18.733 -4.569 8
4.643 -17.937 -4.614 7
4.492 -17.215 -4.665 8
4.352 -16.531 -4.709 7
4.217 -15.887 -4.749 40
4.101 -15.312 -4.802 7
3.982 -14.734 -4.834 6
3.872 -14.208 -4.876 36
3.774 -13.722 -4.922 5
3.673 -13.243 -4.957 6
3.575 -12.77 -4.979 7
3.483 -12.333 -5.009 6
3.398 -11.915 -5.037 9
3.312 -11.513 -5.061 9
3.236 -11.136 -5.091 11
3.158 -10.768 -5.114 11
3.08 -10.399 -5.125 12
3.01 -10.058 -5.145 11
2.941 -9.735 -5.168 13
2.876 -9.419 -5.188 14
7.581 -33.117 -2.839 7
7.631 -33.072 -3.429 24
7.37 -31.66 -3.729 16
5.797 -24.707 -2.704 2
5.806 -24.531 -3.116 51
5.839 -24.476 -3.558 58
6.014 -24.99 -4.166 5
5.738 -23.639 -4.227 34
5.495 -22.458 -4.297 6
5.285 -21.414 -4.373 6
5.076 -20.421 -4.433 12
4.899 -19.521 -4.493 9
4.74 -18.736 -4.57 8
4.58 -17.944 -4.617 7
4.429 -17.213 -4.664 8
4.292 -16.533 -4.709 7
4.159 -15.891 -4.751 9
4.044 -15.314 -4.803 7
3.928 -14.738 -4.836 6
3.818 -14.209 -4.876 38
3.721 -13.718 -4.92 6
3.624 -13.249 -4.961 6
3.526 -12.769 -4.979 7
3.438 -12.342 -5.015 8
3.351 -11.917 -5.038 8
3.267 -11.515 -5.063 9
3.192 -11.141 -5.094 11
3.114 -10.769 -5.115 11
3.039 -10.404 -5.128 11
2.969 -10.059 -5.146 13
2.899 -9.73 -5.165 14
2.837 -9.42 -5.189 15
7.469 -33.097 -2.836 24
7.528 -33.091 -3.432 28
7.262 -31.643 -3.726 16
5.717 -24.714 -2.706 2
5.725 -24.536 -3.118 50
5.76 -24.49 -3.562 58
5.928 -24.986 -4.165 5
5.658 -23.641 -4.228 31
5.418 -22.459 -4.297 6
5.212 -21.418 -4.375 6
5.006 -20.424 -4.434 12
4.831 -19.525 -4.495 9
4.674 -18.739 -4.571 8
4.516 -17.946 -4.617 7
4.367 -17.216 -4.665 8
4.232 -16.535 -4.71 8
4.1 -15.89 -4.75 9
3.987 -15.311 -4.801 7
3.872 -14.736 -4.835 6
3.766 -14.212 -4.878 38
3.67 -13.725 -4.924 6
3.573 -13.249 -4.961 6
3.475 -12.765 -4.976 7
3.389 -12.341 -5.014 9
3.306 -11.922 -5.041 10
3.223 -11.52 -5.066 10
3.147 -11.14 -5.093 11
3.07 -10.768 -5.114 12
2.997 -10.405 -5.129 10
2.929 -10.066 -5.151 11
2.859 -9.73 -5.165 13
2.797 -9.421 -5.189 15
7.467 -33.566 -2.919 16
7.422 -33.097 -3.433 33
7.155 -31.631 -3.723 11
5.636 -24.719 -2.707 2
5.645 -24.543 -3.119 42
5.679 -24.496 -3.564 60
5.843 -24.984 -4.164 5
5.577 -23.643 -4.228 27
5.338 -22.449 -4.294 6
5.135 -21.408 -4.371 5
4.932 -20.417 -4.431 10
4.761 -19.52 -4.493 9
4.607 -18.738 -4.57 8
4.449 -17.937 -4.614 8
4.304 -17.214 -4.664 8
4.174 -16.543 -4.714 7
4.044 -15.898 -4.754 9
3.93 -15.311 -4.801 6
3.816 -14.732 -4.833 6
3.711 -14.209 -4.876 38
3.618 -13.725 -4.924 6
3.523 -13.252 -4.963 7
3.427 -12.767 -4.978 7
3.341 -12.34 -5.014 8
3.258 -11.918 -5.038 9
3.178 -11.522 -5.068 10
3.104 -11.144 -5.097 12
3.027 -10.769 -5.115 11
2.956 -10.409 -5.133 12
2.888 -10.067 -5.152 11
2.821 -9.74 -5.173 14
2.759 -9.424 -5.192 14
7.364 -33.592 -2.923 4
7.314 -33.096 -3.433 29
7.046 -31.607 -3.718 11
5.557 -24.728 -2.709 2
5.566 -24.555 -3.122 48
5.6 -24.509 -3.567 55
5.758 -24.983 -4.164 5
5.496 -23.64 -4.228 22
5.26 -22.446 -4.293 5
5.062 -21.411 -4.373 6
4.861 -20.416 -4.431 9
4.692 -19.519 -4.493 9
4.541 -18.74 -4.572 8
4.386 -17.943 -4.616 8
4.243 -17.219 -4.666 8
4.113 -16.54 -4.713 7
3.985 -15.895 -4.753 9
3.873 -15.308 -4.8 7
3.761 -14.732 -4.833 6
3.659 -14.216 -4.88 39
3.568 -13.731 -4.928 6
3.473 -13.254 -4.964 7
3.378 -12.77 -4.979 9
3.293 -12.342 -5.015 9
3.213 -11.927 -5.045 10
3.132 -11.523 -5.069 10
3.059 -11.142 -5.095 11
2.984 -10.771 -5.116 11
2.914 -10.413 -5.136 11
2.848 -10.071 -5.155 11
2.781 -9.741 -5.173 13
2.72 -9.424 -5.192 15
8.238 -38.137 -3.725 6
7.206 -33.095 -3.433 29
6.941 -31.601 -3.717 13
5.477 -24.737 -2.711 2
5.485 -24.56 -3.124 48
5.518 -24.51 -3.567 60
5.671 -24.974 -4.161 5
5.417 -23.645 -4.229 20
5.184 -22.45 -4.294 5
4.987 -21.411 -4.373 6
4.789 -20.413 -4.43 9
4.624 -19.522 -4.494 9
4.475 -18.743 -4.573 8
4.323 -17.945 -4.617 8
4.181 -17.217 -4.665 8
4.052 -16.538 -4.712 7
3.927 -15.899 -4.754 9
3.817 -15.312 -4.802 7
3.705 -14.728 -4.831 6
3.604 -14.208 -4.876 38
3.517 -13.737 -4.931 6
3.425 -13.264 -4.97 7
3.33 -12.776 -4.983 9
3.245 -12.34 -5.014 8
3.167 -11.928 -5.046 10
3.087 -11.525 -5.07 10
3.015 -11.146 -5.098 11
2.942 -10.774 -5.119 12
2.872 -10.414 -5.136 11
2.806 -10.068 -5.153 12
2.74 -9.738 -5.171 13
2.682 -9.431 -5.198 16
8.108 -38.1 -3.718 7
7.094 -33.074 -3.429 28
6.838 -31.599 -3.716 16
5.398 -24.749 -2.714 2
5.407 -24.573 -3.127 48
5.439 -24.526 -3.572 60
5.585 -24.965 -4.158 5
5.336 -23.647 -4.229 18
5.106 -22.447 -4.293 5
4.913 -21.411 -4.372 5
4.717 -20.412 -4.429 9
4.554 -19.517 -4.492 9
4.407 -18.737 -4.57 8
4.26 -17.95 -4.619 7
4.118 -17.214 -4.664 7
3.993 -16.542 -4.714 7
3.868 -15.892 -4.751 9
3.759 -15.309 -4.8 7
3.653 -14.739 -4.837 6
3.551 -14.211 -4.877 36
3.464 -13.734 -4.929 7
3.371 -13.252 -4.963 8
3.281 -12.777 -4.984 9
3.199 -12.349 -5.019 9
3.121 -11.933 -5.049 10
3.043 -11.53 -5.073 10
2.971 -11.148 -5.099 11
2.899 -10.776 -5.12 11
2.831 -10.418 -5.139 12
2.766 -10.075 -5.158 12
2.702 -9.744 -5.177 14
2.643 -9.433 -5.2 19
7.98 -38.074 -3.713 5
6.985 -33.064 -3.427 23
6.739 -31.619 -3.721 13
5.318 -24.758 -2.716 2
5.327 -24.582 -3.129 48
5.359 -24.536 -3.574 60
5.502 -24.97 -4.16 5
5.257 -23.651 -4.231 15
5.028 -22.443 -4.292 5
4.837 -21.403 -4.37 6
4.645 -20.407 -4.427 9
4.484 -19.512 -4.49 10
4.341 -18.739 -4.571 8
4.193 -17.937 -4.614 8
4.057 -17.219 -4.666 7
3.932 -16.539 -4.712 7
3.812 -15.903 -4.756 9
3.704 -15.312 -4.802 6
3.598 -14.739 -4.837 6
3.497 -14.207 -4.875 41
3.413 -13.736 -4.931 7
3.324 -13.264 -4.97 8
3.233 -12.78 -4.986 9
3.151 -12.348 -5.019 9
3.074 -11.931 -5.048 10
2.998 -11.531 -5.074 10
2.928 -11.152 -5.103 11
2.857 -10.783 -5.125 10
2.789 -10.418 -5.14 11
2.726 -10.078 -5.161 11
2.662 -9.748 -5.179 13
2.604 -9.434 -5.2 21
7.852 -38.043 -3.708 7
6.872 -33.035 -3.421 21
6.638 -31.631 -3.723 15
5.242 -24.782 -2.721 1
5.248 -24.594 -3.132 47
5.28 -24.547 -3.577 60
5.415 -24.956 -4.156 5
5.178 -23.655 -4.232 13
4.951 -22.443 -4.292 4
4.764 -21.407 -4.371 5
4.575 -20.41 -4.428 10
4.416 -19.514 -4.491 9
4.274 -18.734 -4.569 8
4.131 -17.949 -4.619 8
3.996 -17.219 -4.667 8
3.872 -16.536 -4.711 7
3.754 -15.903 -4.756 8
3.648 -15.315 -4.804 7
3.544 -14.742 -4.838 7
3.445 -14.21 -4.877 40
3.361 -13.739 -4.932 7
3.273 -13.263 -4.969 7
3.184 -12.781 -4.987 9
3.105 -12.356 -5.024 9
3.029 -11.936 -5.051 10
2.953 -11.535 -5.077 10
2.884 -11.153 -5.103 11
2.814 -10.783 -5.126 12
2.748 -10.422 -5.143 9
2.685 -10.079 -5.162 11
2.622 -9.747 -5.179 12
2.565 -9.434 -5.201 24
7.727 -38.028 -3.705 7
6.759 -33.002 -3.415 12
6.54 -31.655 -3.728 13
0.0 -0.0 3.0 0
5.169 -24.605 -3.135 45
5.199 -24.551 -3.579 61
5.332 -24.96 -4.157 5
5.093 -23.637 -4.226 9
4.874 -22.439 -4.291 5
4.688 -21.394 -4.367 5
4.505 -20.416 -4.431 11
4.347 -19.509 -4.489 12
4.209 -18.739 -4.571 9
4.068 -17.95 -4.619 8
3.934 -17.22 -4.667 8
3.813 -16.544 -4.714 7
3.695 -15.899 -4.755 8
3.593 -15.323 -4.807 7
3.487 -14.735 -4.834 7
3.392 -14.212 -4.878 40
3.31 -13.74 -4.933 8
3.221 -13.259 -4.967 8
3.135 -12.779 -4.985 9
3.057 -12.357 -5.025 8
2.982 -11.936 -5.051 9
2.908 -11.536 -5.078 10
2.84 -11.153 -5.103 11
2.771 -10.784 -5.126 12
2.706 -10.426 -5.146 12
2.645 -10.082 -5.165 13
2.583 -9.754 -5.185 13
2.526 -9.433 -5.2 27
7.598 -37.992 -3.699 6
6.651 -32.995 -3.413 13
6.434 -31.639 -3.725 14
0.0 -0.0 3.0 0
5.089 -24.61 -3.136 44
5.12 -24.568 -3.583 61
5.248 -24.961 -4.157 5
5.013 -23.637 -4.226 8
4.796 -22.435 -4.289 4
4.615 -21.397 -4.368 6
4.429 -20.392 -4.422 28
4.281 -19.521 -4.494 9
4.143 -18.74 -4.572 8
4.002 -17.944 -4.617 8
3.872 -17.22 -4.667 7
3.752 -16.536 -4.711 7
3.638 -15.903 -4.756 7
3.537 -15.322 -4.807 7
3.433 -14.734 -4.834 8
3.339 -14.211 -4.877 41
3.259 -13.743 -4.934 7
3.174 -13.271 -4.974 8
3.088 -12.788 -4.991 8
3.01 -12.358 -5.025 9
2.936 -11.938 -5.052 10
2.863 -11.537 -5.078 10
2.797 -11.16 -5.109 10
2.728 -10.784 -5.126 11
2.664 -10.425 -5.145 10
2.604 -10.082 -5.164 12
2.542 -9.75 -5.182 13
2.486 -9.433 -5.2 33
7.472 -37.969 -3.695 6
6.543 -32.987 -3.412 10
6.333 -31.647 -3.727 13
0.0 -0.0 3.0 0
5.01 -24.621 -3.139 42
5.041 -24.579 -3.586 60
5.163 -24.958 -4.156 5
4.932 -23.632 -4.225 7
4.721 -22.441 -4.292 4
4.541 -21.396 -4.367 6
4.359 -20.394 -4.423 28
4.212 -19.516 -4.491 9
4.076 -18.734 -4.569 9
3.937 -17.937 -4.614 10
3.811 -17.221 -4.667 5
3.693 -16.54 -4.713 7
3.581 -15.907 -4.758 7
3.48 -15.317 -4.805 8
3.379 -14.74 -4.837 8
3.285 -14.21 -4.877 40
3.207 -13.741 -4.933 7
3.122 -13.262 -4.969 7
3.038 -12.786 -4.99 8
2.965 -12.37 -5.033 8
2.891 -11.942 -5.055 9
2.818 -11.537 -5.079 10
2.752 -11.158 -5.107 11
2.686 -10.788 -5.129 10
2.623 -10.429 -5.148 12
2.564 -10.088 -5.169 12
2.504 -9.756 -5.187 14
2.449 -9.439 -5.205 33
7.35 -37.964 -3.694 7
6.436 -32.98 -3.411 9
6.232 -31.654 -3.728 11
0.0 -0.0 3.0 0
4.931 -24.631 -3.141 42
4.961 -24.59 -3.589 60
5.08 -24.958 -4.157 5
4.853 -23.632 -4.225 7
4.641 -22.426 -4.287 5
4.466 -21.387 -4.364 5
4.289 -20.399 -4.425 35
4.145 -19.52 -4.493 9
4.009 -18.731 -4.568 9
3.872 -17.931 -4.611 17
3.749 -17.221 -4.667 5
3.635 -16.547 -4.716 7
3.523 -15.906 -4.758 9
3.425 -15.323 -4.808 8
3.325 -14.738 -4.836 8
3.233 -14.212 -4.878 40
3.156 -13.746 -4.936 7
3.073 -13.271 -4.974 7
2.989 -12.784 -4.988 8
2.915 -12.36 -5.027 9
2.845 -11.946 -5.058 10
2.773 -11.541 -5.081 11
2.708 -11.158 -5.107 10
2.644 -10.794 -5.134 11
2.58 -10.426 -5.146 12
2.524 -10.092 -5.172 11
2.464 -9.756 -5.186 13
2.411 -9.445 -5.21 37
7.222 -37.927 -3.688 7
6.328 -32.972 -3.409 9
6.133 -31.676 -3.733 11
0.0 -0.0 3.0 0
4.846 -24.616 -3.137 2
4.882 -24.6 -3.592 58
4.997 -24.962 -4.158 5
4.771 -23.624 -4.223 7
4.566 -22.432 -4.289 5
4.392 -21.385 -4.364 6
4.216 -20.385 -4.42 21
4.076 -19.517 -4.492 9
3.945 -18.739 -4.571 8
3.81 -17.938 -4.614 29
3.688 -17.225 -4.669 4
3.574 -16.539 -4.712 7
3.465 -15.905 -4.757 9
3.369 -15.323 -4.807 8
3.27 -14.737 -4.836 8
3.18 -14.214 -4.879 41
3.104 -13.745 -4.936 8
3.023 -13.269 -4.973 7
2.942 -12.792 -4.993 9
2.869 -12.365 -5.03 10
2.797 -11.941 -5.054 9
2.729 -11.545 -5.084 10
2.666 -11.165 -5.112 10
2.601 -10.795 -5.134 11
2.539 -10.429 -5.148 11
2.483 -10.091 -5.172 12
2.424 -9.759 -5.188 14
2.372 -9.447 -5.212 35
7.097 -37.906 -3.684 7
6.223 -32.975 -3.41 10
6.03 -31.672 -3.732 14
0.0 -0.0 3.0 0
4.769 -24.634 -3.142 1
4.803 -24.615 -3.595 58
4.914 -24.961 -4.158 5
4.691 -23.623 -4.222 6
4.49 -22.43 -4.288 5
4.318 -21.383 -4.363 6
4.147 -20.395 -4.423 10
4.007 -19.512 -4.49 10
3.878 -18.735 -4.57 8
3.747 -17.938 -4.614 37
3.627 -17.224 -4.669 5
3.515 -16.543 -4.714 7
3.407 -15.904 -4.757 10
3.313 -15.325 -4.809 7
3.217 -14.742 -4.839 8
3.128 -14.216 -4.88 34
3.054 -13.75 -4.938 8
2.973 -13.27 -4.973 8
2.893 -12.79 -4.992 9
2.822 -12.369 -5.033 9
2.753 -11.951 -5.061 10
2.684 -11.546 -5.085 10
2.621 -11.163 -5.11 11
2.558 -10.794 -5.134 11
2.499 -10.435 -5.153 10
2.442 -10.094 -5.174 12
2.386 -9.765 -5.193 14
2.333 -9.446 -5.211 38
6.972 -37.881 -3.679 6
6.116 -32.967 -3.408 8
5.93 -31.686 -3.735 13
0.0 -0.0 3.0 0
4.694 -24.667 -3.15 24
4.723 -24.622 -3.597 58
4.829 -24.957 -4.156 5
4.609 -23.611 -4.219 6
4.412 -22.421 -4.285 5
4.245 -21.385 -4.363 5
4.079 -20.403 -4.426 9
3.94 -19.515 -4.491 10
3.813 -18.736 -4.57 9
3.683 -17.938 -4.614 42
3.565 -17.22 -4.667 6
3.458 -16.553 -4.719 7
3.352 -15.917 -4.763 9
3.256 -15.321 -4.806 8
3.161 -14.738 -4.836 8
3.076 -14.218 -4.881 38
3.003 -13.751 -4.939 7
2.924 -13.275 -4.976 8
2.844 -12.791 -4.992 9
2.774 -12.367 -5.031 10
2.706 -11.948 -5.059 10
2.64 -11.552 -5.089 10
2.579 -11.172 -5.117 10
2.516 -10.797 -5.136 10
2.457 -10.438 -5.155 12
2.402 -10.096 -5.176 13
2.347 -9.77 -5.198 14
2.295 -9.449 -5.214 39
6.851 -37.879 -3.679 7
6.011 -32.973 -3.409 8
5.83 -31.696 -3.737 13
0.0 -0.0 3.0 0
4.616 -24.681 -3.154 46
4.642 -24.628 -3.599 57
4.746 -24.956 -4.156 5
4.53 -23.61 -4.218 6
4.335 -22.419 -4.284 4
4.174 -21.393 -4.366 6
4.008 -20.404 -4.426 9
3.872 -19.516 -4.492 10
3.748 -18.74 -4.571 9
3.62 -17.937 -4.614 49
3.505 -17.23 -4.671 7
3.398 -16.552 -4.718 7
3.294 -15.912 -4.761 9
3.201 -15.322 -4.807 8
3.109 -14.746 -4.84 9
3.025 -14.226 -4.885 40
2.952 -13.756 -4.942 7
2.874 -13.276 -4.977 8
2.796 -12.795 -4.995 9
2.727 -12.37 -5.033 9
2.661 -11.952 -5.062 10
2.595 -11.55 -5.087 10
2.535 -11.169 -5.115 11
2.473 -10.797 -5.136 11
2.415 -10.435 -5.152 11
2.362 -10.099 -5.178 11
2.308 -9.772 -5.2 14
2.257 -9.454 -5.218 36
6.724 -37.84 -3.672 7
5.907 -32.979 -3.41 9
5.729 -31.706 -3.739 14
0.0 -0.0 3.0 0
4.537 -24.695 -3.157 56
4.562 -24.634 -3.601 54
4.662 -24.951 -4.155 5
4.452 -23.619 -4.221 6
4.26 -22.421 -4.285 5
4.098 -21.38 -4.362 5
3.938 -20.4 -4.425 9
3.804 -19.516 -4.492 10
3.683 -18.744 -4.573 8
3.557 -17.941 -4.615 58
3.443 -17.226 -4.669 8
3.338 -16.546 -4.716 7
3.236 -15.911 -4.76 9
3.145 -15.324 -4.808 8
3.055 -14.748 -4.841 9
2.971 -14.22 -4.882 41
2.9 -13.75 -4.939 7
2.825 -13.28 -4.979 7
2.748 -12.796 -4.996 8
2.68 -12.371 -5.034 9
2.614 -11.949 -5.06 10
2.55 -11.553 -5.089 10
2.491 -11.172 -5.117 10
2.431 -10.8 -5.138 11
2.374 -10.44 -5.157 12
2.322 -10.102 -5.18 11
2.267 -9.769 -5.197 13
2.218 -9.453 -5.217 38
6.6 -37.818 -3.668 8
5.802 -32.982 -3.411 8
5.628 -31.711 -3.74 14
0.0 -0.0 3.0 0
4.458 -24.704 -3.159 58
4.48 -24.633 -3.6 8
4.581 -24.961 -4.157 5
4.37 -23.605 -4.217 6
4.183 -22.418 -4.284 4
4.026 -21.385 -4.363 6
3.868 -20.405 -4.427 9
3.735 -19.505 -4.487 10
3.617 -18.739 -4.571 8
3.495 -17.944 -4.617 51
3.383 -17.229 -4.671 8
3.279 -16.549 -4.717 7
3.179 -15.913 -4.761 9
3.089 -15.322 -4.807 8
3.001 -14.746 -4.84 8
2.919 -14.225 -4.885 40
2.851 -13.762 -4.945 7
2.774 -13.277 -4.978 7
2.699 -12.795 -4.995 10
2.633 -12.375 -5.036 9
2.57 -11.959 -5.066 10
2.505 -11.553 -5.089 9
2.447 -11.172 -5.117 11
2.388 -10.8 -5.138 11
2.333 -10.443 -5.159 11
2.281 -10.104 -5.182 11
2.228 -9.774 -5.201 12
2.179 -9.455 -5.219 39
6.474 -37.782 -3.662 8
5.697 -32.983 -3.411 9
5.528 -31.724 -3.743 13
0.0 -0.0 3.0 0
4.379 -24.713 -3.162 53
4.434 -24.828 -3.653 1
4.495 -24.948 -4.154 5
4.292 -23.611 -4.219 7
4.106 -22.412 -4.282 4
3.953 -21.385 -4.363 6
3.798 -20.401 -4.425 9
3.669 -19.516 -4.492 10
3.551 -18.739 -4.571 8
3.432 -17.946 -4.618 45
3.322 -17.231 -4.672 7
3.219 -16.547 -4.716 7
3.122 -15.918 -4.764 9
3.036 -15.334 -4.813 8
2.948 -14.75 -4.843 8
2.867 -14.229 -4.887 37
2.799 -13.759 -4.944 8
2.725 -13.281 -4.98 8
2.652 -12.8 -4.998 8
2.586 -12.375 -5.036 10
2.523 -11.956 -5.064 9
2.461 -11.556 -5.091 11
2.404 -11.175 -5.119 11
2.346 -10.805 -5.142 12
2.291 -10.442 -5.158 11
2.24 -10.1 -5.179 12
2.189 -9.776 -5.203 12
2.141 -9.457 -5.221 38
6.35 -37.755 -3.657 10
5.587 -32.957 -3.406 9
5.429 -31.744 -3.747 13
4.512 -26.175 -3.043 3
4.301 -24.731 -3.166 18
4.325 -24.67 -3.61 4
4.401 -24.886 -4.136 4
4.212 -23.605 -4.217 6
4.031 -22.412 -4.282 5
3.88 -21.381 -4.362 5
3.728 -20.401 -4.425 9
3.601 -19.512 -4.49 9
3.487 -18.745 -4.574 8
3.367 -17.938 -4.614 45
3.26 -17.226 -4.669 7
3.162 -16.556 -4.72 7
3.065 -15.92 -4.765 10
2.98 -15.332 -4.812 8
2.894 -14.752 -4.844 8
2.814 -14.224 -4.884 41
2.749 -13.763 -4.946 8
2.677 -13.288 -4.984 7
2.603 -12.8 -4.998 9
2.539 -12.375 -5.036 9
2.477 -11.955 -5.064 10
2.417 -11.559 -5.094 10
2.361 -11.177 -5.12 12
2.304 -10.808 -5.145 12
2.25 -10.445 -5.16 11
2.201 -10.109 -5.186 11
2.15 -9.781 -5.207 14
2.103 -9.462 -5.225 37
6.226 -37.723 -3.652 16
5.483 -32.962 -3.407 10
5.329 -31.752 -3.749 17
4.441 -26.257 -3.062 9
4.223 -24.743 -3.169 15
4.244 -24.675 -3.612 3
4.285 -24.694 -4.081 2
4.133 -23.605 -4.217 6
3.957 -22.421 -4.285 4
3.808 -21.385 -4.363 6
3.658 -20.404 -4.427 9
3.531 -19.5 -4.485 10
3.421 -18.741 -4.572 8
3.305 -17.941 -4.615 41
3.2 -17.232 -4.672 7
3.102 -16.551 -4.718 7
3.008 -15.918 -4.764 10
2.925 -15.337 -4.814 8
2.841 -14.756 -4.846 8
2.762 -14.227 -4.886 40
2.697 -13.76 -4.945 8
2.627 -13.289 -4.985 8
2.554 -12.797 -4.996 9
2.493 -12.381 -5.04 9
2.431 -11.955 -5.064 10
2.372 -11.561 -5.095 10
2.317 -11.18 -5.123 12
2.262 -10.814 -5.149 8
2.21 -10.453 -5.167 11
2.16 -10.111 -5.188 11
2.11 -9.777 -5.204 12
2.063 -9.457 -5.221 37
6.105 -37.715 -3.65 17
5.379 -32.967 -3.408 10
5.226 -31.745 -3.748 17
4.341 -26.163 -3.04 11
4.144 -24.755 -3.172 22
4.165 -24.684 -3.614 28
4.205 -24.702 -4.083 3
4.052 -23.592 -4.213 6
3.88 -22.413 -4.282 4
3.734 -21.377 -4.361 6
3.588 -20.401 -4.425 9
3.465 -19.506 -4.488 9
3.355 -18.736 -4.57 8
3.241 -17.935 -4.613 38
3.137 -17.223 -4.668 8
3.044 -16.556 -4.72 8
2.951 -15.923 -4.766 10
2.868 -15.331 -4.812 8
2.787 -14.757 -4.847 8
2.71 -14.232 -4.889 41
2.647 -13.767 -4.949 8
2.578 -13.292 -4.987 7
2.508 -12.807 -5.003 8
2.446 -12.381 -5.04 10
2.386 -11.961 -5.068 10
2.328 -11.564 -5.097 10
2.274 -11.179 -5.122 11
2.22 -10.813 -5.148 11
2.168 -10.449 -5.164 11
