# .PCD v0.7 - Point Cloud Data file format
VERSION 0.7
FIELDS x y z intensity
SIZE 4 4 4 4
TYPE F F F F
COUNT 1 1 1 1
WIDTH 2060
HEIGHT 1
VIEWPOINT 0 0 0 1 0 0 0
POINTS 2060
DATA ascii
12.569 -8.056 -3.76 15
12.131 -7.748 -3.735 12
9.919 -8.264 1.543 31
10.595 -8.704 1.308 23
9.896 -8.015 1.296 19
9.164 -7.324 1.309 22
9.266 -7.306 1.178 21
9.402 -7.32 1.039 28
10.149 -7.802 0.763 0
10.083 -7.657 0.659 16
34.847 -26.162 -5.501 5
32.85 -24.384 -5.396 5
30.582 -22.469 -5.178 5
9.321 -6.774 0.4 44
10.136 -7.296 0.052 17
0.0 -0.0 3.0 0
9.584 -6.772 -0.015 9
9.498 -6.653 -0.102 32
11.512 -8.001 -0.902 21
11.569 -7.977 -1.064 13
11.653 -7.976 -1.241 1
11.694 -7.951 -1.407 0
11.727 -7.921 -1.573 20
11.799 -7.923 -1.76 20
17.176 -11.466 -4.165 7
16.563 -11.001 -4.144 7
15.975 -10.556 -4.12 7
15.429 -10.149 -4.107 20
14.946 -9.787 -4.11 19
14.336 -9.349 -4.045 11
13.782 -8.951 -3.994 13
13.115 -8.484 -3.871 10
12.505 -8.062 -3.765 16
12.077 -7.758 -3.744 13
9.666 -8.1 1.572 13
10.19 -8.42 1.363 43
10.259 -8.36 1.223 25
9.53 -7.663 1.231 36
9.219 -7.314 1.176 22
9.357 -7.33 1.036 29
9.383 -7.258 0.919 16
10.115 -7.73 0.637 2
34.643 -26.174 -5.505 4
32.588 -24.344 -5.382 4
30.36 -22.449 -5.171 5
10.246 -7.494 0.123 21
10.351 -7.498 -0.03 31
11.168 -8.013 -0.401 15
9.532 -6.779 -0.018 21
9.478 -6.682 -0.116 19
11.509 -8.05 -0.926 2
20.884 -14.494 -4.385 5
20.023 -13.793 -4.334 5
19.217 -13.15 -4.289 6
11.739 -7.98 -1.607 15
11.767 -7.952 -1.778 27
11.877 -7.979 -1.986 19
16.47 -11.008 -4.149 9
15.902 -10.573 -4.131 9
15.351 -10.161 -4.115 21
14.873 -9.798 -4.119 17
14.27 -9.363 -4.056 13
13.727 -8.969 -4.008 13
13.031 -8.481 -3.867 10
12.435 -8.064 -3.766 18
12.021 -7.767 -3.752 13
9.6 -8.092 1.573 22
9.933 -8.257 1.395 28
10.019 -8.212 1.254 31
9.378 -7.585 1.249 31
9.184 -7.33 1.172 27
9.334 -7.357 1.029 28
0.0 -0.0 3.0 0
35.759 -27.5 -5.408 26
34.442 -26.188 -5.509 4
32.339 -24.312 -5.371 5
10.84 -8.067 0.064 0
10.374 -7.638 0.068 11
10.389 -7.574 -0.06 17
11.128 -8.036 -0.411 19
9.524 -6.818 -0.035 27
9.442 -6.7 -0.124 4
21.722 -15.292 -4.458 5
20.77 -14.508 -4.392 5
19.908 -13.802 -4.339 5
19.12 -13.168 -4.299 5
11.742 -8.033 -1.638 0
11.76 -7.998 -1.806 26
11.829 -7.997 -1.997 23
16.392 -11.025 -4.159 7
15.822 -10.586 -4.14 9
15.277 -10.174 -4.124 19
14.812 -9.818 -4.133 18
14.213 -9.383 -4.07 11
13.657 -8.977 -4.013 19
12.95 -8.477 -3.865 9
12.386 -8.079 -3.779 16
11.967 -7.777 -3.76 13
9.606 -8.145 1.564 28
9.775 -8.173 1.411 14
9.591 -7.909 1.319 32
9.388 -7.64 1.236 19
9.149 -7.347 1.168 25
9.327 -7.397 1.018 22
9.334 -7.311 0.904 39
10.174 -7.873 0.593 18
10.593 -8.106 0.366 0
10.691 -8.088 0.215 0
10.795 -8.085 0.057 20
10.778 -7.986 -0.065 26
10.429 -7.652 -0.092 54
11.129 -8.088 -0.433 0
9.513 -6.854 -0.052 35
22.623 -16.158 -4.534 7
21.583 -15.294 -4.459 5
20.644 -14.514 -4.395 5
19.799 -13.816 -4.346 5
19.01 -13.176 -4.304 6
18.254 -12.569 -4.256 6
11.759 -8.049 -1.836 13
11.803 -8.03 -2.018 20
11.91 -8.06 -2.235 19
15.743 -10.598 -4.149 9
15.196 -10.182 -4.129 13
14.704 -9.806 -4.125 19
14.145 -9.394 -4.079 15
13.592 -8.988 -4.022 14
12.866 -8.473 -3.861 10
12.325 -8.087 -3.786 15
11.91 -7.785 -3.767 11
9.613 -8.198 1.555 21
9.784 -8.229 1.4 18
9.381 -7.782 1.346 23
9.295 -7.61 1.243 29
9.114 -7.364 1.164 0
9.301 -7.422 1.011 28
9.224 -7.27 0.915 42
9.209 -7.172 0.807 2
10.554 -8.127 0.36 22
10.652 -8.111 0.207 22
10.749 -8.102 0.051 22
10.851 -8.092 -0.106 12
0.0 -0.0 3.0 0
23.59 -17.256 -4.325 38
9.502 -6.891 -0.068 20
22.483 -16.161 -4.536 7
21.461 -15.305 -4.465 5
20.521 -14.52 -4.398 5
19.681 -13.822 -4.349 5
18.894 -13.18 -4.306 6
18.152 -12.578 -4.262 6
17.461 -12.027 -4.226 6
11.755 -8.048 -2.029 28
11.827 -8.055 -2.231 23
15.658 -10.607 -4.154 9
15.124 -10.197 -4.14 11
14.619 -9.809 -4.126 17
14.082 -9.408 -4.09 26
13.507 -8.985 -4.02 22
12.792 -8.474 -3.862 9
12.261 -8.092 -3.79 15
11.857 -7.794 -3.775 13
9.625 -8.256 1.544 20
9.711 -8.216 1.403 26
9.281 -7.746 1.354 25
9.317 -7.674 1.228 20
9.281 -7.545 1.119 0
9.902 -7.95 0.87 29
9.17 -7.272 0.915 25
10.096 -7.911 0.581 20
10.082 -7.811 0.462 29
10.622 -8.139 0.197 26
10.729 -8.139 0.038 4
27.675 -20.769 -4.972 6
0.0 -0.0 3.0 0
23.591 -17.369 -4.372 29
9.466 -6.908 -0.076 24
22.336 -16.159 -4.535 7
21.32 -15.303 -4.464 5
20.401 -14.528 -4.403 5
19.579 -13.839 -4.359 4
18.791 -13.193 -4.313 6
18.048 -12.586 -4.267 6
17.371 -12.041 -4.235 6
11.791 -8.124 -2.076 19
11.826 -8.105 -2.263 34
11.889 -8.104 -2.466 15
15.046 -10.207 -4.147 19
14.542 -9.817 -4.133 15
14.01 -9.417 -4.096 19
13.434 -8.99 -4.024 23
12.714 -8.472 -3.861 13
12.188 -8.091 -3.789 24
11.797 -7.8 -3.78 15
9.655 -8.33 1.531 1
9.747 -8.295 1.388 21
9.27 -7.782 1.346 23
9.291 -7.699 1.223 28
0.0 -0.0 3.0 0
9.871 -7.975 0.863 21
9.239 -7.372 0.886 47
10.082 -7.95 0.569 16
10.022 -7.815 0.461 18
9.882 -7.62 0.376 18
29.249 -22.328 -5.127 5
27.484 -20.758 -4.968 6
24.027 -17.974 -4.262 1
23.631 -17.51 -4.433 1
9.436 -6.931 -0.086 19
22.202 -16.167 -4.539 7
21.191 -15.309 -4.467 5
20.275 -14.532 -4.404 5
19.468 -13.849 -4.363 5
18.685 -13.202 -4.318 5
17.95 -12.597 -4.273 6
17.278 -12.053 -4.242 6
11.802 -8.182 -2.113 3
11.796 -8.135 -2.283 25
11.844 -8.124 -2.479 16
14.972 -10.219 -4.155 23
14.475 -9.831 -4.143 16
11.139 -7.533 -2.677 2
13.345 -8.984 -4.019 16
12.625 -8.462 -3.852 15
12.149 -8.112 -3.807 17
11.744 -7.809 -3.788 13
10.026 -8.702 1.466 28
9.704 -8.308 1.385 26
9.307 -7.86 1.329 20
9.328 -7.776 1.205 40
9.991 -8.222 0.95 18
9.839 -7.999 0.857 22
9.799 -7.868 0.744 27
34.567 -27.427 -5.385 27
9.95 -7.808 0.463 27
9.839 -7.634 0.371 29
29.029 -22.302 -5.117 5
27.287 -20.741 -4.962 5
25.767 -19.4 -4.838 5
23.649 -17.636 -4.486 1
9.428 -6.969 -0.103 24
22.068 -16.173 -4.542 7
21.06 -15.312 -4.468 6
20.161 -14.543 -4.41 5
19.353 -13.855 -4.367 5
18.575 -13.209 -4.322 6
17.855 -12.611 -4.281 6
17.181 -12.061 -4.247 6
16.566 -11.558 -4.222 6
11.813 -8.197 -2.323 18
11.808 -8.149 -2.496 27
11.896 -8.17 -2.72 16
14.405 -9.843 -4.152 16
11.065 -7.528 -2.673 2
13.254 -8.976 -4.013 17
12.554 -8.464 -3.854 14
12.091 -8.12 -3.814 22
11.693 -7.821 -3.798 14
10.034 -8.759 1.456 26
9.712 -8.365 1.374 18
9.262 -7.869 1.327 23
9.222 -7.735 1.214 23
9.582 -7.933 1.022 1
9.878 -8.08 0.835 10
9.774 -7.897 0.736 26
9.733 -7.772 0.624 0
9.848 -7.776 0.473 16
9.835 -7.681 0.355 29
28.825 -22.287 -5.112 5
27.091 -20.723 -4.955 5
25.577 -19.381 -4.83 5
24.19 -18.156 -4.707 1
9.435 -7.02 -0.125 11
21.928 -16.174 -4.542 8
20.935 -15.32 -4.472 5
20.048 -14.555 -4.416 5
19.239 -13.862 -4.371 5
18.475 -13.222 -4.329 5
17.766 -12.628 -4.291 6
17.094 -12.076 -4.256 6
16.477 -11.569 -4.229 7
11.816 -8.251 -2.358 1
11.793 -8.19 -2.524 21
11.832 -8.176 -2.725 32
11.174 -7.682 -2.581 2
10.98 -7.514 -2.663 2
11.187 -7.622 -2.955 0
12.45 -8.444 -3.838 54
12.027 -8.125 -3.818 21
11.64 -7.83 -3.806 17
9.948 -8.735 1.46 21
9.738 -8.436 1.36 8
9.35 -7.991 1.302 36
9.093 -7.672 1.229 18
9.463 -7.883 1.035 0
9.987 -8.219 0.798 12
9.755 -7.93 0.726 28
9.702 -7.795 0.617 28
9.82 -7.803 0.465 19
9.776 -7.683 0.355 28
28.622 -22.27 -5.106 5
26.904 -20.712 -4.951 6
25.413 -19.379 -4.83 6
24.097 -18.202 -4.726 6
22.871 -17.125 -4.625 6
21.794 -16.179 -4.544 8
20.81 -15.326 -4.475 5
19.922 -14.556 -4.417 5
19.131 -13.872 -4.376 5
18.363 -13.225 -4.331 6
17.665 -12.636 -4.296 6
17.004 -12.089 -4.264 6
16.392 -11.582 -4.237 6
15.812 -11.111 -4.215 8
11.788 -8.237 -2.556 18
11.808 -8.21 -2.749 43
11.13 -7.699 -2.594 5
10.9 -7.506 -2.656 3
11.11 -7.614 -2.949 2
12.406 -8.464 -3.854 34
11.97 -8.133 -3.824 20
11.58 -7.835 -3.811 22
9.833 -8.684 1.469 25
9.877 -8.608 1.327 22
9.323 -8.015 1.296 14
9.054 -7.686 1.226 28
10.441 -8.75 0.818 9
9.779 -8.096 0.831 24
9.794 -8.012 0.703 17
9.65 -7.801 0.615 24
9.764 -7.807 0.463 25
9.772 -7.728 0.339 3
28.397 -22.235 -5.093 5
26.721 -20.703 -4.947 6
25.233 -19.366 -4.824 5
23.933 -18.194 -4.723 6
22.728 -17.129 -4.626 6
21.658 -16.18 -4.545 7
20.676 -15.325 -4.474 5
19.806 -14.564 -4.421 5
19.026 -13.885 -4.383 5
18.264 -13.238 -4.338 5
17.564 -12.644 -4.3 6
16.912 -12.099 -4.27 6
16.304 -11.592 -4.244 7
15.731 -11.123 -4.224 6
11.797 -8.294 -2.594 2
11.778 -8.239 -2.769 33
11.068 -7.703 -2.597 5
10.815 -7.492 -2.645 4
11.027 -7.602 -2.94 2
12.329 -8.461 -3.852 38
11.912 -8.142 -3.832 24
11.533 -7.847 -3.822 14
9.858 -8.758 1.456 21
9.765 -8.56 1.336 23
9.586 -8.291 1.238 29
9.043 -7.722 1.217 31
10.389 -8.76 0.816 0
9.732 -8.108 0.827 22
35.595 -29.297 -5.401 29
9.631 -7.834 0.605 29
9.742 -7.838 0.453 25
30.138 -23.984 -5.259 4
28.201 -22.222 -5.088 5
26.52 -20.677 -4.937 5
25.06 -19.356 -4.82 6
23.776 -18.191 -4.721 6
22.577 -17.123 -4.624 7
21.519 -16.179 -4.545 7
20.552 -15.33 -4.477 5
19.69 -14.572 -4.425 5
18.912 -13.89 -4.386 5
18.158 -13.245 -4.342 6
17.473 -12.658 -4.308 6
16.825 -12.113 -4.278 6
16.222 -11.606 -4.252 7
15.648 -11.133 -4.23 6
15.11 -10.69 -4.21 9
11.778 -8.29 -2.804 19
11.015 -7.713 -2.604 4
10.753 -7.494 -2.647 6
10.933 -7.582 -2.924 2
11.173 -7.713 -3.246 2
11.846 -8.143 -3.833 27
11.479 -7.856 -3.829 12
9.791 -8.749 1.457 22
9.564 -8.433 1.361 24
9.615 -8.366 1.222 27
9.055 -7.779 1.204 25
10.127 -8.591 0.858 5
9.683 -8.116 0.825 30
35.296 -29.23 -5.382 25
9.624 -7.878 0.591 24
9.795 -7.931 0.423 0
29.916 -23.957 -5.249 4
27.987 -22.192 -5.077 5
26.343 -20.671 -4.935 5
24.894 -19.35 -4.818 6
23.625 -18.19 -4.721 6
22.438 -17.127 -4.625 7
21.392 -16.188 -4.548 7
20.418 -15.328 -4.476 5
19.58 -14.583 -4.431 5
18.802 -13.897 -4.389 5
18.061 -13.259 -4.349 5
17.378 -12.67 -4.315 6
16.735 -12.124 -4.285 6
16.143 -11.623 -4.263 7
15.574 -11.149 -4.24 8
15.041 -10.706 -4.221 10
11.789 -8.349 -2.846 5
10.957 -7.718 -2.608 4
10.671 -7.482 -2.638 5
10.856 -7.575 -2.918 2
11.096 -7.705 -3.24 2
11.776 -8.143 -3.833 28
11.423 -7.863 -3.835 12
9.771 -8.782 1.451 16
9.604 -8.518 1.344 23
9.521 -8.333 1.229 21
9.127 -7.888 1.179 32
9.914 -8.462 0.89 11
9.693 -8.175 0.81 8
10.104 -8.419 0.586 5
9.623 -7.925 0.577 13
31.857 -25.954 -5.433 11
29.685 -23.922 -5.237 4
27.797 -22.182 -5.074 6
26.149 -20.648 -4.926 6
24.724 -19.34 -4.814 6
23.465 -18.183 -4.718 7
22.306 -17.135 -4.629 6
21.256 -16.188 -4.548 7
20.313 -15.347 -4.485 5
19.459 -14.585 -4.431 6
18.688 -13.901 -4.391 5
17.965 -13.271 -4.356 6
17.281 -12.677 -4.319 6
16.649 -12.138 -4.293 6
16.055 -11.631 -4.268 7
15.493 -11.161 -4.248 7
14.962 -10.716 -4.228 9
14.46 -10.303 -4.214 10
10.901 -7.725 -2.613 4
10.589 -7.469 -2.628 4
10.771 -7.56 -2.906 2
11.004 -7.686 -3.224 2
11.692 -8.132 -3.823 10
11.375 -7.875 -3.846 17
9.715 -8.782 1.451 18
9.54 -8.512 1.345 21
9.365 -8.245 1.247 24
9.117 -7.927 1.17 29
9.822 -8.434 0.897 19
9.617 -8.16 0.814 27
34.859 -29.227 -5.381 22
9.591 -7.949 0.57 24
31.633 -25.934 -5.426 12
29.469 -23.899 -5.229 4
27.59 -22.156 -5.064 6
25.967 -20.635 -4.921 6
24.546 -19.323 -4.807 6
23.314 -18.182 -4.718 6
22.149 -17.123 -4.624 6
21.13 -16.194 -4.551 7
20.189 -15.351 -4.487 5
19.349 -14.596 -4.437 6
18.584 -13.911 -4.397 5
17.863 -13.28 -4.361 5
17.186 -12.689 -4.326 6
16.565 -12.153 -4.302 6
15.967 -11.64 -4.274 6
15.407 -11.168 -4.252 7
14.883 -10.725 -4.234 9
14.388 -10.314 -4.222 10
10.842 -7.731 -2.617 3
10.519 -7.465 -2.625 4
10.695 -7.551 -2.9 2
10.919 -7.672 -3.212 2
11.171 -7.815 -3.557 4
11.321 -7.884 -3.853 13
9.851 -8.958 1.421 11
9.37 -8.409 1.365 15
9.242 -8.186 1.26 18
9.105 -7.964 1.161 29
9.981 -8.623 0.85 12
9.573 -8.173 0.81 29
9.768 -8.24 0.637 21
9.753 -8.133 0.513 23
9.754 -8.047 0.385 17
29.249 -23.869 -5.219 5
27.389 -22.134 -5.056 6
25.779 -20.616 -4.914 5
24.389 -19.322 -4.807 6
23.161 -18.177 -4.716 6
21.993 -17.111 -4.618 7
20.991 -16.191 -4.55 7
20.071 -15.359 -4.491 5
19.237 -14.603 -4.441 5
18.473 -13.917 -4.4 5
17.755 -13.283 -4.363 5
17.098 -12.703 -4.334 6
16.469 -12.159 -4.306 6
15.892 -11.658 -4.285 6
15.336 -11.185 -4.264 6
14.805 -10.734 -4.24 9
11.153 -8.044 -2.633 4
10.789 -7.74 -2.623 3
10.462 -7.469 -2.628 5
10.616 -7.541 -2.891 2
10.839 -7.661 -3.204 2
11.079 -7.796 -3.542 3
11.18 -7.83 -3.807 14
9.666 -8.841 1.441 25
9.28 -8.378 1.372 21
9.217 -8.213 1.254 27
9.369 -8.245 1.097 31
9.779 -8.499 0.881 22
9.577 -8.226 0.796 12
9.703 -8.236 0.638 28
9.672 -8.116 0.519 27
9.689 -8.043 0.387 27
29.022 -23.833 -5.206 5
27.194 -22.115 -5.049 6
25.601 -20.603 -4.909 6
24.215 -19.306 -4.8 6
23.001 -18.167 -4.712 6
21.843 -17.103 -4.615 12
20.871 -16.201 -4.555 7
19.944 -15.359 -4.491 5
19.128 -14.613 -4.446 6
18.372 -13.929 -4.406 5
17.662 -13.297 -4.371 5
17.004 -12.713 -4.34 6
16.383 -12.171 -4.313 6
15.807 -11.668 -4.291 6
15.256 -11.196 -4.271 6
14.732 -10.748 -4.25 9
11.105 -8.059 -2.643 5
10.734 -7.747 -2.629 4
10.404 -7.472 -2.63 5
10.543 -7.534 -2.886 2
10.76 -7.65 -3.195 2
10.991 -7.779 -3.527 3
11.097 -7.817 -3.795 11
9.585 -8.818 1.445 19
9.314 -8.458 1.356 20
9.183 -8.231 1.25 18
9.284 -8.219 1.102 29
9.767 -8.541 0.871 23
9.572 -8.272 0.784 16
9.688 -8.275 0.627 30
9.622 -8.125 0.516 29
9.647 -8.058 0.382 35
28.811 -23.808 -5.198 5
26.997 -22.093 -5.041 6
25.426 -20.592 -4.905 6
24.062 -19.306 -4.8 6
22.849 -18.161 -4.709 6
21.705 -17.103 -4.615 23
20.736 -16.199 -4.554 7
19.827 -15.366 -4.494 5
19.015 -14.62 -4.449 6
18.268 -13.938 -4.411 5
17.56 -13.304 -4.375 5
16.913 -12.725 -4.347 5
16.297 -12.183 -4.32 6
15.725 -11.68 -4.298 6
15.17 -11.202 -4.275 6
14.656 -10.759 -4.257 9
11.048 -8.066 -2.648 4
10.672 -7.749 -2.63 3
10.352 -7.479 -2.636 5
10.465 -7.522 -2.877 3
10.675 -7.635 -3.183 2
10.909 -7.766 -3.516 3
11.033 -7.817 -3.795 9
9.524 -8.813 1.446 26
9.133 -8.343 1.378 26
9.141 -8.243 1.248 28
9.253 -8.241 1.097 29
9.785 -8.608 0.854 25
9.457 -8.223 0.797 21
9.659 -8.301 0.62 22
9.626 -8.178 0.5 27
9.666 -8.125 0.36 28
28.595 -23.778 -5.187 5
26.801 -22.071 -5.033 6
25.249 -20.577 -4.899 6
23.9 -19.298 -4.797 6
22.705 -18.162 -4.709 6
21.574 -17.109 -4.617 33
20.61 -16.203 -4.556 7
19.71 -15.372 -4.497 5
18.906 -14.629 -4.454 5
18.158 -13.942 -4.413 5
17.455 -13.308 -4.377 5
16.813 -12.729 -4.349 6
16.21 -12.195 -4.327 6
15.644 -11.692 -4.306 6
15.096 -11.216 -4.284 6
14.581 -10.769 -4.264 9
10.983 -8.068 -2.649 4
10.622 -7.76 -2.638 3
10.304 -7.489 -2.644 5
10.392 -7.514 -2.871 3
10.6 -7.625 -3.175 2
10.821 -7.748 -3.502 3
10.98 -7.823 -3.801 9
9.5 -8.842 1.441 30
8.956 -8.23 1.4 17
9.092 -8.247 1.247 29
9.304 -8.336 1.075 26
9.735 -8.616 0.852 22
9.434 -8.253 0.789 21
9.329 -8.067 0.687 23
9.635 -8.237 0.482 29
9.607 -8.125 0.36 31
28.376 -23.744 -5.176 5
26.604 -22.048 -5.025 6
25.059 -20.552 -4.889 6
23.735 -19.286 -4.792 6
22.553 -18.155 -4.706 6
21.436 -17.108 -4.617 36
20.482 -16.205 -4.556 7
19.59 -15.376 -4.499 5
18.792 -14.632 -4.455 5
18.061 -13.955 -4.42 5
17.365 -13.323 -4.385 6
16.725 -12.742 -4.357 6
16.124 -12.206 -4.334 6
15.553 -11.697 -4.309 7
15.016 -11.227 -4.291 6
14.511 -10.784 -4.274 9
10.932 -8.079 -2.657 3
10.57 -7.768 -2.644 4
10.255 -7.499 -2.651 4
10.317 -7.504 -2.863 3
10.521 -7.614 -3.166 2
10.745 -7.738 -3.493 3
10.926 -7.83 -3.807 8
9.497 -8.891 1.432 23
8.903 -8.228 1.401 20
9.041 -8.249 1.247 22
9.281 -8.366 1.068 8
9.552 -8.505 0.879 25
9.334 -8.216 0.799 24
9.238 -8.036 0.696 26
10.028 -8.625 0.363 12
9.715 -8.267 0.314 22
28.175 -23.724 -5.169 5
26.423 -22.035 -5.02 6
24.862 -20.519 -4.877 10
23.577 -19.279 -4.789 6
22.407 -18.152 -4.705 6
21.302 -17.108 -4.617 38
20.356 -16.208 -4.558 7
19.479 -15.386 -4.504 5
18.689 -14.645 -4.462 6
17.954 -13.961 -4.423 5
17.263 -13.329 -4.388 6
16.64 -12.757 -4.365 6
16.044 -12.221 -4.343 6
15.472 -11.708 -4.316 6
14.945 -11.243 -4.301 8
14.43 -10.79 -4.278 9
10.866 -8.081 -2.658 3
10.517 -7.777 -2.65 4
10.203 -7.506 -2.656 4
10.244 -7.496 -2.857 2
10.448 -7.605 -3.159 2
10.66 -7.723 -3.48 3
10.876 -7.84 -3.815 9
9.514 -8.959 1.42 19
8.834 -8.214 1.403 33
9.001 -8.263 1.244 20
9.256 -8.393 1.062 0
9.534 -8.541 0.871 24
9.297 -8.232 0.794 29
9.192 -8.046 0.693 25
9.636 -8.34 0.45 0
9.705 -8.312 0.299 6
27.96 -23.69 -5.157 5
26.234 -22.015 -5.013 6
24.685 -20.503 -4.87 26
23.413 -19.266 -4.784 6
22.267 -18.153 -4.705 6
21.175 -17.114 -4.62 39
20.231 -16.21 -4.559 7
19.356 -15.386 -4.504 5
18.571 -14.644 -4.462 5
17.857 -13.973 -4.43 5
17.168 -13.339 -4.394 5
16.54 -12.761 -4.368 6
15.958 -12.232 -4.35 6
15.39 -11.719 -4.323 6
14.859 -11.247 -4.304 8
14.355 -10.8 -4.284 9
10.813 -8.09 -2.665 3
10.467 -7.787 -2.658 4
10.146 -7.509 -2.658 4
10.169 -7.486 -2.848 2
10.376 -7.598 -3.153 2
10.581 -7.711 -3.47 3
10.812 -7.838 -3.813 18
9.361 -8.866 1.437 0
8.876 -8.302 1.386 8
9.017 -8.326 1.23 29
9.312 -8.495 1.039 7
9.554 -8.611 0.853 15
9.324 -8.307 0.774 32
9.181 -8.086 0.681 26
30.95 -26.953 -5.24 39
29.696 -25.588 -5.314 5
27.743 -23.653 -5.144 5
26.036 -21.986 -5.002 6
24.524 -20.497 -4.868 33
23.258 -19.26 -4.781 6
22.118 -18.146 -4.703 6
21.041 -17.114 -4.62 38
20.112 -16.217 -4.562 8
19.248 -15.398 -4.51 5
18.46 -14.649 -4.464 5
17.744 -13.973 -4.429 5
17.072 -13.349 -4.4 6
16.453 -12.773 -4.375 6
15.869 -12.24 -4.354 6
15.312 -11.732 -4.331 6
14.782 -11.258 -4.311 8
14.285 -10.813 -4.293 9
10.762 -8.101 -2.672 3
10.409 -7.791 -2.66 4
10.097 -7.518 -2.665 4
10.095 -7.475 -2.84 2
10.295 -7.583 -3.14 2
10.503 -7.698 -3.459 3
10.733 -7.826 -3.803 8
8.996 -8.57 1.489 12
8.97 -8.439 1.36 19
9.009 -8.368 1.221 31
9.274 -8.511 1.035 0
9.639 -8.739 0.821 19
9.444 -8.466 0.732 37
9.288 -8.23 0.64 27
30.763 -26.956 -5.241 17
29.459 -25.543 -5.299 6
27.553 -23.638 -5.139 5
25.85 -21.966 -4.995 6
24.357 -20.486 -4.864 35
23.11 -19.257 -4.78 7
21.976 -18.143 -4.701 6
20.916 -17.12 -4.622 33
19.987 -16.219 -4.563 7
19.135 -15.404 -4.513 5
18.358 -14.66 -4.47 5
17.65 -13.986 -4.437 5
16.977 -13.358 -4.405 6
16.359 -12.78 -4.379 6
15.783 -12.25 -4.361 6
15.233 -11.745 -4.339 6
14.708 -11.272 -4.32 8
14.21 -10.823 -4.3 9
10.709 -8.11 -2.679 4
10.351 -7.794 -2.662 3
10.045 -7.524 -2.669 4
10.026 -7.468 -2.835 2
10.223 -7.574 -3.133 2
10.425 -7.686 -3.449 3
10.648 -7.81 -3.789 12
8.939 -8.566 1.49 23
8.913 -8.434 1.361 22
9.03 -8.438 1.207 22
0.0 -0.0 3.0 0
9.658 -8.811 0.803 18
9.596 -8.654 0.681 27
9.273 -8.268 0.629 23
30.556 -26.939 -5.236 20
29.238 -25.508 -5.288 5
27.348 -23.609 -5.129 5
25.674 -21.953 -4.99 6
24.203 -20.484 -4.863 33
22.944 -19.24 -4.774 7
21.837 -18.143 -4.701 6
20.801 -17.134 -4.628 22
19.868 -16.225 -4.566 7
19.019 -15.407 -4.514 6
18.241 -14.659 -4.469 5
17.541 -13.988 -4.438 5
16.882 -13.367 -4.409 5
16.278 -12.796 -4.388 6
15.7 -12.262 -4.368 6
15.143 -11.749 -4.341 6
14.635 -11.285 -4.328 8
14.14 -10.836 -4.309 9
10.655 -8.119 -2.685 4
10.307 -7.808 -2.673 4
9.997 -7.533 -2.677 4
9.951 -7.456 -2.826 2
10.145 -7.56 -3.122 2
10.349 -7.675 -3.44 3
10.573 -7.799 -3.779 9
8.919 -8.597 1.484 7
8.856 -8.43 1.361 24
8.967 -8.428 1.209 24
0.0 -0.0 3.0 0
9.599 -8.809 0.804 29
9.44 -8.566 0.705 20
9.229 -8.279 0.626 23
30.322 -26.899 -5.224 18
29.022 -25.478 -5.278 5
27.132 -23.569 -5.116 5
25.486 -21.929 -4.981 6
24.054 -20.486 -4.864 28
22.796 -19.237 -4.772 7
21.698 -18.141 -4.7 6
20.68 -17.142 -4.632 10
19.741 -16.223 -4.565 7
18.908 -15.415 -4.518 6
18.144 -14.674 -4.477 5
17.45 -14.003 -4.445 5
16.787 -13.375 -4.414 5
16.175 -12.796 -4.388 6
15.615 -12.271 -4.373 6
15.068 -11.763 -4.35 6
14.555 -11.293 -4.334 8
14.065 -10.845 -4.315 9
10.604 -8.13 -2.693 4
10.254 -7.816 -2.678 4
9.94 -7.535 -2.678 4
9.88 -7.447 -2.818 2
10.07 -7.549 -3.113 2
10.274 -7.663 -3.43 3
10.494 -7.786 -3.768 6
8.913 -8.642 1.476 23
8.859 -8.483 1.351 23
9.059 -8.566 1.179 15
0.0 -0.0 3.0 0
9.617 -8.88 0.786 25
9.535 -8.705 0.668 32
9.206 -8.309 0.617 17
30.116 -26.882 -5.219 19
28.781 -25.423 -5.26 6
26.946 -23.553 -5.11 5
25.304 -21.91 -4.974 6
23.912 -20.494 -4.867 13
22.645 -19.23 -4.769 7
21.553 -18.134 -4.698 6
20.538 -17.132 -4.628 7
19.631 -16.235 -4.57 7
18.792 -15.418 -4.52 6
18.037 -14.679 -4.479 5
17.344 -14.006 -4.447 5
16.694 -13.386 -4.42 6
16.091 -12.809 -4.395 6
15.532 -12.283 -4.38 6
14.987 -11.772 -4.356 6
14.475 -11.3 -4.338 8
13.99 -10.853 -4.32 9
10.545 -8.133 -2.695 4
10.208 -7.827 -2.687 4
9.891 -7.542 -2.684 4
9.808 -7.438 -2.811 1
9.996 -7.537 -3.104 2
10.196 -7.65 -3.419 3
10.413 -7.771 -3.755 5
8.802 -8.585 1.486 6
8.779 -8.456 1.356 7
9.033 -8.593 1.174 33
0.0 -0.0 3.0 0
9.549 -8.87 0.788 26
9.496 -8.722 0.663 32
9.845 -8.94 0.436 17
29.918 -26.87 -5.215 20
28.579 -25.401 -5.253 5
26.736 -23.517 -5.097 5
25.12 -21.887 -4.966 6
23.743 -20.477 -4.861 5
22.498 -19.225 -4.767 7
21.424 -18.139 -4.699 6
20.405 -17.129 -4.626 6
19.501 -16.229 -4.568 7
18.682 -15.424 -4.523 6
17.935 -14.688 -4.484 5
17.244 -14.013 -4.451 5
16.594 -13.389 -4.422 5
16.001 -12.818 -4.4 6
15.443 -12.289 -4.384 6
14.903 -11.779 -4.36 6
14.402 -11.312 -4.346 8
13.921 -10.866 -4.329 9
10.497 -8.146 -2.704 4
10.155 -7.834 -2.692 4
9.851 -7.558 -2.695 4
9.74 -7.43 -2.805 2
9.924 -7.528 -3.096 2
10.119 -7.636 -3.408 3
10.338 -7.759 -3.745 5
8.768 -8.601 1.483 7
8.751 -8.479 1.352 11
9.012 -8.624 1.167 25
9.578 -9.059 0.909 0
9.553 -8.929 0.774 20
9.527 -8.804 0.641 24
9.747 -8.906 0.446 19
29.718 -26.856 -5.211 18
28.353 -25.357 -5.239 5
26.551 -23.499 -5.091 5
24.939 -21.865 -4.958 5
23.566 -20.452 -4.851 5
22.351 -19.22 -4.765 7
21.277 -18.128 -4.695 6
20.282 -17.133 -4.628 6
19.38 -16.231 -4.569 7
18.573 -15.43 -4.526 6
17.827 -14.692 -4.486 5
17.144 -14.02 -4.455 5
16.508 -13.402 -4.429 5
15.914 -12.827 -4.406 6
15.364 -12.301 -4.391 6
14.825 -11.79 -4.367 6
14.322 -11.319 -4.351 8
13.846 -10.874 -4.334 9
10.444 -8.154 -2.71 4
10.106 -7.843 -2.698 4
9.803 -7.565 -2.701 4
9.692 -7.437 -2.811 4
9.855 -7.52 -3.09 2
10.047 -7.626 -3.399 2
10.26 -7.745 -3.733 4
8.726 -8.61 1.482 21
8.797 -8.574 1.333 0
8.989 -8.653 1.161 26
9.547 -9.083 0.903 14
9.428 -8.864 0.79 19
9.706 -9.024 0.582 36
9.762 -8.975 0.427 11
29.501 -26.824 -5.201 12
28.14 -25.323 -5.228 5
26.363 -23.478 -5.084 5
24.767 -21.85 -4.953 6
23.407 -20.442 -4.847 5
22.198 -19.209 -4.761 7
21.147 -18.132 -4.697 6
20.15 -17.129 -4.626 6
19.271 -16.242 -4.574 8
18.466 -15.439 -4.53 5
17.72 -14.696 -4.488 5
17.048 -14.029 -4.459 5
16.413 -13.41 -4.433 5
15.83 -12.84 -4.413 6
15.278 -12.309 -4.396 6
14.747 -11.801 -4.374 6
14.246 -11.329 -4.357 8
13.774 -10.884 -4.341 9
10.393 -8.164 -2.717 4
10.059 -7.855 -2.707 4
9.76 -7.578 -2.711 4
9.695 -7.484 -2.847 4
9.787 -7.513 -3.084 2
9.975 -7.616 -3.391 3
10.188 -7.736 -3.725 3
8.81 -8.743 1.458 1
52.211 -51.188 -6.95 11
9.017 -8.731 1.144 1
9.619 -9.207 0.874 24
9.426 -8.916 0.777 23
9.402 -8.795 0.643 22
9.737 -9.006 0.418 2
29.227 -26.74 -5.175 8
27.933 -25.293 -5.218 5
26.167 -23.449 -5.074 4
24.599 -21.837 -4.948 6
23.248 -20.431 -4.843 6
22.051 -19.203 -4.758 7
21.007 -18.125 -4.694 6
20.023 -17.129 -4.626 7
19.148 -16.239 -4.572 8
18.353 -15.442 -4.531 5
17.618 -14.704 -4.492 5
16.951 -14.038 -4.464 5
16.318 -13.416 -4.437 4
15.737 -12.844 -4.416 6
15.196 -12.319 -4.402 6
14.672 -11.814 -4.382 6
14.178 -11.344 -4.367 8
13.708 -10.898 -4.351 9
10.337 -8.169 -2.72 4
10.007 -7.861 -2.711 4
9.711 -7.586 -2.716 4
9.692 -7.527 -2.881 4
9.722 -7.506 -3.078 2
9.904 -7.606 -3.382 3
10.108 -7.719 -3.71 3
9.295 -9.28 1.364 18
51.724 -51.011 -6.916 11
47.526 -46.299 -6.841 16
9.639 -9.282 0.857 22
9.375 -8.922 0.776 25
9.457 -8.901 0.615 26
9.728 -9.053 0.404 30
28.98 -26.677 -5.156 7
27.715 -25.251 -5.204 5
25.985 -23.432 -5.068 4
24.422 -21.816 -4.941 6
23.09 -20.419 -4.838 5
21.899 -19.19 -4.753 7
20.875 -18.125 -4.694 6
19.906 -17.136 -4.63 6
19.033 -16.244 -4.575 7
18.244 -15.446 -4.534 6
17.523 -14.716 -4.498 5
16.855 -14.045 -4.468 6
16.23 -13.427 -4.443 5
15.653 -12.856 -4.422 6
15.116 -12.331 -4.409 6
14.588 -11.82 -4.386 6
14.099 -11.351 -4.371 8
13.633 -10.905 -4.356 9
10.287 -8.179 -2.727 4
9.96 -7.872 -2.719 4
9.686 -7.611 -2.735 5
9.692 -7.572 -2.916 4
9.704 -7.537 -3.104 4
9.832 -7.595 -3.373 3
10.039 -7.711 -3.703 4
9.315 -9.354 1.351 1
33.784 -33.516 -3.515 17
47.215 -46.271 -6.835 26
9.574 -9.274 0.859 23
9.43 -9.029 0.749 18
9.703 -9.188 0.538 30
9.662 -9.047 0.406 26
28.796 -26.671 -5.154 7
27.52 -25.23 -5.198 5
25.796 -23.406 -5.059 5
24.248 -21.797 -4.934 6
22.934 -20.409 -4.834 5
21.756 -19.184 -4.751 7
20.749 -18.13 -4.696 7
19.781 -17.135 -4.629 7
18.922 -16.251 -4.578 8
18.141 -15.456 -4.538 5
17.41 -14.714 -4.497 5
16.761 -14.056 -4.474 5
16.141 -13.437 -4.449 5
15.566 -12.864 -4.427 6
15.037 -12.344 -4.417 6
14.516 -11.834 -4.395 6
14.029 -11.364 -4.38 8
13.552 -10.907 -4.357 8
10.23 -8.185 -2.731 4
9.914 -7.882 -2.727 4
9.694 -7.663 -2.775 6
9.689 -7.614 -2.949 4
9.701 -7.579 -3.137 4
9.761 -7.585 -3.364 3
9.965 -7.699 -3.692 4
9.279 -9.373 1.347 16
33.313 -33.243 -3.462 22
46.944 -46.281 -6.837 19
9.497 -9.255 0.863 28
9.41 -9.065 0.74 6
9.746 -9.284 0.512 24
9.681 -9.121 0.384 20
28.621 -26.673 -5.155 7
27.312 -25.193 -5.186 5
25.609 -23.381 -5.051 4
24.081 -21.782 -4.928 6
22.782 -20.401 -4.831 5
21.625 -19.188 -4.753 7
20.612 -18.123 -4.693 7
19.658 -17.137 -4.63 7
18.804 -16.252 -4.578 7
18.023 -15.453 -4.537 5
17.309 -14.72 -4.5 5
16.657 -14.055 -4.473 5
16.049 -13.445 -4.453 6
15.479 -12.873 -4.432 6
14.949 -12.348 -4.419 6
14.43 -11.837 -4.397 6
13.952 -11.372 -4.385 7
13.492 -10.925 -4.369 9
10.183 -8.196 -2.739 4
9.864 -7.89 -2.733 4
9.693 -7.709 -2.809 4
9.694 -7.664 -2.988 4
9.703 -7.626 -3.175 4
9.707 -7.587 -3.366 4
9.885 -7.682 -3.678 3
9.232 -9.38 1.346 0
28.081 -28.189 -2.479 13
46.564 -46.181 -6.816 18
9.322 -9.139 0.89 19
9.413 -9.122 0.726 15
9.767 -9.362 0.492 23
9.655 -9.152 0.376 0
28.458 -26.685 -5.158 6
27.112 -25.165 -5.177 6
25.406 -23.34 -5.037 13
23.908 -21.761 -4.92 6
22.622 -20.384 -4.825 5
21.485 -19.184 -4.751 7
20.481 -18.121 -4.692 6
19.53 -17.133 -4.628 7
18.693 -16.258 -4.581 7
17.917 -15.459 -4.54 5
17.211 -14.729 -4.505 6
16.563 -14.065 -4.478 5
15.955 -13.451 -4.456 5
15.389 -12.878 -4.435 6
14.873 -12.361 -4.427 6
14.358 -11.851 -4.405 6
13.873 -11.378 -4.389 8
13.417 -10.931 -4.373 8
10.13 -8.203 -2.744 5
9.815 -7.899 -2.739 4
9.695 -7.757 -2.846 4
9.691 -7.707 -3.021 4
9.699 -7.668 -3.21 4
9.706 -7.631 -3.403 4
9.816 -7.672 -3.669 3
26.965 -27.557 -1.859 26
27.396 -27.665 -2.377 28
28.112 -28.047 -2.962 4
9.297 -9.17 0.883 25
9.371 -9.136 0.722 33
9.854 -9.503 0.454 22
30.0 -28.611 -5.204 12
28.292 -26.694 -5.161 6
26.91 -25.132 -5.166 5
25.224 -23.318 -5.029 25
23.735 -21.739 -4.912 6
22.476 -20.38 -4.823 5
21.328 -19.164 -4.743 7
20.347 -18.116 -4.69 6
19.413 -17.138 -4.63 7
18.576 -16.258 -4.581 7
17.817 -15.469 -4.545 6
17.11 -14.735 -4.508 6
16.464 -14.068 -4.48 5
15.87 -13.463 -4.462 5
15.306 -12.888 -4.441 6
14.788 -12.367 -4.431 6
14.281 -11.86 -4.411 6
13.806 -11.393 -4.398 7
13.351 -10.945 -4.382 8
10.079 -8.212 -2.75 4
9.766 -7.907 -2.745 4
9.694 -7.803 -2.88 4
9.698 -7.759 -3.062 4
9.695 -7.711 -3.244 4
9.707 -7.677 -3.442 4
9.745 -7.661 -3.66 3
26.725 -27.473 -1.844 43
27.201 -27.632 -2.371 21
28.027 -28.129 -2.979 18
9.237 -9.166 0.884 25
9.345 -9.166 0.715 24
32.023 -31.07 -5.325 15
29.804 -28.599 -5.201 16
28.141 -26.715 -5.168 5
26.709 -25.099 -5.155 6
25.039 -23.29 -5.019 25
23.577 -21.729 -4.909 6
22.325 -20.37 -4.819 5
21.197 -19.166 -4.744 7
20.219 -18.116 -4.69 7
19.285 -17.133 -4.628 6
18.465 -16.263 -4.583 7
17.708 -15.471 -4.546 6
17.012 -14.743 -4.512 6
16.369 -14.075 -4.484 5
15.782 -13.471 -4.467 5
15.225 -12.9 -4.448 6
14.711 -12.38 -4.439 6
14.206 -11.872 -4.418 6
13.727 -11.397 -4.401 7
13.277 -10.951 -4.386 9
10.032 -8.224 -2.758 4
9.719 -7.917 -2.752 5
9.693 -7.849 -2.915 4
9.694 -7.802 -3.095 4
9.702 -7.762 -3.285 4
9.706 -7.72 -3.478 4
9.718 -7.685 -3.681 3
26.626 -27.533 -1.855 36
27.074 -27.665 -2.378 19
27.465 -27.731 -2.894 23
9.198 -9.182 0.88 21
9.328 -9.205 0.705 25
31.826 -31.067 -5.325 13
29.653 -28.63 -5.21 13
27.97 -26.716 -5.168 5
26.522 -25.078 -5.148 5
24.86 -23.268 -5.012 30
23.42 -21.719 -4.905 6
22.171 -20.356 -4.814 5
21.061 -19.163 -4.742 7
20.092 -18.115 -4.689 6
19.169 -17.136 -4.63 7
18.354 -16.267 -4.586 7
17.605 -15.478 -4.549 6
16.911 -14.748 -4.515 5
16.281 -14.088 -4.491 5
15.69 -13.477 -4.471 5
15.139 -12.908 -4.452 6
14.627 -12.385 -4.442 6
14.131 -11.882 -4.425 7
13.66 -11.411 -4.41 7
13.205 -10.958 -4.392 8
9.976 -8.227 -2.761 4
9.681 -7.933 -2.764 5
9.686 -7.891 -2.946 6
9.692 -7.847 -3.131 4
9.7 -7.806 -3.322 4
9.706 -7.767 -3.517 4
9.714 -7.726 -3.716 4
26.528 -27.592 -1.865 24
26.83 -27.578 -2.361 19
27.083 -27.509 -2.847 33
9.158 -9.198 0.877 33
9.296 -9.229 0.699 17
31.608 -31.042 -5.318 12
28.78 -27.957 -5.017 2
27.813 -26.731 -5.172 5
26.316 -25.038 -5.135 5
24.678 -23.242 -5.003 25
23.251 -21.697 -4.897 6
22.023 -20.347 -4.81 5
20.916 -19.151 -4.738 7
19.959 -18.108 -4.687 6
19.053 -17.14 -4.631 6
18.241 -16.268 -4.586 7
17.497 -15.48 -4.55 6
16.811 -14.753 -4.517 5
16.189 -14.096 -4.495 6
15.6 -13.483 -4.474 5
15.058 -12.919 -4.459 6
14.548 -12.395 -4.448 6
14.048 -11.886 -4.427 6
13.587 -11.42 -4.416 7
13.142 -10.973 -4.401 8
9.92 -8.231 -2.764 1
9.688 -7.987 -2.803 6
9.684 -7.937 -2.981 6
9.693 -7.895 -3.168 4
9.629 -7.795 -3.312 2
9.707 -7.813 -3.556 4
9.714 -7.771 -3.755 4
26.305 -27.522 -1.853 36
26.554 -27.457 -2.337 29
26.888 -27.475 -2.84 25
9.163 -9.257 0.863 28
9.25 -9.24 0.696 30
31.269 -30.898 -5.279 10
28.791 -28.14 -5.069 4
27.656 -26.745 -5.177 7
26.127 -25.013 -5.127 5
24.5 -23.218 -4.995 25
23.091 -21.683 -4.892 6
21.853 -20.316 -4.799 8
20.784 -19.149 -4.737 7
19.835 -18.108 -4.687 6
18.923 -17.13 -4.627 7
18.13 -16.272 -4.588 7
17.4 -15.492 -4.556 6
16.708 -14.755 -4.518 5
16.093 -14.101 -4.498 5
15.512 -13.492 -4.479 5
14.972 -12.926 -4.463 6
14.471 -12.407 -4.455 6
13.974 -11.896 -4.434 6
13.508 -11.425 -4.419 7
13.068 -10.978 -4.405 8
9.87 -8.239 -2.769 0
9.686 -8.034 -2.837 4
9.69 -7.99 -3.021 4
9.691 -7.94 -3.204 4
9.318 -7.587 -3.144 3
9.707 -7.859 -3.595 4
9.714 -7.817 -3.795 4
26.171 -27.544 -1.857 31
26.41 -27.471 -2.34 35
26.702 -27.448 -2.834 36
9.101 -9.251 0.864 32
9.23 -9.275 0.687 30
30.974 -30.792 -5.251 12
28.609 -28.134 -5.067 10
27.506 -26.763 -5.182 8
25.95 -24.998 -5.122 5
24.328 -23.199 -4.988 26
22.917 -21.655 -4.882 6
21.702 -20.303 -4.794 18
20.645 -19.141 -4.734 7
19.708 -18.106 -4.686 6
18.813 -17.138 -4.63 6
18.02 -16.275 -4.589 7
17.289 -15.49 -4.555 6
16.616 -14.766 -4.524 5
16.001 -14.108 -4.501 5
15.424 -13.499 -4.483 6
14.883 -12.928 -4.464 6
14.39 -12.414 -4.459 6
13.902 -11.908 -4.441 6
13.443 -11.44 -4.429 7
13.005 -10.992 -4.414 8
12.59 -10.575 -4.405 8
9.681 -8.079 -2.87 4
9.685 -8.033 -3.054 6
9.644 -7.949 -3.211 3
9.256 -7.582 -3.14 3
9.707 -7.905 -3.633 4
9.714 -7.863 -3.835 4
26.026 -27.553 -1.858 43
26.275 -27.494 -2.344 38
26.695 -27.606 -2.868 24
9.202 -9.41 0.827 28
9.251 -9.353 0.668 25
30.785 -30.791 -5.251 17
28.352 -28.053 -5.044 18
27.344 -26.771 -5.185 7
25.757 -24.966 -5.112 5
24.15 -23.173 -4.979 25
22.767 -21.646 -4.879 5
21.567 -20.303 -4.794 25
20.513 -19.137 -4.732 7
19.581 -18.103 -4.684 6
18.692 -17.135 -4.629 7
17.91 -16.277 -4.59 7
17.184 -15.493 -4.556 6
16.519 -14.772 -4.527 5
15.908 -14.114 -4.504 5
15.342 -13.512 -4.49 5
14.805 -12.942 -4.472 6
14.311 -12.423 -4.465 6
13.825 -11.916 -4.446 6
13.368 -11.446 -4.433 7
12.936 -11.002 -4.421 8
12.522 -10.583 -4.41 8
9.689 -8.135 -2.91 4
9.685 -8.082 -3.09 6
9.402 -7.796 -3.091 5
9.188 -7.571 -3.131 4
9.344 -7.655 -3.423 3
9.713 -7.908 -3.874 3
25.909 -27.591 -1.865 31
26.176 -27.553 -2.356 40
26.444 -27.51 -2.847 38
9.245 -9.511 0.804 26
9.321 -9.482 0.636 22
30.701 -30.896 -5.279 15
28.196 -28.07 -5.049 21
27.199 -26.793 -5.191 9
25.58 -24.949 -5.106 5
23.985 -23.158 -4.974 24
22.608 -21.63 -4.873 5
21.414 -20.286 -4.787 27
20.378 -19.131 -4.73 7
19.463 -18.107 -4.686 6
18.577 -17.137 -4.63 7
17.797 -16.276 -4.59 8
17.077 -15.493 -4.556 6
16.419 -14.776 -4.529 6
15.819 -14.123 -4.509 5
15.251 -13.516 -4.492 5
14.716 -12.945 -4.474 6
14.229 -12.429 -4.468 6
13.745 -11.921 -4.449 6
13.298 -11.456 -4.44 7
12.867 -11.01 -4.427 8
12.455 -10.59 -4.415 8
9.681 -8.178 -2.941 4
9.688 -8.133 -3.129 5
9.356 -7.805 -3.098 4
9.129 -7.568 -3.128 3
9.276 -7.644 -3.414 3
9.713 -7.954 -3.914 4
25.864 -27.707 -1.885 42
26.014 -27.545 -2.354 38
26.3 -27.524 -2.85 22
9.3 -9.626 0.778 18
9.297 -9.514 0.628 19
27.978 -28.328 -4.59 18
28.042 -28.089 -5.054 16
27.035 -26.796 -5.192 9
25.379 -24.906 -5.092 5
23.811 -23.134 -4.966 24
22.452 -21.616 -4.868 6
21.274 -20.279 -4.784 29
20.243 -19.125 -4.727 8
19.331 -18.098 -4.682 6
18.459 -17.135 -4.629 7
17.687 -16.278 -4.591 7
16.98 -15.503 -4.561 5
16.322 -14.781 -4.531 5
15.721 -14.124 -4.51 6
15.163 -13.523 -4.496 6
14.639 -12.957 -4.481 5
14.151 -12.438 -4.473 7
13.676 -11.935 -4.458 7
13.222 -11.462 -4.443 7
12.796 -11.017 -4.431 8
12.388 -10.598 -4.421 8
9.686 -8.231 -2.98 5
9.69 -8.185 -3.168 4
9.304 -7.808 -3.1 4
9.065 -7.56 -3.122 3
9.217 -7.64 -3.411 3
9.382 -7.728 -3.718 2
25.681 -27.674 -1.88 41
26.001 -27.696 -2.384 35
9.398 -9.895 0.897 2
9.276 -9.658 0.77 0
9.267 -9.542 0.621 0
27.263 -27.774 -4.442 36
27.922 -28.141 -5.069 15
26.865 -26.793 -5.191 11
25.187 -24.871 -5.081 5
23.643 -23.113 -4.958 23
22.3 -21.603 -4.863 6
21.144 -20.282 -4.786 27
20.108 -19.117 -4.724 8
19.21 -18.098 -4.682 6
18.344 -17.136 -4.629 7
17.583 -16.285 -4.594 8
16.881 -15.51 -4.565 5
16.222 -14.782 -4.532 6
15.637 -14.137 -4.517 5
15.07 -13.524 -4.496 5
14.556 -12.964 -4.485 6
14.078 -12.451 -4.481 7
13.605 -11.946 -4.465 7
13.155 -11.474 -4.451 7
12.73 -11.027 -4.438 8
12.324 -10.607 -4.427 8
9.677 -8.274 -3.011 0
9.689 -8.234 -3.205 4
9.258 -7.816 -3.106 4
9.001 -7.55 -3.114 2
9.155 -7.633 -3.405 3
9.306 -7.711 -3.703 3
25.644 -27.797 -1.901 41
25.868 -27.719 -2.388 36
9.344 -9.897 0.896 23
26.311 -27.562 -3.363 40
26.631 -27.587 -3.878 24
27.082 -27.759 -4.438 35
27.585 -27.972 -5.021 36
26.674 -26.767 -5.184 13
25.004 -24.844 -5.072 5
23.475 -23.092 -4.951 22
22.142 -21.585 -4.856 6
21.018 -20.287 -4.788 19
19.982 -19.117 -4.724 8
19.087 -18.096 -4.681 7
18.235 -17.141 -4.632 7
17.474 -16.285 -4.594 7
16.777 -15.511 -4.565 6
16.131 -14.792 -4.537 5
15.548 -14.144 -4.521 5
14.986 -13.532 -4.501 5
14.473 -12.971 -4.489 6
13.996 -12.456 -4.484 7
13.528 -11.953 -4.469 6
13.077 -11.476 -4.453 7
12.659 -11.033 -4.442 8
12.262 -10.619 -4.436 8
11.893 -10.23 -4.433 9
9.691 -8.285 -3.243 4
9.204 -7.817 -3.107 4
8.942 -7.546 -3.111 4
9.085 -7.62 -3.394 3
9.236 -7.698 -3.691 3
25.481 -27.784 -1.899 27
25.774 -27.783 -2.4 36
9.311 -9.921 0.891 1
26.169 -27.579 -3.367 34
26.496 -27.614 -3.885 27
26.923 -27.765 -4.44 20
27.38 -27.936 -5.011 20
26.497 -26.753 -5.179 12
24.826 -24.821 -5.065 5
23.311 -23.074 -4.945 16
21.993 -21.573 -4.852 6
20.883 -20.284 -4.786 9
19.848 -19.108 -4.72 8
18.962 -18.089 -4.678 6
18.126 -17.146 -4.634 6
17.367 -16.288 -4.595 8
16.673 -15.511 -4.565 6
16.032 -14.794 -4.538 6
15.456 -14.15 -4.523 5
14.907 -13.546 -4.509 5
14.396 -12.982 -4.495 6
13.913 -12.459 -4.486 6
13.454 -11.961 -4.474 7
13.013 -11.491 -4.463 5
12.596 -11.046 -4.451 7
12.203 -10.633 -4.445 8
11.833 -10.241 -4.44 9
9.712 -8.353 -3.294 3
9.158 -7.825 -3.113 4
8.889 -7.546 -3.111 3
9.029 -7.618 -3.392 3
9.177 -7.694 -3.688 3
25.472 -27.939 -1.926 36
25.644 -27.809 -2.406 41
25.832 -27.691 -2.886 26
26.018 -27.587 -3.369 24
26.333 -27.612 -3.884 21
26.686 -27.689 -4.419 21
27.135 -27.857 -4.988 20
26.314 -26.734 -5.173 11
24.643 -24.791 -5.055 5
23.144 -23.052 -4.938 15
21.835 -21.553 -4.845 6
20.735 -20.266 -4.78 5
19.717 -19.101 -4.717 7
18.847 -18.093 -4.68 7
18.008 -17.142 -4.632 6
17.258 -16.287 -4.595 7
16.577 -15.52 -4.569 6
15.932 -14.795 -4.538 5
15.364 -14.154 -4.526 6
14.822 -13.553 -4.513 5
14.31 -12.986 -4.498 6
13.837 -12.469 -4.492 7
13.383 -11.972 -4.481 6
12.94 -11.498 -4.467 7
12.531 -11.057 -4.458 8
12.139 -10.642 -4.451 8
11.775 -10.254 -4.45 9
10.087 -8.728 -3.577 4
9.112 -7.832 -3.119 4
8.844 -7.553 -3.116 4
8.968 -7.611 -3.386 3
9.115 -7.686 -3.681 3
25.389 -28.013 -1.94 35
25.509 -27.828 -2.409 36
25.656 -27.668 -2.881 38
25.89 -27.617 -3.376 25
26.152 -27.589 -3.879 20
26.53 -27.696 -4.421 23
26.926 -27.813 -4.975 20
26.119 -26.7 -5.163 10
24.467 -24.767 -5.047 5
22.975 -23.026 -4.929 12
21.69 -21.543 -4.841 6
20.587 -20.249 -4.773 5
19.595 -19.102 -4.718 7
18.725 -18.09 -4.679 6
17.897 -17.144 -4.633 6
17.16 -16.297 -4.6 7
16.475 -15.522 -4.571 6
15.844 -14.806 -4.544 5
15.272 -14.158 -4.528 6
14.738 -13.561 -4.517 5
14.23 -12.995 -4.503 6
13.759 -12.475 -4.496 6
13.314 -11.984 -4.489 7
12.873 -11.509 -4.474 7
12.46 -11.062 -4.461 8
12.072 -10.648 -4.456 8
11.713 -10.261 -4.455 9
9.962 -8.672 -3.535 21
9.063 -7.837 -3.123 4
8.796 -7.557 -3.119 4
8.903 -7.602 -3.379 3
9.046 -7.673 -3.67 3
25.315 -28.099 -1.955 42
25.478 -27.961 -2.435 39
25.67 -27.851 -2.92 35
25.81 -27.698 -3.395 34
26.09 -27.692 -3.904 33
26.342 -27.67 -4.414 23
26.701 -27.751 -4.957 31
25.926 -26.668 -5.153 10
24.285 -24.736 -5.037 5
22.814 -23.008 -4.922 12
21.544 -21.533 -4.837 5
20.462 -20.251 -4.774 5
19.459 -19.088 -4.712 7
18.611 -18.092 -4.68 6
17.783 -17.142 -4.632 6
17.046 -16.291 -4.597 7
16.38 -15.529 -4.574 6
15.751 -14.811 -4.547 6
15.184 -14.164 -4.531 5
14.651 -13.566 -4.52 5
14.156 -13.008 -4.51 6
13.683 -12.484 -4.501 8
13.232 -11.985 -4.489 6
12.801 -11.516 -4.478 7
12.392 -11.069 -4.466 8
12.008 -10.657 -4.462 8
11.65 -10.268 -4.46 9
9.865 -8.64 -3.51 28
9.012 -7.84 -3.125 4
8.754 -7.565 -3.126 3
8.845 -7.596 -3.374 3
8.987 -7.668 -3.666 3
25.215 -28.155 -1.964 42
25.396 -28.038 -2.45 39
25.584 -27.926 -2.936 36
25.727 -27.777 -3.413 37
26.0 -27.766 -3.923 26
26.263 -27.755 -4.437 30
26.52 -27.733 -4.952 22
25.715 -26.614 -5.137 11
24.104 -24.704 -5.027 5
22.665 -23.0 -4.92 22
21.385 -21.508 -4.828 5
20.317 -20.235 -4.767 5
19.334 -19.085 -4.711 7
18.491 -18.089 -4.678 6
17.674 -17.145 -4.633 7
16.945 -16.297 -4.6 7
16.268 -15.52 -4.57 6
15.657 -14.816 -4.549 5
15.103 -14.178 -4.539 5
14.564 -13.57 -4.522 5
14.074 -13.013 -4.513 6
13.605 -12.49 -4.505 8
13.166 -11.999 -4.498 7
12.731 -11.524 -4.484 5
12.331 -11.084 -4.476 8
11.944 -10.665 -4.468 8
11.592 -10.28 -4.469 9
9.835 -8.665 -3.53 24
8.971 -7.852 -3.135 4
8.706 -7.569 -3.129 4
8.786 -7.591 -3.37 3
8.928 -7.662 -3.661 3
25.133 -28.231 -1.978 36
25.289 -28.089 -2.46 41
25.438 -27.934 -2.937 34
25.624 -27.836 -3.426 31
25.892 -27.819 -3.936 34
26.126 -27.781 -4.444 31
26.321 -27.695 -4.941 32
25.529 -26.586 -5.128 13
23.928 -24.677 -5.018 5
22.51 -22.986 -4.915 24
21.256 -21.513 -4.83 5
20.184 -20.229 -4.765 5
19.206 -19.078 -4.708 7
18.37 -18.084 -4.676 6
17.563 -17.145 -4.633 7
16.842 -16.3 -4.601 7
16.173 -15.527 -4.573 6
15.561 -14.818 -4.55 5
15.006 -14.176 -4.537 5
14.483 -13.579 -4.527 6
13.991 -13.018 -4.516 6
13.535 -12.504 -4.513 8
13.087 -12.002 -4.5 6
12.662 -11.532 -4.489 6
12.266 -11.093 -4.482 8
11.891 -10.683 -4.48 8
11.532 -10.289 -4.476 9
9.78 -8.67 -3.533 20
8.923 -7.857 -3.138 4
8.664 -7.578 -3.136 4
8.731 -7.588 -3.367 3
8.869 -7.657 -3.656 3
24.991 -28.238 -1.979 41
25.22 -28.18 -2.478 43
25.397 -28.057 -2.964 40
25.57 -27.946 -3.452 38
25.727 -27.812 -3.934 35
25.923 -27.734 -4.431 44
26.141 -27.676 -4.936 22
25.357 -26.571 -5.123 13
23.756 -24.652 -5.01 4
22.358 -22.975 -4.911 22
21.101 -21.489 -4.821 5
20.053 -20.224 -4.763 5
19.085 -19.077 -4.708 8
18.251 -18.08 -4.674 6
17.45 -17.142 -4.632 6
16.742 -16.305 -4.603 7
16.077 -15.533 -4.576 6
15.474 -14.828 -4.555 5
14.926 -14.188 -4.544 5
14.401 -13.588 -4.532 5
13.912 -13.025 -4.52 6
13.457 -12.51 -4.517 11
13.022 -12.016 -4.509 6
12.598 -11.545 -4.498 7
12.201 -11.102 -4.488 8
11.819 -10.683 -4.48 8
11.472 -10.298 -4.482 9
9.742 -8.689 -3.547 23
8.88 -7.866 -3.146 4
8.616 -7.582 -3.14 4
8.667 -7.578 -3.359 3
8.811 -7.651 -3.651 3
24.917 -28.323 -1.994 51
25.156 -28.277 -2.496 38
25.311 -28.132 -2.98 40
25.457 -27.991 -3.462 36
25.664 -27.914 -3.96 36
25.873 -27.851 -4.463 34
25.937 -27.63 -4.923 20
25.18 -26.549 -5.117 10
23.576 -24.618 -4.999 5
22.213 -22.968 -4.908 12
20.959 -21.479 -4.818 5
19.912 -20.209 -4.757 5
18.958 -19.07 -4.705 8
18.132 -18.076 -4.673 6
17.342 -17.144 -4.633 7
16.634 -16.303 -4.602 7
15.98 -15.536 -4.578 6
15.386 -14.837 -4.56 6
14.832 -14.188 -4.544 6
14.315 -13.591 -4.533 5
13.832 -13.033 -4.524 6
13.382 -12.518 -4.521 13
12.945 -12.021 -4.511 6
12.528 -11.553 -4.502 7
12.13 -11.106 -4.491 8
11.757 -10.693 -4.487 8
11.412 -10.307 -4.489 9
9.709 -8.712 -3.565 25
8.834 -7.873 -3.151 4
8.572 -7.587 -3.144 4
8.614 -7.577 -3.358 3
8.747 -7.641 -3.642 3
24.933 -28.511 -2.027 35
25.038 -28.315 -2.504 41
25.233 -28.215 -2.997 38
25.367 -28.063 -3.479 37
25.577 -27.989 -3.978 36
25.774 -27.916 -4.48 35
25.793 -27.646 -4.927 22
24.987 -26.51 -5.105 8
23.412 -24.6 -4.993 5
22.07 -22.963 -4.907 8
20.807 -21.457 -4.81 6
19.777 -20.198 -4.753 5
18.831 -19.062 -4.701 8
18.019 -18.077 -4.673 7
17.229 -17.139 -4.631 7
16.534 -16.307 -4.604 7
15.879 -15.536 -4.578 6
15.293 -14.84 -4.562 6
14.749 -14.198 -4.549 5
14.239 -13.604 -4.541 5
13.758 -13.044 -4.531 6
13.299 -12.518 -4.521 22
12.874 -12.029 -4.517 7
12.459 -11.56 -4.507 7
12.065 -11.114 -4.497 8
11.699 -10.705 -4.496 8
11.347 -10.311 -4.491 9
9.631 -8.695 -3.552 24
8.788 -7.879 -3.156 4
8.527 -7.593 -3.149 4
8.551 -7.566 -3.349 3
8.686 -7.633 -3.636 3
24.775 -28.5 -2.025 42
24.968 -28.405 -2.521 37
25.156 -28.3 -3.015 35
25.304 -28.165 -3.502 35
25.486 -28.062 -3.997 38
25.672 -27.978 -4.497 37
25.614 -27.625 -4.921 20
24.797 -26.472 -5.093 6
23.236 -24.567 -4.982 5
21.89 -22.918 -4.891 5
20.668 -21.448 -4.806 5
19.648 -20.192 -4.751 5
18.707 -19.057 -4.7 8
17.903 -18.074 -4.672 6
17.119 -17.137 -4.63 6
16.429 -16.306 -4.604 8
15.79 -15.546 -4.582 6
15.203 -14.846 -4.565 5
14.661 -14.203 -4.552 5
14.155 -13.609 -4.544 6
13.676 -13.048 -4.533 6
13.232 -12.533 -4.531 28
12.801 -12.035 -4.52 6
12.387 -11.565 -4.51 6
12.002 -11.126 -4.504 8
11.635 -10.712 -4.501 7
11.289 -10.322 -4.499 9
9.538 -8.663 -3.528 24
8.742 -7.885 -3.161 4
8.482 -7.599 -3.153 4
8.493 -7.56 -3.343 3
8.628 -7.627 -3.63 3
24.726 -28.614 -2.045 34
24.957 -28.565 -2.552 37
25.07 -28.374 -3.031 37
25.222 -28.245 -3.521 36
25.39 -28.128 -4.013 37
25.565 -28.033 -4.511 37
25.427 -27.594 -4.912 24
24.608 -26.433 -5.082 6
23.067 -24.542 -4.974 5
21.737 -22.901 -4.885 4
20.525 -21.434 -4.801 5
19.518 -20.186 -4.749 4
18.584 -19.05 -4.697 9
17.785 -18.068 -4.67 7
17.017 -17.143 -4.632 6
16.332 -16.313 -4.607 7
15.692 -15.548 -4.583 6
15.105 -14.844 -4.563 5
14.576 -14.209 -4.555 5
14.067 -13.609 -4.544 6
13.6 -13.056 -4.538 6
13.152 -12.535 -4.532 32
12.733 -12.046 -4.527 6
12.325 -11.579 -4.52 7
11.937 -11.134 -4.51 8
11.568 -10.717 -4.504 8
11.229 -10.331 -4.506 9
9.521 -8.7 -3.556 18
8.694 -7.89 -3.164 4
8.437 -7.604 -3.158 4
8.435 -7.553 -3.338 3
8.577 -7.628 -3.631 3
24.795 -28.866 -2.09 33
24.832 -28.593 -2.558 27
25.019 -28.49 -3.056 35
25.056 -28.23 -3.518 34
25.297 -28.197 -4.03 39
25.474 -28.105 -4.531 37
25.239 -27.559 -4.902 30
24.421 -26.398 -5.071 6
22.918 -24.535 -4.972 5
21.584 -22.883 -4.879 5
20.387 -21.424 -4.798 5
19.381 -20.17 -4.743 5
18.463 -19.046 -4.695 8
17.681 -18.077 -4.673 6
16.912 -17.146 -4.634 7
16.227 -16.311 -4.606 7
15.59 -15.544 -4.582 6
15.018 -14.852 -4.567 5
14.493 -14.217 -4.559 6
13.991 -13.622 -4.551 5
13.523 -13.065 -4.543 6
13.074 -12.54 -4.535 35
12.66 -12.051 -4.53 5
12.259 -11.589 -4.526 7
11.877 -11.146 -4.518 8
11.512 -10.731 -4.514 7
11.167 -10.336 -4.51 9
9.464 -8.701 -3.557 20
8.653 -7.9 -3.173 4
8.397 -7.614 -3.166 4
8.378 -7.546 -3.332 7
8.509 -7.612 -3.617 3
24.765 -29.004 -2.114 31
24.846 -28.783 -2.595 28
24.957 -28.592 -3.077 34
25.002 -28.342 -3.543 38
25.156 -28.212 -4.034 36
25.382 -28.177 -4.55 40
25.074 -27.55 -4.9 29
24.244 -26.369 -5.062 6
22.743 -24.501 -4.961 5
21.426 -22.859 -4.871 5
20.254 -21.418 -4.795 4
19.257 -20.168 -4.742 5
18.345 -19.044 -4.694 9
17.563 -18.07 -4.67 7
16.8 -17.14 -4.631 6
16.128 -16.314 -4.607 8
15.503 -15.556 -4.587 6
14.931 -14.859 -4.571 5
14.402 -14.218 -4.56 5
13.916 -13.634 -4.557 5
13.447 -13.073 -4.548 6
13.005 -12.551 -4.542 34
12.592 -12.062 -4.537 7
12.187 -11.593 -4.529 6
11.807 -11.149 -4.52 8
11.449 -10.738 -4.519 8
11.112 -10.348 -4.519 8
9.444 -8.736 -3.583 21
8.607 -7.907 -3.177 4
8.353 -7.619 -3.17 4
8.323 -7.542 -3.329 5
8.454 -7.607 -3.613 3
24.67 -29.067 -2.125 34
24.799 -28.903 -2.618 28
24.901 -28.701 -3.101 33
25.015 -28.532 -3.587 35
25.083 -28.304 -4.057 42
25.298 -28.258 -4.572 37
24.928 -27.56 -4.903 23
24.053 -26.325 -5.048 6
22.578 -24.476 -4.953 5
21.277 -22.842 -4.865 5
20.106 -21.396 -4.788 5
19.129 -20.16 -4.739 4
18.215 -19.028 -4.688 14
17.453 -18.071 -4.671 7
16.701 -17.146 -4.634 7
16.028 -16.316 -4.608 8
15.404 -15.554 -4.586 6
14.839 -14.86 -4.572 5
14.325 -14.231 -4.567 5
13.832 -13.638 -4.56 5
13.365 -13.076 -4.549 6
12.935 -12.563 -4.548 30
12.518 -12.067 -4.54 5
12.123 -11.604 -4.536 7
11.75 -11.164 -4.53 8
11.388 -10.747 -4.525 8
11.05 -10.354 -4.523 9
9.393 -8.743 -3.588 25
8.564 -7.915 -3.184 4
8.313 -7.629 -3.178 4
8.281 -7.55 -3.335 4
8.396 -7.601 -3.607 3
24.562 -29.115 -2.134 30
24.745 -29.015 -2.64 38
24.854 -28.822 -3.126 34
24.955 -28.637 -3.611 35
25.02 -28.407 -4.083 43
25.198 -28.321 -4.589 38
24.79 -27.577 -4.908 28
23.882 -26.3 -5.041 6
22.417 -24.454 -4.946 4
21.125 -22.822 -4.858 5
19.98 -21.395 -4.787 5
18.992 -20.142 -4.732 5
18.089 -19.017 -4.684 15
17.339 -18.066 -4.669 7
16.599 -17.151 -4.636 7
15.932 -16.321 -4.611 7
15.312 -15.56 -4.589 6
14.752 -14.867 -4.575 5
14.232 -14.229 -4.566 5
13.752 -13.645 -4.563 5
13.292 -13.086 -4.555 6
12.861 -12.569 -4.552 8
12.451 -12.077 -4.546 5
12.059 -11.616 -4.543 6
11.682 -11.17 -4.534 8
11.326 -10.755 -4.531 8
10.995 -10.367 -4.532 9
9.344 -8.751 -3.594 23
8.519 -7.921 -3.189 4
8.276 -7.641 -3.188 4
8.275 -7.589 -3.368 4
8.344 -7.599 -3.605 3
24.477 -29.189 -2.147 31
24.692 -29.129 -2.662 43
24.806 -28.943 -3.152 32
24.895 -28.743 -3.636 37
24.949 -28.502 -4.106 50
25.142 -28.434 -4.619 37
24.637 -27.578 -4.908 23
23.7 -26.264 -5.03 6
22.251 -24.424 -4.936 5
20.966 -22.793 -4.848 5
19.835 -21.375 -4.78 5
18.87 -20.139 -4.731 5
17.975 -19.016 -4.683 14
17.23 -18.066 -4.669 7
16.49 -17.146 -4.634 7
15.83 -16.32 -4.61 7
15.221 -15.565 -4.592 6
14.665 -14.874 -4.578 5
14.15 -14.236 -4.569 5
13.666 -13.645 -4.564 5
13.218 -13.095 -4.56 6
12.794 -12.582 -4.56 6
12.383 -12.086 -4.552 7
11.988 -11.619 -4.545 6
11.62 -11.179 -4.541 7
11.265 -10.764 -4.537 8
10.938 -10.375 -4.538 8
9.272 -8.736 -3.583 25
8.468 -7.922 -3.189 2
8.278 -7.689 -3.227 3
8.281 -7.641 -3.411 5
8.281 -7.587 -3.595 8
24.693 -29.626 -2.224 21
24.614 -29.213 -2.678 20
24.774 -29.082 -3.181 32
24.846 -28.864 -3.664 33
24.945 -28.673 -4.149 39
25.07 -28.528 -4.644 37
24.489 -27.584 -4.909 20
23.516 -26.224 -5.017 6
22.098 -24.409 -4.931 5
20.823 -22.78 -4.844 5
19.68 -21.342 -4.768 5
18.744 -20.132 -4.728 5
17.861 -19.016 -4.683 5
17.123 -18.069 -4.67 7
16.386 -17.146 -4.634 7
15.734 -16.324 -4.612 8
15.124 -15.565 -4.592 6
14.578 -14.88 -4.582 5
14.065 -14.24 -4.572 5
13.591 -13.656 -4.57 5
13.139 -13.1 -4.563 6
12.714 -12.583 -4.561 7
12.312 -12.093 -4.557 7
11.927 -11.631 -4.553 7
11.552 -11.183 -4.543 8
11.199 -10.767 -4.539 8
10.873 -10.378 -4.54 9
9.221 -8.741 -3.587 12
8.445 -7.949 -3.211 0
8.271 -7.73 -3.259 3
8.28 -7.686 -3.449 4
8.282 -7.633 -3.635 3
24.678 -29.787 -2.252 28
24.65 -29.433 -2.721 21
24.745 -29.227 -3.212 26
24.805 -28.994 -3.694 35
24.896 -28.795 -4.179 37
25.01 -28.638 -4.673 38
24.33 -27.577 -4.907 14
23.335 -26.185 -5.006 6
21.922 -24.368 -4.918 5
20.657 -22.74 -4.83 5
19.554 -21.339 -4.767 5
18.617 -20.121 -4.724 5
17.744 -19.011 -4.681 15
17.009 -18.062 -4.667 7
16.283 -17.146 -4.634 6
15.638 -16.327 -4.613 7
15.033 -15.569 -4.594 6
14.492 -14.886 -4.585 6
13.978 -14.242 -4.572 5
13.51 -13.661 -4.573 6
13.066 -13.109 -4.568 6
12.645 -12.593 -4.567 7
12.242 -12.1 -4.561 7
11.858 -11.637 -4.557 7
11.49 -11.193 -4.55 7
11.141 -10.778 -4.547 8
10.816 -10.388 -4.547 8
9.165 -8.742 -3.588 4
8.952 -8.478 -3.624 21
8.28 -7.785 -3.304 3
8.285 -7.738 -3.493 3
8.282 -7.679 -3.676 3
24.719 -30.017 -2.293 28
24.724 -29.703 -2.774 26
24.729 -29.387 -3.246 24
24.771 -29.133 -3.726 32
24.849 -28.918 -4.21 34
24.945 -28.741 -4.701 36
24.124 -27.513 -4.889 8
23.17 -26.163 -4.999 6
21.77 -24.351 -4.912 5
20.504 -22.715 -4.821 5
