# .PCD v0.7 - Point Cloud Data file format
VERSION 0.7
FIELDS x y z intensity
SIZE 4 4 4 4
TYPE F F F F
COUNT 1 1 1 1
WIDTH 2315
HEIGHT 1
VIEWPOINT 0 0 0 1 0 0 0
POINTS 2315
DATA ascii
0.0 -0.0 3.0 0
-1.576 -0.933 2.483 0
-1.475 -0.869 2.498 0
-1.45 -0.85 2.489 0
-1.43 -0.835 2.479 0
-1.44 -0.836 2.457 5
-1.411 -0.816 2.449 5
-1.393 -0.803 2.437 5
-1.405 -0.808 2.413 1
-1.361 -0.78 2.412 1
-1.327 -0.759 2.407 3
-1.315 -0.751 2.392 7
-1.3 -0.74 2.379 4
-1.281 -0.728 2.367 4
-2.033 -1.507 2.734 9
-1.991 -1.452 2.718 8
-1.954 -1.403 2.702 9
-1.91 -1.351 2.688 10
-1.891 -1.317 2.672 11
-1.888 -1.296 2.653 11
-1.887 -1.278 2.633 6
-1.856 -1.24 2.621 12
-1.843 -1.217 2.605 16
-1.831 -1.194 2.589 2
-1.841 -1.187 2.568 0
0.0 -0.0 3.0 0
0.0 -0.0 3.0 0
-1.744 -1.089 2.538 0
0.0 -0.0 3.0 0
0.0 -0.0 3.0 0
0.0 -0.0 3.0 0
0.0 -0.0 3.0 0
0.0 -0.0 3.0 0
0.0 -0.0 3.0 0
-1.466 -0.869 2.498 0
-1.45 -0.856 2.486 0
-1.444 -0.847 2.471 0
-1.431 -0.836 2.457 6
-1.401 -0.816 2.45 5
-1.377 -0.8 2.44 5
-1.393 -0.806 2.414 1
-1.345 -0.776 2.415 3
-1.318 -0.759 2.407 3
-1.303 -0.748 2.394 6
-1.294 -0.741 2.378 5
-1.278 -0.731 2.364 3
-2.022 -1.507 2.734 9
-1.977 -1.451 2.718 9
-1.937 -1.399 2.703 9
-1.912 -1.361 2.686 9
-1.893 -1.328 2.669 14
-1.89 -1.307 2.65 9
-1.863 -1.27 2.636 15
-1.848 -1.244 2.62 8
-1.836 -1.221 2.603 11
-1.83 -1.201 2.586 2
0.0 -0.0 3.0 0
-1.773 -1.138 2.563 0
0.0 -0.0 3.0 0
0.0 -0.0 3.0 0
0.0 -0.0 3.0 0
0.0 -0.0 3.0 0
0.0 -0.0 3.0 0
-1.586 -0.964 2.509 0
-1.604 -0.969 2.485 0
0.0 -0.0 3.0 0
-1.462 -0.873 2.496 1
-1.434 -0.851 2.489 0
-1.408 -0.832 2.48 0
-1.418 -0.834 2.458 6
-1.391 -0.816 2.45 5
-1.374 -0.803 2.438 5
-1.367 -0.796 2.422 2
-1.33 -0.772 2.418 5
-1.312 -0.76 2.406 5
-1.306 -0.755 2.389 5
-1.285 -0.741 2.378 4
-1.256 -0.723 2.372 2
-2.008 -1.505 2.735 9
-1.96 -1.447 2.719 8
-1.927 -1.4 2.702 9
-1.902 -1.362 2.686 11
-1.886 -1.33 2.668 15
-1.886 -1.312 2.648 4
-1.869 -1.283 2.632 16
-1.844 -1.249 2.618 15
-1.832 -1.225 2.602 3
-1.816 -1.2 2.587 1
-1.81 -1.182 2.57 0
0.0 -0.0 3.0 0
-1.739 -1.112 2.551 0
0.0 -0.0 3.0 0
0.0 -0.0 3.0 0
0.0 -0.0 3.0 0
0.0 -0.0 3.0 0
-1.605 -0.983 2.499 0
0.0 -0.0 3.0 0
-1.547 -0.935 2.482 0
-1.449 -0.871 2.497 1
-1.408 -0.841 2.495 0
-1.398 -0.831 2.481 0
-1.405 -0.832 2.46 7
-1.382 -0.815 2.45 6
-1.362 -0.801 2.439 5
-1.351 -0.791 2.425 5
-1.327 -0.776 2.416 3
-1.303 -0.759 2.407 7
-1.297 -0.754 2.389 5
-1.276 -0.74 2.379 3
-1.244 -0.72 2.374 3
-1.982 -1.494 2.737 9
-1.94 -1.44 2.72 9
-1.919 -1.403 2.702 9
-1.894 -1.365 2.685 11
-1.895 -1.345 2.665 10
-1.879 -1.315 2.648 4
-1.858 -1.283 2.632 18
-1.84 -1.254 2.617 14
-1.822 -1.227 2.601 2
-1.826 -1.214 2.582 0
-1.888 -1.242 2.548 0
0.0 -0.0 3.0 0
-1.718 -1.106 2.553 0
0.0 -0.0 3.0 0
0.0 -0.0 3.0 0
-1.629 -1.02 2.525 0
0.0 -0.0 3.0 0
-1.605 -0.99 2.496 0
-1.555 -0.951 2.494 0
-1.54 -0.937 2.481 0
-1.443 -0.873 2.496 1
-24.998 -15.038 -6.036 10
-1.392 -0.833 2.479 0
-1.392 -0.829 2.461 7
-1.376 -0.817 2.449 6
-1.362 -0.806 2.436 5
-1.338 -0.789 2.427 5
-1.318 -0.774 2.416 4
-1.293 -0.758 2.408 6
-1.294 -0.757 2.387 5
-1.266 -0.739 2.38 2
-1.222 -0.712 2.381 6
-1.965 -1.491 2.737 8
-1.935 -1.445 2.719 9
-1.915 -1.408 2.701 10
-1.897 -1.375 2.682 16
-1.894 -1.353 2.663 6
-1.858 -1.309 2.649 6
-1.857 -1.291 2.63 31
-1.833 -1.258 2.616 9
-1.821 -1.234 2.599 2
-1.818 -1.217 2.581 0
0.0 -0.0 3.0 0
-1.769 -1.158 2.556 0
-1.718 -1.114 2.55 0
-1.683 -1.08 2.542 0
0.0 -0.0 3.0 0
0.0 -0.0 3.0 0
-1.576 -0.986 2.519 0
-1.579 -0.98 2.501 0
0.0 -0.0 3.0 0
-1.53 -0.937 2.481 0
-1.433 -0.873 2.496 1
-1.395 -0.845 2.492 0
-1.373 -0.827 2.483 0
-1.383 -0.829 2.461 8
-1.37 -0.818 2.448 6
-1.346 -0.802 2.439 5
-1.332 -0.791 2.426 3
-1.315 -0.777 2.414 7
-1.294 -0.764 2.403 4
-1.282 -0.754 2.389 3
-1.251 -0.734 2.384 2
-1.226 -0.718 2.376 1
-1.957 -1.494 2.737 8
-1.918 -1.441 2.72 9
-1.904 -1.409 2.7 10
-1.889 -1.378 2.682 11
-1.909 -1.372 2.658 4
-1.851 -1.313 2.648 7
-1.847 -1.292 2.629 57
-1.832 -1.265 2.613 2
-1.814 -1.237 2.598 0
-1.837 -1.238 2.574 0
-1.873 -1.248 2.546 0
0.0 -0.0 3.0 0
-1.734 -1.131 2.543 0
0.0 -0.0 3.0 0
0.0 -0.0 3.0 0
-1.599 -1.015 2.527 0
0.0 -0.0 3.0 0
0.0 -0.0 3.0 0
-1.558 -0.966 2.486 0
-1.527 -0.941 2.478 0
-1.42 -0.87 2.498 1
-1.376 -0.838 2.496 0
-1.367 -0.828 2.482 0
-1.376 -0.831 2.461 9
-1.357 -0.815 2.45 6
-1.34 -0.803 2.438 5
-1.326 -0.791 2.425 5
-1.302 -0.775 2.416 6
-1.291 -0.766 2.401 6
-1.276 -0.755 2.388 2
-1.217 -0.718 2.397 10
-1.214 -0.715 2.379 1
-1.943 -1.492 2.737 8
-1.908 -1.443 2.72 9
-1.897 -1.413 2.7 11
-1.882 -1.381 2.681 7
-1.911 -1.382 2.655 3
-1.837 -1.311 2.649 4
-1.843 -1.297 2.628 30
-1.815 -1.262 2.614 2
-1.826 -1.253 2.593 0
-1.879 -1.274 2.561 0
0.0 -0.0 3.0 0
-1.738 -1.153 2.557 0
0.0 -0.0 3.0 0
0.0 -0.0 3.0 0
0.0 -0.0 3.0 0
-1.586 -1.013 2.528 0
0.0 -0.0 3.0 0
-1.552 -0.977 2.502 0
-1.568 -0.979 2.48 0
-1.497 -0.929 2.485 0
-1.421 -0.876 2.494 1
-24.509 -15.037 -6.035 4
-1.364 -0.832 2.48 0
-1.364 -0.829 2.462 10
-1.354 -0.819 2.447 6
-1.337 -0.806 2.436 6
-1.323 -0.795 2.422 6
-1.299 -0.778 2.414 5
-1.279 -0.763 2.404 4
-1.257 -0.749 2.394 2
-1.22 -0.725 2.391 1
-1.202 -0.712 2.381 9
-1.93 -1.49 2.737 8
-1.904 -1.448 2.719 10
-1.896 -1.42 2.698 14
-1.875 -1.384 2.68 5
-1.929 -1.404 2.65 2
-1.833 -1.316 2.647 3
-1.826 -1.294 2.629 11
-1.824 -1.275 2.61 1
-1.816 -1.254 2.593 0
-1.874 -1.28 2.559 0
-1.858 -1.254 2.543 0
-1.75 -1.169 2.551 0
0.0 -0.0 3.0 0
0.0 -0.0 3.0 0
0.0 -0.0 3.0 0
0.0 -0.0 3.0 0
0.0 -0.0 3.0 0
-1.536 -0.972 2.505 0
-1.522 -0.957 2.491 0
-1.494 -0.933 2.483 0
-1.414 -0.878 2.493 0
-24.321 -15.02 -6.025 5
-1.354 -0.831 2.48 0
-1.357 -0.83 2.461 12
-1.348 -0.821 2.446 6
-1.324 -0.803 2.438 6
-1.307 -0.79 2.426 8
-1.293 -0.779 2.413 5
-1.273 -0.765 2.403 3
-1.245 -0.746 2.396 3
-1.221 -0.73 2.388 1
-1.205 -0.719 2.375 3
-1.913 -1.485 2.738 9
-1.902 -1.456 2.717 10
-1.895 -1.428 2.696 10
-1.877 -1.394 2.678 4
-1.951 -1.429 2.644 1
-1.839 -1.328 2.644 4
-1.831 -1.306 2.625 3
-1.823 -1.283 2.608 0
-1.828 -1.27 2.587 0
-1.851 -1.272 2.562 0
-1.835 -1.247 2.546 0
0.0 -0.0 3.0 0
0.0 -0.0 3.0 0
0.0 -0.0 3.0 0
0.0 -0.0 3.0 0
-1.582 -1.024 2.522 0
-1.543 -0.991 2.517 0
-1.549 -0.987 2.497 0
-1.525 -0.965 2.487 0
-1.484 -0.933 2.483 0
-1.421 -0.888 2.487 0
-24.173 -15.025 -6.028 6
-1.332 -0.823 2.485 0
-1.351 -0.832 2.46 15
-1.338 -0.82 2.447 6
-1.315 -0.803 2.438 6
-1.308 -0.795 2.422 8
-1.29 -0.782 2.41 5
-1.26 -0.762 2.405 2
-1.223 -0.737 2.403 3
-1.208 -0.727 2.39 3
-1.215 -0.728 2.367 13
-1.908 -1.49 2.737 9
-1.895 -1.459 2.716 11
-1.887 -1.431 2.696 8
-1.869 -1.398 2.677 8
-1.934 -1.425 2.645 1
-1.828 -1.329 2.644 4
-1.83 -1.314 2.623 2
0.0 -0.0 3.0 0
-1.843 -1.29 2.581 0
-1.998 -1.382 2.524 0
-1.827 -1.249 2.545 0
0.0 -0.0 3.0 0
0.0 -0.0 3.0 0
0.0 -0.0 3.0 0
0.0 -0.0 3.0 0
-1.559 -1.016 2.526 0
-1.546 -0.999 2.513 0
0.0 -0.0 3.0 0
0.0 -0.0 3.0 0
-1.474 -0.933 2.483 0
-1.408 -0.885 2.489 0
-1.344 -0.841 2.495 0
-1.345 -0.837 2.477 0
-1.348 -0.835 2.458 18
-1.332 -0.821 2.446 6
-1.309 -0.804 2.437 6
-1.302 -0.796 2.421 6
-1.281 -0.781 2.411 4
-1.251 -0.76 2.406 2
-1.218 -0.738 2.402 1
-1.199 -0.725 2.392 5
-1.206 -0.728 2.367 29
-1.901 -1.494 2.737 9
-1.894 -1.466 2.715 15
-1.877 -1.431 2.696 4
-1.856 -1.396 2.678 13
-1.916 -1.421 2.646 1
-1.821 -1.332 2.643 2
-1.817 -1.311 2.624 1
-1.818 -1.296 2.604 0
-1.794 -1.263 2.59 0
-2.052 -1.428 2.508 0
0.0 -0.0 3.0 0
0.0 -0.0 3.0 0
0.0 -0.0 3.0 0
0.0 -0.0 3.0 0
0.0 -0.0 3.0 0
-1.555 -1.021 2.524 0
0.0 -0.0 3.0 0
0.0 -0.0 3.0 0
-1.489 -0.955 2.492 0
-1.435 -0.914 2.493 0
-1.405 -0.89 2.486 0
-1.347 -0.848 2.49 0
-1.329 -0.833 2.48 0
-1.342 -0.837 2.457 19
-1.323 -0.821 2.446 6
-1.306 -0.808 2.435 6
-1.299 -0.799 2.419 6
-1.272 -0.781 2.412 2
-1.213 -0.742 2.42 6
-1.215 -0.741 2.4 1
-1.216 -0.739 2.38 5
-1.21 -0.734 2.362 56
-1.897 -1.499 2.736 10
-1.896 -1.476 2.713 9
-1.876 -1.439 2.694 3
-1.848 -1.398 2.677 12
-1.887 -1.408 2.649 1
-1.782 -1.312 2.649 1
-1.793 -1.303 2.626 0
-1.776 -1.274 2.61 0
0.0 -0.0 3.0 0
-2.124 -1.489 2.487 0
0.0 -0.0 3.0 0
0.0 -0.0 3.0 0
0.0 -0.0 3.0 0
-1.612 -1.084 2.54 0
0.0 -0.0 3.0 0
-1.552 -1.025 2.522 0
-1.516 -0.994 2.515 0
0.0 -0.0 3.0 0
0.0 -0.0 3.0 0
-1.442 -0.925 2.487 0
-1.405 -0.895 2.483 0
-1.325 -0.84 2.495 0
-1.323 -0.833 2.479 0
-1.326 -0.832 2.46 20
-1.316 -0.822 2.446 6
-1.3 -0.808 2.434 5
-1.286 -0.797 2.421 4
-1.253 -0.774 2.417 2
-1.211 -0.745 2.418 1
-1.203 -0.738 2.402 5
-1.213 -0.742 2.378 17
-1.207 -0.736 2.36 89
-1.892 -1.504 2.735 10
-1.882 -1.475 2.713 7
-1.862 -1.437 2.694 11
-1.847 -1.406 2.675 8
-1.778 -1.335 2.667 0
-1.774 -1.314 2.648 1
0.0 -0.0 3.0 0
-1.794 -1.295 2.604 0
0.0 -0.0 3.0 0
-2.142 -1.511 2.48 1
-1.773 -1.237 2.55 0
0.0 -0.0 3.0 0
0.0 -0.0 3.0 0
0.0 -0.0 3.0 0
-1.551 -1.04 2.537 0
-1.522 -1.012 2.528 0
-1.503 -0.991 2.517 0
-1.502 -0.984 2.499 0
-1.472 -0.956 2.491 0
-1.416 -0.914 2.493 0
-1.405 -0.901 2.48 0
-1.341 -0.856 2.486 0
-1.313 -0.833 2.479 0
-1.323 -0.835 2.458 19
-1.304 -0.82 2.447 6
-1.29 -0.808 2.434 4
-1.277 -0.796 2.421 3
-1.225 -0.761 2.426 6
-1.214 -0.751 2.413 1
-1.216 -0.75 2.393 5
-1.207 -0.743 2.377 29
-1.201 -0.737 2.359 82
-1.894 -1.515 2.733 13
-1.878 -1.48 2.712 3
-1.861 -1.445 2.693 13
-1.84 -1.409 2.675 11
-1.768 -1.335 2.667 0
-1.742 -1.298 2.652 2
0.0 -0.0 3.0 0
0.0 -0.0 3.0 0
-1.82 -1.306 2.576 0
-2.134 -1.514 2.479 1
0.0 -0.0 3.0 0
0.0 -0.0 3.0 0
0.0 -0.0 3.0 0
-1.605 -1.093 2.536 0
-1.56 -1.053 2.531 0
0.0 -0.0 3.0 0
-1.493 -0.991 2.517 0
-1.476 -0.973 2.504 0
-1.453 -0.95 2.495 0
-1.422 -0.924 2.488 0
-1.411 -0.911 2.474 0
-1.332 -0.855 2.486 0
-1.301 -0.83 2.481 0
-1.32 -0.839 2.455 18
-1.298 -0.82 2.447 5
-1.291 -0.813 2.431 5
-1.261 -0.791 2.425 2
-1.222 -0.764 2.425 1
-1.199 -0.747 2.417 4
-1.213 -0.753 2.39 12
-1.204 -0.745 2.375 42
-1.198 -0.74 2.357 36
-1.883 -1.515 2.733 7
-1.861 -1.475 2.713 6
-1.856 -1.45 2.692 11
-1.835 -1.415 2.673 13
-1.748 -1.329 2.669 0
-1.735 -1.301 2.651 3
0.0 -0.0 3.0 0
-1.814 -1.326 2.594 0
-1.841 -1.33 2.568 0
-2.138 -1.527 2.474 1
-1.765 -1.247 2.546 0
0.0 -0.0 3.0 0
0.0 -0.0 3.0 0
0.0 -0.0 3.0 0
-1.541 -1.046 2.534 0
-1.525 -1.027 2.521 0
0.0 -0.0 3.0 0
-1.473 -0.976 2.502 0
0.0 -0.0 3.0 0
-1.403 -0.918 2.491 0
-1.395 -0.907 2.476 0
-1.313 -0.849 2.49 0
-1.298 -0.834 2.479 0
-1.304 -0.834 2.458 15
-1.291 -0.822 2.446 4
-1.275 -0.808 2.434 3
-1.243 -0.785 2.43 4
-1.219 -0.767 2.422 1
-1.202 -0.753 2.412 3
-1.207 -0.753 2.39 22
-1.204 -0.75 2.371 46
-1.19 -0.738 2.359 18
-1.879 -1.52 2.732 5
-1.86 -1.483 2.712 14
-1.855 -1.458 2.69 8
-1.831 -1.419 2.672 6
-1.731 -1.324 2.67 0
-1.721 -1.299 2.652 5
0.0 -0.0 3.0 0
-1.775 -1.306 2.601 0
-1.776 -1.292 2.58 0
-2.13 -1.531 2.473 1
0.0 -0.0 3.0 0
0.0 -0.0 3.0 0
-1.663 -1.159 2.532 0
0.0 -0.0 3.0 0
-1.531 -1.046 2.534 0
-1.505 -1.021 2.524 0
0.0 -0.0 3.0 0
-1.437 -0.959 2.511 0
-1.427 -0.946 2.497 0
-1.4 -0.921 2.489 0
-1.382 -0.904 2.478 0
-1.297 -0.843 2.493 0
-1.291 -0.835 2.478 0
-1.301 -0.837 2.456 12
-1.285 -0.823 2.445 4
-1.266 -0.807 2.435 2
-1.227 -0.779 2.434 2
-1.21 -0.765 2.423 2
-1.203 -0.758 2.408 8
-1.204 -0.756 2.388 26
-1.195 -0.749 2.372 33
-1.193 -0.744 2.353 15
-1.887 -1.536 2.729 3
-1.852 -1.486 2.711 15
-1.845 -1.459 2.69 12
-1.83 -1.427 2.671 1
-1.686 -1.297 2.677 0
-1.711 -1.299 2.652 8
0.0 -0.0 3.0 0
-1.825 -1.351 2.587 0
-1.728 -1.265 2.589 0
-2.122 -1.536 2.471 2
0.0 -0.0 3.0 0
0.0 -0.0 3.0 0
-1.637 -1.148 2.536 0
0.0 -0.0 3.0 0
0.0 -0.0 3.0 0
-1.483 -1.011 2.528 0
-1.482 -1.003 2.511 0
-1.434 -0.963 2.509 0
-1.404 -0.937 2.502 0
-1.397 -0.925 2.487 0
-1.376 -0.906 2.477 0
-1.3 -0.851 2.489 0
-1.279 -0.833 2.48 0
-1.295 -0.839 2.455 10
-1.282 -0.826 2.443 3
-1.25 -0.803 2.438 3
-1.224 -0.782 2.432 1
-1.207 -0.768 2.421 4
-1.203 -0.762 2.404 18
-1.201 -0.759 2.385 33
-1.196 -0.753 2.368 17
-1.187 -0.745 2.352 12
-1.864 -1.526 2.731 7
-1.857 -1.499 2.709 10
-1.834 -1.459 2.69 11
-1.798 -1.411 2.674 1
-1.692 -1.31 2.673 0
-1.704 -1.302 2.651 11
0.0 -0.0 3.0 0
-1.808 -1.347 2.588 0
0.0 -0.0 3.0 0
-2.13 -1.551 2.466 2
-1.733 -1.249 2.546 0
0.0 -0.0 3.0 0
0.0 -0.0 3.0 0
0.0 -0.0 3.0 0
0.0 -0.0 3.0 0
-1.476 -1.014 2.527 0
0.0 -0.0 3.0 0
-1.434 -0.969 2.506 0
-1.398 -0.939 2.501 0
-1.384 -0.923 2.489 0
-1.363 -0.903 2.479 0
-1.294 -0.853 2.488 0
-1.263 -0.827 2.483 0
-1.282 -0.836 2.457 9
-1.273 -0.825 2.443 2
-1.228 -0.793 2.445 5
-1.225 -0.787 2.428 1
-1.211 -0.776 2.415 3
-1.203 -0.768 2.4 20
-1.198 -0.762 2.383 27
-1.19 -0.754 2.368 14
-1.184 -0.748 2.35 10
-1.856 -1.528 2.731 14
-1.849 -1.502 2.708 12
-1.839 -1.471 2.687 3
-1.787 -1.411 2.674 0
-1.666 -1.298 2.676 0
-1.69 -1.299 2.652 14
0.0 -0.0 3.0 0
-1.769 -1.326 2.595 0
0.0 -0.0 3.0 0
-2.121 -1.555 2.465 1
0.0 -0.0 3.0 0
-1.687 -1.21 2.535 0
0.0 -0.0 3.0 0
0.0 -0.0 3.0 0
-1.507 -1.051 2.532 0
-1.441 -0.996 2.536 0
0.0 -0.0 3.0 0
-1.402 -0.954 2.514 0
-1.401 -0.946 2.497 0
-1.39 -0.933 2.483 0
-1.372 -0.915 2.472 0
-1.272 -0.843 2.493 0
-1.27 -0.837 2.477 0
-1.273 -0.835 2.458 8
-1.257 -0.82 2.447 2
-1.213 -0.788 2.448 1
-1.209 -0.782 2.432 5
-1.211 -0.78 2.412 14
-1.2 -0.77 2.398 23
-1.189 -0.761 2.384 17
-1.19 -0.758 2.364 11
-1.181 -0.75 2.348 4
-1.855 -1.537 2.729 13
-1.839 -1.502 2.708 13
-1.828 -1.472 2.687 1
-1.739 -1.382 2.681 0
-1.665 -1.304 2.675 0
-1.677 -1.297 2.652 17
0.0 -0.0 3.0 0
-1.718 -1.297 2.604 0
-1.722 -1.285 2.583 0
-2.113 -1.558 2.463 2
0.0 -0.0 3.0 0
0.0 -0.0 3.0 0
0.0 -0.0 3.0 0
0.0 -0.0 3.0 0
-1.475 -1.035 2.539 0
-1.447 -1.007 2.53 0
0.0 -0.0 3.0 0
0.0 -0.0 3.0 0
-1.398 -0.95 2.495 0
-1.374 -0.928 2.486 0
-1.328 -0.891 2.485 0
-1.269 -0.846 2.491 1
-1.26 -0.836 2.478 0
-1.273 -0.84 2.454 5
-1.232 -0.81 2.454 5
-1.21 -0.791 2.446 1
-1.212 -0.789 2.427 3
-1.211 -0.785 2.408 20
-1.197 -0.773 2.396 25
-1.19 -0.765 2.38 16
-1.181 -0.757 2.365 10
-1.172 -0.748 2.349 1
-1.854 -1.544 2.728 8
-1.837 -1.509 2.707 10
-1.818 -1.472 2.687 1
-1.717 -1.372 2.683 0
-1.651 -1.302 2.675 0
-1.673 -1.302 2.651 18
0.0 -0.0 3.0 0
-1.735 -1.318 2.597 0
0.0 -0.0 3.0 0
-2.108 -1.565 2.461 1
0.0 -0.0 3.0 0
0.0 -0.0 3.0 0
0.0 -0.0 3.0 0
-1.505 -1.073 2.544 0
-1.471 -1.04 2.537 0
-1.472 -1.03 2.519 0
-1.433 -0.996 2.514 0
-1.398 -0.964 2.509 0
-1.378 -0.944 2.498 0
-1.361 -0.925 2.487 0
-1.334 -0.901 2.48 0
-1.263 -0.848 2.49 1
-1.248 -0.833 2.479 0
-1.261 -0.837 2.456 5
-1.214 -0.802 2.459 1
-1.204 -0.792 2.445 3
-1.213 -0.794 2.423 12
-1.208 -0.788 2.406 20
-1.188 -0.772 2.397 18
-1.19 -0.77 2.377 13
-1.184 -0.764 2.359 7
-1.154 -0.741 2.356 0
-1.843 -1.545 2.728 12
-1.836 -1.517 2.705 3
-1.816 -1.481 2.685 0
-1.697 -1.364 2.685 0
-1.647 -1.307 2.674 0
-1.662 -1.301 2.651 18
0.0 -0.0 3.0 0
-1.697 -1.297 2.604 0
0.0 -0.0 3.0 0
-2.087 -1.559 2.463 1
-1.691 -1.25 2.545 0
0.0 -0.0 3.0 0
-1.614 -1.169 2.528 0
-1.492 -1.07 2.546 0
-1.477 -1.051 2.532 0
-1.437 -1.012 2.528 0
-1.427 -0.998 2.513 0
-1.382 -0.959 2.511 0
-1.35 -0.93 2.506 0
-1.364 -0.933 2.483 0
-1.331 -0.904 2.478 0
-1.26 -0.851 2.488 0
-1.238 -0.832 2.48 0
-1.239 -0.828 2.463 5
-1.211 -0.805 2.457 1
-1.207 -0.799 2.441 2
-1.21 -0.797 2.421 21
-1.208 -0.793 2.403 18
-1.182 -0.773 2.396 12
-1.181 -0.769 2.378 10
-1.181 -0.766 2.357 1
-1.155 -0.746 2.352 0
-1.835 -1.547 2.727 13
-1.832 -1.522 2.704 1
0.0 -0.0 3.0 0
-1.656 -1.339 2.691 0
-1.619 -1.292 2.678 0
-1.658 -1.307 2.65 21
0.0 -0.0 3.0 0
-1.714 -1.318 2.597 0
0.0 -0.0 3.0 0
-2.07 -1.556 2.464 1
-1.995 -1.483 2.46 0
0.0 -0.0 3.0 0
0.0 -0.0 3.0 0
0.0 -0.0 3.0 0
-1.448 -1.036 2.539 0
-1.442 -1.023 2.523 0
-1.408 -0.991 2.517 0
-1.373 -0.958 2.512 0
-1.362 -0.945 2.498 0
-1.342 -0.924 2.488 0
-1.293 -0.884 2.489 0
-1.25 -0.85 2.489 0
-1.235 -0.835 2.478 0
-1.223 -0.822 2.466 1
-1.202 -0.804 2.458 2
-1.21 -0.806 2.436 8
-1.21 -0.802 2.418 20
-1.196 -0.79 2.405 20
-1.18 -0.775 2.394 10
-1.181 -0.773 2.374 8
-1.176 -0.767 2.356 0
-1.146 -0.744 2.353 0
-1.834 -1.554 2.726 7
-1.806 -1.51 2.707 1
0.0 -0.0 3.0 0
-1.649 -1.341 2.69 0
-1.633 -1.312 2.673 0
-1.642 -1.302 2.651 19
0.0 -0.0 3.0 0
-1.664 -1.288 2.606 0
0.0 -0.0 3.0 0
-2.052 -1.553 2.465 0
0.0 -0.0 3.0 0
0.0 -0.0 3.0 0
0.0 -0.0 3.0 0
0.0 -0.0 3.0 0
-1.454 -1.047 2.534 0
-1.42 -1.014 2.527 0
0.0 -0.0 3.0 0
-1.366 -0.96 2.511 0
-1.343 -0.938 2.502 0
-1.335 -0.926 2.487 0
-1.271 -0.876 2.494 0
-1.241 -0.849 2.49 1
-1.223 -0.832 2.48 1
-1.223 -0.828 2.462 1
-1.205 -0.811 2.453 2
-1.201 -0.805 2.436 17
-1.201 -0.801 2.418 18
-1.193 -0.792 2.403 14
-1.183 -0.782 2.389 9
-1.178 -0.776 2.372 3
-1.157 -0.76 2.363 0
0.0 -0.0 3.0 0
-1.811 -1.545 2.728 1
-1.81 -1.523 2.704 0
0.0 -0.0 3.0 0
-1.635 -1.339 2.691 0
-1.611 -1.301 2.676 0
-1.632 -1.301 2.651 18
0.0 -0.0 3.0 0
0.0 -0.0 3.0 0
-1.691 -1.302 2.577 0
-2.062 -1.571 2.459 1
-2.013 -1.516 2.448 0
0.0 -0.0 3.0 0
0.0 -0.0 3.0 0
-1.475 -1.079 2.542 0
-1.438 -1.043 2.536 0
-1.401 -1.007 2.53 0
-1.391 -0.992 2.516 0
-1.341 -0.949 2.517 0
-1.321 -0.928 2.507 0
-1.313 -0.916 2.492 0
-1.284 -0.889 2.486 0
-1.225 -0.844 2.493 0
-1.226 -0.839 2.475 1
-1.208 -0.823 2.466 2
-1.211 -0.821 2.447 6
-1.204 -0.812 2.431 17
-1.201 -0.805 2.415 22
-1.19 -0.795 2.401 11
-1.171 -0.779 2.392 8
-1.178 -0.78 2.368 0
-1.136 -0.75 2.371 0
0.0 -0.0 3.0 0
-1.822 -1.562 2.725 1
0.0 -0.0 3.0 0
0.0 -0.0 3.0 0
-1.625 -1.339 2.691 0
-1.594 -1.296 2.677 0
-1.621 -1.302 2.651 16
0.0 -0.0 3.0 0
-1.686 -1.321 2.596 0
0.0 -0.0 3.0 0
-2.051 -1.572 2.459 0
-2.011 -1.525 2.445 0
-1.587 -1.191 2.543 0
0.0 -0.0 3.0 0
-1.446 -1.065 2.548 0
-1.413 -1.031 2.541 0
-1.416 -1.024 2.522 0
-1.375 -0.987 2.518 0
-1.359 -0.968 2.507 0
-1.337 -0.945 2.498 0
-1.282 -0.9 2.501 0
-1.256 -0.875 2.495 0
-1.219 -0.845 2.492 1
-1.226 -0.845 2.472 1
-1.208 -0.828 2.462 2
-1.202 -0.819 2.447 14
-1.198 -0.813 2.431 15
-1.195 -0.807 2.414 15
-1.187 -0.798 2.398 11
-1.171 -0.783 2.388 3
-1.169 -0.779 2.369 0
-1.152 -0.765 2.358 0
0.0 -0.0 3.0 0
-1.811 -1.562 2.725 1
0.0 -0.0 3.0 0
0.0 -0.0 3.0 0
-1.621 -1.343 2.69 0
-1.584 -1.296 2.677 0
-1.614 -1.303 2.651 15
0.0 -0.0 3.0 0
-1.614 -1.273 2.611 0
0.0 -0.0 3.0 0
0.0 -0.0 3.0 0
0.0 -0.0 3.0 0
0.0 -0.0 3.0 0
0.0 -0.0 3.0 0
-1.443 -1.069 2.546 0
-1.421 -1.045 2.535 0
-1.391 -1.012 2.528 0
-1.366 -0.986 2.519 0
-1.331 -0.954 2.514 0
-1.318 -0.937 2.502 0
-1.276 -0.901 2.5 0
-1.24 -0.87 2.498 0
-1.229 -0.857 2.485 3
-1.205 -0.835 2.478 1
-1.217 -0.84 2.455 5
-1.202 -0.824 2.444 15
-1.198 -0.818 2.427 17
-1.186 -0.806 2.415 11
-1.181 -0.799 2.398 10
-1.168 -0.786 2.386 0
-1.16 -0.777 2.37 0
-1.134 -0.757 2.365 0
0.0 -0.0 3.0 0
0.0 -0.0 3.0 0
0.0 -0.0 3.0 0
0.0 -0.0 3.0 0
-1.593 -1.328 2.693 0
-1.565 -1.288 2.679 0
-1.604 -1.303 2.651 12
-1.639 -1.316 2.623 0
-1.619 -1.285 2.607 0
0.0 -0.0 3.0 0
-1.738 -1.349 2.536 0
-2.06 -1.582 2.424 0
-1.532 -1.165 2.553 0
0.0 -0.0 3.0 0
-1.417 -1.057 2.552 0
-1.415 -1.046 2.535 0
-1.378 -1.01 2.529 0
-1.378 -1.002 2.511 0
-1.331 -0.96 2.511 0
-1.277 -0.914 2.514 0
-1.276 -0.907 2.497 0
-1.231 -0.869 2.498 0
-1.229 -0.862 2.482 1
-1.205 -0.841 2.475 2
-1.211 -0.841 2.454 13
-1.199 -0.828 2.442 13
-1.189 -0.817 2.428 13
-1.186 -0.81 2.411 12
-1.181 -0.804 2.394 5
-1.159 -0.785 2.387 0
-1.163 -0.784 2.365 0
0.0 -0.0 3.0 0
0.0 -0.0 3.0 0
0.0 -0.0 3.0 0
0.0 -0.0 3.0 0
0.0 -0.0 3.0 0
-1.592 -1.335 2.692 0
-1.567 -1.297 2.677 0
-1.6 -1.308 2.65 8
-1.611 -1.301 2.627 0
-1.587 -1.268 2.612 0
-1.631 -1.288 2.582 0
-1.758 -1.373 2.527 0
-2.057 -1.59 2.421 0
0.0 -0.0 3.0 0
0.0 -0.0 3.0 0
-1.42 -1.066 2.548 0
-1.405 -1.046 2.535 0
-1.371 -1.011 2.528 0
-1.356 -0.992 2.516 0
-1.324 -0.961 2.51 0
-1.277 -0.92 2.511 0
-1.248 -0.893 2.505 0
-1.224 -0.87 2.498 1
-1.213 -0.857 2.485 1
-1.214 -0.853 2.467 3
-1.211 -0.845 2.451 16
-1.193 -0.828 2.441 14
-1.183 -0.817 2.428 10
-1.186 -0.815 2.408 12
-1.178 -0.807 2.392 0
-1.138 -0.775 2.394 0
-1.136 -0.771 2.376 0
0.0 -0.0 3.0 0
0.0 -0.0 3.0 0
0.0 -0.0 3.0 0
0.0 -0.0 3.0 0
0.0 -0.0 3.0 0
-2.597 -2.192 2.494 5
-1.554 -1.295 2.677 0
-1.59 -1.307 2.65 5
-1.628 -1.324 2.62 0
-1.556 -1.25 2.618 0
-1.578 -1.254 2.593 0
0.0 -0.0 3.0 0
-2.052 -1.596 2.419 0
0.0 -0.0 3.0 0
0.0 -0.0 3.0 0
-1.419 -1.072 2.545 0
-1.395 -1.045 2.535 0
-1.365 -1.013 2.528 0
-1.346 -0.991 2.517 0
-1.287 -0.941 2.521 0
-1.274 -0.923 2.509 0
-1.217 -0.876 2.514 0
-1.212 -0.867 2.499 1
-1.204 -0.856 2.486 2
-1.208 -0.854 2.467 11
-1.205 -0.847 2.45 14
-1.193 -0.833 2.438 13
-1.183 -0.822 2.424 13
-1.18 -0.816 2.407 8
-1.181 -0.814 2.387 0
-1.129 -0.774 2.396 0
-1.127 -0.769 2.377 0
-1.113 -0.756 2.365 0
0.0 -0.0 3.0 0
0.0 -0.0 3.0 0
0.0 -0.0 3.0 0
0.0 -0.0 3.0 0
-1.565 -1.329 2.693 0
-1.571 -1.317 2.672 0
-1.576 -1.305 2.65 3
-1.575 -1.289 2.63 0
-1.564 -1.264 2.613 0
-1.552 -1.241 2.597 0
-1.62 -1.281 2.559 0
-2.062 -1.614 2.412 0
0.0 -0.0 3.0 0
0.0 -0.0 3.0 0
-1.394 -1.06 2.55 0
-1.379 -1.039 2.537 0
-1.352 -1.01 2.529 0
-1.327 -0.984 2.52 0
-1.259 -0.925 2.529 0
-1.252 -0.913 2.514 0
-1.207 -0.875 2.515 1
-1.218 -0.877 2.494 1
-1.207 -0.864 2.481 2
-1.211 -0.861 2.462 16
-1.199 -0.848 2.449 14
-1.181 -0.83 2.44 9
-1.18 -0.826 2.422 12
-1.183 -0.823 2.402 1
-1.166 -0.808 2.391 0
-1.129 -0.778 2.392 0
-1.124 -0.772 2.375 0
0.0 -0.0 3.0 0
0.0 -0.0 3.0 0
0.0 -0.0 3.0 0
0.0 -0.0 3.0 0
0.0 -0.0 3.0 0
-1.63 -1.392 2.679 0
0.0 -0.0 3.0 0
-1.572 -1.309 2.649 2
-1.626 -1.338 2.616 0
-1.533 -1.246 2.619 0
0.0 -0.0 3.0 0
0.0 -0.0 3.0 0
-2.057 -1.62 2.41 0
-1.437 -1.12 2.57 0
0.0 -0.0 3.0 0
-1.415 -1.082 2.541 0
-1.382 -1.048 2.533 0
-1.351 -1.016 2.526 0
-1.305 -0.974 2.525 0
-1.268 -0.938 2.522 0
-1.242 -0.913 2.515 0
-1.216 -0.887 2.508 1
-1.209 -0.876 2.494 1
-1.21 -0.871 2.476 9
-1.202 -0.859 2.463 13
-1.19 -0.847 2.45 14
-1.187 -0.84 2.434 12
-1.18 -0.83 2.419 9
-1.18 -0.826 2.4 0
-1.157 -0.806 2.392 0
-1.129 -0.783 2.388 0
-1.118 -0.772 2.375 0
-1.11 -0.764 2.359 0
0.0 -0.0 3.0 0
0.0 -0.0 3.0 0
0.0 -0.0 3.0 0
0.0 -0.0 3.0 0
-1.614 -1.387 2.68 0
0.0 -0.0 3.0 0
-1.568 -1.314 2.648 2
-1.57 -1.3 2.627 0
0.0 -0.0 3.0 0
-1.52 -1.231 2.6 0
-1.569 -1.256 2.567 0
-1.489 -1.181 2.57 0
-2.07 -1.625 2.376 0
-1.401 -1.088 2.56 0
-1.399 -1.078 2.543 0
-1.351 -1.031 2.541 0
-1.348 -1.02 2.525 0
-1.302 -0.977 2.523 0
-1.249 -0.931 2.526 0
-1.218 -0.9 2.521 1
-1.207 -0.886 2.509 1
-1.209 -0.881 2.491 2
-1.207 -0.874 2.475 14
-1.201 -0.865 2.459 12
-1.187 -0.849 2.449 10
-1.184 -0.842 2.432 13
-1.177 -0.833 2.416 1
-1.167 -0.823 2.402 0
-1.148 -0.805 2.393 0
0.0 -0.0 3.0 0
-1.107 -0.768 2.378 0
-1.108 -0.766 2.358 0
0.0 -0.0 3.0 0
0.0 -0.0 3.0 0
0.0 -0.0 3.0 0
0.0 -0.0 3.0 0
-1.574 -1.36 2.686 0
0.0 -0.0 3.0 0
-1.561 -1.316 2.647 1
-1.566 -1.305 2.626 0
-1.528 -1.258 2.615 0
-1.516 -1.235 2.599 0
-1.501 -1.209 2.584 0
-1.503 -1.2 2.563 0
-1.448 -1.143 2.561 0
-2.122 -1.66 2.329 0
-1.392 -1.079 2.542 0
-1.365 -1.049 2.533 0
-1.317 -1.003 2.532 0
-1.295 -0.978 2.523 0
-1.234 -0.924 2.529 0
-1.214 -0.904 2.52 0
-1.21 -0.894 2.505 2
-1.209 -0.887 2.488 7
-1.207 -0.88 2.471 13
-1.192 -0.863 2.461 13
-1.186 -0.855 2.445 13
-1.18 -0.845 2.43 11
-1.177 -0.838 2.413 0
-1.143 -0.811 2.411 0
-1.13 -0.798 2.399 0
-1.126 -0.79 2.382 0
-1.113 -0.777 2.371 0
-1.096 -0.762 2.361 0
0.0 -0.0 3.0 0
0.0 -0.0 3.0 0
0.0 -0.0 3.0 0
0.0 -0.0 3.0 0
-1.543 -1.342 2.69 0
0.0 -0.0 3.0 0
-1.536 -1.303 2.651 0
-1.555 -1.304 2.626 0
-1.514 -1.255 2.616 0
-1.497 -1.227 2.601 0
-1.479 -1.199 2.587 0
-1.49 -1.197 2.564 0
-2.083 -1.656 2.365 1
-2.128 -1.675 2.323 0
-1.386 -1.08 2.541 0
-1.34 -1.036 2.539 0
-1.301 -0.997 2.535 0
-1.264 -0.961 2.531 0
-1.224 -0.924 2.529 0
-1.214 -0.909 2.517 0
-1.207 -0.897 2.503 2
-1.208 -0.892 2.485 12
-1.197 -0.878 2.472 11
-1.189 -0.867 2.458 10
-1.183 -0.858 2.443 13
-1.18 -0.85 2.426 2
-1.162 -0.833 2.417 0
-1.152 -0.821 2.403 0
-1.142 -0.811 2.389 0
-1.111 -0.784 2.387 0
-1.107 -0.777 2.37 0
-1.093 -0.765 2.358 0
0.0 -0.0 3.0 0
0.0 -0.0 3.0 0
0.0 -0.0 3.0 0
0.0 -0.0 3.0 0
-1.521 -1.331 2.693 0
-1.539 -1.329 2.669 0
-1.535 -1.31 2.649 0
-1.545 -1.303 2.626 0
-1.504 -1.254 2.616 0
-1.511 -1.247 2.595 0
-1.457 -1.189 2.591 0
-1.483 -1.198 2.564 0
-1.397 -1.117 2.571 0
-1.375 -1.089 2.56 0
-1.351 -1.061 2.55 0
-1.316 -1.024 2.544 0
-1.279 -0.987 2.54 0
-1.237 -0.946 2.539 0
-1.224 -0.929 2.527 0
-1.211 -0.912 2.515 1
-1.201 -0.898 2.502 9
-1.205 -0.896 2.483 13
-1.194 -0.881 2.47 13
-1.18 -0.866 2.459 10
-1.18 -0.861 2.441 11
-1.165 -0.845 2.43 0
-1.162 -0.838 2.413 0
-1.125 -0.808 2.413 0
-1.13 -0.807 2.392 0
-1.099 -0.781 2.39 0
-1.11 -0.785 2.365 0
-1.087 -0.765 2.358 0
0.0 -0.0 3.0 0
0.0 -0.0 3.0 0
0.0 -0.0 3.0 0
0.0 -0.0 3.0 0
-2.449 -2.155 2.502 5
-1.52 -1.32 2.671 0
0.0 -0.0 3.0 0
-1.52 -1.29 2.63 0
-1.497 -1.256 2.616 0
-1.495 -1.241 2.597 0
-1.459 -1.198 2.587 0
-1.446 -1.176 2.572 0
-1.385 -1.115 2.572 0
-1.38 -1.1 2.555 0
-1.348 -1.065 2.548 0
-1.297 -1.015 2.548 0
-1.267 -0.983 2.541 0
-1.23 -0.948 2.538 0
-1.233 -0.942 2.52 1
-1.208 -0.916 2.513 2
-1.207 -0.909 2.496 13
-1.205 -0.901 2.48 10
-1.191 -0.885 2.468 10
-1.18 -0.871 2.456 13
-1.183 -0.868 2.436 3
-1.18 -0.861 2.419 0
-1.129 -0.819 2.426 0
-1.11 -0.801 2.418 0
-1.121 -0.805 2.393 0
-1.085 -0.775 2.394 0
-1.104 -0.785 2.364 0
-1.087 -0.769 2.355 0
0.0 -0.0 3.0 0
0.0 -0.0 3.0 0
0.0 -0.0 3.0 0
0.0 -0.0 3.0 0
-1.495 -1.324 2.694 0
-1.507 -1.317 2.672 1
0.0 -0.0 3.0 0
-1.525 -1.303 2.626 0
-1.478 -1.248 2.618 0
-1.482 -1.238 2.598 0
-1.431 -1.182 2.593 0
-1.418 -1.16 2.578 0
-1.399 -1.133 2.565 0
-1.349 -1.083 2.563 0
-1.323 -1.052 2.554 0
-1.29 -1.017 2.547 0
-1.251 -0.978 2.544 0
-1.218 -0.944 2.54 0
-1.214 -0.933 2.524 1
-1.208 -0.921 2.51 7
-1.203 -0.911 2.495 15
-1.196 -0.9 2.48 13
-1.182 -0.884 2.469 9
-1.186 -0.88 2.45 13
-1.183 -0.873 2.433 0
-1.138 -0.835 2.437 0
-1.138 -0.831 2.418 0
-1.125 -0.817 2.406 0
-1.121 -0.81 2.39 0
-1.102 -0.793 2.381 0
-1.095 -0.783 2.366 0
-1.081 -0.769 2.354 0
0.0 -0.0 3.0 0
0.0 -0.0 3.0 0
0.0 -0.0 3.0 0
0.0 -0.0 3.0 0
-1.476 -1.315 2.696 0
-1.491 -1.312 2.673 1
0.0 -0.0 3.0 0
-1.512 -1.299 2.627 0
-1.471 -1.25 2.618 0
-1.46 -1.227 2.601 0
-1.427 -1.187 2.591 0
-1.387 -1.141 2.585 0
-2.07 -1.687 2.352 0
-2.1 -1.695 2.315 0
-1.316 -1.053 2.553 0
-1.278 -1.013 2.549 0
-1.23 -0.967 2.549 0
-1.23 -0.959 2.532 0
-1.208 -0.935 2.524 2
-1.21 -0.929 2.506 12
-1.197 -0.913 2.494 12
-1.196 -0.905 2.477 10
-1.185 -0.891 2.465 13
-1.179 -0.882 2.449 5
-1.171 -0.87 2.435 0
-1.126 -0.832 2.439 0
-1.114 -0.818 2.427 0
-1.113 -0.813 2.409 0
-1.112 -0.809 2.391 0
-1.105 -0.799 2.376 0
-1.095 -0.788 2.362 0
-1.105 -0.791 2.337 0
0.0 -0.0 3.0 0
0.0 -0.0 3.0 0
0.0 -0.0 3.0 0
0.0 -0.0 3.0 0
-1.484 -1.33 2.693 0
-1.478 -1.308 2.674 3
0.0 -0.0 3.0 0
-1.529 -1.322 2.621 0
-1.467 -1.255 2.616 0
-1.423 -1.204 2.609 0
-1.42 -1.188 2.591 0
-1.407 -1.166 2.576 0
-1.367 -1.121 2.57 0
-1.315 -1.068 2.569 0
-1.289 -1.037 2.56 0
-1.262 -1.007 2.552 0
-1.226 -0.971 2.547 0
-1.223 -0.96 2.532 1
-1.211 -0.943 2.519 6
-1.207 -0.933 2.504 13
-1.197 -0.918 2.491 14
-1.183 -0.902 2.479 8
-1.178 -0.892 2.464 13
-1.164 -0.876 2.453 0
-1.161 -0.869 2.436 0
-1.129 -0.839 2.434 0
-1.105 -0.817 2.428 0
-1.134 -0.833 2.394 0
0.0 -0.0 3.0 0
-1.099 -0.8 2.375 0
-1.092 -0.791 2.36 0
-1.067 -0.768 2.356 0
0.0 -0.0 3.0 0
0.0 -0.0 3.0 0
0.0 -0.0 3.0 0
-1.509 -1.377 2.707 0
-1.474 -1.328 2.693 0
-1.471 -1.31 2.673 4
0.0 -0.0 3.0 0
-1.492 -1.298 2.628 0
-1.454 -1.25 2.618 0
-1.431 -1.218 2.604 0
-1.428 -1.203 2.586 0
-1.367 -1.14 2.585 0
-2.065 -1.704 2.346 0
-1.305 -1.067 2.569 0
-1.279 -1.036 2.56 0
-1.25 -1.003 2.553 0
-1.22 -0.972 2.547 0
-1.211 -0.957 2.533 1
-1.207 -0.946 2.518 10
-1.201 -0.934 2.504 11
-1.19 -0.919 2.491 12
-1.186 -0.909 2.475 13
-1.184 -0.902 2.458 7
-1.164 -0.881 2.45 0
-1.137 -0.856 2.444 0
-1.132 -0.846 2.43 0
-1.128 -0.84 2.412 0
-1.107 -0.819 2.405 0
-1.1 -0.81 2.39 0
-1.09 -0.798 2.376 0
-1.089 -0.793 2.358 0
-1.078 -0.781 2.344 0
0.0 -0.0 3.0 0
0.0 -0.0 3.0 0
0.0 -0.0 3.0 0
-1.496 -1.373 2.708 0
-1.452 -1.317 2.696 0
-1.464 -1.311 2.673 8
0.0 -0.0 3.0 0
-1.494 -1.308 2.625 0
-1.444 -1.25 2.618 0
-1.406 -1.204 2.609 0
-1.4 -1.186 2.592 0
-1.343 -1.126 2.59 0
-1.324 -1.099 2.578 0
-1.28 -1.054 2.574 0
-1.261 -1.028 2.564 0
-1.225 -0.991 2.559 0
-1.214 -0.972 2.547 1
-1.208 -0.96 2.532 5
-1.207 -0.952 2.515 12
-1.194 -0.934 2.503 13
-1.178 -0.916 2.493 10
-1.18 -0.91 2.474 13
-1.172 -0.898 2.46 0
-1.152 -0.877 2.452 0
-1.134 -0.858 2.443 0
-1.123 -0.845 2.43 0
-1.116 -0.835 2.415 0
-1.119 -0.832 2.395 0
-1.124 -0.831 2.373 0
-1.082 -0.796 2.378 0
-1.086 -0.795 2.356 0
0.0 -0.0 3.0 0
0.0 -0.0 3.0 0
0.0 -0.0 3.0 0
0.0 -0.0 3.0 0
-1.486 -1.373 2.708 0
-1.445 -1.319 2.696 0
-1.445 -1.302 2.675 11
0.0 -0.0 3.0 0
-1.469 -1.294 2.629 0
-1.431 -1.246 2.619 0
-1.42 -1.223 2.602 0
-1.381 -1.177 2.595 0
-1.36 -1.148 2.582 0
-1.287 -1.076 2.587 0
-1.274 -1.055 2.574 0
-1.233 -1.012 2.57 0
-1.216 -0.989 2.56 1
-1.207 -0.973 2.546 1
-1.213 -0.97 2.527 9
-1.201 -0.953 2.514 10
-1.191 -0.938 2.501 12
-1.181 -0.923 2.488 15
-1.182 -0.918 2.47 8
-1.157 -0.892 2.464 0
-1.146 -0.878 2.451 0
-1.128 -0.859 2.442 0
-1.125 -0.852 2.425 0
-1.093 -0.822 2.424 0
-1.125 -0.841 2.389 0
-1.088 -0.81 2.39 0
-1.09 -0.808 2.369 0
-1.08 -0.795 2.356 0
0.0 -0.0 3.0 0
-1.079 -0.787 2.316 0
0.0 -0.0 3.0 0
0.0 -0.0 3.0 0
-1.465 -1.361 2.711 0
-1.418 -1.302 2.699 0
-1.438 -1.304 2.675 13
0.0 -0.0 3.0 0
-1.485 -1.316 2.623 0
-1.442 -1.264 2.614 0
-1.413 -1.225 2.602 0
-1.401 -1.202 2.586 0
-1.347 -1.144 2.584 0
-1.287 -1.082 2.585 0
-1.27 -1.058 2.572 0
-1.227 -1.013 2.57 0
-1.215 -0.995 2.557 1
-1.216 -0.987 2.54 3
-1.204 -0.969 2.527 11
-1.197 -0.956 2.513 12
-1.185 -0.939 2.501 9
-1.181 -0.929 2.485 16
-1.179 -0.921 2.468 0
-1.165 -0.904 2.457 0
-1.142 -0.88 2.45 0
-1.122 -0.86 2.442 0
-1.119 -0.852 2.425 0
-1.107 -0.839 2.413 0
-1.107 -0.834 2.394 0
-1.091 -0.817 2.384 0
-1.084 -0.807 2.369 0
-1.086 -0.804 2.349 0
-1.081 -0.797 2.331 0
0.0 -0.0 3.0 0
0.0 -0.0 3.0 0
0.0 -0.0 3.0 0
-1.449 -1.354 2.712 0
-1.417 -1.308 2.698 0
-1.434 -1.308 2.674 16
0.0 -0.0 3.0 0
-1.461 -1.302 2.627 0
-1.412 -1.245 2.619 0
-1.409 -1.229 2.601 0
-1.382 -1.194 2.589 0
-1.314 -1.123 2.591 0
-1.286 -1.089 2.582 0
-1.24 -1.04 2.58 0
-1.232 -1.024 2.565 0
-1.203 -0.991 2.559 1
-1.209 -0.988 2.539 9
-1.2 -0.973 2.526 9
-1.194 -0.96 2.511 12
-1.184 -0.944 2.498 13
-1.174 -0.929 2.485 13
-1.152 -0.906 2.477 0
-1.15 -0.898 2.46 0
-1.133 -0.879 2.45 0
-1.145 -0.884 2.426 0
-1.119 -0.858 2.421 0
-1.104 -0.841 2.411 0
-1.112 -0.843 2.388 0
-1.114 -0.84 2.367 0
-1.099 -0.823 2.357 0
-1.1 -0.82 2.336 0
0.0 -0.0 3.0 0
0.0 -0.0 3.0 0
0.0 -0.0 3.0 0
0.0 -0.0 3.0 0
-1.459 -1.372 2.708 0
-1.407 -1.307 2.698 0
-1.427 -1.31 2.673 19
0.0 -0.0 3.0 0
-1.459 -1.309 2.625 0
-1.422 -1.261 2.614 0
-1.37 -1.203 2.609 0
-1.355 -1.177 2.595 0
-1.295 -1.114 2.594 0
-1.262 -1.075 2.587 0
-1.225 -1.033 2.583 0
-1.214 -1.015 2.569 0
-1.212 -1.004 2.553 2
-1.206 -0.992 2.538 11
-1.197 -0.976 2.524 11
-1.188 -0.961 2.51 9
-1.178 -0.946 2.497 14
-1.174 -0.936 2.481 1
-1.158 -0.916 2.471 0
-1.138 -0.894 2.463 0
-1.121 -0.875 2.453 0
-1.122 -0.871 2.435 0
-1.113 -0.858 2.421 0
-1.086 -0.832 2.417 0
-1.118 -0.852 2.381 0
-1.097 -0.831 2.374 0
-1.055 -0.795 2.379 0
0.0 -0.0 3.0 0
0.0 -0.0 3.0 0
0.0 -0.0 3.0 0
0.0 -0.0 3.0 0
0.0 -0.0 3.0 0
-1.444 -1.366 2.71 0
-1.406 -1.314 2.697 0
-1.42 -1.311 2.673 20
0.0 -0.0 3.0 0
-1.446 -1.305 2.626 0
-1.407 -1.255 2.616 0
-1.383 -1.222 2.603 0
-1.328 -1.161 2.6 0
-1.297 -1.123 2.591 0
-1.243 -1.065 2.591 0
-1.224 -1.04 2.58 0
-1.213 -1.021 2.566 1
-1.208 -1.008 2.551 8
-1.203 -0.994 2.536 10
-1.191 -0.976 2.524 12
-1.181 -0.962 2.51 13
-1.178 -0.951 2.494 12
-1.162 -0.931 2.484 0
-1.149 -0.914 2.472 0
-1.132 -0.895 2.462 0
-1.109 -0.871 2.455 0
-1.118 -0.873 2.433 0
-1.095 -0.85 2.427 0
-1.095 -0.844 2.409 0
-1.089 -0.834 2.394 0
-1.076 -0.821 2.382 0
-1.072 -0.813 2.365 0
-1.068 -0.806 2.348 0
0.0 -0.0 3.0 0
-1.115 -0.832 2.277 0
0.0 -0.0 3.0 0
0.0 -0.0 3.0 0
-1.422 -1.353 2.712 0
-1.393 -1.31 2.697 0
-1.41 -1.309 2.674 21
0.0 -0.0 3.0 0
-1.439 -1.307 2.625 0
-1.397 -1.254 2.617 0
-1.368 -1.216 2.605 0
-1.312 -1.154 2.603 0
-1.288 -1.122 2.592 0
-1.219 -1.051 2.596 0
-1.224 -1.045 2.578 1
-1.213 -1.027 2.564 2
-1.208 -1.013 2.549 11
-1.196 -0.995 2.536 10
-1.19 -0.983 2.521 9
-1.181 -0.967 2.507 14
-1.177 -0.956 2.491 2
-1.158 -0.935 2.482 0
-1.125 -0.901 2.48 0
-1.123 -0.893 2.463 0
-1.124 -0.888 2.445 0
-1.104 -0.867 2.437 0
-1.089 -0.85 2.427 0
-1.077 -0.836 2.414 0
-1.088 -0.839 2.39 0
-1.064 -0.816 2.385 0
-1.063 -0.811 2.366 0
-1.073 -0.814 2.341 0
0.0 -0.0 3.0 0
0.0 -0.0 3.0 0
0.0 -0.0 3.0 0
0.0 -0.0 3.0 0
-1.427 -1.366 2.71 0
-1.383 -1.309 2.698 0
-1.403 -1.311 2.673 21
0.0 -0.0 3.0 0
-1.429 -1.306 2.626 0
-1.372 -1.24 2.621 0
-1.372 -1.227 2.601 0
-1.294 -1.145 2.606 0
-1.24 -1.087 2.604 0
-1.225 -1.062 2.592 0
-1.22 -1.049 2.576 1
-1.206 -1.028 2.564 8
-1.207 -1.02 2.546 11
-1.199 -1.004 2.532 12
-1.184 -0.984 2.52 11
-1.175 -0.968 2.507 14
-1.156 -0.946 2.497 0
-1.155 -0.938 2.48 0
-1.127 -0.909 2.475 0
-1.12 -0.896 2.462 0
-1.112 -0.884 2.447 0
-1.115 -0.881 2.428 0
-1.095 -0.86 2.42 0
-1.08 -0.843 2.41 0
-1.085 -0.842 2.388 0
-1.079 -0.833 2.372 0
-1.063 -0.816 2.363 0
0.0 -0.0 3.0 0
-1.077 -0.817 2.314 0
-1.075 -0.811 2.295 0
0.0 -0.0 3.0 0
0.0 -0.0 3.0 0
-1.405 -1.353 2.712 0
-1.371 -1.304 2.699 0
-1.39 -1.307 2.674 21
0.0 -0.0 3.0 0
-1.425 -1.31 2.624 0
-1.374 -1.25 2.618 0
-1.337 -1.203 2.609 0
-1.296 -1.154 2.603 0
-1.242 -1.096 2.601 0
-1.218 -1.064 2.591 0
-1.211 -1.048 2.577 1
-1.206 -1.034 2.561 10
-1.195 -1.015 2.548 9
-1.189 -1.002 2.533 10
-1.186 -0.992 2.516 14
-1.177 -0.976 2.503 3
-1.147 -0.944 2.498 0
-1.137 -0.929 2.485 0
-1.124 -0.912 2.474 0
-1.122 -0.904 2.457 0
-1.108 -0.887 2.446 0
-1.1 -0.875 2.432 0
-1.08 -0.854 2.424 0
-1.088 -0.855 2.402 0
-1.065 -0.831 2.396 0
-1.061 -0.824 2.379 0
-1.06 -0.818 2.361 0
-1.059 -0.813 2.342 0
-1.051 -0.803 2.326 0
0.0 -0.0 3.0 0
0.0 -0.0 3.0 0
0.0 -0.0 3.0 0
-1.401 -1.358 2.711 0
-1.358 -1.3 2.7 0
-1.383 -1.308 2.674 20
0.0 -0.0 3.0 0
-1.407 -1.301 2.627 0
-1.347 -1.232 2.623 0
-1.298 -1.175 2.618 0
-1.277 -1.145 2.606 0
-1.227 -1.089 2.603 0
-1.215 -1.067 2.59 1
-1.213 -1.056 2.573 7
-1.205 -1.04 2.559 10
-1.191 -1.019 2.546 12
-1.189 -1.008 2.53 9
-1.183 -0.995 2.515 13
-1.165 -0.972 2.504 0
-1.15 -0.952 2.494 0
-1.105 -0.908 2.497 0
-1.112 -0.907 2.476 0
-1.09 -0.884 2.469 0
-1.096 -0.883 2.448 0
-1.1 -0.88 2.428 0
-1.074 -0.854 2.424 0
-1.082 -0.855 2.401 0
-1.07 -0.841 2.389 0
-1.058 -0.827 2.377 0
-1.051 -0.816 2.362 0
-1.05 -0.811 2.343 0
-1.076 -0.826 2.307 0
0.0 -0.0 3.0 0
0.0 -0.0 3.0 0
0.0 -0.0 3.0 0
-1.389 -1.353 2.712 0
-1.357 -1.307 2.698 0
-1.376 -1.31 2.673 19
-1.373 -1.292 2.654 0
-1.408 -1.31 2.624 0
-1.323 -1.217 2.628 0
-1.28 -1.166 2.621 0
-1.242 -1.12 2.614 0
-1.221 -1.09 2.603 0
-1.211 -1.071 2.589 1
-1.209 -1.06 2.572 9
-1.202 -1.043 2.557 9
-1.188 -1.023 2.545 10
-1.182 -1.009 2.53 14
-1.179 -0.998 2.513 5
-1.161 -0.975 2.503 0
-1.137 -0.948 2.496 0
-1.11 -0.919 2.491 0
-1.097 -0.901 2.48 0
-1.098 -0.896 2.462 0
-1.093 -0.886 2.447 0
-1.094 -0.88 2.428 0
-1.074 -0.859 2.421 0
-1.073 -0.854 2.402 0
-1.076 -0.85 2.382 0
-1.066 -0.838 2.369 0
-1.065 -0.832 2.35 0
0.0 -0.0 3.0 0
0.0 -0.0 3.0 0
0.0 -0.0 3.0 0
0.0 -0.0 3.0 0
0.0 -0.0 3.0 0
-1.379 -1.351 2.713 0
-1.342 -1.3 2.7 0
-1.372 -1.314 2.672 16
-1.397 -1.322 2.646 0
-1.381 -1.293 2.629 0
-1.29 -1.195 2.635 0
-1.267 -1.161 2.623 0
-1.235 -1.121 2.614 0
-1.22 -1.096 2.601 0
-1.219 -1.085 2.584 5
-1.203 -1.061 2.571 10
-1.198 -1.047 2.556 11
-1.181 -1.023 2.544 8
-1.179 -1.012 2.528 13
-1.173 -0.999 2.513 0
-1.146 -0.969 2.506 0
-1.128 -0.946 2.497 0
-1.13 -0.941 2.479 0
-1.103 -0.911 2.474 0
-1.101 -0.904 2.457 0
-1.081 -0.881 2.449 0
-1.088 -0.881 2.428 0
-1.085 -0.873 2.411 0
-1.076 -0.861 2.397 0
-1.087 -0.864 2.372 0
-1.058 -0.836 2.37 0
-1.051 -0.826 2.355 0
-1.052 -0.822 2.334 0
-1.05 -0.816 2.316 0
0.0 -0.0 3.0 0
0.0 -0.0 3.0 0
0.0 -0.0 3.0 0
-2.234 -2.203 2.532 5
-1.341 -1.307 2.698 0
-1.36 -1.309 2.674 13
-1.379 -1.313 2.648 0
-1.34 -1.262 2.638 0
-1.283 -1.196 2.634 0
-1.232 -1.136 2.631 0
-1.22 -1.114 2.616 0
-1.213 -1.097 2.601 1
-1.212 -1.086 2.583 9
-1.202 -1.067 2.569 8
-1.192 -1.048 2.555 10
-1.184 -1.032 2.541 14
-1.175 -1.016 2.526 6
-1.166 -1.0 2.512 0
-1.134 -0.964 2.509 0
-1.122 -0.947 2.497 0
-1.109 -0.929 2.485 0
-1.102 -0.917 2.471 0
-1.109 -0.916 2.45 0
-1.087 -0.891 2.443 0
-1.096 -0.893 2.42 0
-1.07 -0.867 2.415 0
-1.067 -0.859 2.398 0
-1.052 -0.842 2.388 0
-1.037 -0.825 2.378 0
-1.067 -0.844 2.341 0
0.0 -0.0 3.0 0
-1.07 -0.836 2.299 0
0.0 -0.0 3.0 0
0.0 -0.0 3.0 0
0.0 -0.0 3.0 0
-1.357 -1.346 2.714 0
-1.339 -1.313 2.697 0
-1.353 -1.311 2.673 10
-1.369 -1.312 2.649 0
-1.296 -1.229 2.648 0
-1.254 -1.176 2.641 0
-1.225 -1.137 2.631 0
-1.222 -1.123 2.613 1
-1.216 -1.106 2.597 3
-1.209 -1.089 2.582 10
-1.196 -1.067 2.569 11
-1.179 -1.043 2.557 8
-1.174 -1.03 2.541 13
-1.16 -1.009 2.53 0
-1.137 -0.981 2.522 0
-1.139 -0.975 2.503 0
-1.098 -0.932 2.504 0
-1.109 -0.934 2.482 0
-1.096 -0.917 2.47 0
-1.094 -0.909 2.454 0
-1.081 -0.892 2.442 0
-1.081 -0.887 2.424 0
-1.067 -0.869 2.414 0
-1.07 -0.866 2.393 0
-1.072 -0.863 2.373 0
-1.068 -0.855 2.356 0
-1.056 -0.84 2.344 0
0.0 -0.0 3.0 0
-1.047 -0.823 2.309 0
0.0 -0.0 3.0 0
0.0 -0.0 3.0 0
0.0 -0.0 3.0 0
-1.344 -1.341 2.715 0
-1.321 -1.303 2.699 0
-1.346 -1.312 2.673 8
-1.345 -1.296 2.653 0
-1.292 -1.232 2.647 0
-1.253 -1.182 2.638 0
-1.227 -1.146 2.628 0
-1.218 -1.126 2.612 1
-1.212 -1.11 2.596 9
-1.205 -1.093 2.58 8
-1.189 -1.068 2.568 10
-1.185 -1.054 2.552 12
-1.174 -1.036 2.539 8
-1.162 -1.018 2.525 0
-1.122 -0.975 2.525 0
-1.145 -0.986 2.498 0
-1.11 -0.948 2.496 0
-1.097 -0.93 2.484 0
-1.087 -0.916 2.471 0
-1.099 -0.92 2.447 0
-1.092 -0.907 2.433 0
-1.083 -0.894 2.419 0
-1.058 -0.867 2.415 0
-1.061 -0.864 2.395 0
-1.049 -0.849 2.383 0
-1.048 -0.844 2.364 0
-1.053 -0.842 2.342 0
0.0 -0.0 3.0 0
-1.055 -0.834 2.3 0
0.0 -0.0 3.0 0
0.0 -0.0 3.0 0
0.0 -0.0 3.0 0
-1.34 -1.345 2.714 0
-1.331 -1.321 2.695 0
-1.339 -1.313 2.673 5
-1.324 -1.284 2.656 0
-1.291 -1.239 2.645 0
-1.232 -1.17 2.642 0
-1.218 -1.144 2.628 0
-1.215 -1.13 2.611 2
-1.208 -1.113 2.595 10
-1.199 -1.094 2.58 10
-1.18 -1.066 2.569 8
-1.181 -1.058 2.551 11
-1.17 -1.039 2.537 0
-1.162 -1.023 2.523 0
-1.144 -1.0 2.512 0
-1.127 -0.977 2.502 0
-1.112 -0.956 2.492 0
-1.102 -0.941 2.479 0
-1.106 -0.937 2.459 0
-1.079 -0.908 2.455 0
-1.077 -0.9 2.438 0
-1.083 -0.899 2.416 0
-1.061 -0.875 2.41 0
-1.049 -0.86 2.398 0
-1.06 -0.863 2.373 0
-1.053 -0.853 2.357 0
-1.044 -0.84 2.344 0
0.0 -0.0 3.0 0
-1.046 -0.832 2.302 0
0.0 -0.0 3.0 0
0.0 -0.0 3.0 0
0.0 -0.0 3.0 0
-1.336 -1.349 2.713 0
-1.319 -1.317 2.696 0
-1.332 -1.314 2.672 4
-1.303 -1.271 2.659 0
-1.264 -1.221 2.65 0
-1.22 -1.165 2.644 0
-1.217 -1.151 2.626 1
-1.208 -1.131 2.611 8
-1.202 -1.114 2.595 8
-1.195 -1.097 2.579 10
-1.182 -1.076 2.565 11
-1.174 -1.059 2.55 8
-1.164 -1.04 2.537 0
-1.144 -1.014 2.527 0
-1.121 -0.985 2.519 0
-1.118 -0.975 2.503 0
-1.106 -0.956 2.492 0
-1.082 -0.929 2.485 0
-1.077 -0.919 2.469 0
-1.078 -0.914 2.451 0
-1.065 -0.896 2.44 0
-1.085 -0.907 2.411 0
-1.054 -0.875 2.41 0
-1.054 -0.869 2.391 0
-1.054 -0.863 2.373 0
-1.05 -0.856 2.355 0
-1.032 -0.836 2.347 0
0.0 -0.0 3.0 0
0.0 -0.0 3.0 0
0.0 -0.0 3.0 0
0.0 -0.0 3.0 0
0.0 -0.0 3.0 0
-1.321 -1.342 2.715 0
-1.32 -1.325 2.694 0
-1.322 -1.313 2.673 3
-1.274 -1.251 2.665 0
-1.238 -1.202 2.655 0
-1.224 -1.177 2.64 0
-1.21 -1.152 2.626 2
-1.204 -1.134 2.61 10
-1.198 -1.117 2.593 9
-1.188 -1.098 2.579 7
-1.181 -1.081 2.563 11
-1.171 -1.063 2.549 0
-1.131 -1.018 2.547 0
-1.126 -1.004 2.532 0
-1.132 -1.002 2.512 0
-1.123 -0.986 2.498 0
-1.108 -0.965 2.487 0
-1.093 -0.944 2.477 0
-1.103 -0.946 2.454 0
-1.075 -0.916 2.45 0
-1.079 -0.913 2.43 0
-1.062 -0.893 2.42 0
-1.029 -0.859 2.42 0
-1.082 -0.898 2.371 0
-1.045 -0.861 2.374 0
-1.058 -0.867 2.347 0
-1.024 -0.834 2.349 0
0.0 -0.0 3.0 0
0.0 -0.0 3.0 0
0.0 -0.0 3.0 0
0.0 -0.0 3.0 0
0.0 -0.0 3.0 0
-1.314 -1.342 2.715 0
-1.325 -1.338 2.691 0
-1.316 -1.314 2.672 2
-1.27 -1.255 2.664 0
-1.229 -1.201 2.656 0
-1.215 -1.175 2.641 1
-1.212 -1.16 2.623 8
-1.198 -1.135 2.609 9
-1.194 -1.121 2.592 11
-1.185 -1.101 2.577 11
-1.177 -1.085 2.562 8
-1.164 -1.063 2.549 0
-1.139 -1.032 2.541 0
-1.126 -1.011 2.529 0
-1.111 -0.989 2.518 0
-1.105 -0.976 2.503 0
-1.09 -0.955 2.492 0
-1.098 -0.955 2.471 0
-1.065 -0.92 2.469 0
-1.069 -0.917 2.449 0
-1.047 -0.892 2.443 0
-1.082 -0.915 2.406 0
-1.045 -0.878 2.408 0
-1.079 -0.9 2.37 0
-1.019 -0.845 2.386 0
-1.055 -0.869 2.345 0
-1.018 -0.834 2.349 0
0.0 -0.0 3.0 0
0.0 -0.0 3.0 0
0.0 -0.0 3.0 0
0.0 -0.0 3.0 0
0.0 -0.0 3.0 0
-1.313 -1.349 2.713 0
-1.295 -1.317 2.696 0
-1.314 -1.32 2.671 1
-1.227 -1.22 2.673 0
-1.225 -1.205 2.655 0
-1.214 -1.182 2.639 1
-1.206 -1.161 2.623 9
-1.2 -1.144 2.606 8
-1.188 -1.122 2.592 8
-1.184 -1.108 2.575 12
-1.174 -1.089 2.56 1
-1.155 -1.061 2.55 0
-1.13 -1.03 2.541 0
-1.125 -1.016 2.526 0
-1.094 -0.98 2.522 0
-1.082 -0.962 2.51 0
-1.093 -0.963 2.488 0
-1.066 -0.933 2.483 0
-1.07 -0.929 2.463 0
-1.077 -0.929 2.442 0
-1.055 -0.904 2.435 0
-1.07 -0.911 2.409 0
-1.036 -0.876 2.409 0
-1.072 -0.901 2.369 0
-1.022 -0.853 2.381 0
-1.035 -0.858 2.353 0
-1.025 -0.845 2.34 0
0.0 -0.0 3.0 0
0.0 -0.0 3.0 0
0.0 -0.0 3.0 0
0.0 -0.0 3.0 0
0.0 -0.0 3.0 0
-1.281 -1.325 2.718 0
-1.283 -1.312 2.697 0
-1.285 -1.299 2.676 0
-1.228 -1.228 2.671 0
-1.215 -1.203 2.655 1
-1.213 -1.188 2.637 6
-1.199 -1.162 2.622 9
-1.193 -1.145 2.606 11
-1.181 -1.123 2.591 9
-1.177 -1.108 2.575 10
-1.173 -1.094 2.558 0
-1.143 -1.057 2.551 0
-1.112 -1.02 2.546 0
-1.11 -1.009 2.53 0
-1.101 -0.993 2.516 0
-1.098 -0.982 2.5 0
-1.081 -0.959 2.49 0
-1.088 -0.958 2.469 0
-1.061 -0.928 2.464 0
-1.076 -0.934 2.439 0
-1.06 -0.914 2.429 0
-1.055 -0.904 2.413 0
-1.036 -0.881 2.406 0
-1.041 -0.88 2.384 0
-1.013 -0.851 2.382 0
-1.051 -0.877 2.339 0
-0.997 -0.827 2.354 0
0.0 -0.0 3.0 0
0.0 -0.0 3.0 0
0.0 -0.0 3.0 0
0.0 -0.0 3.0 0
-1.323 -1.393 2.729 0
-1.282 -1.334 2.716 0
-1.274 -1.31 2.698 0
-1.251 -1.273 2.683 0
-1.219 -1.226 2.671 0
-1.217 -1.211 2.653 1
-1.206 -1.188 2.637 10
-1.198 -1.169 2.62 8
-1.187 -1.146 2.605 9
-1.183 -1.131 2.588 11
-1.179 -1.117 2.571 2
-1.152 -1.082 2.563 0
-1.134 -1.055 2.552 0
-1.12 -1.034 2.54 0
-1.112 -1.017 2.526 0
-1.087 -0.986 2.519 0
-1.089 -0.98 2.5 0
-1.086 -0.969 2.485 0
-1.062 -0.941 2.478 0
-1.086 -0.955 2.448 0
-1.067 -0.932 2.44 0
-1.054 -0.914 2.429 0
-1.063 -0.916 2.405 0
-1.044 -0.893 2.398 0
-1.038 -0.883 2.382 0
0.0 -0.0 3.0 0
-1.039 -0.873 2.342 0
0.0 -0.0 3.0 0
0.0 -0.0 3.0 0
0.0 -0.0 3.0 0
0.0 -0.0 3.0 0
0.0 -0.0 3.0 0
-1.319 -1.396 2.729 0
-1.273 -1.332 2.717 0
-1.269 -1.314 2.697 0
-1.23 -1.259 2.686 0
-1.215 -1.23 2.67 0
-1.213 -1.215 2.652 4
-1.205 -1.195 2.635 10
-1.191 -1.17 2.62 11
-1.183 -1.149 2.604 8
-1.176 -1.132 2.588 10
-1.145 -1.091 2.581 0
-1.143 -1.08 2.564 0
0.0 -0.0 3.0 0
-1.114 -1.034 2.54 0
-1.097 -1.01 2.529 0
-1.1 -1.004 2.51 0
-1.086 -0.983 2.499 0
-1.091 -0.98 2.479 0
-1.081 -0.964 2.466 0
-1.055 -0.934 2.461 0
-1.064 -0.935 2.438 0
-1.045 -0.912 2.43 0
-1.043 -0.904 2.413 0
-1.032 -0.888 2.401 0
-1.062 -0.909 2.364 0
-1.015 -0.862 2.374 0
-1.025 -0.866 2.347 0
0.0 -0.0 3.0 0
0.0 -0.0 3.0 0
0.0 -0.0 3.0 0
0.0 -0.0 3.0 0
0.0 -0.0 3.0 0
-1.293 -1.377 2.732 0
-1.263 -1.33 2.717 0
-1.241 -1.292 2.702 0
-1.226 -1.263 2.685 0
-1.219 -1.242 2.667 1
-1.209 -1.219 2.651 9
-1.202 -1.199 2.633 8
-1.185 -1.17 2.62 9
-1.179 -1.153 2.603 10
-1.175 -1.138 2.586 2
-1.155 -1.108 2.575 0
-1.137 -1.08 2.564 0
-1.124 -1.059 2.551 0
-1.105 -1.032 2.541 0
-1.097 -1.016 2.526 0
-1.085 -0.997 2.514 0
-1.068 -0.973 2.504 0
-1.068 -0.965 2.487 0
-1.069 -0.96 2.468 0
-1.065 -0.948 2.452 0
-1.049 -0.928 2.442 0
-1.042 -0.915 2.428 0
-1.042 -0.909 2.409 0
-1.009 -0.875 2.41 0
-1.034 -0.89 2.377 0
-1.012 -0.865 2.371 0
-1.003 -0.852 2.358 0
0.0 -0.0 3.0 0
0.0 -0.0 3.0 0
0.0 -0.0 3.0 0
0.0 -0.0 3.0 0
0.0 -0.0 3.0 0
-1.267 -1.358 2.736 1
-1.256 -1.331 2.717 0
-1.226 -1.284 2.703 0
-1.217 -1.261 2.686 1
-1.205 -1.234 2.669 2
-1.211 -1.227 2.648 10
-1.198 -1.202 2.633 12
-1.184 -1.176 2.618 8
-1.173 -1.153 2.603 9
-1.163 -1.134 2.587 0
-1.154 -1.114 2.572 0
-1.136 -1.087 2.561 0
-1.117 -1.059 2.551 0
-1.11 -1.043 2.536 0
-1.104 -1.03 2.52 0
-1.079 -0.998 2.513 0
-1.076 -0.987 2.497 0
-1.089 -0.991 2.473 0
-1.044 -0.942 2.478 0
-1.062 -0.952 2.45 0
-1.052 -0.936 2.438 0
-1.058 -0.935 2.416 0
-1.053 -0.924 2.4 0
-1.006 -0.877 2.408 0
-1.036 -0.898 2.371 0
0.0 -0.0 3.0 0
0.0 -0.0 3.0 0
0.0 -0.0 3.0 0
0.0 -0.0 3.0 0
0.0 -0.0 3.0 0
0.0 -0.0 3.0 0
0.0 -0.0 3.0 0
-1.274 -1.373 2.733 0
-1.255 -1.338 2.716 1
-1.233 -1.3 2.7 1
-1.213 -1.264 2.685 1
-1.209 -1.246 2.666 9
-1.204 -1.228 2.648 9
-1.194 -1.205 2.631 11
-1.177 -1.177 2.618 9
-1.174 -1.162 2.6 3
-1.151 -1.129 2.589 0
-1.164 -1.131 2.566 0
-1.135 -1.092 2.559 0
-1.108 -1.057 2.551 0
-1.125 -1.065 2.526 0
-1.098 -1.03 2.52 0
-1.101 -1.024 2.501 0
-1.081 -0.997 2.492 0
-1.091 -0.999 2.469 0
-1.04 -0.946 2.476 0
-1.058 -0.954 2.449 0
-1.051 -0.941 2.435 0
-1.046 -0.93 2.419 0
-1.044 -0.922 2.401 0
-1.003 -0.879 2.407 0
-1.055 -0.919 2.356 0
-0.986 -0.853 2.38 0
0.0 -0.0 3.0 0
0.0 -0.0 3.0 0
0.0 -0.0 3.0 0
0.0 -0.0 3.0 0
0.0 -0.0 3.0 0
0.0 -0.0 3.0 0
-1.275 -1.383 2.731 0
-1.219 -1.306 2.722 0
-1.226 -1.3 2.7 2
-1.212 -1.27 2.683 2
-1.205 -1.25 2.665 10
-1.192 -1.223 2.649 10
-1.184 -1.203 2.632 7
-1.176 -1.183 2.616 9
-1.17 -1.166 2.599 0
-1.139 -1.125 2.591 0
-1.13 -1.105 2.576 0
-1.126 -1.09 2.559 0
-1.105 -1.061 2.55 0
-1.105 -1.052 2.532 0
-1.092 -1.03 2.519 0
-1.078 -1.009 2.508 0
-1.077 -1.0 2.49 0
-1.068 -0.984 2.477 0
-1.026 -0.938 2.48 0
-1.06 -0.962 2.444 0
-1.045 -0.942 2.434 0
-1.035 -0.926 2.422 0
-1.021 -0.907 2.411 0
-1.016 -0.896 2.395 0
-1.016 -0.89 2.376 0
0.0 -0.0 3.0 0
0.0 -0.0 3.0 0
0.0 -0.0 3.0 0
0.0 -0.0 3.0 0
0.0 -0.0 3.0 0
0.0 -0.0 3.0 0
-1.944 -2.145 2.622 0
-1.249 -1.363 2.735 0
-1.225 -1.321 2.719 0
-1.222 -1.304 2.699 3
-1.208 -1.274 2.682 10
-1.204 -1.257 2.663 10
-1.194 -1.233 2.646 11
-1.18 -1.207 2.631 8
-1.175 -1.189 2.614 6
-1.178 -1.18 2.594 0
-1.144 -1.136 2.587 0
-1.129 -1.11 2.574 0
0.0 -0.0 3.0 0
-1.087 -1.051 2.554 0
-1.082 -1.036 2.539 0
-1.091 -1.036 2.517 0
-1.077 -1.014 2.505 0
-1.074 -1.004 2.489 0
-1.07 -0.992 2.472 0
-1.039 -0.956 2.47 0
-1.062 -0.97 2.44 0
-1.03 -0.935 2.438 0
-1.042 -0.938 2.414 0
-0.999 -0.893 2.42 0
-1.005 -0.892 2.398 0
-0.999 -0.881 2.383 0
-0.966 -0.846 2.385 0
0.0 -0.0 3.0 0
0.0 -0.0 3.0 0
0.0 -0.0 3.0 0
0.0 -0.0 3.0 0
0.0 -0.0 3.0 0
-1.959 -2.175 2.617 0
-1.232 -1.352 2.737 1
-1.237 -1.343 2.715 0
-1.218 -1.308 2.698 10
-1.209 -1.284 2.68 11
-1.194 -1.254 2.664 11
-1.187 -1.234 2.646 9
-1.177 -1.21 2.63 8
-1.171 -1.193 2.612 0
-1.149 -1.159 2.601 0
-1.132 -1.131 2.588 0
-1.125 -1.114 2.572 0
-1.102 -1.081 2.563 0
-1.097 -1.067 2.547 0
-1.073 -1.034 2.539 0
-1.082 -1.034 2.518 0
-1.057 -1.002 2.512 0
-1.043 -0.98 2.5 0
-1.056 -0.985 2.476 0
-1.027 -0.952 2.473 0
0.0 -0.0 3.0 0
-1.03 -0.94 2.435 0
-1.025 -0.929 2.42 0
-1.02 -0.917 2.404 0
-0.988 -0.882 2.405 0
0.0 -0.0 3.0 0
-0.976 -0.861 2.374 0
0.0 -0.0 3.0 0
-0.934 -0.813 2.365 0
0.0 -0.0 3.0 0
0.0 -0.0 3.0 0
0.0 -0.0 3.0 0
-1.931 -2.156 2.62 1
-1.22 -1.347 2.738 0
-1.204 -1.314 2.721 0
-1.209 -1.305 2.699 35
-1.208 -1.29 2.678 14
-1.196 -1.263 2.662 13
-1.186 -1.239 2.645 8
-1.173 -1.213 2.629 6
-1.151 -1.18 2.617 0
-1.145 -1.163 2.6 0
-1.12 -1.126 2.59 0
-1.13 -1.125 2.568 0
-1.106 -1.092 2.559 0
-1.118 -1.094 2.536 0
-1.086 -1.054 2.531 0
-1.081 -1.04 2.515 0
-1.067 -1.018 2.504 0
-1.05 -0.994 2.494 0
-1.063 -0.999 2.469 0
-1.035 -0.964 2.466 0
-1.014 -0.938 2.459 0
-0.999 -0.917 2.449 0
-1.027 -0.937 2.415 0
-0.99 -0.896 2.418 0
-0.976 -0.877 2.408 0
0.0 -0.0 3.0 0
-0.962 -0.853 2.38 0
0.0 -0.0 3.0 0
0.0 -0.0 3.0 0
0.0 -0.0 3.0 0
0.0 -0.0 3.0 0
0.0 -0.0 3.0 0
-1.93 -2.168 2.618 0
-1.226 -1.362 2.735 1
-1.2 -1.318 2.72 0
-1.213 -1.317 2.696 91
-1.206 -1.296 2.677 14
-1.186 -1.261 2.662 11
-1.182 -1.243 2.644 8
-1.166 -1.214 2.629 1
-1.144 -1.18 2.616 0
-1.131 -1.155 2.602 0
-1.102 -1.116 2.594 0
-1.107 -1.109 2.574 0
-1.097 -1.089 2.56 0
-1.098 -1.081 2.541 0
-1.052 -1.027 2.543 0
-1.077 -1.042 2.514 0
-1.072 -1.029 2.498 0
-1.058 -1.007 2.487 0
-1.057 -0.999 2.469 0
-1.037 -0.972 2.461 0
-1.033 -0.961 2.445 0
-1.009 -0.933 2.44 0
-1.032 -0.946 2.409 0
0.0 -0.0 3.0 0
0.0 -0.0 3.0 0
-0.973 -0.874 2.388 0
-0.978 -0.872 2.366 0
0.0 -0.0 3.0 0
0.0 -0.0 3.0 0
