# .PCD v0.7 - Point Cloud Data file format
VERSION 0.7
FIELDS x y z intensity
SIZE 4 4 4 4
TYPE F F F F
COUNT 1 1 1 1
WIDTH 1990
HEIGHT 1
VIEWPOINT 0 0 0 1 0 0 0
POINTS 1990
DATA ascii
-6.34 -28.575 -4.124 7
-5.998 -26.822 -4.187 5
-5.688 -25.258 -4.243 6
-5.424 -23.914 -4.311 6
-5.19 -22.702 -4.376 5
-4.961 -21.548 -4.42 28
-4.218 -18.16 -3.61 0
-4.056 -17.352 -3.661 0
-4.029 -17.099 -3.908 0
-4.073 -17.162 -4.285 3
-4.107 -17.167 -4.643 5
-4.006 -16.625 -4.753 5
-3.879 -15.968 -4.788 9
-3.77 -15.402 -4.848 8
-3.653 -14.815 -4.877 8
-3.55 -14.276 -4.913 9
-3.46 -13.808 -4.972 8
-3.368 -13.33 -5.009 7
-3.275 -12.858 -5.035 8
-3.193 -12.429 -5.072 9
-3.111 -12.012 -5.102 10
-3.034 -11.612 -5.131 9
-2.959 -11.232 -5.161 10
-2.888 -10.862 -5.185 11
-2.821 -10.52 -5.219 12
-2.752 -10.173 -5.238 12
-2.687 -9.838 -5.255 13
-2.621 -9.511 -5.268 28
-8.493 -38.865 -3.853 7
-7.419 -33.681 -3.547 17
-7.203 -32.47 -3.902 16
-6.844 -30.61 -4.067 6
-6.436 -28.582 -4.126 7
-6.092 -26.838 -4.191 4
-5.777 -25.274 -4.247 6
-5.509 -23.927 -4.315 6
-5.269 -22.709 -4.379 5
-5.037 -21.552 -4.421 20
-4.284 -18.173 -3.614 0
-4.122 -17.373 -3.669 0
-4.092 -17.112 -3.914 0
-4.136 -17.172 -4.289 7
-4.168 -17.163 -4.641 3
-4.069 -16.634 -4.757 4
-3.939 -15.974 -4.791 9
-3.826 -15.401 -4.847 8
-3.707 -14.808 -4.874 8
-3.604 -14.276 -4.913 8
-3.512 -13.809 -4.973 7
-3.42 -13.331 -5.01 7
-3.324 -12.859 -5.035 8
-3.241 -12.428 -5.071 9
-3.157 -12.011 -5.102 10
-3.08 -11.614 -5.132 10
-3.004 -11.232 -5.16 10
-2.931 -10.861 -5.185 10
-2.862 -10.513 -5.213 12
-2.792 -10.169 -5.235 10
-2.728 -9.84 -5.257 13
-2.662 -9.517 -5.273 36
-8.624 -38.893 -3.858 6
-7.52 -33.643 -3.54 29
-7.309 -32.467 -3.901 16
-6.951 -30.635 -4.073 6
-6.534 -28.593 -4.129 7
-6.185 -26.853 -4.195 5
-5.863 -25.275 -4.248 6
-5.591 -23.929 -4.316 6
-5.348 -22.711 -4.379 4
-5.114 -21.563 -4.425 13
-4.36 -18.222 -3.632 0
-4.188 -17.393 -3.677 0
-4.152 -17.107 -3.912 0
-4.191 -17.142 -4.276 206
-4.234 -17.179 -4.649 3
-4.128 -16.626 -4.753 7
-3.999 -15.977 -4.792 9
-3.883 -15.398 -4.845 8
-3.763 -14.812 -4.875 8
-3.656 -14.274 -4.912 9
-3.564 -13.807 -4.971 7
-3.47 -13.328 -5.009 8
-3.373 -12.854 -5.032 8
-3.29 -12.432 -5.073 10
-3.204 -12.01 -5.101 10
-3.125 -11.609 -5.129 9
-3.049 -11.234 -5.162 12
-2.976 -10.864 -5.186 10
-2.903 -10.508 -5.21 11
-2.834 -10.168 -5.234 11
-2.768 -9.837 -5.254 13
-2.701 -9.514 -5.271 34
-8.763 -38.952 -3.868 6
-7.652 -33.743 -3.559 23
-7.416 -32.472 -3.902 15
-7.059 -30.663 -4.079 6
-6.634 -28.612 -4.134 7
-6.276 -26.857 -4.196 5
-5.952 -25.288 -4.251 7
-5.676 -23.946 -4.321 6
-5.429 -22.722 -4.383 5
-5.194 -21.585 -4.432 8
-4.433 -18.261 -3.646 0
-4.256 -17.421 -3.687 0
-4.212 -17.102 -3.91 0
-4.255 -17.154 -4.282 5
-4.327 -17.303 -4.704 8
-4.19 -16.633 -4.756 8
-4.057 -15.976 -4.792 8
-3.939 -15.398 -4.845 8
-3.817 -14.808 -4.874 8
-3.709 -14.27 -4.91 9
-3.616 -13.807 -4.971 7
-3.52 -13.326 -5.007 5
-3.422 -12.855 -5.033 8
-3.336 -12.423 -5.067 9
-3.251 -12.007 -5.099 10
-3.171 -11.61 -5.129 10
-3.093 -11.232 -5.161 11
-3.019 -10.862 -5.185 11
-2.947 -10.511 -5.212 12
-2.875 -10.168 -5.234 11
-2.808 -9.834 -5.251 13
-2.741 -9.514 -5.27 34
-8.898 -38.995 -3.876 7
-7.752 -33.701 -3.551 31
-7.526 -32.484 -3.905 14
-7.164 -30.68 -4.083 6
-6.732 -28.621 -4.136 7
-6.369 -26.868 -4.199 4
-6.04 -25.297 -4.254 7
-5.76 -23.952 -4.323 6
-5.511 -22.739 -4.388 5
-5.271 -21.592 -4.435 8
-4.503 -18.285 -3.655 0
-4.321 -17.435 -3.692 0
-4.274 -17.108 -3.912 0
-4.314 -17.143 -4.277 2
-4.392 -17.312 -4.708 8
-4.251 -16.634 -4.757 8
-4.116 -15.975 -4.792 8
-3.997 -15.4 -4.847 8
-3.872 -14.808 -4.874 8
-3.764 -14.274 -4.912 9
-3.668 -13.804 -4.97 8
-3.573 -13.333 -5.011 5
-3.471 -12.853 -5.031 8
-3.387 -12.431 -5.073 9
-3.297 -12.006 -5.098 10
-3.217 -11.609 -5.128 10
-3.137 -11.228 -5.157 10
-3.064 -10.864 -5.187 11
-2.989 -10.51 -5.211 13
-2.917 -10.168 -5.234 12
-2.849 -9.836 -5.253 14
-2.778 -9.504 -5.262 31
-9.035 -39.041 -3.884 6
-7.894 -33.838 -3.577 17
-7.632 -32.481 -3.904 14
-7.269 -30.693 -4.086 6
-6.831 -28.639 -4.14 7
-6.464 -26.882 -4.203 4
-6.129 -25.312 -4.258 7
-5.842 -23.954 -4.323 6
-5.59 -22.737 -4.388 5
-5.348 -21.598 -4.437 8
-4.578 -18.33 -3.672 0
-4.388 -17.454 -3.7 0
-4.341 -17.131 -3.921 0
-4.417 -17.306 -4.346 3
-4.454 -17.31 -4.707 8
-4.312 -16.636 -4.758 8
-4.175 -15.977 -4.792 9
-4.055 -15.403 -4.848 7
-3.927 -14.804 -4.871 8
-3.818 -14.273 -4.912 9
-3.722 -13.807 -4.971 7
-3.623 -13.327 -5.008 5
-3.52 -12.846 -5.027 7
-3.434 -12.425 -5.069 9
-3.346 -12.01 -5.101 10
-3.262 -11.606 -5.127 10
-3.182 -11.229 -5.158 11
-3.107 -10.863 -5.186 11
-3.032 -10.509 -5.21 12
-2.958 -10.163 -5.23 13
-2.891 -9.838 -5.255 12
-2.819 -9.507 -5.264 25
-9.172 -39.087 -3.892 7
-8.029 -33.941 -3.597 21
-7.74 -32.484 -3.905 11
-7.377 -30.716 -4.091 6
-6.931 -28.656 -4.145 7
-6.556 -26.89 -4.205 4
-6.217 -25.316 -4.259 6
-5.93 -23.977 -4.331 6
-5.67 -22.747 -4.391 5
-5.426 -21.611 -4.441 7
-4.656 -18.382 -3.69 0
-4.454 -17.474 -3.708 0
-4.405 -17.141 -3.925 0
-4.471 -17.275 -4.333 1
-4.519 -17.318 -4.711 7
-4.372 -16.631 -4.755 7
-4.234 -15.976 -4.792 9
-4.112 -15.401 -4.847 8
-3.984 -14.81 -4.875 8
-3.872 -14.273 -4.912 8
-3.772 -13.801 -4.968 8
-3.674 -13.327 -5.008 6
-3.57 -12.851 -5.03 8
-3.483 -12.426 -5.069 10
-3.393 -12.011 -5.102 10
-3.309 -11.608 -5.128 10
-3.227 -11.228 -5.157 10
-3.151 -10.862 -5.185 10
-3.074 -10.507 -5.209 13
-3.0 -10.165 -5.232 12
-2.93 -9.834 -5.252 13
-2.859 -9.509 -5.266 22
-9.31 -39.132 -3.9 7
-8.165 -34.047 -3.618 24
-7.848 -32.492 -3.906 12
-7.485 -30.74 -4.097 6
-7.034 -28.681 -4.151 7
-6.652 -26.911 -4.211 5
-6.308 -25.338 -4.266 6
-6.013 -23.981 -4.332 5
-5.752 -22.756 -4.394 4
-5.502 -21.614 -4.442 8
-5.287 -20.586 -4.493 6
-4.522 -17.497 -3.717 0
-4.473 -17.168 -3.936 0
-4.507 -17.172 -4.289 0
-4.58 -17.312 -4.708 8
-4.435 -16.64 -4.759 7
-4.296 -15.989 -4.798 8
-4.17 -15.404 -4.849 8
-4.039 -14.809 -4.874 8
-3.925 -14.269 -4.91 8
-3.824 -13.797 -4.966 8
-3.725 -13.327 -5.008 8
-3.62 -12.851 -5.03 8
-3.531 -12.424 -5.068 10
-3.44 -12.009 -5.1 11
-3.355 -11.606 -5.127 9
-3.272 -11.225 -5.156 11
-3.194 -10.86 -5.183 11
-3.118 -10.51 -5.211 12
-3.04 -10.159 -5.226 12
-2.969 -9.828 -5.246 13
-2.899 -9.508 -5.265 23
-9.447 -39.173 -3.907 7
-8.273 -34.033 -3.615 35
-7.955 -32.491 -3.906 15
-7.594 -30.77 -4.104 6
-7.134 -28.697 -4.155 7
-6.748 -26.929 -4.216 5
-6.397 -25.345 -4.268 6
-6.095 -23.978 -4.331 5
-5.834 -22.767 -4.398 4
-5.581 -21.627 -4.447 8
-5.359 -20.585 -4.492 9
-4.599 -17.553 -3.738 0
-4.553 -17.237 -3.964 0
-4.572 -17.184 -4.294 0
-4.644 -17.313 -4.708 8
-4.495 -16.638 -4.758 7
-4.352 -15.976 -4.792 8
-4.226 -15.399 -4.846 8
-4.094 -14.805 -4.872 8
-3.98 -14.272 -4.911 7
-3.879 -13.804 -4.97 8
-3.776 -13.324 -5.006 7
-3.669 -12.844 -5.026 8
-3.578 -12.42 -5.066 8
-3.485 -12.0 -5.094 10
-3.401 -11.607 -5.127 10
-3.317 -11.226 -5.156 11
-3.237 -10.855 -5.18 11
-3.16 -10.508 -5.209 11
-3.081 -10.157 -5.225 12
-3.012 -9.833 -5.251 12
-2.937 -9.502 -5.26 17
-9.592 -39.249 -3.921 11
-8.396 -34.078 -3.624 25
-8.067 -32.508 -3.91 14
-7.701 -30.785 -4.107 6
-7.234 -28.71 -4.158 7
-6.843 -26.946 -4.22 5
-6.487 -25.361 -4.272 6
-6.182 -23.994 -4.336 5
-5.916 -22.78 -4.402 5
-5.658 -21.629 -4.447 10
-5.433 -20.591 -4.495 9
-4.662 -17.554 -3.738 0
0.0 -0.0 3.0 0
-4.667 -17.307 -4.346 0
-4.705 -17.306 -4.705 7
-4.556 -16.635 -4.757 7
-4.412 -15.978 -4.793 9
-4.284 -15.401 -4.847 8
-4.15 -14.807 -4.873 8
-4.034 -14.271 -4.911 7
-3.93 -13.8 -4.967 8
-3.828 -13.327 -5.007 8
-3.721 -12.851 -5.03 8
-3.627 -12.421 -5.066 9
-3.534 -12.004 -5.096 10
-3.447 -11.605 -5.126 9
-3.362 -11.225 -5.156 10
-3.28 -10.853 -5.178 11
-3.201 -10.5 -5.203 12
-3.124 -10.159 -5.226 12
-3.052 -9.831 -5.249 12
-2.977 -9.501 -5.259 17
-9.734 -39.304 -3.93 11
-8.548 -34.239 -3.655 24
-8.173 -32.5 -3.908 14
-7.809 -30.807 -4.112 6
-7.336 -28.733 -4.164 7
-6.938 -26.959 -4.224 5
-6.577 -25.371 -4.275 6
-6.268 -24.009 -4.34 6
-5.995 -22.78 -4.402 5
-5.736 -21.637 -4.45 7
-5.509 -20.601 -4.498 10
-4.744 -17.627 -3.766 0
-4.723 -17.408 -4.033 0
0.0 -0.0 3.0 0
-4.767 -17.304 -4.704 7
-4.619 -16.64 -4.759 7
-4.472 -15.982 -4.795 9
-4.343 -15.403 -4.848 8
-4.205 -14.802 -4.87 8
-4.089 -14.273 -4.912 8
-3.984 -13.802 -4.969 7
-3.878 -13.32 -5.003 8
-3.77 -12.848 -5.028 8
-3.675 -12.418 -5.064 10
-3.579 -11.995 -5.09 9
-3.492 -11.599 -5.122 10
-3.406 -11.223 -5.154 11
-3.326 -10.858 -5.182 12
-3.244 -10.499 -5.203 12
-3.166 -10.158 -5.225 11
-3.092 -9.827 -5.246 14
-3.016 -9.5 -5.258 15
-9.87 -39.336 -3.936 9
-8.653 -34.21 -3.65 24
-8.283 -32.509 -3.91 14
-7.92 -30.837 -4.119 6
-7.44 -28.76 -4.171 7
-7.031 -26.965 -4.225 5
-6.665 -25.377 -4.277 6
-6.354 -24.02 -4.344 5
-6.076 -22.785 -4.403 6
-5.812 -21.639 -4.451 8
-5.583 -20.606 -4.5 10
-5.374 -19.705 -4.564 9
0.0 -0.0 3.0 0
-4.996 -18.04 -4.657 3
-4.833 -17.311 -4.707 8
-4.677 -16.63 -4.755 7
-4.531 -15.98 -4.794 9
-4.401 -15.404 -4.849 8
-4.262 -14.807 -4.873 8
-4.143 -14.272 -4.911 8
-4.036 -13.798 -4.966 8
-3.93 -13.323 -5.005 7
-3.82 -12.848 -5.028 8
-3.725 -12.421 -5.066 10
-3.628 -12.002 -5.095 10
-3.538 -11.6 -5.122 10
-3.451 -11.22 -5.152 11
-3.368 -10.85 -5.176 11
-3.287 -10.5 -5.203 12
-3.209 -10.162 -5.229 12
-3.134 -9.829 -5.247 13
-3.055 -9.496 -5.255 14
-10.011 -39.386 -3.945 11
-8.776 -34.252 -3.658 40
-8.392 -32.515 -3.911 12
-8.032 -30.869 -4.127 7
-7.539 -28.768 -4.173 7
-7.128 -26.985 -4.231 5
-6.755 -25.386 -4.279 7
-6.441 -24.034 -4.348 6
-6.159 -22.796 -4.407 6
-5.892 -21.65 -4.455 9
-5.659 -20.615 -4.503 10
-5.439 -19.685 -4.556 31
-4.929 -17.696 -4.15 0
-5.064 -18.05 -4.662 7
-4.894 -17.304 -4.704 7
-4.741 -16.638 -4.758 7
-4.592 -15.985 -4.796 9
-4.457 -15.399 -4.846 8
-4.317 -14.803 -4.871 8
-4.195 -14.265 -4.907 8
-4.09 -13.801 -4.968 8
-3.981 -13.318 -5.003 8
-3.869 -12.844 -5.026 8
-3.772 -12.414 -5.062 9
-3.673 -11.992 -5.089 9
-3.585 -11.6 -5.122 11
-3.497 -11.221 -5.153 9
-3.413 -10.853 -5.179 11
-3.331 -10.501 -5.204 12
-3.25 -10.157 -5.225 12
-3.176 -9.83 -5.249 13
-3.096 -9.498 -5.256 13
-10.149 -39.421 -3.951 11
-8.92 -34.37 -3.681 31
-8.5 -32.512 -3.911 13
-8.138 -30.88 -4.129 6
-7.64 -28.782 -4.176 7
-7.226 -27.005 -4.236 4
-6.846 -25.4 -4.283 7
-6.525 -24.037 -4.349 6
-6.242 -22.811 -4.412 5
-5.971 -21.663 -4.459 7
-5.731 -20.612 -4.502 9
-5.508 -19.68 -4.554 38
-5.323 -18.866 -4.622 5
-5.131 -18.053 -4.663 6
-4.959 -17.308 -4.706 8
-4.805 -16.645 -4.762 8
-4.649 -15.975 -4.792 9
-4.516 -15.404 -4.849 7
-4.375 -14.808 -4.873 8
-4.25 -14.266 -4.908 8
-4.143 -13.8 -4.967 7
-4.031 -13.315 -5.0 7
-3.918 -12.841 -5.024 8
-3.82 -12.411 -5.06 9
-3.721 -11.992 -5.089 10
-3.63 -11.594 -5.119 10
-3.54 -11.216 -5.149 10
-3.458 -10.855 -5.18 10
-3.373 -10.499 -5.203 12
-3.292 -10.156 -5.224 12
-3.215 -9.826 -5.245 13
-3.136 -9.497 -5.255 15
-10.284 -39.444 -3.955 9
-9.044 -34.409 -3.688 32
-8.61 -32.521 -3.912 13
-8.248 -30.905 -4.135 6
-7.742 -28.797 -4.18 7
-7.322 -27.02 -4.24 5
-6.937 -25.413 -4.287 6
-6.613 -24.05 -4.353 6
-6.325 -22.822 -4.415 5
-6.048 -21.663 -4.459 8
-5.807 -20.621 -4.505 6
-5.58 -19.685 -4.557 33
-5.393 -18.872 -4.625 5
-5.194 -18.045 -4.66 7
-5.023 -17.307 -4.706 7
-4.864 -16.639 -4.759 7
-4.711 -15.983 -4.796 10
-4.574 -15.401 -4.847 8
-4.43 -14.806 -4.872 8
-4.305 -14.268 -4.909 9
-4.195 -13.798 -4.966 8
-4.084 -13.317 -5.002 8
-3.969 -12.843 -5.025 8
-3.869 -12.411 -5.06 9
-3.77 -11.996 -5.091 10
-3.677 -11.597 -5.121 9
-3.587 -11.219 -5.151 10
-3.501 -10.852 -5.177 11
-3.415 -10.494 -5.199 13
-3.333 -10.154 -5.223 13
-3.257 -9.828 -5.246 12
-3.177 -9.498 -5.257 14
-10.427 -39.497 -3.964 9
-9.146 -34.366 -3.68 34
-8.721 -32.529 -3.914 13
-8.359 -30.929 -4.14 7
-7.847 -28.823 -4.186 7
-7.417 -27.028 -4.242 5
-7.03 -25.433 -4.293 6
-6.699 -24.06 -4.356 6
-6.406 -22.825 -4.416 5
-6.126 -21.671 -4.462 8
-5.883 -20.63 -4.509 7
-5.649 -19.68 -4.554 29
-5.461 -18.87 -4.624 8
-5.263 -18.055 -4.664 8
-5.087 -17.311 -4.707 7
-4.926 -16.639 -4.759 7
-4.771 -15.983 -4.796 8
-4.631 -15.399 -4.846 8
-4.486 -14.804 -4.871 8
-4.359 -14.266 -4.908 8
-4.25 -13.804 -4.969 7
-4.133 -13.309 -4.997 8
-4.021 -12.846 -5.027 8
-3.918 -12.411 -5.06 9
-3.818 -11.995 -5.091 10
-3.722 -11.592 -5.117 9
-3.632 -11.217 -5.149 8
-3.546 -10.853 -5.178 11
-3.459 -10.495 -5.2 11
-3.376 -10.155 -5.223 12
-3.296 -9.82 -5.24 14
-3.216 -9.494 -5.253 14
-10.57 -39.546 -3.973 7
-9.294 -34.494 -3.705 24
-8.831 -32.533 -3.915 14
-8.472 -30.964 -4.149 6
-7.948 -28.837 -4.19 7
-7.515 -27.047 -4.247 5
-7.12 -25.441 -4.295 6
-6.786 -24.07 -4.359 6
-6.49 -22.839 -4.421 5
-6.206 -21.682 -4.466 7
-5.957 -20.631 -4.509 9
-5.724 -19.692 -4.559 12
-5.53 -18.872 -4.625 6
-5.329 -18.054 -4.663 7
-5.152 -17.314 -4.709 7
-4.989 -16.642 -4.76 7
-4.83 -15.98 -4.794 10
-4.688 -15.396 -4.845 8
-4.542 -14.801 -4.87 8
-4.415 -14.268 -4.909 7
-4.302 -13.798 -4.967 8
-4.186 -13.311 -4.998 7
-4.069 -12.839 -5.022 9
-3.967 -12.41 -5.059 9
-3.866 -11.995 -5.091 8
-3.77 -11.595 -5.119 9
-3.678 -11.217 -5.15 9
-3.587 -10.841 -5.169 11
-3.501 -10.493 -5.198 11
-3.419 -10.156 -5.224 12
-3.339 -9.824 -5.243 18
-3.256 -9.496 -5.254 15
-10.712 -39.59 -3.981 6
-9.429 -34.568 -3.719 20
-8.944 -32.548 -3.918 14
-8.579 -30.972 -4.15 6
-8.049 -28.847 -4.192 6
-7.613 -27.066 -4.252 5
-7.214 -25.461 -4.301 6
-6.874 -24.086 -4.364 6
-6.573 -22.849 -4.424 5
-6.284 -21.686 -4.467 7
-6.036 -20.649 -4.516 10
-5.8 -19.711 -4.566 9
-5.6 -18.877 -4.627 7
-5.396 -18.056 -4.665 7
-5.216 -17.313 -4.708 8
-5.05 -16.638 -4.758 7
-4.89 -15.98 -4.794 9
-4.75 -15.407 -4.85 8
-4.599 -14.806 -4.872 8
-4.469 -14.266 -4.908 8
-4.356 -13.8 -4.968 8
-4.236 -13.307 -4.996 7
-4.119 -12.837 -5.022 8
-4.017 -12.41 -5.059 9
-3.911 -11.985 -5.084 10
-3.815 -11.588 -5.114 9
-3.722 -11.214 -5.147 9
-3.633 -10.844 -5.172 11
-3.545 -10.493 -5.198 12
-3.46 -10.151 -5.22 13
-3.378 -9.817 -5.237 20
-3.296 -9.494 -5.253 14
-10.855 -39.635 -3.989 6
-9.524 -34.495 -3.705 23
-9.057 -32.563 -3.921 13
-8.694 -31.006 -4.158 6
-8.156 -28.874 -4.199 7
-7.708 -27.072 -4.254 5
-7.306 -25.473 -4.304 6
-6.96 -24.091 -4.365 6
-6.656 -22.855 -4.426 4
-6.366 -21.699 -4.472 7
-6.113 -20.66 -4.52 15
-5.873 -19.716 -4.568 9
-5.67 -18.882 -4.629 8
-5.464 -18.062 -4.667 7
-5.282 -17.319 -4.711 8
-5.113 -16.641 -4.76 7
-4.95 -15.98 -4.794 9
-4.805 -15.397 -4.845 8
-4.654 -14.8 -4.869 7
-4.523 -14.264 -4.907 9
-4.409 -13.799 -4.967 8
-4.289 -13.309 -4.997 8
-4.17 -12.836 -5.021 8
-4.066 -12.409 -5.058 9
-3.962 -11.994 -5.09 9
-3.863 -11.591 -5.116 10
-3.768 -11.214 -5.147 10
-3.676 -10.841 -5.169 11
-3.587 -10.488 -5.194 12
-3.5 -10.146 -5.216 13
-3.419 -9.815 -5.236 27
-3.337 -9.495 -5.254 14
-11.0 -39.685 -3.998 6
-9.687 -34.666 -3.738 24
-9.17 -32.577 -3.924 11
-8.808 -31.041 -4.166 6
-8.259 -28.891 -4.203 7
-7.809 -27.101 -4.262 5
-7.398 -25.488 -4.309 6
-7.048 -24.104 -4.369 6
-6.74 -22.868 -4.43 4
-6.445 -21.706 -4.474 8
-6.185 -20.653 -4.517 28
-5.946 -19.721 -4.57 9
-5.739 -18.884 -4.63 6
-5.531 -18.064 -4.668 7
-5.345 -17.318 -4.711 8
-5.176 -16.644 -4.761 7
-5.01 -15.98 -4.794 8
-4.866 -15.404 -4.849 8
-4.713 -14.807 -4.873 8
-4.578 -14.265 -4.907 9
-4.461 -13.794 -4.964 7
-4.342 -13.311 -4.998 8
-4.22 -12.835 -5.02 8
-4.117 -12.414 -5.062 9
-4.009 -11.99 -5.088 10
-3.91 -11.591 -5.116 10
-3.812 -11.207 -5.143 10
-3.722 -10.845 -5.172 12
-3.631 -10.488 -5.194 11
-3.543 -10.146 -5.216 12
-3.459 -9.812 -5.233 30
-3.377 -9.493 -5.252 16
-11.155 -39.77 -4.013 6
-9.769 -34.551 -3.716 25
-9.284 -32.591 -3.927 10
-8.918 -31.055 -4.17 6
-8.364 -28.911 -4.208 7
-7.907 -27.115 -4.265 5
-7.49 -25.499 -4.312 6
-7.134 -24.108 -4.371 6
-6.825 -22.881 -4.435 5
-6.526 -21.72 -4.479 7
-6.259 -20.649 -4.516 29
-6.021 -19.732 -4.574 8
-5.81 -18.889 -4.632 6
-5.597 -18.061 -4.667 7
-5.409 -17.316 -4.71 8
-5.239 -16.646 -4.762 8
-5.074 -15.99 -4.799 9
-4.923 -15.397 -4.845 8
-4.769 -14.804 -4.872 7
-4.634 -14.266 -4.908 8
-4.517 -13.798 -4.966 8
-4.393 -13.306 -4.995 8
-4.27 -12.833 -5.019 8
-4.164 -12.407 -5.057 9
-4.056 -11.986 -5.085 9
-3.955 -11.588 -5.114 10
-3.859 -11.21 -5.145 10
-3.767 -10.845 -5.172 10
-3.675 -10.489 -5.195 12
-3.586 -10.147 -5.217 13
-3.502 -9.816 -5.237 33
-3.418 -9.494 -5.253 14
-11.295 -39.802 -4.018 5
-9.871 -34.502 -3.707 26
-9.404 -32.627 -3.935 9
-9.034 -31.092 -4.178 7
-8.468 -28.931 -4.213 7
-8.003 -27.125 -4.268 5
-7.585 -25.517 -4.317 7
-7.223 -24.124 -4.375 6
-6.908 -22.886 -4.436 4
-6.607 -21.729 -4.482 7
-6.332 -20.645 -4.514 22
-6.093 -19.736 -4.576 9
-5.878 -18.886 -4.63 6
-5.666 -18.07 -4.67 6
-5.476 -17.322 -4.712 8
-5.3 -16.642 -4.76 7
-5.132 -15.982 -4.795 29
-4.982 -15.401 -4.847 8
-4.825 -14.802 -4.87 8
-4.689 -14.266 -4.908 8
-4.568 -13.789 -4.961 8
-4.447 -13.31 -4.998 8
-4.321 -12.832 -5.018 8
-4.213 -12.405 -5.056 8
-4.104 -11.985 -5.084 10
-4.002 -11.586 -5.113 10
-3.904 -11.207 -5.143 9
-3.81 -10.839 -5.167 11
-3.716 -10.483 -5.19 12
-3.628 -10.144 -5.215 13
-3.542 -9.811 -5.232 38
-3.459 -9.495 -5.254 14
-11.44 -39.847 -4.026 5
-9.978 -34.473 -3.701 26
-9.524 -32.663 -3.943 8
-9.147 -31.117 -4.184 6
-8.571 -28.943 -4.216 6
-8.102 -27.141 -4.272 5
-7.677 -25.528 -4.32 6
-7.313 -24.139 -4.38 6
-6.994 -22.902 -4.441 5
-6.686 -21.735 -4.484 8
-6.417 -20.681 -4.527 10
-6.166 -19.739 -4.577 9
-5.949 -18.89 -4.632 6
-5.732 -18.068 -4.669 7
-5.54 -17.32 -4.711 7
-5.364 -16.648 -4.763 7
-5.192 -15.982 -4.795 42
-5.041 -15.4 -4.847 8
-4.882 -14.802 -4.87 8
-4.744 -14.263 -4.906 9
-4.622 -13.789 -4.961 8
-4.498 -13.308 -4.996 8
-4.372 -12.834 -5.019 8
-4.263 -12.404 -5.055 8
-4.152 -11.984 -5.084 9
-4.049 -11.586 -5.112 10
-3.949 -11.207 -5.142 9
-3.856 -10.841 -5.17 12
-3.761 -10.486 -5.192 12
-3.673 -10.15 -5.22 14
-3.583 -9.808 -5.23 40
-3.499 -9.493 -5.252 14
-11.588 -39.9 -4.035 5
-10.068 -34.386 -3.684 22
-9.649 -32.709 -3.952 11
-9.262 -31.146 -4.191 6
-8.679 -28.97 -4.223 6
-8.2 -27.155 -4.276 5
-7.765 -25.524 -4.319 6
-7.4 -24.147 -4.382 6
-7.079 -22.914 -4.445 4
-6.769 -21.752 -4.49 15
-6.496 -20.694 -4.532 9
-6.24 -19.746 -4.58 9
-6.019 -18.894 -4.633 8
-5.802 -18.076 -4.673 7
-5.606 -17.326 -4.714 7
-5.427 -16.646 -4.762 7
-5.251 -15.978 -4.793 41
-5.099 -15.396 -4.845 8
-4.939 -14.802 -4.87 8
-4.802 -14.27 -4.91 8
-4.676 -13.79 -4.962 8
-4.548 -13.299 -4.991 8
-4.424 -12.835 -5.02 8
-4.312 -12.402 -5.054 9
-4.2 -11.983 -5.083 9
-4.096 -11.585 -5.112 10
-3.992 -11.196 -5.135 7
-3.9 -10.839 -5.167 9
-3.805 -10.485 -5.192 12
-3.713 -10.142 -5.213 13
-3.624 -9.806 -5.228 40
-3.54 -9.494 -5.253 16
-11.734 -39.945 -4.043 5
-10.236 -34.564 -3.719 20
-9.771 -32.748 -3.961 11
-9.378 -31.178 -4.198 6
-8.783 -28.984 -4.227 6
-8.301 -27.174 -4.281 5
-7.864 -25.555 -4.328 6
-7.489 -24.158 -4.386 6
-7.161 -22.915 -4.446 5
-6.845 -21.742 -4.486 26
-6.572 -20.696 -4.533 8
-6.314 -19.749 -4.581 9
-6.091 -18.901 -4.637 8
-5.866 -18.066 -4.669 6
-5.672 -17.33 -4.716 8
-5.49 -16.648 -4.763 8
-5.312 -15.976 -4.792 39
-5.157 -15.395 -4.844 8
-4.997 -14.804 -4.872 8
-4.856 -14.267 -4.908 8
-4.729 -13.787 -4.96 8
-4.601 -13.3 -4.992 7
-4.475 -12.833 -5.019 8
-4.359 -12.394 -5.049 9
-4.247 -11.978 -5.079 9
-4.142 -11.581 -5.109 9
-4.038 -11.196 -5.134 7
-3.943 -10.835 -5.165 9
-3.848 -10.483 -5.19 12
-3.757 -10.145 -5.215 12
-3.667 -9.809 -5.231 40
-3.58 -9.492 -5.251 15
-11.878 -39.981 -4.05 4
-10.344 -34.537 -3.713 25
-9.892 -32.783 -3.968 14
-9.491 -31.198 -4.203 6
-8.892 -29.013 -4.234 6
-8.403 -27.198 -4.288 5
-7.958 -25.569 -4.332 6
-7.58 -24.176 -4.391 6
-7.245 -22.923 -4.448 5
-6.922 -21.74 -4.486 29
-6.65 -20.706 -4.536 9
-6.389 -19.759 -4.585 9
-6.16 -18.897 -4.635 7
-5.936 -18.077 -4.673 7
-5.735 -17.325 -4.713 7
-5.552 -16.646 -4.762 7
-5.374 -15.982 -4.795 45
-5.216 -15.394 -4.844 8
-5.053 -14.801 -4.87 7
-4.911 -14.264 -4.906 9
-4.784 -13.788 -4.961 8
-4.655 -13.304 -4.994 7
-4.525 -12.831 -5.018 8
-4.412 -12.402 -5.054 9
-4.295 -11.977 -5.079 10
-4.188 -11.577 -5.106 10
-4.087 -11.205 -5.141 8
-3.989 -10.837 -5.166 12
-3.892 -10.483 -5.19 12
-3.797 -10.139 -5.211 13
-3.709 -9.81 -5.231 38
-3.622 -9.492 -5.251 16
-12.023 -40.021 -4.057 4
-10.431 -34.441 -3.695 27
-10.012 -32.808 -3.974 15
-9.605 -31.223 -4.208 7
-8.998 -29.031 -4.238 6
-8.496 -27.195 -4.287 5
-8.051 -25.578 -4.334 6
-7.668 -24.182 -4.393 6
-7.33 -22.93 -4.451 5
-7.003 -21.749 -4.489 17
-6.729 -20.718 -4.541 9
-6.462 -19.761 -4.586 5
-6.232 -18.904 -4.638 6
-6.005 -18.081 -4.675 8
-5.801 -17.326 -4.714 8
-5.616 -16.648 -4.763 8
-5.436 -15.984 -4.796 43
-5.276 -15.397 -4.845 8
-5.112 -14.804 -4.871 8
-4.967 -14.264 -4.906 9
-4.837 -13.785 -4.959 8
-4.707 -13.301 -4.992 8
-4.573 -12.822 -5.012 8
-4.459 -12.394 -5.049 10
-4.343 -11.976 -5.078 9
-4.237 -11.579 -5.108 10
-4.13 -11.194 -5.133 9
-4.033 -10.833 -5.164 10
-3.936 -10.482 -5.19 12
-3.841 -10.139 -5.211 12
-3.75 -9.807 -5.229 40
-3.661 -9.487 -5.247 16
-12.177 -40.087 -4.068 5
-10.535 -34.399 -3.686 33
-10.13 -32.831 -3.979 16
-9.724 -31.26 -4.217 6
-9.103 -29.045 -4.242 7
-8.601 -27.224 -4.295 4
-8.147 -25.598 -4.34 7
-7.758 -24.196 -4.397 6
-7.415 -22.941 -4.454 5
-7.088 -21.767 -4.495 8
-6.809 -20.731 -4.545 9
-6.538 -19.771 -4.589 8
-6.303 -18.908 -4.639 6
-6.073 -18.082 -4.675 7
-5.866 -17.326 -4.714 7
-5.676 -16.639 -4.759 7
-5.495 -15.979 -4.793 40
-5.336 -15.399 -4.846 8
-5.168 -14.799 -4.869 8
-5.022 -14.264 -4.907 8
-4.892 -13.785 -4.959 8
-4.759 -13.298 -4.99 8
-4.626 -12.826 -5.015 8
-4.51 -12.395 -5.049 9
-4.392 -11.974 -5.077 10
-4.281 -11.571 -5.102 10
-4.178 -11.199 -5.137 9
-4.078 -10.833 -5.163 11
-3.979 -10.479 -5.187 12
-3.881 -10.133 -5.205 12
-3.79 -9.802 -5.224 36
-3.702 -9.487 -5.247 15
-12.324 -40.13 -4.076 5
-10.653 -34.405 -3.688 22
-10.246 -32.842 -3.981 19
-9.841 -31.29 -4.224 6
-9.214 -29.077 -4.25 6
-8.701 -27.24 -4.299 5
-8.242 -25.611 -4.344 7
-7.85 -24.213 -4.403 5
-7.506 -22.967 -4.462 5
-7.173 -21.786 -4.502 7
-6.885 -20.732 -4.546 10
-6.609 -19.766 -4.588 9
-6.373 -18.907 -4.639 6
-6.143 -18.088 -4.678 7
-5.933 -17.33 -4.716 7
-5.743 -16.65 -4.764 7
-5.557 -15.981 -4.794 44
-5.395 -15.398 -4.846 8
-5.226 -14.802 -4.87 8
-5.078 -14.263 -4.906 8
-4.945 -13.781 -4.957 8
-4.811 -13.296 -4.989 8
-4.676 -12.82 -5.011 8
-4.559 -12.393 -5.048 9
-4.441 -11.975 -5.077 8
-4.33 -11.572 -5.103 9
-4.223 -11.195 -5.134 10
-4.122 -10.829 -5.16 11
-4.023 -10.478 -5.186 11
-3.926 -10.136 -5.208 11
-3.831 -9.798 -5.222 36
-3.742 -9.484 -5.245 16
-12.466 -40.153 -4.08 5
-10.804 -34.516 -3.709 22
-10.369 -32.878 -3.988 22
-9.955 -31.31 -4.228 6
-9.322 -29.102 -4.256 6
-8.802 -27.257 -4.304 5
-8.341 -25.636 -4.351 6
-7.937 -24.214 -4.403 5
-7.589 -22.97 -4.463 5
-7.256 -21.797 -4.505 7
-6.965 -20.744 -4.55 9
-6.686 -19.779 -4.592 9
-6.446 -18.916 -4.643 6
-6.209 -18.084 -4.676 7
-5.998 -17.33 -4.716 5
-5.807 -16.651 -4.764 7
-5.619 -15.981 -4.795 39
-5.457 -15.403 -4.848 8
-5.283 -14.798 -4.868 8
-5.134 -14.262 -4.906 8
-4.999 -13.782 -4.957 8
-4.864 -13.296 -4.989 8
-4.728 -12.821 -5.011 8
-4.61 -12.394 -5.049 9
-4.489 -11.973 -5.076 10
-4.378 -11.574 -5.104 10
-4.271 -11.197 -5.135 9
-4.167 -10.828 -5.159 12
-4.066 -10.474 -5.183 11
-3.966 -10.129 -5.202 13
-3.873 -9.798 -5.222 39
-3.782 -9.481 -5.242 14
-12.619 -40.21 -4.09 5
-10.952 -34.614 -3.728 8
-10.489 -32.899 -3.993 29
-10.077 -31.354 -4.239 7
-9.431 -29.126 -4.262 7
-8.905 -27.279 -4.309 5
-8.434 -25.645 -4.354 6
-8.032 -24.242 -4.412 6
-7.677 -22.984 -4.468 5
-7.341 -21.815 -4.512 8
-7.044 -20.752 -4.553 9
-6.76 -19.781 -4.593 9
-6.515 -18.912 -4.641 6
-6.279 -18.091 -4.679 7
-6.067 -17.337 -4.719 7
-5.872 -16.655 -4.766 7
-5.681 -15.983 -4.796 42
-5.517 -15.404 -4.849 8
-5.341 -14.799 -4.869 8
-5.19 -14.261 -4.905 8
-5.055 -13.784 -4.958 8
-4.915 -13.289 -4.985 8
-4.777 -12.815 -5.008 8
-4.659 -12.391 -5.047 9
-4.539 -11.974 -5.077 10
-4.425 -11.572 -5.103 9
-4.316 -11.192 -5.131 10
-4.213 -10.827 -5.158 10
-4.11 -10.473 -5.183 13
-4.012 -10.135 -5.207 13
-3.914 -9.795 -5.219 41
-3.821 -9.476 -5.237 14
-12.773 -40.27 -4.101 5
-11.037 -34.51 -3.708 34
-10.608 -32.92 -3.997 29
-10.193 -31.376 -4.244 6
-9.537 -29.138 -4.265 6
-9.006 -27.293 -4.313 5
-8.53 -25.66 -4.358 6
-8.12 -24.243 -4.412 6
-7.764 -22.996 -4.472 4
-7.423 -21.822 -4.514 7
-7.123 -20.76 -4.556 8
-6.835 -19.785 -4.595 8
-6.588 -18.917 -4.643 6
-6.35 -18.097 -4.682 7
-6.131 -17.334 -4.717 7
-5.936 -16.655 -4.766 7
-5.742 -15.981 -4.794 40
-5.578 -15.406 -4.85 8
-5.399 -14.799 -4.869 9
-5.246 -14.261 -4.905 8
-5.109 -13.78 -4.956 8
-4.97 -13.292 -4.987 8
-4.829 -12.815 -5.008 8
-4.71 -12.392 -5.047 8
-4.586 -11.969 -5.073 10
-4.472 -11.571 -5.102 10
-4.363 -11.194 -5.133 9
-4.258 -10.825 -5.157 10
-4.154 -10.472 -5.182 13
-4.053 -10.128 -5.201 13
-3.957 -9.797 -5.221 39
-3.866 -9.484 -5.245 17
-12.933 -40.344 -4.114 5
-11.148 -34.492 -3.705 34
-10.723 -32.926 -3.999 28
-10.31 -31.401 -4.25 6
-9.649 -29.169 -4.273 7
-9.109 -27.314 -4.319 5
-8.625 -25.671 -4.361 6
-8.212 -24.259 -4.417 6
-7.852 -23.009 -4.476 4
-7.503 -21.825 -4.515 8
-7.202 -20.767 -4.559 10
-6.912 -19.798 -4.6 9
-6.659 -18.919 -4.644 6
-6.419 -18.1 -4.683 7
-6.198 -17.337 -4.719 7
-6.0 -16.655 -4.766 7
-5.805 -15.985 -4.796 42
-5.636 -15.401 -4.847 8
-5.457 -14.8 -4.869 8
-5.301 -14.256 -4.902 9
-5.163 -13.779 -4.955 8
-5.022 -13.289 -4.985 7
-4.88 -12.812 -5.006 8
-4.761 -12.392 -5.048 9
-4.634 -11.967 -5.072 9
-4.519 -11.565 -5.098 10
-4.408 -11.189 -5.129 9
-4.304 -10.827 -5.159 11
-4.198 -10.471 -5.181 13
-4.095 -10.125 -5.199 13
-3.999 -9.794 -5.218 38
-3.899 -9.464 -5.227 23
-13.087 -40.4 -4.124 5
-11.266 -34.492 -3.705 34
-10.84 -32.938 -4.001 30
-10.426 -31.422 -4.254 6
-9.758 -29.188 -4.277 6
-9.212 -27.334 -4.324 5
-8.724 -25.693 -4.367 7
-8.301 -24.264 -4.418 5
-7.941 -23.026 -4.482 5
-7.585 -21.832 -4.517 7
-7.281 -20.775 -4.561 10
-6.988 -19.802 -4.601 9
-6.732 -18.924 -4.646 6
-6.487 -18.098 -4.682 6
-6.266 -17.343 -4.722 7
-6.065 -16.659 -4.768 7
-5.865 -15.979 -4.793 41
-5.695 -15.398 -4.846 8
-5.516 -14.801 -4.87 8
-5.358 -14.258 -4.903 9
-5.221 -13.785 -4.959 8
-5.075 -13.288 -4.984 8
-4.932 -12.812 -5.006 8
-4.809 -12.386 -5.044 9
-4.685 -11.97 -5.074 9
-4.566 -11.563 -5.097 10
-4.454 -11.188 -5.128 10
-4.348 -10.823 -5.156 11
-4.243 -10.47 -5.18 10
-4.14 -10.129 -5.203 10
-4.04 -9.791 -5.215 40
-3.94 -9.464 -5.227 23
-13.246 -40.465 -4.135 5
-11.394 -34.522 -3.71 19
-10.963 -32.965 -4.007 28
-10.547 -31.457 -4.263 7
-9.873 -29.225 -4.287 6
-9.313 -27.346 -4.327 5
-8.821 -25.707 -4.371 6
-8.395 -24.283 -4.424 6
-8.026 -23.031 -4.483 5
-7.669 -21.842 -4.521 7
-7.36 -20.782 -4.564 10
-7.065 -19.813 -4.605 9
-6.806 -18.933 -4.649 6
-6.556 -18.101 -4.683 7
-6.332 -17.342 -4.721 7
-6.126 -16.652 -4.765 6
-5.928 -15.982 -4.795 34
-5.755 -15.399 -4.846 8
-5.574 -14.8 -4.869 8
-5.415 -14.26 -4.904 9
-5.274 -13.781 -4.957 8
-5.128 -13.287 -4.984 8
-4.984 -12.811 -5.005 8
-4.859 -12.383 -5.042 9
-4.733 -11.965 -5.07 9
-4.614 -11.564 -5.097 9
-4.499 -11.182 -5.124 9
-4.392 -10.818 -5.152 11
-4.284 -10.463 -5.175 11
-4.18 -10.12 -5.195 11
-4.082 -9.79 -5.215 39
-3.981 -9.463 -5.226 22
-13.403 -40.527 -4.146 5
-11.51 -34.518 -3.71 8
-11.082 -32.981 -4.01 23
-10.67 -31.496 -4.271 7
-9.982 -29.243 -4.291 6
-9.42 -27.374 -4.335 5
-8.917 -25.721 -4.375 6
-8.487 -24.298 -4.429 6
-8.114 -23.043 -4.487 5
-7.752 -21.851 -4.524 7
-7.443 -20.799 -4.57 9
-7.141 -19.818 -4.607 9
-6.879 -18.938 -4.651 6
-6.627 -18.106 -4.685 7
-6.402 -17.352 -4.726 7
-6.192 -16.655 -4.766 7
-5.992 -15.986 -4.797 40
-5.817 -15.403 -4.848 8
-5.633 -14.8 -4.87 8
-5.47 -14.255 -4.902 8
-5.328 -13.776 -4.954 8
-5.182 -13.286 -4.983 8
-5.036 -12.812 -5.006 8
-4.91 -12.383 -5.041 9
-4.781 -11.962 -5.068 9
-4.662 -11.562 -5.095 10
-4.547 -11.184 -5.125 10
-4.438 -10.819 -5.153 10
-4.33 -10.465 -5.176 12
-4.223 -10.118 -5.194 12
-4.124 -9.789 -5.214 40
-4.024 -9.466 -5.228 21
-13.559 -40.58 -4.155 5
-11.645 -34.565 -3.719 11
-11.197 -32.985 -4.011 30
-10.79 -31.527 -4.279 6
-10.097 -29.279 -4.3 5
-9.525 -27.397 -4.341 5
-9.017 -25.741 -4.381 6
-8.58 -24.312 -4.433 6
-8.2 -23.048 -4.489 5
-7.839 -21.867 -4.53 8
-7.521 -20.802 -4.571 9
-7.219 -19.828 -4.611 10
-6.951 -18.938 -4.651 6
-6.696 -18.108 -4.686 6
-6.47 -17.354 -4.726 5
-6.257 -16.658 -4.768 7
-6.053 -15.982 -4.795 42
-5.875 -15.397 -4.845 7
-5.69 -14.799 -4.869 8
-5.528 -14.257 -4.903 9
-5.383 -13.775 -4.953 8
-5.234 -13.282 -4.981 8
-5.086 -12.804 -5.001 8
-4.959 -12.38 -5.039 8
-4.831 -11.962 -5.068 9
-4.71 -11.562 -5.096 10
-4.593 -11.182 -5.124 10
-4.483 -10.815 -5.15 11
-4.375 -10.466 -5.177 11
-4.268 -10.121 -5.196 11
-4.164 -9.783 -5.209 37
-4.063 -9.459 -5.223 20
-13.723 -40.656 -4.169 5
-12.611 -37.056 -4.203 5
-11.321 -33.01 -4.017 30
-10.911 -31.557 -4.286 7
-10.204 -29.289 -4.303 6
-9.628 -27.412 -4.345 5
-9.111 -25.748 -4.383 6
-8.67 -24.315 -4.434 6
-8.292 -23.071 -4.496 5
-7.922 -21.877 -4.533 8
-7.602 -20.812 -4.575 9
-7.293 -19.828 -4.611 17
-7.025 -18.946 -4.655 5
-6.767 -18.113 -4.689 7
-6.534 -17.349 -4.724 5
-6.323 -16.661 -4.769 6
-6.117 -15.99 -4.799 41
-5.936 -15.397 -4.845 8
-5.749 -14.8 -4.869 7
-5.584 -14.255 -4.902 5
-5.439 -13.776 -4.954 8
-5.288 -13.282 -4.98 8
-5.138 -12.804 -5.001 8
-5.009 -12.376 -5.037 9
-4.877 -11.953 -5.062 9
-4.759 -11.562 -5.096 10
-4.641 -11.182 -5.124 10
-4.528 -10.813 -5.148 10
-4.418 -10.462 -5.174 11
-4.308 -10.113 -5.19 12
-4.208 -9.784 -5.21 39
-4.103 -9.456 -5.22 19
-13.88 -40.712 -4.179 5
-11.83 -34.414 -3.689 2
-11.445 -33.04 -4.023 32
-11.033 -31.591 -4.293 6
-10.319 -29.321 -4.311 6
-9.734 -27.435 -4.351 5
-9.213 -25.771 -4.39 6
-8.762 -24.326 -4.437 6
-8.378 -23.075 -4.498 5
-8.008 -21.889 -4.537 7
-7.679 -20.811 -4.575 8
-7.365 -19.821 -4.609 32
-7.098 -18.95 -4.656 6
-6.838 -18.118 -4.691 6
-6.602 -17.351 -4.725 5
-6.384 -16.652 -4.765 8
-6.179 -15.985 -4.796 41
-5.997 -15.397 -4.845 7
-5.806 -14.794 -4.866 8
-5.64 -14.252 -4.9 9
-5.492 -13.771 -4.951 7
-5.342 -13.283 -4.982 8
-5.191 -12.806 -5.002 8
-5.06 -12.376 -5.037 8
-4.927 -11.952 -5.062 10
-4.805 -11.557 -5.092 9
-4.686 -11.177 -5.12 11
-4.574 -10.814 -5.149 11
-4.463 -10.46 -5.172 11
-4.355 -10.121 -5.196 12
-4.249 -9.78 -5.207 33
-4.143 -9.452 -5.217 24
-14.048 -40.794 -4.193 5
-12.902 -37.158 -4.223 5
-11.566 -33.057 -4.026 29
-11.154 -31.617 -4.299 6
-10.429 -29.338 -4.315 6
-9.841 -27.46 -4.358 5
-9.311 -25.787 -4.394 6
-8.858 -24.347 -4.443 6
-8.468 -23.089 -4.502 5
-8.092 -21.898 -4.54 7
-7.76 -20.82 -4.578 11
-7.439 -19.82 -4.608 33
-7.172 -18.954 -4.658 6
-6.909 -18.121 -4.692 6
-6.669 -17.353 -4.726 5
-6.451 -16.659 -4.768 7
-6.242 -15.988 -4.798 42
-6.056 -15.394 -4.844 7
-5.866 -14.797 -4.868 7
-5.696 -14.25 -4.899 9
-5.547 -13.77 -4.95 8
-5.395 -13.279 -4.979 8
-5.241 -12.799 -4.998 8
-5.112 -12.379 -5.039 9
-4.976 -11.952 -5.062 9
-4.851 -11.551 -5.088 10
-4.735 -11.18 -5.123 10
-4.621 -10.814 -5.149 11
-4.507 -10.458 -5.171 12
-4.396 -10.113 -5.19 13
-4.29 -9.776 -5.203 25
-4.186 -9.454 -5.218 20
-14.205 -40.845 -4.202 5
-13.04 -37.186 -4.228 5
-11.689 -33.078 -4.031 30
-11.275 -31.646 -4.306 6
-10.545 -29.372 -4.323 6
-9.943 -27.471 -4.361 5
-9.409 -25.799 -4.398 7
-8.953 -24.363 -4.449 6
-8.555 -23.093 -4.503 5
-8.176 -21.906 -4.543 7
-7.846 -20.84 -4.585 10
-7.515 -19.823 -4.609 22
-7.245 -18.958 -4.659 5
-6.977 -18.119 -4.691 8
-6.736 -17.351 -4.725 6
-6.517 -16.661 -4.769 7
-6.304 -15.984 -4.796 42
-6.119 -15.397 -4.845 8
-5.926 -14.797 -4.868 8
-5.753 -14.247 -4.897 9
-5.605 -13.774 -4.953 7
-5.448 -13.277 -4.978 8
-5.295 -12.801 -4.999 8
-5.161 -12.371 -5.034 8
-5.026 -11.952 -5.062 9
-4.901 -11.554 -5.09 9
-4.78 -11.175 -5.119 10
-4.666 -10.812 -5.148 11
-4.55 -10.453 -5.167 12
-4.44 -10.112 -5.188 12
-4.336 -9.784 -5.21 18
-4.227 -9.453 -5.218 22
-14.362 -40.892 -4.21 4
-13.195 -37.259 -4.242 6
-11.811 -33.094 -4.034 28
-11.397 -31.675 -4.313 7
-10.658 -29.396 -4.329 6
-10.05 -27.492 -4.366 5
-9.508 -25.814 -4.402 7
-9.048 -24.38 -4.454 6
-8.652 -23.124 -4.514 5
-8.262 -21.916 -4.546 7
-7.93 -20.856 -4.591 13
-7.598 -19.843 -4.617 11
-7.32 -18.964 -4.662 4
-7.051 -18.13 -4.696 7
-6.805 -17.356 -4.727 5
-6.581 -16.659 -4.768 7
-6.366 -15.983 -4.796 41
-6.178 -15.394 -4.844 8
-5.985 -14.798 -4.868 7
-5.813 -14.255 -4.902 8
-5.659 -13.769 -4.95 8
-5.502 -13.275 -4.977 8
-5.346 -12.796 -4.996 8
-5.211 -12.368 -5.032 8
-5.075 -11.949 -5.059 9
-4.95 -11.554 -5.09 10
-4.826 -11.172 -5.117 10
-4.711 -10.807 -5.144 11
-4.596 -10.454 -5.168 11
-4.483 -10.11 -5.187 12
-4.377 -9.779 -5.206 14
-4.268 -9.449 -5.214 23
-14.528 -40.964 -4.223 5
-13.346 -37.319 -4.254 6
-11.931 -33.107 -4.037 23
-11.521 -31.706 -4.32 6
-10.773 -29.422 -4.336 6
-10.155 -27.51 -4.371 5
-9.607 -25.829 -4.406 6
-9.139 -24.385 -4.455 6
-8.74 -23.131 -4.516 5
-8.348 -21.928 -4.55 7
-8.007 -20.853 -4.59 25
-7.677 -19.852 -4.621 9
-7.394 -18.967 -4.663 6
-7.121 -18.131 -4.696 8
-6.873 -17.357 -4.728 6
-6.647 -16.661 -4.769 8
-6.427 -15.979 -4.793 44
-6.242 -15.399 -4.846 8
-6.044 -14.797 -4.868 7
-5.87 -14.252 -4.9 9
-5.715 -13.77 -4.95 7
-5.554 -13.27 -4.974 8
-5.398 -12.795 -4.995 9
-5.262 -12.366 -5.031 9
-5.125 -11.948 -5.059 9
-4.996 -11.547 -5.085 9
-4.874 -11.171 -5.117 11
-4.757 -10.807 -5.144 11
-4.64 -10.452 -5.166 11
-4.528 -10.112 -5.188 11
-4.418 -9.775 -5.203 13
-4.308 -9.446 -5.211 20
-14.69 -41.021 -4.233 4
-13.497 -37.379 -4.266 10
-12.063 -33.149 -4.046 24
-11.653 -31.76 -4.332 7
-10.886 -29.445 -4.341 6
-10.263 -27.533 -4.378 5
-9.704 -25.836 -4.408 6
-9.235 -24.401 -4.46 6
-8.829 -23.14 -4.519 4
-8.435 -21.943 -4.555 7
-8.085 -20.851 -4.589 26
-7.753 -19.854 -4.621 9
-7.469 -18.974 -4.666 6
-7.19 -18.127 -4.695 7
-6.939 -17.354 -4.726 5
-6.711 -16.655 -4.766 7
-6.491 -15.981 -4.794 44
-6.303 -15.399 -4.846 8
-6.104 -14.797 -4.868 7
-5.929 -14.255 -4.902 8
-5.772 -13.77 -4.95 8
-5.608 -13.268 -4.972 8
-5.45 -12.793 -4.994 8
-5.312 -12.362 -5.028 10
-5.174 -11.944 -5.057 9
-5.044 -11.544 -5.083 8
-4.919 -11.165 -5.112 10
-4.804 -10.808 -5.144 11
-4.683 -10.447 -5.162 11
-4.57 -10.107 -5.184 13
-4.461 -9.774 -5.201 13
-4.348 -9.441 -5.207 22
-14.872 -41.133 -4.253 4
-13.646 -37.431 -4.276 6
-12.193 -33.186 -4.054 24
-11.783 -31.806 -4.343 7
-11.006 -29.482 -4.351 6
-10.369 -27.55 -4.382 4
-9.808 -25.861 -4.416 7
-9.328 -24.409 -4.463 6
-8.92 -23.153 -4.523 4
-8.519 -21.946 -4.557 8
-8.165 -20.855 -4.591 18
-7.832 -19.863 -4.625 9
-7.544 -18.979 -4.668 6
-7.263 -18.134 -4.697 7
-7.008 -17.358 -4.728 4
-6.777 -16.656 -4.767 7
-6.556 -15.982 -4.795 44
-6.366 -15.401 -4.847 8
-6.16 -14.79 -4.864 6
-5.983 -14.246 -4.897 9
-5.827 -13.768 -4.949 8
-5.663 -13.269 -4.973 8
-5.504 -12.795 -4.995 7
-5.363 -12.361 -5.027 9
-5.224 -11.943 -5.056 9
-5.093 -11.544 -5.083 10
-4.967 -11.166 -5.112 10
-4.85 -10.805 -5.142 11
-4.729 -10.447 -5.162 11
-4.612 -10.101 -5.18 12
-4.502 -9.769 -5.197 13
-4.391 -9.443 -5.208 20
-15.045 -41.218 -4.268 5
-13.797 -37.486 -4.287 6
-12.324 -33.224 -4.062 23
-11.915 -31.859 -4.355 7
-11.12 -29.503 -4.356 6
-10.479 -27.577 -4.389 4
-9.911 -25.883 -4.422 6
-9.421 -24.418 -4.465 6
-9.014 -23.174 -4.53 4
-8.605 -21.956 -4.56 8
-8.254 -20.88 -4.6 11
-7.91 -19.868 -4.627 9
-7.617 -18.978 -4.668 6
-7.334 -18.137 -4.699 7
-7.078 -17.361 -4.73 4
-6.843 -16.658 -4.768 8
-6.617 -15.977 -4.793 43
-6.424 -15.393 -4.843 8
-6.223 -14.797 -4.867 7
-6.041 -14.246 -4.897 9
-5.882 -13.765 -4.947 8
-5.717 -13.267 -4.971 7
-5.555 -12.79 -4.992 8
-5.416 -12.363 -5.029 9
-5.272 -11.939 -5.053 9
-5.141 -11.54 -5.08 8
-5.015 -11.166 -5.112 10
-4.894 -10.799 -5.138 11
-4.772 -10.442 -5.158 11
-4.657 -10.102 -5.18 10
-4.543 -9.764 -5.193 14
-4.432 -9.441 -5.207 20
-15.208 -41.273 -4.278 5
-13.952 -37.548 -4.299 6
-12.449 -33.245 -4.066 22
-12.044 -31.899 -4.365 7
-11.235 -29.528 -4.362 6
-10.588 -27.6 -4.395 4
-10.012 -25.9 -4.427 6
-9.521 -24.444 -4.473 6
-9.101 -23.175 -4.53 4
-8.7 -21.987 -4.571 14
-8.336 -20.888 -4.603 10
-7.99 -19.88 -4.631 8
-7.692 -18.984 -4.67 6
-7.406 -18.14 -4.7 5
-7.145 -17.359 -4.729 6
-6.906 -16.652 -4.765 7
-6.68 -15.975 -4.792 39
-6.488 -15.398 -4.846 8
-6.282 -14.796 -4.867 6
-6.101 -14.252 -4.9 8
-5.938 -13.762 -4.945 8
-5.773 -13.268 -4.972 8
-5.608 -12.788 -4.991 8
-5.466 -12.358 -5.025 9
-5.323 -11.938 -5.052 8
-5.19 -11.539 -5.08 10
-5.062 -11.162 -5.11 10
-4.941 -10.799 -5.137 11
-4.819 -10.445 -5.161 10
-4.7 -10.1 -5.179 12
-4.587 -9.765 -5.194 18
-4.471 -9.434 -5.201 16
-15.368 -41.317 -4.285 5
-14.097 -37.584 -4.306 6
-12.586 -33.296 -4.077 30
-12.173 -31.936 -4.373 7
-11.354 -29.56 -4.37 6
-10.694 -27.615 -4.4 5
-10.111 -25.91 -4.429 6
-9.617 -24.458 -4.478 6
-9.191 -23.184 -4.533 5
-8.777 -21.971 -4.565 20
-8.424 -20.909 -4.61 8
-8.07 -19.887 -4.634 8
-7.766 -18.986 -4.671 6
-7.479 -18.146 -4.702 7
-7.214 -17.362 -4.73 6
-6.972 -16.652 -4.765 8
-6.744 -15.977 -4.793 42
-6.547 -15.39 -4.842 9
-6.34 -14.791 -4.865 6
-6.16 -14.251 -4.9 8
-5.996 -13.766 -4.948 7
-5.825 -13.262 -4.969 8
-5.659 -12.782 -4.987 8
-5.518 -12.359 -5.026 9
-5.373 -11.937 -5.051 9
-5.234 -11.529 -5.072 10
-5.109 -11.162 -5.109 10
-4.986 -10.796 -5.135 11
-4.864 -10.442 -5.158 10
-4.745 -10.1 -5.179 11
-4.627 -9.758 -5.188 24
-4.513 -9.432 -5.199 20
-15.533 -41.374 -4.295 5
-14.251 -37.642 -4.317 6
-12.715 -33.324 -4.083 33
-12.293 -31.951 -4.376 7
-11.47 -29.585 -4.376 6
-10.805 -27.641 -4.406 5
-10.213 -25.926 -4.434 6
-9.714 -24.472 -4.482 6
-9.288 -23.21 -4.541 5
-8.859 -21.971 -4.565 29
-8.507 -20.916 -4.613 10
-8.145 -19.885 -4.633 9
-7.842 -18.991 -4.673 6
-7.552 -18.151 -4.705 5
-7.285 -17.369 -4.733 8
-7.038 -16.652 -4.765 8
-6.808 -15.978 -4.793 42
-6.609 -15.392 -4.843 8
-6.4 -14.791 -4.864 7
-6.215 -14.244 -4.896 8
-6.051 -13.762 -4.946 8
-5.882 -13.266 -4.971 8
-5.712 -12.78 -4.986 8
-5.568 -12.354 -5.023 9
-5.423 -11.935 -5.05 9
-5.288 -11.537 -5.078 10
-5.158 -11.161 -5.109 9
-5.032 -10.793 -5.133 10
-4.907 -10.436 -5.154 10
-4.788 -10.095 -5.175 12
-4.67 -9.755 -5.186 25
-4.555 -9.431 -5.198 18
-15.694 -41.417 -4.303 5
-14.409 -37.709 -4.33 5
-12.847 -33.36 -4.091 32
-12.416 -31.973 -4.382 7
-11.587 -29.608 -4.382 6
-10.912 -27.655 -4.41 5
-10.312 -25.935 -4.437 6
-9.809 -24.482 -4.485 5
-9.378 -23.218 -4.544 4
-8.944 -21.976 -4.567 19
-8.594 -20.932 -4.619 10
-8.226 -19.896 -4.637 9
-7.916 -18.992 -4.673 6
-7.623 -18.15 -4.704 6
-7.354 -17.368 -4.733 6
-7.106 -16.656 -4.767 7
-6.871 -15.975 -4.792 43
-6.671 -15.39 -4.842 9
-6.46 -14.789 -4.863 6
-6.274 -14.247 -4.897 5
-6.109 -13.765 -4.947 8
-5.936 -13.262 -4.969 8
-5.766 -12.781 -4.986 8
-5.621 -12.356 -5.024 9
-5.472 -11.931 -5.047 9
-5.334 -11.529 -5.073 10
-5.203 -11.154 -5.104 10
-5.08 -10.795 -5.134 11
-4.953 -10.436 -5.154 11
-4.831 -10.092 -5.172 10
-4.715 -9.759 -5.189 34
-4.598 -9.432 -5.199 22
-15.874 -41.51 -4.319 3
-14.567 -37.772 -4.342 5
-12.962 -33.35 -4.089 30
-12.543 -32.005 -4.389 7
-11.713 -29.656 -4.394 7
-11.027 -27.692 -4.42 5
-10.418 -25.962 -4.444 6
-9.906 -24.496 -4.489 5
-9.47 -23.229 -4.548 5
-9.04 -22.006 -4.577 8
-8.673 -20.931 -4.618 10
-8.307 -19.907 -4.641 8
-7.993 -19.0 -4.677 6
-7.695 -18.152 -4.705 6
-7.425 -17.374 -4.735 5
-7.174 -16.66 -4.769 7
-6.936 -15.976 -4.792 44
-6.732 -15.388 -4.84 8
-6.515 -14.777 -4.857 7
-6.333 -14.246 -4.897 8
-6.163 -13.758 -4.943 7
-5.991 -13.262 -4.969 8
-5.82 -12.781 -4.987 7
-5.673 -12.353 -5.022 9
-5.521 -11.926 -5.044 9
-5.383 -11.528 -5.072 10
-5.249 -11.15 -5.101 9
-5.126 -10.791 -5.132 11
-4.998 -10.434 -5.152 11
-4.875 -10.09 -5.17 10
-4.756 -9.754 -5.184 38
-4.641 -9.433 -5.2 21
-16.04 -41.562 -4.328 5
-14.72 -37.824 -4.352 6
-13.105 -33.41 -4.102 32
-12.671 -32.036 -4.396 7
-11.823 -29.662 -4.395 6
-11.138 -27.713 -4.426 5
-10.521 -25.978 -4.449 6
-10.003 -24.51 -4.493 6
-9.562 -23.24 -4.551 5
-9.129 -22.018 -4.581 8
-8.761 -20.948 -4.624 11
-8.386 -19.91 -4.643 9
-8.071 -19.008 -4.68 6
-7.77 -18.161 -4.709 6
-7.493 -17.373 -4.735 5
-7.239 -16.656 -4.767 8
-7.001 -15.976 -4.792 45
-6.794 -15.385 -4.839 8
-6.578 -14.783 -4.86 7
-6.388 -14.239 -4.893 8
-6.222 -13.76 -4.944 5
-6.047 -13.263 -4.969 8
-5.871 -12.775 -4.983 8
-5.723 -12.348 -5.019 9
-5.572 -11.927 -5.045 9
-5.432 -11.527 -5.071 11
-5.297 -11.149 -5.1 10
-5.173 -10.791 -5.132 10
-5.042 -10.43 -5.149 12
-4.918 -10.087 -5.168 11
-4.798 -9.748 -5.18 38
-4.677 -9.42 -5.188 18
-16.217 -41.643 -4.343 5
-14.87 -37.864 -4.36 6
-13.249 -33.473 -4.115 30
-12.808 -32.089 -4.408 8
-11.95 -29.709 -4.407 6
-11.254 -27.747 -4.435 5
-10.629 -26.007 -4.457 6
-10.104 -24.533 -4.5 6
-9.652 -23.244 -4.552 5
-9.216 -22.027 -4.584 8
-8.845 -20.957 -4.628 11
-8.467 -19.92 -4.647 9
-8.145 -19.009 -4.68 6
-7.842 -18.162 -4.709 6
-7.561 -17.368 -4.733 6
-7.307 -16.659 -4.768 8
-7.067 -15.98 -4.794 47
-6.857 -15.386 -4.84 8
-6.636 -14.777 -4.857 7
-6.446 -14.237 -4.892 8
-6.279 -13.759 -4.944 6
-6.103 -13.262 -4.969 8
-5.925 -12.776 -4.983 9
-5.774 -12.346 -5.017 9
-5.623 -11.925 -5.044 9
-5.481 -11.525 -5.07 10
-5.346 -11.148 -5.099 9
-5.219 -10.787 -5.129 11
-5.087 -10.427 -5.146 13
-4.964 -10.087 -5.168 11
-4.842 -9.748 -5.18 40
-4.721 -9.423 -5.191 17
-16.392 -41.715 -4.356 4
-15.024 -37.911 -4.369 5
-13.408 -33.568 -4.135 25
-12.939 -32.127 -4.417 9
-12.069 -29.735 -4.414 6
-11.366 -27.771 -4.441 5
-10.729 -26.015 -4.46 6
-10.203 -24.549 -4.505 6
-9.75 -23.267 -4.56 5
-9.305 -22.037 -4.588 7
-8.928 -20.962 -4.63 11
-8.541 -19.913 -4.644 15
-8.223 -19.015 -4.683 5
-7.916 -18.167 -4.711 6
-7.635 -17.381 -4.738 6
-7.375 -16.662 -4.769 8
-7.128 -15.973 -4.79 47
-6.92 -15.387 -4.84 8
-6.698 -14.778 -4.858 7
-6.503 -14.233 -4.889 9
-6.335 -13.755 -4.942 8
-6.154 -13.252 -4.963 8
-5.978 -12.772 -4.981 8
-5.826 -12.343 -5.015 9
-5.673 -11.923 -5.042 9
-5.531 -11.524 -5.069 10
-5.392 -11.144 -5.096 10
-5.264 -10.784 -5.126 12
-5.133 -10.426 -5.146 11
-5.006 -10.081 -5.163 10
-4.886 -9.749 -5.181 33
-4.762 -9.417 -5.186 21
-16.572 -41.798 -4.37 5
-15.184 -37.976 -4.382 5
-13.599 -33.743 -4.172 18
-13.079 -32.182 -4.43 11
-12.193 -29.77 -4.423 6
-11.472 -27.78 -4.444 5
-10.838 -26.043 -4.468 6
-10.299 -24.557 -4.508 5
-9.841 -23.273 -4.562 5
-9.394 -22.048 -4.592 7
-9.014 -20.975 -4.634 11
-8.629 -19.936 -4.653 7
-8.299 -19.019 -4.684 6
-7.987 -18.164 -4.71 6
-7.704 -17.379 -4.738 5
-7.439 -16.653 -4.766 8
-7.192 -15.97 -4.789 44
-6.983 -15.387 -4.84 8
-6.757 -14.777 -4.857 8
-6.562 -14.231 -4.888 8
-6.392 -13.754 -4.941 8
-6.208 -13.248 -4.96 8
-6.029 -12.766 -4.977 10
-5.88 -12.346 -5.018 9
-5.722 -11.918 -5.038 10
-5.577 -11.516 -5.064 9
-5.439 -11.139 -5.093 8
-5.311 -10.782 -5.125 10
-5.176 -10.42 -5.141 11
-5.052 -10.083 -5.165 12
-4.927 -9.743 -5.175 39
-4.803 -9.415 -5.185 17
-16.744 -41.859 -4.381 4
-15.347 -38.044 -4.395 6
-13.753 -33.822 -4.189 22
-13.211 -32.219 -4.438 11
-12.316 -29.803 -4.431 5
-11.594 -27.825 -4.456 5
-10.939 -26.05 -4.47 6
-10.398 -24.573 -4.513 6
-9.932 -23.28 -4.564 4
-9.484 -22.059 -4.595 7
-9.099 -20.982 -4.637 11
-8.708 -19.938 -4.654 8
-8.376 -19.022 -4.685 6
-8.061 -18.168 -4.712 6
-7.776 -17.383 -4.74 5
-7.509 -16.659 -4.768 8
-7.258 -15.973 -4.79 44
-7.043 -15.381 -4.837 9
-6.816 -14.771 -4.854 7
-6.62 -14.228 -4.887 7
-6.449 -13.753 -4.94 8
-6.267 -13.254 -4.964 8
-6.084 -12.766 -4.977 15
-5.928 -12.334 -5.01 9
-5.776 -11.921 -5.041 9
-5.628 -11.517 -5.064 9
-5.487 -11.137 -5.092 10
-5.357 -10.778 -5.122 11
-5.221 -10.416 -5.138 12
-5.095 -10.077 -5.16 10
-4.973 -9.746 -5.178 33
-4.845 -9.413 -5.182 17
-16.924 -41.937 -4.395 5
-15.506 -38.1 -4.406 6
-13.877 -33.828 -4.19 23
-13.346 -32.263 -4.448 12
-12.436 -29.827 -4.437 6
-11.705 -27.844 -4.461 5
-11.048 -26.078 -4.478 6
-10.496 -24.585 -4.516 6
-10.028 -23.296 -4.569 4
-9.575 -22.073 -4.6 7
-9.186 -20.994 -4.641 11
-8.792 -19.951 -4.658 9
-8.455 -19.032 -4.69 6
-8.137 -18.175 -4.715 6
-7.845 -17.381 -4.739 5
-7.576 -16.658 -4.768 7
-7.325 -15.975 -4.792 46
-7.106 -15.381 -4.837 8
-6.878 -14.772 -4.854 8
-6.679 -14.227 -4.886 8
-6.504 -13.749 -4.938 8
-6.322 -13.253 -4.963 7
-6.137 -12.762 -4.975 16
-5.981 -12.333 -5.009 9
-5.825 -11.915 -5.037 9
-5.674 -11.509 -5.058 9
-5.536 -11.136 -5.09 13
-5.406 -10.78 -5.123 11
-5.267 -10.416 -5.137 12
-5.138 -10.074 -5.158 12
-5.011 -9.735 -5.168 37
-4.888 -9.413 -5.182 16
-17.1 -42.004 -4.406 6
-15.667 -38.159 -4.417 5
-14.074 -34.007 -4.229 6
-13.481 -32.302 -4.458 11
-12.563 -29.868 -4.447 6
-11.825 -27.88 -4.47 5
-11.15 -26.088 -4.481 7
-10.593 -24.592 -4.519 5
-10.121 -23.305 -4.572 4
-9.663 -22.08 -4.603 7
-9.272 -21.005 -4.645 11
-8.874 -19.959 -4.662 9
-8.529 -19.028 -4.688 6
-8.208 -18.173 -4.714 6
-7.915 -17.382 -4.739 5
-7.646 -16.663 -4.77 7
-7.39 -15.974 -4.791 46
-7.17 -15.381 -4.837 8
-6.941 -14.775 -4.856 7
-6.737 -14.224 -4.885 5
-6.56 -13.744 -4.935 8
-6.378 -13.252 -4.963 8
-6.194 -12.768 -4.978 14
-6.034 -12.334 -5.01 9
-5.875 -11.913 -5.035 9
-5.725 -11.509 -5.059 8
-5.581 -11.128 -5.085 10
-5.452 -10.776 -5.12 10
-5.313 -10.415 -5.137 12
-5.184 -10.073 -5.157 10
-5.055 -9.734 -5.168 38
-4.929 -9.408 -5.178 18
-17.272 -42.058 -4.416 6
-15.826 -38.211 -4.427 5
-14.656 -35.106 -4.462 9
-13.622 -32.355 -4.47 10
-12.691 -29.91 -4.457 5
-11.935 -27.895 -4.475 5
-11.26 -26.114 -4.488 6
-10.696 -24.613 -4.525 6
-10.216 -23.317 -4.576 4
-9.756 -22.096 -4.608 8
-9.356 -21.009 -4.647 11
-8.955 -19.965 -4.664 9
-8.609 -19.037 -4.691 6
-8.284 -18.179 -4.717 10
-7.984 -17.38 -4.738 6
-7.713 -16.662 -4.769 8
-7.456 -15.976 -4.792 47
-7.235 -15.384 -4.838 8
-7.001 -14.772 -4.854 7
-6.798 -14.225 -4.885 8
-6.618 -13.741 -4.933 8
-6.431 -13.244 -4.958 8
-6.246 -12.761 -4.974 19
-6.089 -12.337 -5.012 8
-5.924 -11.907 -5.031 9
-5.773 -11.504 -5.055 8
-5.631 -11.129 -5.086 9
-5.496 -10.768 -5.114 13
-5.358 -10.411 -5.134 11
-5.227 -10.07 -5.154 12
-5.098 -9.731 -5.165 39
-4.971 -9.405 -5.175 17
-17.454 -42.135 -4.429 5
-15.996 -38.287 -4.442 5
-14.801 -35.146 -4.47 8
-13.757 -32.394 -4.479 10
-12.821 -29.954 -4.468 6
-12.052 -27.923 -4.482 5
-11.368 -26.134 -4.494 6
-10.797 -24.631 -4.53 6
-10.312 -23.332 -4.581 4
-9.846 -22.106 -4.612 8
-9.443 -21.019 -4.65 11
-9.037 -19.972 -4.667 9
-8.685 -19.04 -4.693 6
-8.36 -18.186 -4.719 7
-8.059 -17.391 -4.743 5
-7.781 -16.662 -4.77 8
-7.52 -15.972 -4.79 41
-7.297 -15.38 -4.837 8
-7.06 -14.766 -4.851 8
-6.856 -14.223 -4.884 7
-6.676 -13.743 -4.935 8
-6.487 -13.243 -4.957 8
-6.3 -12.76 -4.973 16
-6.139 -12.329 -5.007 8
-5.976 -11.907 -5.031 9
-5.825 -11.508 -5.058 8
-5.681 -11.13 -5.086 10
-5.545 -10.769 -5.115 12
-5.402 -10.403 -5.128 12
-5.273 -10.069 -5.153 12
-5.142 -9.731 -5.165 37
-5.011 -9.399 -5.17 17
-17.627 -42.188 -4.439 5
-16.163 -38.355 -4.455 5
-14.949 -35.192 -4.48 9
-13.889 -32.425 -4.486 8
-12.956 -30.009 -4.482 6
-12.172 -27.959 -4.492 4
-11.477 -26.157 -4.5 6
-10.899 -24.648 -4.536 5
-10.407 -23.344 -4.585 4
-9.934 -22.111 -4.614 7
-9.532 -21.033 -4.655 11
-9.122 -19.984 -4.671 15
-8.764 -19.045 -4.695 6
-8.433 -18.185 -4.719 6
-8.13 -17.391 -4.743 5
-7.85 -16.663 -4.77 8
-7.585 -15.971 -4.79 44
-7.36 -15.379 -4.836 8
-7.123 -14.768 -4.852 7
-6.918 -14.226 -4.886 8
-6.732 -13.737 -4.931 8
-6.543 -13.241 -4.956 8
-6.353 -12.756 -4.971 17
-6.191 -12.326 -5.005 8
-6.024 -11.898 -5.025 9
-5.875 -11.505 -5.056 9
-5.729 -11.128 -5.085 11
-5.591 -10.765 -5.112 12
-5.449 -10.405 -5.129 11
-5.315 -10.062 -5.148 11
-5.185 -9.727 -5.162 36
-5.053 -9.396 -5.168 17
-17.811 -42.267 -4.453 5
-16.332 -38.427 -4.469 5
-15.1 -35.245 -4.491 7
-14.018 -32.444 -4.49 8
-13.09 -30.06 -4.495 6
-12.286 -27.979 -4.497 5
-11.586 -26.179 -4.507 6
-11.001 -24.665 -4.541 6
-10.509 -23.368 -4.593 4
-10.023 -22.116 -4.615 8
-9.616 -21.036 -4.656 11
-9.196 -19.974 -4.667 29
-8.841 -19.047 -4.695 7
-8.509 -18.191 -4.722 6
-8.203 -17.394 -4.744 5
-7.919 -16.664 -4.771 8
-7.65 -15.969 -4.789 40
-7.426 -15.381 -4.837 5
-7.183 -14.765 -4.851 7
-6.974 -14.217 -4.881 8
-6.79 -13.735 -4.93 8
-6.596 -13.233 -4.951 8
-6.406 -12.752 -4.968 25
-6.246 -12.329 -5.006 8
-6.078 -11.901 -5.027 10
-5.921 -11.496 -5.049 8
-5.774 -11.12 -5.079 11
-5.638 -10.762 -5.11 11
-5.494 -10.4 -5.125 11
-5.359 -10.058 -5.145 12
-5.23 -9.727 -5.162 37
-5.093 -9.39 -5.163 17
-18.001 -42.355 -4.468 5
-16.511 -38.519 -4.487 5
-15.247 -35.286 -4.5 7
-14.157 -32.488 -4.5 8
-13.217 -30.092 -4.503 6
-12.405 -28.01 -4.505 4
-11.694 -26.197 -4.512 6
-11.1 -24.674 -4.544 6
-10.599 -23.369 -4.593 5
-10.115 -22.129 -4.62 7
