# .PCD v0.7 - Point Cloud Data file format
VERSION 0.7
FIELDS x y z intensity
SIZE 4 4 4 4
TYPE F F F F
COUNT 1 1 1 1
WIDTH 2261
HEIGHT 1
VIEWPOINT 0 0 0 1 0 0 0
POINTS 2261
DATA ascii
7.363 -1.303 2.526 33
7.365 -1.242 2.523 31
7.361 -1.191 2.519 35
7.358 -1.153 2.511 35
7.362 -1.125 2.499 34
7.359 -1.111 2.482 26
7.338 -1.105 2.461 34
3.162 -0.48 2.755 0
3.199 -0.495 2.737 0
3.208 -0.509 2.718 19
3.168 -0.52 2.7 35
3.406 -0.579 2.652 0
3.246 -0.574 2.641 4
4.626 -0.853 2.446 3
4.512 -0.868 2.414 27
4.503 -0.903 2.367 2
6.448 -1.35 2.019 0
5.969 -1.302 2.019 3
6.534 -1.484 1.841 0
6.541 -1.543 1.75 0
6.127 -1.5 1.742 2
6.234 -1.581 1.626 2
5.046 -1.571 2.723 21
5.36 -1.579 2.693 6
5.663 -1.577 2.665 5
6.01 -1.578 2.636 4
6.368 -1.577 2.607 4
7.154 -1.669 2.553 22
7.374 -1.618 2.536 28
7.362 -1.522 2.535 26
7.363 -1.434 2.534 33
7.358 -1.354 2.534 37
7.363 -1.283 2.533 30
7.357 -1.22 2.532 38
7.357 -1.169 2.528 33
7.358 -1.131 2.52 36
7.358 -1.104 2.509 34
7.362 -1.09 2.492 34
7.353 -1.087 2.47 35
3.152 -0.47 2.76 1
3.169 -0.482 2.744 5
3.213 -0.501 2.722 26
3.169 -0.512 2.704 40
5.154 -0.864 2.481 182
3.232 -0.564 2.647 11
4.741 -0.864 2.439 4
4.526 -0.862 2.419 11
4.505 -0.896 2.373 5
4.308 -0.895 2.35 0
5.922 -1.282 2.034 3
6.538 -1.474 1.848 0
6.529 -1.531 1.76 0
6.13 -1.492 1.748 3
6.169 -1.556 1.647 2
5.075 -1.571 2.723 7
5.386 -1.577 2.693 22
5.704 -1.578 2.665 6
6.051 -1.577 2.636 27
6.402 -1.572 2.608 4
7.352 -1.699 2.545 23
7.374 -1.603 2.54 17
7.362 -1.505 2.54 34
7.359 -1.415 2.54 31
7.362 -1.336 2.54 33
7.362 -1.263 2.54 25
7.36 -1.201 2.539 32
7.36 -1.149 2.536 37
7.358 -1.11 2.529 35
7.361 -1.083 2.518 35
7.362 -1.069 2.502 35
7.361 -1.066 2.48 35
3.158 -0.462 2.765 3
3.171 -0.473 2.748 16
3.219 -0.494 2.726 39
3.183 -0.506 2.708 40
5.161 -0.852 2.488 164
3.257 -0.562 2.649 14
4.802 -0.866 2.438 12
4.517 -0.852 2.425 53
4.515 -0.889 2.377 34
4.489 -0.924 2.328 0
5.925 -1.273 2.041 3
6.533 -1.463 1.857 1
6.536 -1.523 1.767 0
6.168 -1.493 1.748 1
6.172 -1.549 1.653 3
5.112 -1.574 2.723 6
5.392 -1.569 2.695 16
5.719 -1.57 2.666 32
6.062 -1.569 2.638 13
6.432 -1.566 2.609 4
7.356 -1.685 2.549 31
7.366 -1.585 2.546 19
7.365 -1.489 2.545 27
7.363 -1.398 2.546 35
7.361 -1.316 2.547 35
7.366 -1.244 2.547 34
7.364 -1.181 2.547 41
7.364 -1.129 2.544 33
7.358 -1.088 2.538 40
7.357 -1.06 2.528 33
7.358 -1.047 2.512 37
7.361 -1.045 2.49 34
3.151 -0.452 2.77 9
3.177 -0.466 2.752 20
3.216 -0.485 2.731 43
3.184 -0.499 2.712 40
5.187 -0.845 2.492 32
3.251 -0.554 2.654 11
4.84 -0.862 2.44 8
4.613 -0.861 2.42 9
4.514 -0.881 2.383 26
4.514 -0.921 2.331 1
5.924 -1.263 2.048 3
6.529 -1.452 1.865 0
6.536 -1.514 1.774 0
6.396 -1.539 1.709 0
6.126 -1.529 1.671 4
5.145 -1.576 2.722 6
5.429 -1.57 2.695 5
5.737 -1.565 2.667 8
6.1 -1.567 2.638 4
6.49 -1.568 2.609 4
7.364 -1.67 2.552 24
7.362 -1.567 2.551 27
7.365 -1.471 2.55 36
7.358 -1.379 2.552 29
7.361 -1.298 2.553 37
7.373 -1.226 2.554 39
7.368 -1.162 2.554 32
7.356 -1.107 2.553 41
7.361 -1.067 2.547 35
7.365 -1.04 2.537 39
7.358 -1.025 2.522 35
7.36 -1.024 2.501 37
3.165 -0.445 2.773 10
3.174 -0.457 2.757 22
3.226 -0.478 2.735 39
3.19 -0.491 2.716 31
5.221 -0.838 2.496 11
3.253 -0.546 2.659 10
4.885 -0.861 2.441 4
4.697 -0.867 2.415 12
4.524 -0.875 2.388 9
4.517 -0.914 2.336 3
5.916 -1.252 2.057 2
6.528 -1.442 1.873 1
6.535 -1.504 1.782 0
6.529 -1.562 1.689 0
6.132 -1.524 1.675 6
5.14 -1.565 2.724 3
5.463 -1.57 2.695 6
5.79 -1.569 2.666 4
6.157 -1.57 2.638 14
6.582 -1.577 2.607 11
7.359 -1.654 2.557 29
7.365 -1.552 2.555 27
7.372 -1.456 2.555 29
7.362 -1.362 2.557 39
7.357 -1.278 2.56 34
7.373 -1.206 2.561 18
7.363 -1.141 2.562 43
7.363 -1.087 2.561 33
7.361 -1.047 2.556 42
7.364 -1.018 2.547 32
7.357 -1.003 2.532 39
3.409 -0.464 2.774 1
3.19 -0.44 2.776 15
3.184 -0.449 2.761 28
3.231 -0.471 2.739 40
3.199 -0.485 2.72 20
5.291 -0.837 2.497 10
3.25 -0.54 2.663 16
4.966 -0.864 2.439 2
4.707 -0.86 2.42 6
4.514 -0.865 2.394 19
4.519 -0.907 2.341 28
4.487 -0.943 2.29 0
6.528 -1.433 1.881 0
6.538 -1.496 1.788 0
6.528 -1.554 1.696 1
6.124 -1.514 1.684 2
5.154 -1.562 2.725 3
5.488 -1.569 2.695 22
5.827 -1.569 2.666 12
6.163 -1.56 2.64 22
6.585 -1.565 2.61 8
7.367 -1.642 2.56 23
7.369 -1.537 2.559 31
7.364 -1.438 2.56 36
7.369 -1.346 2.563 29
7.364 -1.262 2.566 39
7.365 -1.186 2.568 31
7.367 -1.122 2.569 34
7.355 -1.066 2.57 41
7.36 -1.025 2.565 36
7.368 -0.997 2.556 17
7.361 -0.982 2.542 37
3.403 -0.454 2.779 10
3.195 -0.432 2.78 19
3.177 -0.44 2.766 37
3.237 -0.464 2.743 40
3.209 -0.479 2.724 19
3.502 -0.547 2.672 5
3.264 -0.535 2.666 22
5.082 -0.874 2.432 2
4.76 -0.861 2.419 5
4.559 -0.866 2.394 1
4.517 -0.9 2.346 33
4.497 -0.938 2.294 1
6.527 -1.423 1.888 0
6.538 -1.487 1.796 1
6.531 -1.546 1.703 1
6.009 -1.478 1.715 3
5.168 -1.557 2.725 3
5.502 -1.564 2.696 13
5.83 -1.56 2.668 14
6.197 -1.557 2.64 5
6.604 -1.557 2.612 21
7.366 -1.626 2.564 29
7.364 -1.52 2.564 27
7.364 -1.421 2.566 29
7.361 -1.327 2.569 42
7.36 -1.243 2.572 31
7.364 -1.167 2.575 40
7.358 -1.101 2.578 41
7.358 -1.045 2.578 36
7.356 -1.004 2.574 43
7.367 -0.976 2.566 33
7.356 -0.961 2.552 41
3.4 -0.444 2.784 14
3.181 -0.421 2.786 16
3.183 -0.433 2.77 42
3.242 -0.456 2.747 39
3.234 -0.475 2.726 18
3.496 -0.538 2.677 1
3.273 -0.529 2.669 12
5.128 -0.872 2.433 9
6.526 -1.168 2.212 7
4.573 -0.861 2.397 2
4.531 -0.895 2.349 5
4.515 -0.935 2.296 3
6.53 -1.414 1.895 0
6.541 -1.479 1.802 0
6.309 -1.485 1.754 1
6.008 -1.471 1.722 3
5.204 -1.56 2.725 2
5.508 -1.556 2.697 3
5.867 -1.56 2.669 5
6.262 -1.562 2.639 8
6.603 -1.544 2.615 11
7.362 -1.611 2.568 25
7.371 -1.506 2.568 33
7.363 -1.405 2.571 35
7.364 -1.31 2.574 30
7.363 -1.224 2.578 41
7.359 -1.147 2.583 40
7.358 -1.081 2.585 38
7.357 -1.024 2.586 43
7.363 -0.983 2.583 39
7.366 -0.955 2.575 41
3.311 -0.423 2.803 8
3.259 -0.416 2.797 16
3.186 -0.413 2.789 18
3.192 -0.425 2.774 39
3.248 -0.449 2.751 38
3.251 -0.47 2.729 16
3.474 -0.526 2.684 5
3.29 -0.525 2.672 4
5.181 -0.871 2.434 24
6.529 -1.157 2.22 10
4.891 -0.912 2.362 0
4.521 -0.886 2.356 12
4.521 -0.93 2.299 28
6.529 -1.405 1.903 0
6.536 -1.469 1.81 0
6.315 -1.479 1.759 2
6.026 -1.468 1.724 3
5.237 -1.562 2.725 2
5.545 -1.558 2.697 3
5.908 -1.561 2.668 6
6.272 -1.554 2.641 22
6.629 -1.538 2.616 4
7.365 -1.597 2.572 20
7.367 -1.49 2.573 26
7.362 -1.388 2.576 32
7.359 -1.293 2.58 44
7.358 -1.206 2.585 29
7.363 -1.129 2.589 43
7.361 -1.061 2.593 41
7.357 -1.004 2.595 40
7.358 -0.962 2.592 43
7.37 -0.933 2.585 21
3.313 -0.413 2.807 1
3.249 -0.405 2.802 20
3.168 -0.402 2.795 20
3.201 -0.418 2.778 41
3.229 -0.438 2.757 35
3.296 -0.468 2.73 13
3.117 -0.466 2.72 8
3.284 -0.517 2.677 14
5.207 -0.866 2.438 18
5.173 -0.907 2.388 0
5.127 -0.948 2.336 1
4.648 -0.904 2.343 1
4.519 -0.922 2.305 31
4.494 -0.96 2.25 1
6.539 -1.462 1.816 0
6.253 -1.457 1.777 4
6.04 -1.465 1.727 4
5.255 -1.559 2.725 3
5.567 -1.555 2.698 3
5.934 -1.558 2.669 25
6.302 -1.55 2.642 5
6.683 -1.538 2.617 3
7.368 -1.583 2.576 25
7.366 -1.475 2.577 34
7.365 -1.373 2.58 34
7.367 -1.278 2.585 33
7.357 -1.189 2.591 37
7.362 -1.11 2.596 36
7.36 -1.041 2.6 45
7.36 -0.984 2.603 41
7.361 -0.941 2.601 44
7.365 -0.911 2.594 28
3.314 -0.404 2.812 3
3.258 -0.397 2.806 39
3.181 -0.394 2.799 31
3.214 -0.411 2.782 37
3.219 -0.428 2.763 33
3.297 -0.46 2.734 15
3.146 -0.463 2.722 15
3.281 -0.511 2.681 22
3.246 -0.533 2.654 9
5.195 -0.902 2.392 1
5.141 -0.942 2.341 3
4.564 -0.88 2.36 3
4.528 -0.918 2.309 5
4.511 -0.958 2.251 3
6.538 -1.453 1.823 0
6.256 -1.451 1.783 3
6.058 -1.462 1.729 3
5.291 -1.562 2.725 2
5.596 -1.555 2.698 3
5.94 -1.55 2.671 3
6.367 -1.556 2.641 9
6.872 -1.569 2.609 8
7.371 -1.57 2.579 30
7.369 -1.461 2.581 26
7.368 -1.358 2.585 36
7.358 -1.259 2.591 41
7.357 -1.171 2.597 32
7.361 -1.091 2.603 46
7.363 -1.022 2.608 39
7.359 -0.964 2.611 43
7.357 -0.92 2.61 43
7.36 -0.89 2.604 41
3.32 -0.395 2.816 2
3.311 -0.394 2.808 34
3.183 -0.386 2.804 27
3.212 -0.403 2.786 34
3.236 -0.423 2.766 27
3.299 -0.453 2.738 18
3.116 -0.452 2.729 9
3.271 -0.502 2.686 30
3.252 -0.528 2.657 4
5.17 -0.889 2.401 13
5.159 -0.937 2.344 6
4.893 -0.936 2.32 0
4.527 -0.911 2.313 9
4.509 -0.952 2.256 28
6.533 -1.444 1.831 0
6.373 -1.47 1.766 1
6.076 -1.459 1.732 2
5.316 -1.562 2.725 3
5.641 -1.559 2.697 3
5.97 -1.547 2.671 2
6.377 -1.547 2.643 17
7.307 -1.656 2.587 22
7.37 -1.556 2.583 21
7.364 -1.445 2.586 36
7.364 -1.341 2.59 32
7.365 -1.244 2.596 37
7.363 -1.154 2.603 28
7.364 -1.073 2.61 36
7.358 -1.002 2.615 49
7.358 -0.943 2.619 39
7.36 -0.898 2.619 45
7.359 -0.868 2.614 41
3.313 -0.384 2.821 11
3.281 -0.381 2.814 38
3.168 -0.375 2.809 24
3.213 -0.394 2.79 36
3.249 -0.416 2.769 26
3.245 -0.438 2.747 24
3.204 -0.458 2.725 12
3.256 -0.493 2.692 30
3.249 -0.522 2.661 4
5.215 -0.888 2.401 21
5.161 -0.929 2.349 43
5.121 -0.972 2.293 1
4.614 -0.922 2.305 1
4.511 -0.946 2.261 30
4.496 -0.988 2.2 2
6.487 -1.489 1.751 1
6.109 -1.461 1.73 1
5.353 -1.565 2.724 3
5.666 -1.557 2.697 3
6.007 -1.548 2.671 2
6.422 -1.548 2.643 5
7.361 -1.656 2.587 34
7.361 -1.541 2.587 17
7.371 -1.432 2.589 27
7.37 -1.328 2.594 37
7.368 -1.229 2.601 39
7.362 -1.138 2.608 38
7.359 -1.054 2.616 53
7.365 -0.984 2.622 38
7.357 -0.923 2.627 47
7.362 -0.878 2.627 41
7.362 -0.847 2.623 46
3.322 -0.376 2.825 5
3.222 -0.366 2.822 28
3.173 -0.368 2.813 32
3.218 -0.386 2.795 35
3.235 -0.406 2.775 22
3.238 -0.43 2.752 30
3.166 -0.445 2.732 16
3.266 -0.488 2.695 42
3.235 -0.513 2.667 4
5.221 -0.88 2.407 11
5.163 -0.921 2.355 10
5.146 -0.969 2.296 2
4.627 -0.918 2.308 1
4.516 -0.942 2.264 5
4.513 -0.986 2.201 6
0.0 -0.0 3.0 0
6.481 -1.543 1.659 0
5.382 -1.565 2.724 3
5.699 -1.558 2.697 2
6.048 -1.549 2.671 2
6.433 -1.54 2.645 3
7.368 -1.645 2.59 26
7.36 -1.527 2.591 30
7.37 -1.418 2.593 37
7.361 -1.311 2.599 30
7.367 -1.212 2.606 41
7.373 -1.122 2.614 47
7.366 -1.037 2.622 36
7.364 -0.965 2.63 52
7.36 -0.903 2.635 39
7.361 -0.858 2.636 47
7.361 -0.826 2.632 42
7.354 -0.811 2.622 45
3.216 -0.355 2.827 36
3.194 -0.361 2.816 35
3.224 -0.379 2.799 33
3.204 -0.395 2.781 27
3.239 -0.423 2.756 25
3.139 -0.435 2.739 23
3.263 -0.482 2.699 33
3.185 -0.5 2.675 22
5.302 -0.884 2.403 10
5.169 -0.914 2.36 20
5.156 -0.964 2.299 5
4.881 -0.962 2.275 0
4.514 -0.936 2.269 7
4.518 -0.982 2.205 26
6.538 -1.486 1.753 0
6.548 -1.553 1.65 0
6.639 -1.923 2.661 63
5.74 -1.561 2.697 2
6.089 -1.55 2.67 2
6.474 -1.54 2.645 3
7.363 -1.631 2.593 30
7.363 -1.514 2.594 27
7.369 -1.404 2.598 30
7.364 -1.297 2.603 42
7.361 -1.195 2.612 37
7.372 -1.105 2.62 22
7.361 -1.019 2.629 53
7.367 -0.947 2.637 39
7.359 -0.883 2.643 50
7.356 -0.836 2.645 40
7.356 -0.804 2.642 49
7.36 -0.79 2.631 43
3.316 -0.357 2.826 34
3.208 -0.354 2.82 41
3.241 -0.372 2.802 31
3.221 -0.389 2.784 29
3.221 -0.413 2.762 19
3.132 -0.428 2.743 19
3.221 -0.469 2.707 42
3.174 -0.492 2.68 8
5.382 -0.89 2.4 9
5.206 -0.913 2.361 20
5.166 -0.959 2.304 39
5.081 -0.995 2.25 1
4.524 -0.933 2.271 2
4.516 -0.977 2.209 34
4.5 -1.018 2.146 1
6.532 -1.542 1.66 0
6.653 -1.918 2.662 13
5.784 -1.565 2.696 2
6.126 -1.551 2.67 2
6.515 -1.539 2.645 3
7.361 -1.618 2.597 26
7.362 -1.502 2.597 33
7.367 -1.39 2.601 34
7.367 -1.283 2.608 31
7.36 -1.18 2.616 44
7.359 -1.087 2.626 34
7.363 -1.001 2.636 41
7.361 -0.927 2.644 53
7.361 -0.864 2.651 41
7.363 -0.816 2.654 22
7.35 -0.783 2.652 45
7.355 -0.769 2.642 47
3.294 -0.345 2.831 31
3.181 -0.342 2.826 36
3.202 -0.36 2.809 31
3.242 -0.384 2.787 31
3.206 -0.404 2.767 22
3.153 -0.424 2.745 20
3.218 -0.463 2.711 35
3.14 -0.482 2.687 12
5.455 -0.892 2.398 8
5.224 -0.908 2.364 10
5.168 -0.952 2.308 12
5.149 -1.002 2.245 3
4.735 -0.97 2.242 0
4.522 -0.973 2.212 6
4.521 -1.018 2.146 12
0.0 -0.0 3.0 0
6.667 -1.913 2.663 12
6.577 -1.77 2.656 40
6.182 -1.557 2.669 2
6.564 -1.541 2.644 3
7.368 -1.608 2.599 31
7.364 -1.49 2.601 28
7.366 -1.377 2.605 34
7.362 -1.268 2.612 44
7.363 -1.166 2.621 33
7.365 -1.071 2.631 48
7.366 -0.984 2.642 48
7.364 -0.908 2.652 45
7.356 -0.844 2.659 52
7.369 -0.796 2.662 42
7.361 -0.762 2.661 51
3.327 -0.338 2.842 5
3.303 -0.337 2.836 23
3.194 -0.335 2.829 39
3.199 -0.351 2.813 38
3.275 -0.38 2.789 36
3.207 -0.397 2.771 22
3.166 -0.42 2.748 20
3.2 -0.454 2.716 35
3.145 -0.477 2.69 11
5.575 -0.903 2.391 1
5.304 -0.914 2.36 9
5.17 -0.945 2.313 24
5.159 -0.997 2.248 5
4.887 -0.996 2.222 0
4.527 -0.969 2.215 5
4.522 -1.014 2.149 26
6.533 -1.529 1.671 0
6.688 -1.911 2.663 8
6.641 -1.778 2.654 74
6.239 -1.562 2.668 2
6.598 -1.539 2.645 3
7.367 -1.596 2.602 29
7.355 -1.475 2.605 37
7.369 -1.364 2.609 32
7.372 -1.255 2.616 33
7.361 -1.15 2.626 49
7.364 -1.055 2.637 43
7.361 -0.966 2.648 50
7.363 -0.89 2.658 50
7.359 -0.824 2.667 47
7.368 -0.776 2.671 51
7.355 -0.74 2.67 48
3.332 -0.329 2.847 11
3.268 -0.324 2.842 19
3.207 -0.328 2.833 33
3.197 -0.343 2.818 36
3.241 -0.368 2.796 27
3.212 -0.391 2.774 20
3.183 -0.416 2.75 24
3.181 -0.446 2.721 24
3.142 -0.472 2.694 17
6.472 -1.038 2.3 12
5.376 -0.919 2.356 9
5.218 -0.947 2.312 22
5.165 -0.992 2.253 44
5.125 -1.038 2.189 1
4.506 -0.959 2.223 3
4.528 -1.011 2.152 46
4.513 -1.052 2.085 1
7.374 -2.099 2.63 22
6.655 -1.774 2.655 18
6.373 -1.587 2.663 7
6.635 -1.538 2.645 3
7.365 -1.584 2.605 25
7.361 -1.465 2.608 28
7.363 -1.35 2.613 39
7.367 -1.241 2.621 44
7.364 -1.135 2.631 31
7.366 -1.04 2.642 52
7.367 -0.95 2.654 45
7.361 -0.871 2.666 52
7.357 -0.804 2.675 50
7.366 -0.755 2.68 29
7.358 -0.72 2.68 51
3.337 -0.32 2.851 17
3.329 -0.321 2.844 23
3.268 -0.325 2.834 33
3.202 -0.335 2.822 37
3.222 -0.359 2.801 29
3.229 -0.386 2.777 20
3.165 -0.407 2.756 25
3.158 -0.437 2.727 30
3.143 -0.466 2.697 6
6.525 -1.037 2.301 14
3.49 -0.592 2.586 9
5.224 -0.941 2.316 10
5.167 -0.986 2.257 9
5.139 -1.035 2.191 3
4.704 -0.997 2.193 0
4.526 -1.006 2.156 8
4.519 -1.049 2.088 14
7.377 -2.091 2.631 15
6.661 -1.767 2.657 13
6.646 -1.646 2.65 76
6.68 -1.539 2.645 3
7.375 -1.576 2.607 22
7.36 -1.453 2.611 37
7.37 -1.338 2.616 30
7.369 -1.228 2.625 38
7.358 -1.12 2.636 43
7.365 -1.023 2.648 38
7.357 -0.931 2.661 57
7.367 -0.854 2.672 49
7.359 -0.785 2.683 54
7.361 -0.734 2.689 29
7.356 -0.699 2.689 52
3.303 -0.307 2.857 18
3.318 -0.311 2.848 22
3.257 -0.315 2.839 37
3.215 -0.328 2.826 34
3.207 -0.349 2.806 26
3.25 -0.381 2.78 22
3.162 -0.4 2.76 24
3.159 -0.431 2.731 31
3.132 -0.46 2.701 8
6.527 -1.028 2.307 13
3.483 -0.586 2.59 10
5.3 -0.949 2.311 9
5.164 -0.98 2.261 22
5.148 -1.032 2.194 4
4.883 -1.03 2.166 0
4.531 -1.003 2.159 5
4.528 -1.047 2.09 12
7.375 -2.081 2.633 9
6.679 -1.764 2.657 9
6.648 -1.638 2.652 76
6.729 -1.541 2.644 4
7.374 -1.565 2.61 34
7.374 -1.445 2.613 28
7.372 -1.327 2.62 41
7.363 -1.213 2.629 38
7.365 -1.107 2.64 35
7.355 -1.007 2.653 57
7.364 -0.916 2.667 44
7.362 -0.835 2.679 59
7.362 -0.767 2.69 49
7.359 -0.714 2.697 49
7.363 -0.678 2.698 43
3.224 -0.291 2.864 27
3.275 -0.297 2.855 20
3.218 -0.303 2.846 32
3.2 -0.319 2.831 37
3.236 -0.345 2.809 35
3.259 -0.376 2.783 21
3.171 -0.395 2.762 21
3.16 -0.426 2.734 20
3.145 -0.457 2.704 2
6.525 -1.018 2.313 13
3.484 -0.581 2.593 15
5.388 -0.958 2.304 9
5.213 -0.983 2.259 23
5.158 -1.028 2.197 45
5.163 -1.084 2.122 1
4.505 -0.992 2.167 2
4.529 -1.044 2.093 59
7.37 -2.072 2.635 12
7.341 -1.931 2.625 22
6.658 -1.632 2.653 29
6.98 -1.589 2.633 29
7.376 -1.554 2.612 27
7.361 -1.43 2.617 37
7.37 -1.315 2.623 31
7.362 -1.2 2.633 43
7.367 -1.093 2.645 33
7.366 -0.993 2.658 38
7.362 -0.899 2.673 60
7.364 -0.817 2.686 46
7.364 -0.747 2.698 59
7.362 -0.694 2.706 48
7.361 -0.657 2.708 49
3.213 -0.28 2.869 38
3.284 -0.289 2.859 24
3.227 -0.295 2.85 42
3.201 -0.311 2.835 38
3.213 -0.336 2.814 30
3.252 -0.368 2.787 27
3.199 -0.393 2.764 25
3.161 -0.421 2.737 16
6.529 -0.938 2.391 14
3.362 -0.52 2.649 0
3.478 -0.576 2.597 17
5.46 -0.963 2.3 9
5.226 -0.98 2.262 11
5.171 -1.025 2.199 7
5.157 -1.078 2.127 4
6.545 -1.436 1.795 1
4.531 -1.04 2.096 9
7.368 -2.063 2.636 20
7.363 -1.927 2.625 31
6.672 -1.628 2.654 13
7.364 -1.668 2.615 30
7.374 -1.544 2.615 14
7.363 -1.42 2.619 33
7.365 -1.301 2.627 44
7.364 -1.188 2.637 37
7.369 -1.08 2.649 36
7.36 -0.977 2.664 62
7.364 -0.883 2.678 41
7.366 -0.8 2.693 62
7.362 -0.728 2.706 46
7.364 -0.673 2.714 59
3.357 -0.29 2.871 0
3.254 -0.275 2.872 26
3.293 -0.281 2.863 33
3.26 -0.289 2.853 36
3.19 -0.302 2.839 38
3.162 -0.324 2.821 26
3.241 -0.361 2.792 34
3.216 -0.389 2.766 31
3.202 -0.421 2.737 31
3.309 -0.47 2.695 0
3.359 -0.514 2.653 6
3.483 -0.572 2.599 20
5.532 -0.97 2.295 1
5.294 -0.987 2.257 8
5.168 -1.02 2.203 9
5.155 -1.072 2.132 5
4.981 -1.089 2.086 0
4.578 -1.048 2.089 7
7.37 -2.056 2.637 22
7.365 -1.919 2.627 21
6.681 -1.622 2.655 11
7.366 -1.659 2.617 31
7.361 -1.531 2.618 29
7.361 -1.409 2.622 34
7.375 -1.292 2.629 31
7.366 -1.176 2.641 49
7.371 -1.067 2.653 49
7.366 -0.963 2.668 43
7.362 -0.867 2.684 63
7.368 -0.783 2.7 46
7.36 -0.709 2.714 61
7.362 -0.653 2.723 52
7.361 -0.615 2.726 57
3.235 -0.264 2.877 23
3.262 -0.268 2.869 33
3.265 -0.281 2.857 37
3.195 -0.294 2.843 31
3.159 -0.316 2.825 27
3.215 -0.351 2.797 29
3.225 -0.384 2.769 29
3.175 -0.412 2.743 18
3.365 -0.473 2.693 7
3.356 -0.51 2.656 12
3.476 -0.566 2.603 17
3.449 -0.601 2.563 1
5.385 -0.998 2.248 9
5.209 -1.023 2.201 22
5.168 -1.07 2.133 52
5.083 -1.107 2.071 2
4.61 -1.051 2.086 4
7.357 -2.044 2.64 28
7.363 -1.911 2.629 34
0.0 -0.0 3.0 0
7.364 -1.649 2.619 27
7.367 -1.523 2.62 27
7.363 -1.399 2.625 37
7.369 -1.28 2.633 45
7.368 -1.164 2.644 35
7.373 -1.055 2.657 29
7.364 -0.949 2.673 56
7.368 -0.853 2.69 45
7.366 -0.766 2.706 64
7.366 -0.691 2.721 46
7.364 -0.633 2.731 64
7.359 -0.594 2.736 51
3.152 -0.248 2.884 12
3.255 -0.259 2.873 32
3.262 -0.273 2.861 34
3.199 -0.288 2.847 27
3.172 -0.31 2.828 31
3.184 -0.342 2.803 26
3.242 -0.381 2.771 24
3.212 -0.412 2.743 9
3.153 -0.439 2.715 10
3.357 -0.505 2.659 17
3.477 -0.562 2.606 11
6.528 -1.13 2.179 12
3.356 -0.618 2.534 3
5.218 -1.019 2.204 11
5.169 -1.066 2.137 11
5.053 -1.096 2.081 7
4.692 -1.067 2.073 8
7.37 -2.041 2.64 21
7.365 -1.903 2.63 20
7.369 -1.772 2.623 23
7.366 -1.641 2.621 30
7.361 -1.513 2.623 35
7.361 -1.388 2.628 31
7.371 -1.269 2.636 35
7.362 -1.151 2.648 49
7.367 -1.041 2.662 25
7.362 -0.934 2.678 51
7.362 -0.836 2.696 60
7.364 -0.749 2.713 53
7.364 -0.672 2.728 25
7.366 -0.614 2.739 54
7.357 -0.573 2.745 60
3.165 -0.24 2.888 21
3.232 -0.248 2.879 26
3.235 -0.262 2.867 32
3.212 -0.281 2.85 28
3.181 -0.304 2.831 36
3.189 -0.336 2.806 22
3.239 -0.375 2.775 26
3.161 -0.4 2.75 15
3.169 -0.437 2.716 12
3.362 -0.501 2.662 24
3.474 -0.558 2.609 4
3.451 -0.594 2.569 0
3.365 -0.617 2.535 10
5.282 -1.027 2.198 8
5.174 -1.063 2.139 11
5.059 -1.093 2.083 17
4.709 -1.066 2.073 7
7.361 -2.031 2.642 32
7.367 -1.896 2.631 33
7.367 -1.764 2.625 29
7.364 -1.632 2.623 23
7.367 -1.505 2.625 28
7.359 -1.379 2.63 38
7.365 -1.258 2.639 40
7.364 -1.14 2.651 34
7.365 -1.028 2.666 51
7.364 -0.921 2.683 46
7.364 -0.821 2.701 54
7.366 -0.732 2.719 61
7.37 -0.654 2.736 47
7.364 -0.594 2.748 63
7.363 -0.553 2.754 58
3.206 -0.234 2.891 12
3.233 -0.239 2.883 29
3.24 -0.253 2.871 38
3.197 -0.272 2.855 25
3.134 -0.293 2.837 29
3.189 -0.33 2.81 22
3.239 -0.369 2.778 32
3.189 -0.399 2.751 32
3.237 -0.441 2.713 4
3.367 -0.498 2.664 33
3.424 -0.546 2.618 7
6.532 -1.117 2.188 10
3.354 -0.611 2.539 15
5.361 -1.038 2.189 8
5.211 -1.066 2.137 21
5.041 -1.085 2.089 12
4.76 -1.074 2.066 4
7.374 -2.028 2.642 21
7.369 -1.89 2.633 20
7.372 -1.758 2.626 25
7.366 -1.624 2.625 31
7.357 -1.494 2.627 33
7.361 -1.37 2.633 31
7.37 -1.249 2.642 41
7.366 -1.13 2.655 47
7.367 -1.016 2.67 40
7.358 -0.908 2.687 57
7.362 -0.806 2.706 54
7.36 -0.715 2.726 59
7.376 -0.638 2.742 63
7.362 -0.574 2.756 59
7.361 -0.532 2.763 61
3.254 -0.228 2.894 11
3.242 -0.231 2.887 26
3.224 -0.244 2.875 31
3.178 -0.263 2.86 19
3.143 -0.287 2.841 30
3.162 -0.321 2.814 17
3.256 -0.365 2.78 33
3.234 -0.399 2.75 20
3.301 -0.446 2.71 12
3.364 -0.493 2.667 39
3.421 -0.542 2.621 12
3.453 -0.587 2.574 1
3.358 -0.609 2.541 23
5.444 -1.049 2.18 8
5.216 -1.062 2.14 14
5.081 -1.09 2.085 4
4.807 -1.082 2.059 9
7.36 -2.017 2.644 29
7.366 -1.883 2.634 29
7.37 -1.749 2.628 27
7.367 -1.617 2.627 26
7.362 -1.487 2.629 32
7.362 -1.361 2.635 41
7.368 -1.239 2.645 35
7.368 -1.119 2.658 36
7.361 -1.004 2.674 60
7.363 -0.895 2.692 46
7.364 -0.792 2.712 65
7.362 -0.699 2.732 55
7.37 -0.619 2.75 41
7.367 -0.555 2.764 57
7.363 -0.512 2.772 61
3.239 -0.218 2.899 12
3.223 -0.221 2.892 31
3.225 -0.236 2.88 43
3.167 -0.255 2.865 21
3.152 -0.282 2.844 29
3.159 -0.315 2.818 20
3.253 -0.36 2.784 29
3.254 -0.398 2.751 30
3.219 -0.431 2.72 19
3.372 -0.491 2.669 41
3.359 -0.529 2.63 11
6.535 -1.105 2.197 13
3.336 -0.602 2.546 40
5.503 -1.056 2.175 3
5.275 -1.071 2.133 9
5.124 -1.096 2.081 14
4.846 -1.088 2.054 9
7.37 -2.013 2.645 20
7.364 -1.876 2.635 22
7.368 -1.742 2.63 29
7.373 -1.611 2.628 20
7.368 -1.48 2.631 32
7.364 -1.353 2.638 31
7.37 -1.23 2.647 44
7.369 -1.109 2.661 37
7.37 -0.993 2.677 38
7.361 -0.883 2.696 69
7.362 -0.779 2.717 49
7.36 -0.684 2.737 70
7.368 -0.601 2.757 28
7.361 -0.535 2.773 65
7.36 -0.49 2.782 57
3.252 -0.209 2.902 22
3.223 -0.212 2.897 29
3.234 -0.228 2.884 34
3.172 -0.248 2.868 21
3.14 -0.275 2.848 29
3.168 -0.311 2.821 22
3.226 -0.352 2.788 22
3.219 -0.389 2.757 34
3.212 -0.426 2.723 24
3.377 -0.488 2.671 43
3.359 -0.525 2.632 18
3.392 -0.57 2.586 1
3.333 -0.599 2.549 38
3.331 -0.637 2.503 9
5.365 -1.085 2.121 8
5.164 -1.1 2.077 12
4.882 -1.093 2.05 8
7.363 -2.006 2.646 28
7.366 -1.87 2.637 29
7.369 -1.736 2.631 24
7.371 -1.603 2.63 29
7.365 -1.472 2.633 35
7.362 -1.344 2.64 40
7.367 -1.22 2.65 33
7.363 -1.098 2.664 40
7.36 -0.981 2.681 59
7.367 -0.871 2.7 44
7.367 -0.765 2.721 68
7.365 -0.669 2.743 52
7.365 -0.584 2.764 58
7.363 -0.516 2.781 58
7.362 -0.47 2.791 63
3.217 -0.198 2.908 14
3.224 -0.203 2.901 23
3.239 -0.22 2.888 37
3.172 -0.241 2.872 20
3.129 -0.267 2.852 25
3.204 -0.309 2.822 21
3.235 -0.348 2.791 21
3.2 -0.382 2.761 38
3.268 -0.429 2.721 17
3.382 -0.485 2.673 32
3.348 -0.52 2.636 24
3.377 -0.565 2.59 6
3.326 -0.595 2.552 45
3.328 -0.633 2.505 2
5.44 -1.097 2.112 9
5.196 -1.104 2.073 11
4.944 -1.103 2.041 8
7.365 -2.0 2.647 22
7.367 -1.864 2.638 26
7.367 -1.728 2.633 31
7.376 -1.597 2.631 31
7.367 -1.465 2.635 29
7.363 -1.336 2.642 33
7.369 -1.212 2.652 44
7.364 -1.089 2.667 36
7.366 -0.971 2.684 43
7.36 -0.858 2.705 66
7.365 -0.752 2.726 48
7.367 -0.654 2.749 74
7.367 -0.567 2.771 52
7.364 -0.498 2.789 70
7.36 -0.45 2.8 52
3.217 -0.189 2.912 10
3.289 -0.198 2.903 29
3.231 -0.212 2.892 35
3.137 -0.232 2.877 16
3.142 -0.262 2.855 28
3.217 -0.304 2.824 21
3.247 -0.345 2.793 24
3.276 -0.387 2.758 34
3.273 -0.426 2.723 27
3.382 -0.482 2.675 27
3.357 -0.518 2.637 32
3.373 -0.561 2.592 10
3.322 -0.592 2.554 32
3.333 -0.632 2.506 3
5.511 -1.107 2.104 6
5.262 -1.115 2.065 9
5.003 -1.114 2.032 8
7.366 -1.995 2.648 37
7.365 -1.858 2.639 23
7.372 -1.723 2.634 24
7.374 -1.59 2.633 18
7.364 -1.457 2.637 38
7.365 -1.329 2.644 37
7.37 -1.204 2.655 32
7.37 -1.081 2.669 27
7.363 -0.961 2.688 57
7.362 -0.847 2.708 47
7.362 -0.738 2.731 74
7.368 -0.64 2.754 52
7.364 -0.55 2.778 70
7.366 -0.479 2.797 58
7.361 -0.429 2.809 59
3.222 -0.179 2.916 9
3.277 -0.189 2.908 26
3.224 -0.204 2.896 37
3.118 -0.224 2.881 16
3.126 -0.255 2.858 24
3.218 -0.299 2.827 19
3.311 -0.347 2.792 27
3.301 -0.386 2.759 38
3.281 -0.424 2.725 33
3.387 -0.479 2.677 39
3.326 -0.511 2.642 29
3.378 -0.559 2.594 9
3.307 -0.586 2.558 32
3.334 -0.629 2.508 2
6.531 -1.308 1.941 11
5.345 -1.129 2.053 10
5.092 -1.13 2.017 8
7.352 -1.986 2.65 44
7.366 -1.853 2.64 29
7.366 -1.716 2.635 32
7.367 -1.582 2.635 20
7.366 -1.45 2.638 28
7.358 -1.321 2.646 38
7.364 -1.194 2.658 47
7.375 -1.073 2.672 34
7.364 -0.952 2.691 51
7.367 -0.837 2.712 61
7.367 -0.727 2.735 54
7.366 -0.625 2.76 71
7.365 -0.534 2.784 54
7.367 -0.461 2.804 69
7.362 -0.408 2.818 60
3.219 -0.17 2.921 6
3.242 -0.177 2.913 37
3.225 -0.196 2.9 35
3.126 -0.218 2.884 21
3.115 -0.249 2.862 20
3.202 -0.293 2.831 22
3.217 -0.333 2.8 20
3.333 -0.386 2.759 31
3.298 -0.422 2.726 39
3.396 -0.477 2.678 36
3.327 -0.508 2.644 32
3.367 -0.555 2.597 14
3.308 -0.584 2.56 27
3.326 -0.626 2.511 9
6.532 -1.304 1.944 12
5.423 -1.143 2.041 8
5.166 -1.144 2.005 8
7.342 -1.979 2.651 55
7.364 -1.847 2.641 21
7.375 -1.713 2.636 24
7.368 -1.576 2.636 29
7.367 -1.444 2.64 38
7.363 -1.314 2.648 32
7.365 -1.187 2.66 36
7.376 -1.064 2.675 30
7.366 -0.942 2.694 46
7.364 -0.826 2.716 55
7.369 -0.715 2.74 71
7.359 -0.611 2.765 59
7.363 -0.518 2.791 67
7.368 -0.443 2.812 64
7.364 -0.388 2.827 63
3.251 -0.162 2.924 4
3.243 -0.169 2.918 37
3.249 -0.19 2.903 38
3.171 -0.214 2.886 24
3.171 -0.248 2.863 29
3.239 -0.291 2.832 22
3.241 -0.331 2.801 22
3.286 -0.376 2.765 39
3.275 -0.416 2.73 37
3.329 -0.464 2.687 28
3.331 -0.505 2.646 30
3.371 -0.553 2.599 24
3.317 -0.583 2.56 22
3.327 -0.624 2.513 1
6.537 -1.3 1.947 11
5.497 -1.155 2.031 6
5.232 -1.156 1.995 8
7.339 -1.973 2.652 55
7.369 -1.843 2.642 32
7.368 -1.706 2.637 30
7.37 -1.571 2.637 27
7.368 -1.438 2.641 30
7.357 -1.307 2.65 42
7.37 -1.181 2.661 42
7.378 -1.057 2.677 13
7.363 -0.933 2.697 58
7.366 -0.816 2.719 51
7.362 -0.703 2.744 63
7.36 -0.598 2.77 35
7.364 -0.503 2.797 65
7.362 -0.424 2.82 68
7.361 -0.368 2.836 65
3.407 -0.16 2.925 6
3.255 -0.16 2.922 39
3.258 -0.182 2.907 32
3.163 -0.207 2.89 19
3.188 -0.244 2.865 21
3.259 -0.289 2.833 26
3.277 -0.33 2.801 22
3.318 -0.376 2.765 32
3.275 -0.413 2.732 46
3.298 -0.457 2.692 33
3.332 -0.503 2.648 32
3.364 -0.549 2.601 23
3.329 -0.584 2.56 21
6.527 -1.22 2.047 11
6.53 -1.296 1.95 12
6.54 -1.371 1.85 12
5.322 -1.173 1.98 8
7.34 -1.969 2.653 54
7.358 -1.836 2.643 57
7.37 -1.701 2.638 24
7.367 -1.566 2.639 33
7.362 -1.432 2.643 36
7.362 -1.301 2.651 32
7.368 -1.173 2.664 40
7.363 -1.047 2.68 38
7.36 -0.925 2.7 41
7.363 -0.806 2.722 62
7.367 -0.692 2.748 59
7.369 -0.586 2.775 45
7.361 -0.487 2.803 65
7.363 -0.406 2.827 72
7.362 -0.348 2.845 64
3.428 -0.152 2.929 9
3.268 -0.153 2.926 35
3.242 -0.174 2.911 25
3.216 -0.204 2.891 22
3.188 -0.239 2.868 20
3.279 -0.285 2.835 24
3.298 -0.329 2.803 30
3.291 -0.37 2.769 34
3.272 -0.409 2.734 55
3.322 -0.458 2.691 33
3.344 -0.502 2.648 37
3.38 -0.55 2.601 22
3.349 -0.585 2.559 23
6.528 -1.217 2.049 12
6.535 -1.294 1.952 11
6.541 -1.368 1.852 11
5.403 -1.189 1.967 8
7.338 -1.965 2.654 54
7.344 -1.828 2.645 58
7.367 -1.695 2.64 26
7.368 -1.561 2.64 27
7.367 -1.427 2.644 32
7.363 -1.296 2.653 46
7.373 -1.168 2.665 36
7.368 -1.041 2.682 32
7.361 -0.917 2.702 58
7.364 -0.798 2.725 47
7.364 -0.682 2.752 71
7.374 -0.574 2.78 70
7.362 -0.473 2.809 73
7.36 -0.389 2.835 68
7.359 -0.328 2.854 73
3.428 -0.142 2.934 12
3.22 -0.141 2.931 21
3.263 -0.168 2.914 18
3.188 -0.196 2.896 17
3.165 -0.232 2.871 24
3.272 -0.281 2.838 26
3.263 -0.321 2.807 26
3.319 -0.37 2.769 31
3.272 -0.406 2.736 40
3.315 -0.455 2.693 34
3.345 -0.5 2.65 35
3.373 -0.546 2.603 24
3.385 -0.589 2.556 19
6.529 -1.213 2.052 13
6.529 -1.289 1.956 11
6.538 -1.364 1.855 11
5.485 -1.204 1.953 6
7.339 -1.961 2.654 56
7.337 -1.822 2.646 58
7.368 -1.691 2.64 28
7.365 -1.555 2.641 34
7.368 -1.422 2.646 32
7.364 -1.29 2.654 32
7.362 -1.16 2.667 44
7.365 -1.034 2.684 51
7.366 -0.909 2.704 41
7.365 -0.789 2.728 69
7.365 -0.672 2.755 56
7.371 -0.563 2.784 52
7.367 -0.46 2.814 61
7.365 -0.373 2.842 76
3.44 -0.144 2.936 3
3.433 -0.132 2.938 8
3.221 -0.133 2.935 21
3.331 -0.164 2.916 20
3.257 -0.195 2.896 25
3.185 -0.229 2.873 31
3.268 -0.276 2.841 28
3.263 -0.318 2.809 27
3.324 -0.368 2.77 33
3.281 -0.405 2.737 33
3.28 -0.447 2.698 35
3.31 -0.493 2.655 36
3.374 -0.544 2.605 27
3.401 -0.59 2.555 23
6.53 -1.21 2.054 13
6.53 -1.286 1.958 11
6.539 -1.362 1.857 11
6.546 -1.435 1.753 11
7.336 -1.957 2.655 54
7.342 -1.819 2.646 56
7.365 -1.688 2.641 59
7.366 -1.551 2.642 26
7.365 -1.417 2.647 36
7.361 -1.284 2.656 41
7.371 -1.155 2.669 28
7.366 -1.028 2.686 43
7.363 -0.902 2.707 62
7.366 -0.781 2.731 47
7.362 -0.663 2.759 79
7.372 -0.552 2.788 23
7.364 -0.447 2.82 75
7.366 -0.356 2.849 65
3.437 -0.135 2.94 4
3.417 -0.122 2.943 12
3.217 -0.125 2.939 14
3.363 -0.158 2.919 20
3.297 -0.192 2.898 27
3.206 -0.226 2.875 30
3.309 -0.276 2.841 35
3.331 -0.321 2.807 33
3.304 -0.362 2.774 38
3.285 -0.403 2.738 35
3.276 -0.444 2.701 58
3.302 -0.49 2.657 39
3.382 -0.544 2.605 26
3.393 -0.587 2.558 29
6.527 -1.207 2.057 13
6.53 -1.284 1.961 11
6.536 -1.358 1.86 12
6.546 -1.433 1.755 11
7.337 -1.953 2.656 54
7.339 -1.815 2.647 57
7.346 -1.679 2.643 59
7.363 -1.546 2.643 33
7.369 -1.413 2.648 30
7.366 -1.281 2.657 34
7.367 -1.15 2.67 38
7.367 -1.022 2.688 42
7.368 -0.896 2.709 47
7.363 -0.773 2.734 68
7.363 -0.655 2.762 53
7.365 -0.541 2.792 63
7.365 -0.434 2.825 58
7.363 -0.34 2.855 79
3.441 -0.126 2.944 13
3.43 -0.113 2.947 10
3.325 -0.121 2.941 8
3.5 -0.158 2.92 15
3.321 -0.188 2.9 20
3.138 -0.217 2.88 25
3.329 -0.274 2.842 28
3.232 -0.309 2.814 32
3.293 -0.359 2.776 39
3.289 -0.402 2.739 38
3.281 -0.443 2.701 35
3.322 -0.491 2.656 33
3.378 -0.541 2.607 19
3.402 -0.587 2.558 37
6.528 -1.204 2.059 13
6.531 -1.281 1.963 11
6.54 -1.357 1.861 11
6.543 -1.43 1.757 12
7.337 -1.951 2.656 55
7.339 -1.812 2.648 57
7.343 -1.675 2.644 57
7.368 -1.544 2.644 28
7.362 -1.408 2.649 40
7.363 -1.276 2.658 39
7.372 -1.146 2.671 31
7.364 -1.016 2.689 49
7.365 -0.89 2.711 54
7.363 -0.766 2.736 52
7.364 -0.647 2.765 72
7.366 -0.531 2.796 54
7.362 -0.422 2.829 75
7.364 -0.326 2.862 67
3.438 -0.117 2.948 14
3.402 -0.102 2.952 12
3.362 -0.114 2.945 1
3.364 -0.145 2.926 14
3.246 -0.178 2.905 18
3.151 -0.214 2.882 26
3.333 -0.271 2.844 33
3.22 -0.305 2.817 25
3.281 -0.354 2.778 38
3.294 -0.4 2.741 33
3.309 -0.444 2.7 35
3.299 -0.485 2.66 40
3.367 -0.538 2.609 27
3.418 -0.588 2.557 37
6.528 -1.201 2.061 14
6.54 -1.28 1.963 11
6.545 -1.356 1.863 11
6.552 -1.429 1.758 11
7.338 -1.948 2.656 30
7.336 -1.808 2.649 58
7.344 -1.672 2.645 59
7.368 -1.541 2.644 61
7.363 -1.405 2.65 29
7.359 -1.271 2.659 38
7.369 -1.142 2.673 27
7.372 -1.013 2.69 38
7.365 -0.885 2.712 51
7.364 -0.76 2.738 58
7.365 -0.639 2.767 57
7.367 -0.522 2.799 71
7.363 -0.411 2.834 64
7.36 -0.311 2.868 74
3.442 -0.109 2.952 23
3.37 -0.092 2.957 9
7.36 -0.23 2.888 63
3.312 -0.136 2.93 25
3.218 -0.172 2.908 19
3.171 -0.212 2.883 26
3.298 -0.265 2.847 23
3.209 -0.301 2.819 27
3.302 -0.355 2.778 35
3.314 -0.4 2.74 40
3.309 -0.443 2.701 35
3.28 -0.481 2.663 55
3.32 -0.529 2.615 28
3.422 -0.588 2.557 21
6.529 -1.199 2.063 12
6.537 -1.277 1.966 11
6.538 -1.352 1.866 11
6.545 -1.426 1.76 11
8.25 -2.187 2.614 2
7.337 -1.806 2.649 58
7.34 -1.668 2.645 57
7.338 -1.531 2.647 61
7.364 -1.402 2.651 38
7.36 -1.267 2.66 34
7.381 -1.14 2.673 19
7.365 -1.007 2.692 52
7.366 -0.88 2.714 45
7.365 -0.754 2.74 57
7.365 -0.633 2.77 62
7.363 -0.514 2.803 65
7.359 -0.401 2.838 70
7.357 -0.298 2.873 73
3.446 -0.1 2.955 16
3.363 -0.082 2.962 8
3.398 -0.097 2.952 0
3.333 -0.131 2.933 24
3.202 -0.167 2.911 22
3.167 -0.208 2.885 24
3.306 -0.262 2.849 23
3.205 -0.299 2.821 35
3.286 -0.351 2.781 37
3.314 -0.398 2.741 47
3.309 -0.441 2.703 47
3.28 -0.48 2.664 43
3.313 -0.526 2.618 27
3.414 -0.585 2.559 12
6.526 -1.196 2.065 13
6.537 -1.276 1.967 10
6.539 -1.35 1.867 11
6.545 -1.424 1.762 12
8.235 -2.181 2.615 3
7.337 -1.804 2.649 58
7.341 -1.666 2.646 59
7.342 -1.529 2.647 62
7.36 -1.398 2.651 30
7.36 -1.264 2.661 42
7.386 -1.136 2.674 20
7.37 -1.004 2.693 36
7.363 -0.875 2.716 55
7.365 -0.749 2.742 51
7.366 -0.627 2.772 64
7.364 -0.507 2.805 65
7.36 -0.392 2.842 70
7.361 -0.285 2.879 74
3.439 -0.092 2.959 22
3.363 -0.073 2.966 12
3.383 -0.089 2.956 9
3.329 -0.126 2.936 20
3.291 -0.167 2.911 21
3.139 -0.204 2.887 25
3.302 -0.26 2.85 13
3.174 -0.294 2.823 31
3.298 -0.35 2.781 43
3.334 -0.399 2.741 29
3.322 -0.441 2.702 42
3.316 -0.484 2.661 35
3.305 -0.524 2.619 29
3.348 -0.572 2.569 10
6.526 -1.194 2.067 14
6.534 -1.273 1.969 11
6.543 -1.35 1.868 11
6.542 -1.422 1.764 11
8.22 -2.175 2.616 1
7.338 -1.802 2.65 54
7.341 -1.664 2.646 59
7.339 -1.526 2.648 63
7.361 -1.396 2.652 58
7.369 -1.263 2.661 32
7.383 -1.133 2.675 14
7.366 -1.0 2.694 53
7.367 -0.872 2.717 42
7.362 -0.745 2.743 63
7.362 -0.621 2.774 42
7.368 -0.501 2.808 69
7.364 -0.384 2.845 67
7.362 -0.274 2.884 80
3.447 -0.084 2.963 19
3.367 -0.063 2.971 18
3.363 -0.082 2.96 9
3.265 -0.118 2.94 16
3.251 -0.162 2.914 25
3.148 -0.201 2.889 28
3.37 -0.263 2.848 4
3.206 -0.295 2.823 32
3.298 -0.349 2.782 39
3.319 -0.396 2.743 27
3.334 -0.442 2.702 50
3.308 -0.481 2.663 35
3.29 -0.521 2.622 48
3.309 -0.565 2.574 12
6.531 -1.194 2.067 13
6.538 -1.272 1.97 11
6.544 -1.348 1.869 11
6.527 -1.417 1.768 7
8.209 -2.17 2.617 2
7.362 -1.806 2.649 0
7.342 -1.662 2.647 59
7.343 -1.525 2.648 63
7.342 -1.389 2.654 54
7.361 -1.259 2.663 43
7.371 -1.129 2.676 20
7.367 -0.997 2.695 38
7.364 -0.868 2.718 59
7.37 -0.742 2.744 47
7.371 -0.617 2.775 27
7.361 -0.495 2.81 61
7.365 -0.376 2.848 77
7.358 -0.264 2.888 73
3.443 -0.077 2.966 13
3.359 -0.053 2.975 26
3.287 -0.072 2.965 12
3.238 -0.113 2.943 16
3.239 -0.159 2.916 18
3.212 -0.203 2.887 22
3.315 -0.256 2.852 5
3.226 -0.295 2.823 34
3.319 -0.35 2.781 38
3.283 -0.39 2.747 35
3.33 -0.44 2.703 39
3.312 -0.481 2.663 51
3.294 -0.52 2.622 58
3.298 -0.562 2.577 23
6.535 -1.193 2.068 12
6.539 -1.271 1.971 11
6.54 -1.346 1.87 11
6.505 -1.411 1.773 7
8.229 -2.174 2.617 1
8.755 -2.146 2.583 1
7.342 -1.661 2.647 58
7.332 -1.522 2.649 64
7.338 -1.387 2.654 62
7.366 -1.258 2.663 30
7.371 -1.127 2.677 36
7.367 -0.994 2.696 46
7.368 -0.866 2.719 42
7.363 -0.738 2.746 63
7.371 -0.614 2.777 61
7.365 -0.49 2.812 74
7.365 -0.37 2.85 62
7.359 -0.255 2.892 81
3.455 -0.071 2.968 4
3.364 -0.044 2.98 20
3.299 -0.067 2.967 18
3.234 -0.109 2.944 21
3.227 -0.155 2.918 21
3.22 -0.201 2.889 26
3.442 -0.264 2.847 1
3.23 -0.294 2.823 38
3.339 -0.35 2.781 36
3.275 -0.388 2.748 41
3.314 -0.437 2.705 44
3.328 -0.483 2.662 41
3.306 -0.522 2.621 48
3.302 -0.562 2.576 29
3.316 -0.605 2.527 1
6.539 -1.27 1.972 12
6.544 -1.346 1.871 12
6.49 -1.407 1.777 6
0.0 -0.0 3.0 0
0.0 -0.0 3.0 0
7.342 -1.659 2.647 56
7.34 -1.522 2.649 64
7.338 -1.386 2.655 62
7.358 -1.255 2.664 58
7.372 -1.125 2.677 32
7.367 -0.993 2.697 45
7.364 -0.863 2.72 53
7.367 -0.736 2.747 47
7.379 -0.612 2.777 60
7.366 -0.487 2.813 57
7.365 -0.365 2.852 76
7.363 -0.248 2.895 70
7.362 -0.139 2.938 77
3.364 -0.034 2.984 16
3.335 -0.062 2.97 18
3.222 -0.106 2.946 14
3.315 -0.157 2.916 28
3.22 -0.199 2.889 29
3.351 -0.256 2.852 4
3.246 -0.294 2.823 41
3.351 -0.35 2.781 28
3.295 -0.39 2.747 24
3.31 -0.436 2.706 37
3.336 -0.483 2.662 51
3.302 -0.52 2.622 27
3.29 -0.559 2.579 42
3.305 -0.602 2.53 14
6.543 -1.27 1.972 11
6.545 -1.345 1.871 12
6.471 -1.402 1.781 6
0.0 -0.0 3.0 0
0.0 -0.0 3.0 0
7.335 -1.657 2.648 0
7.336 -1.52 2.649 64
7.342 -1.385 2.655 63
7.339 -1.251 2.665 58
7.372 -1.124 2.678 47
7.367 -0.991 2.697 42
7.364 -0.861 2.72 47
7.363 -0.734 2.747 61
7.376 -0.608 2.779 24
7.366 -0.484 2.814 71
7.362 -0.362 2.854 64
7.363 -0.243 2.897 79
7.363 -0.129 2.942 83
3.364 -0.024 2.989 13
3.359 -0.058 2.972 27
3.222 -0.103 2.947 18
3.391 -0.159 2.915 26
3.22 -0.198 2.89 29
3.363 -0.256 2.852 12
3.377 -0.305 2.817 37
3.386 -0.354 2.779 35
3.331 -0.393 2.745 27
3.299 -0.433 2.708 48
3.329 -0.481 2.663 38
3.31 -0.521 2.622 36
3.294 -0.56 2.578 51
3.297 -0.6 2.531 14
6.54 -1.268 1.973 12
6.549 -1.345 1.871 11
6.452 -1.397 1.786 6
0.0 -0.0 3.0 0
0.0 -0.0 3.0 0
0.0 -0.0 3.0 0
7.34 -1.52 2.649 63
7.335 -1.384 2.655 63
7.343 -1.251 2.665 65
7.368 -1.122 2.678 33
7.364 -0.99 2.697 50
7.365 -0.86 2.72 47
7.363 -0.732 2.748 56
7.368 -0.607 2.779 44
7.366 -0.482 2.815 61
7.358 -0.359 2.855 70
7.359 -0.239 2.899 71
7.363 -0.122 2.946 55
3.364 -0.015 2.993 12
3.327 -0.054 2.974 20
3.23 -0.102 2.948 11
3.391 -0.158 2.916 15
3.212 -0.197 2.891 28
3.339 -0.253 2.854 11
3.409 -0.307 2.815 33
3.402 -0.355 2.778 20
3.307 -0.39 2.747 20
3.303 -0.434 2.707 34
3.34 -0.483 2.662 41
3.306 -0.52 2.622 24
3.287 -0.558 2.579 41
3.297 -0.6 2.531 27
6.54 -1.268 1.973 11
6.549 -1.345 1.872 11
6.436 -1.394 1.789 8
0.0 -0.0 3.0 0
0.0 -0.0 3.0 0
0.0 -0.0 3.0 0
7.336 -1.519 2.649 60
7.335 -1.384 2.655 63
7.335 -1.249 2.665 67
7.368 -1.122 2.678 58
7.372 -0.991 2.697 38
7.365 -0.86 2.721 52
7.363 -0.732 2.748 54
7.36 -0.605 2.78 55
7.37 -0.481 2.815 65
7.362 -0.358 2.855 64
7.36 -0.237 2.899 79
7.375 -0.118 2.947 68
3.356 -0.005 2.997 9
3.343 -0.052 2.974 23
3.242 -0.101 2.949 13
3.403 -0.157 2.916 8
3.208 -0.196 2.891 27
3.331 -0.252 2.854 13
3.409 -0.307 2.816 26
3.434 -0.358 2.776 19
3.339 -0.393 2.745 21
3.295 -0.433 2.708 35
3.329 -0.481 2.663 41
3.349 -0.527 2.617 30
3.294 -0.559 2.579 35
3.293 -0.599 2.532 29
3.322 -0.644 2.479 10
6.545 -1.344 1.872 12
6.425 -1.39 1.791 11
0.0 -0.0 3.0 0
0.0 -0.0 3.0 0
0.0 -0.0 3.0 0
7.336 -1.519 2.649 1
7.339 -1.384 2.655 62
7.335 -1.249 2.665 65
7.348 -1.119 2.679 57
7.364 -0.99 2.697 52
7.369 -0.861 2.72 43
7.363 -0.732 2.748 56
7.368 -0.606 2.779 55
7.366 -0.481 2.815 65
7.362 -0.358 2.855 67
7.364 -0.237 2.899 80
7.367 -0.118 2.947 99
3.348 -0.005 2.998 1
3.443 -0.054 2.974 34
3.238 -0.101 2.949 14
3.387 -0.157 2.916 10
3.208 -0.196 2.891 27
3.323 -0.252 2.854 11
3.409 -0.307 2.816 19
3.418 -0.356 2.777 17
3.339 -0.393 2.745 22
3.315 -0.435 2.706 26
3.329 -0.481 2.663 43
3.334 -0.524 2.619 22
3.287 -0.558 2.579 35
3.297 -0.6 2.531 53
3.322 -0.643 2.479 13
6.545 -1.344 1.873 11
6.421 -1.389 1.792 12
0.0 -0.0 3.0 0
0.0 -0.0 3.0 0
0.0 -0.0 3.0 0
0.0 -0.0 3.0 0
7.339 -1.384 2.655 63
7.343 -1.251 2.665 66
7.344 -1.119 2.679 68
7.367 -0.99 2.697 37
7.365 -0.861 2.72 53
7.367 -0.733 2.748 46
7.368 -0.607 2.779 61
7.37 -0.482 2.815 60
7.362 -0.359 2.855 71
7.359 -0.239 2.899 77
7.371 -0.122 2.946 53
7.364 -0.03 2.986 65
3.515 -0.057 2.972 31
3.242 -0.101 2.948 11
3.391 -0.158 2.916 11
3.208 -0.196 2.891 26
3.351 -0.254 2.853 22
3.401 -0.306 2.816 25
3.43 -0.357 2.777 33
3.379 -0.399 2.741 33
3.327 -0.437 2.705 23
3.352 -0.484 2.661 37
3.334 -0.524 2.619 27
3.302 -0.561 2.577 39
3.286 -0.598 2.533 53
3.307 -0.64 2.481 23
6.549 -1.345 1.872 12
6.425 -1.39 1.791 13
0.0 -0.0 3.0 0
0.0 -0.0 3.0 0
0.0 -0.0 3.0 0
0.0 -0.0 3.0 0
7.334 -1.385 2.655 61
7.339 -1.251 2.665 64
7.348 -1.121 2.679 67
7.363 -0.992 2.697 60
7.364 -0.862 2.72 40
7.359 -0.734 2.747 57
7.368 -0.609 2.778 52
7.37 -0.484 2.814 66
7.362 -0.362 2.854 63
7.363 -0.243 2.897 78
7.371 -0.129 2.942 35
7.368 -0.052 2.976 71
3.539 -0.061 2.97 34
3.238 -0.103 2.948 8
3.411 -0.16 2.915 3
3.2 -0.197 2.891 24
3.363 -0.255 2.853 26
3.389 -0.306 2.816 20
3.398 -0.354 2.779 22
3.363 -0.397 2.742 24
3.303 -0.434 2.707 18
3.372 -0.488 2.658 44
3.345 -0.526 2.618 35
3.318 -0.563 2.576 33
3.286 -0.598 2.533 55
3.311 -0.641 2.481 25
3.33 -0.684 2.426 5
6.429 -1.391 1.791 12
0.0 -0.0 3.0 0
0.0 -0.0 3.0 0
0.0 -0.0 3.0 0
0.0 -0.0 3.0 0
7.334 -1.386 2.654 8
7.338 -1.253 2.664 65
7.34 -1.121 2.679 67
7.347 -0.991 2.697 59
7.364 -0.864 2.719 54
7.367 -0.736 2.747 43
7.363 -0.61 2.778 62
7.366 -0.487 2.813 57
7.361 -0.366 2.852 68
7.367 -0.248 2.895 69
7.366 -0.139 2.938 66
7.36 -0.073 2.966 73
3.547 -0.065 2.968 41
7.367 -0.239 2.878 69
3.415 -0.161 2.914 3
3.212 -0.199 2.89 24
3.347 -0.255 2.853 12
3.341 -0.302 2.818 9
3.343 -0.349 2.782 19
3.351 -0.396 2.743 26
3.322 -0.437 2.705 15
3.376 -0.488 2.658 37
3.349 -0.527 2.617 40
3.329 -0.566 2.573 37
3.278 -0.597 2.534 46
3.303 -0.641 2.481 47
3.323 -0.682 2.428 17
6.425 -1.391 1.791 13
0.0 -0.0 3.0 0
0.0 -0.0 3.0 0
0.0 -0.0 3.0 0
0.0 -0.0 3.0 0
0.0 -0.0 3.0 0
7.342 -1.255 2.664 65
7.34 -1.123 2.678 68
7.339 -0.992 2.697 67
7.364 -0.866 2.719 43
7.367 -0.739 2.746 22
7.367 -0.614 2.776 53
7.365 -0.491 2.812 67
7.369 -0.371 2.85 60
7.367 -0.255 2.892 73
7.366 -0.151 2.933 65
7.363 -0.093 2.956 67
3.551 -0.072 2.965 44
7.367 -0.246 2.874 65
6.538 -0.313 2.834 11
3.236 -0.201 2.888 29
3.379 -0.259 2.85 9
3.329 -0.302 2.818 13
3.132 -0.328 2.795 35
3.323 -0.393 2.745 23
3.342 -0.44 2.703 14
3.372 -0.489 2.658 35
3.404 -0.537 2.61 53
3.349 -0.57 2.571 38
3.278 -0.597 2.533 54
3.307 -0.641 2.481 46
3.319 -0.682 2.428 18
6.421 -1.391 1.791 16
0.0 -0.0 3.0 0
0.0 -0.0 3.0 0
0.0 -0.0 3.0 0
0.0 -0.0 3.0 0
0.0 -0.0 3.0 0
7.334 -1.255 2.664 64
7.347 -1.126 2.677 66
7.343 -0.995 2.696 67
7.364 -0.869 2.718 62
7.374 -0.743 2.744 43
7.363 -0.617 2.775 60
7.365 -0.496 2.81 54
7.365 -0.377 2.848 66
7.362 -0.264 2.888 68
7.366 -0.165 2.926 63
7.363 -0.114 2.947 71
3.555 -0.078 2.962 39
7.366 -0.255 2.87 71
7.357 -0.358 2.81 66
3.244 -0.204 2.887 30
3.422 -0.264 2.848 11
3.333 -0.304 2.818 13
3.12 -0.328 2.795 36
2.44 -0.29 2.812 2
3.389 -0.448 2.698 10
3.352 -0.486 2.66 22
3.451 -0.545 2.604 24
3.337 -0.568 2.572 27
3.281 -0.599 2.532 45
3.299 -0.641 2.481 40
3.322 -0.683 2.427 28
3.349 -0.726 2.369 8
0.0 -0.0 3.0 0
0.0 -0.0 3.0 0
0.0 -0.0 3.0 0
0.0 -0.0 3.0 0
0.0 -0.0 3.0 0
7.341 -1.26 2.662 10
7.339 -1.128 2.677 68
7.342 -0.998 2.695 66
7.343 -0.87 2.717 61
7.374 -0.747 2.743 56
7.366 -0.623 2.773 54
7.368 -0.501 2.808 62
7.368 -0.385 2.845 61
7.358 -0.274 2.884 74
7.365 -0.181 2.92 63
7.366 -0.135 2.937 66
3.563 -0.085 2.958 28
7.366 -0.264 2.865 65
3.219 -0.16 2.915 2
3.255 -0.207 2.885 31
3.394 -0.264 2.848 13
3.353 -0.307 2.816 15
3.064 -0.323 2.798 18
2.459 -0.293 2.81 2
2.161 -0.286 2.807 2
3.356 -0.488 2.658 22
3.419 -0.541 2.607 16
3.364 -0.573 2.568 38
3.293 -0.601 2.53 47
3.306 -0.642 2.48 33
3.322 -0.683 2.426 32
3.333 -0.723 2.371 17
0.0 -0.0 3.0 0
0.0 -0.0 3.0 0
0.0 -0.0 3.0 0
0.0 -0.0 3.0 0
0.0 -0.0 3.0 0
0.0 -0.0 3.0 0
7.338 -1.131 2.676 67
7.342 -1.001 2.694 67
7.343 -0.874 2.716 68
7.369 -0.751 2.741 36
7.362 -0.627 2.772 58
7.364 -0.508 2.805 61
7.364 -0.393 2.841 63
7.361 -0.285 2.879 76
7.365 -0.198 2.912 61
7.362 -0.156 2.927 68
3.558 -0.093 2.955 22
7.366 -0.275 2.86 67
3.231 -0.163 2.913 1
3.255 -0.21 2.884 26
3.709 -0.291 2.832 1
3.281 -0.303 2.818 4
2.985 -0.317 2.802 3
2.443 -0.291 2.811 1
2.117 -0.281 2.811 1
1.945 -0.283 2.802 2
3.431 -0.543 2.605 5
3.368 -0.575 2.567 18
3.296 -0.602 2.529 38
3.31 -0.644 2.479 49
3.318 -0.683 2.427 45
3.325 -0.722 2.372 22
0.0 -0.0 3.0 0
0.0 -0.0 3.0 0
0.0 -0.0 3.0 0
0.0 -0.0 3.0 0
0.0 -0.0 3.0 0
0.0 -0.0 3.0 0
7.342 -1.135 2.675 66
7.341 -1.005 2.693 66
7.342 -0.879 2.714 68
7.365 -0.756 2.74 57
7.369 -0.634 2.769 59
7.367 -0.515 2.802 58
7.359 -0.402 2.837 64
7.357 -0.298 2.873 56
7.368 -0.215 2.904 63
7.365 -0.177 2.918 66
3.558 -0.101 2.951 14
7.365 -0.287 2.854 70
3.23 -0.167 2.911 1
3.279 -0.214 2.881 28
5.258 -0.416 2.76 13
3.237 -0.3 2.82 3
2.937 -0.313 2.805 3
2.38 -0.286 2.815 2
2.105 -0.28 2.811 0
1.906 -0.278 2.805 2
1.794 -0.285 2.793 0
3.454 -0.59 2.555 13
3.3 -0.604 2.528 38
3.317 -0.646 2.477 38
3.31 -0.682 2.427 49
3.317 -0.721 2.373 24
0.0 -0.0 3.0 0
0.0 -0.0 3.0 0
0.0 -0.0 3.0 0
0.0 -0.0 3.0 0
0.0 -0.0 3.0 0
0.0 -0.0 3.0 0
7.341 -1.138 2.674 10
7.344 -1.011 2.691 67
7.341 -0.884 2.713 67
7.344 -0.76 2.738 61
7.364 -0.641 2.767 53
7.367 -0.523 2.799 61
7.367 -0.412 2.833 61
7.376 -0.312 2.868 31
7.364 -0.233 2.896 64
7.361 -0.198 2.908 70
3.566 -0.11 2.946 6
7.364 -0.3 2.847 71
3.226 -0.171 2.909 1
3.283 -0.218 2.879 18
6.126 -0.489 2.717 13
3.245 -0.303 2.818 2
2.909 -0.311 2.806 3
2.407 -0.289 2.812 3
2.101 -0.281 2.811 1
1.878 -0.275 2.808 2
1.754 -0.279 2.797 2
3.391 -0.581 2.562 5
3.327 -0.61 2.524 30
3.325 -0.648 2.475 26
3.314 -0.684 2.426 54
3.332 -0.725 2.37 40
0.0 -0.0 3.0 0
0.0 -0.0 3.0 0
0.0 -0.0 3.0 0
0.0 -0.0 3.0 0
0.0 -0.0 3.0 0
0.0 -0.0 3.0 0
7.364 -1.147 2.671 0
7.344 -1.015 2.69 68
7.341 -0.889 2.711 68
7.335 -0.765 2.737 71
7.364 -0.649 2.764 60
7.37 -0.533 2.795 56
7.362 -0.423 2.829 64
7.375 -0.326 2.862 37
7.367 -0.251 2.888 65
7.364 -0.219 2.898 67
3.578 -0.119 2.942 1
7.364 -0.313 2.84 70
3.226 -0.176 2.907 3
3.278 -0.221 2.878 14
6.444 -0.521 2.699 8
3.308 -0.312 2.812 0
2.881 -0.31 2.806 2
2.371 -0.286 2.814 1
2.124 -0.285 2.808 3
1.882 -0.276 2.806 1
1.727 -0.275 2.8 1
1.611 -0.277 2.791 2
3.35 -0.616 2.519 36
3.321 -0.649 2.475 23
3.317 -0.686 2.425 28
3.32 -0.724 2.371 46
0.0 -0.0 3.0 0
0.0 -0.0 3.0 0
0.0 -0.0 3.0 0
0.0 -0.0 3.0 0
0.0 -0.0 3.0 0
0.0 -0.0 3.0 0
0.0 -0.0 3.0 0
7.339 -1.02 2.688 65
7.34 -0.895 2.709 68
7.343 -0.773 2.734 69
7.363 -0.657 2.761 67
7.365 -0.542 2.792 60
7.365 -0.435 2.824 56
7.375 -0.342 2.855 40
7.366 -0.27 2.88 62
7.367 -0.24 2.888 67
7.366 -0.265 2.871 66
7.367 -0.328 2.833 65
3.218 -0.18 2.904 9
3.282 -0.226 2.875 11
5.711 -0.467 2.73 1
4.337 -0.413 2.752 4
2.873 -0.311 2.805 2
2.359 -0.287 2.814 1
2.144 -0.289 2.805 2
1.901 -0.28 2.804 3
1.695 -0.271 2.803 1
1.58 -0.272 2.795 1
1.488 -0.274 2.786 1
3.324 -0.65 2.473 25
3.309 -0.685 2.425 32
3.312 -0.722 2.372 34
0.0 -0.0 3.0 0
0.0 -0.0 3.0 0
0.0 -0.0 3.0 0
0.0 -0.0 3.0 0
0.0 -0.0 3.0 0
0.0 -0.0 3.0 0
0.0 -0.0 3.0 0
7.334 -1.026 2.686 9
7.343 -0.902 2.707 68
7.342 -0.78 2.731 69
7.346 -0.663 2.759 65
7.368 -0.553 2.788 52
7.36 -0.448 2.819 62
7.366 -0.356 2.849 21
7.365 -0.289 2.871 60
7.366 -0.261 2.878 64
7.369 -0.284 2.862 63
7.366 -0.343 2.825 66
3.221 -0.186 2.901 1
3.286 -0.23 2.873 9
7.362 -0.61 2.648 46
4.341 -0.417 2.749 1
3.356 -0.366 2.771 2
2.351 -0.288 2.813 1
2.412 -0.326 2.78 3
1.878 -0.277 2.806 3
1.726 -0.277 2.799 2
1.56 -0.269 2.797 1
1.461 -0.269 2.79 0
1.377 -0.27 2.781 0
3.32 -0.688 2.422 29
3.308 -0.722 2.372 35
0.0 -0.0 3.0 0
0.0 -0.0 3.0 0
0.0 -0.0 3.0 0
0.0 -0.0 3.0 0
0.0 -0.0 3.0 0
0.0 -0.0 3.0 0
0.0 -0.0 3.0 0
7.349 -1.034 2.684 0
7.342 -0.909 2.705 68
7.345 -0.789 2.728 69
7.345 -0.672 2.755 72
7.367 -0.564 2.784 57
7.363 -0.461 2.814 54
7.365 -0.373 2.842 54
7.364 -0.309 2.862 59
7.361 -0.282 2.869 63
7.368 -0.303 2.852 64
7.365 -0.359 2.817 30
3.221 -0.191 2.898 1
3.293 -0.235 2.87 1
7.361 -0.619 2.643 58
4.587 -0.445 2.732 0
3.388 -0.373 2.767 3
3.408 -0.419 2.728 3
2.392 -0.325 2.781 3
1.909 -0.284 2.801 2
1.722 -0.277 2.799 3
1.575 -0.273 2.795 2
1.433 -0.265 2.793 0
1.365 -0.269 2.783 0
3.332 -0.692 2.419 33
3.312 -0.724 2.37 24
0.0 -0.0 3.0 0
0.0 -0.0 3.0 0
0.0 -0.0 3.0 0
0.0 -0.0 3.0 0
0.0 -0.0 3.0 0
0.0 -0.0 3.0 0
0.0 -0.0 3.0 0
0.0 -0.0 3.0 0
7.341 -0.916 2.702 65
7.34 -0.796 2.726 69
7.344 -0.682 2.752 70
7.362 -0.575 2.779 69
7.366 -0.475 2.808 56
7.364 -0.389 2.835 55
7.363 -0.329 2.854 56
7.364 -0.303 2.859 63
7.363 -0.322 2.843 62
7.372 -0.375 2.809 42
3.212 -0.197 2.895 1
7.355 -0.535 2.703 59
7.364 -0.628 2.638 49
4.67 -0.458 2.725 2
3.538 -0.392 2.755 1
3.403 -0.421 2.726 3
2.194 -0.3 2.798 1
2.062 -0.308 2.785 2
1.702 -0.275 2.8 2
1.571 -0.273 2.795 3
1.456 -0.27 2.789 0
1.33 -0.262 2.788 0
1.289 -0.269 2.775 0
3.304 -0.724 2.371 26
0.0 -0.0 3.0 0
0.0 -0.0 3.0 0
0.0 -0.0 3.0 0
0.0 -0.0 3.0 0
0.0 -0.0 3.0 0
0.0 -0.0 3.0 0
0.0 -0.0 3.0 0
0.0 -0.0 3.0 0
7.336 -0.924 2.7 6
7.343 -0.806 2.722 70
7.339 -0.692 2.748 70
7.345 -0.585 2.775 65
7.369 -0.49 2.802 53
7.371 -0.407 2.827 54
7.366 -0.348 2.845 58
7.363 -0.324 2.849 61
7.362 -0.341 2.834 62
7.371 -0.392 2.8 64
3.216 -0.202 2.892 4
7.361 -0.547 2.697 55
7.363 -0.637 2.632 55
7.359 -0.729 2.562 44
4.311 -0.482 2.699 1
3.395 -0.423 2.725 3
2.23 -0.306 2.793 0
2.078 -0.311 2.782 2
1.722 -0.279 2.797 2
1.552 -0.27 2.796 2
1.448 -0.27 2.789 1
1.322 -0.261 2.789 0
3.331 -0.695 2.417 19
1.194 -0.262 2.772 0
0.0 -0.0 3.0 0
0.0 -0.0 3.0 0
0.0 -0.0 3.0 0
0.0 -0.0 3.0 0
0.0 -0.0 3.0 0
0.0 -0.0 3.0 0
0.0 -0.0 3.0 0
0.0 -0.0 3.0 0
0.0 -0.0 3.0 0
7.341 -0.816 2.719 70
7.346 -0.705 2.744 73
7.344 -0.598 2.77 71
7.364 -0.504 2.796 54
7.37 -0.424 2.82 56
7.365 -0.368 2.836 57
7.366 -0.345 2.839 63
7.369 -0.362 2.824 59
7.366 -0.409 2.791 45
3.223 -0.209 2.889 0
7.36 -0.559 2.69 55
7.362 -0.647 2.626 53
7.362 -0.739 2.556 53
4.136 -0.466 2.709 1
3.39 -0.426 2.724 2
2.442 -0.337 2.773 2
2.18 -0.328 2.77 2
1.753 -0.285 2.793 2
1.563 -0.273 2.794 3
1.425 -0.265 2.793 0
1.337 -0.265 2.786 0
3.353 -0.701 2.411 20
1.183 -0.26 2.774 0
0.0 -0.0 3.0 0
0.0 -0.0 3.0 0
0.0 -0.0 3.0 0
0.0 -0.0 3.0 0
0.0 -0.0 3.0 0
0.0 -0.0 3.0 0
0.0 -0.0 3.0 0
0.0 -0.0 3.0 0
0.0 -0.0 3.0 0
7.344 -0.826 2.716 66
7.345 -0.716 2.739 72
7.347 -0.612 2.765 70
7.367 -0.521 2.79 67
7.372 -0.443 2.812 57
7.364 -0.388 2.827 58
7.361 -0.366 2.829 61
7.372 -0.381 2.814 59
7.372 -0.426 2.783 30
7.363 -0.491 2.739 55
7.359 -0.571 2.684 58
7.357 -0.657 2.621 51
7.361 -0.748 2.551 42
5.174 -0.589 2.632 1
3.413 -0.431 2.72 3
2.446 -0.34 2.771 2
2.384 -0.361 2.747 2
1.753 -0.286 2.792 1
1.559 -0.274 2.794 3
1.452 -0.272 2.788 1
1.318 -0.261 2.788 0
1.258 -0.264 2.779 0
