# .PCD v0.7 - Point Cloud Data file format
VERSION 0.7
FIELDS x y z intensity
SIZE 4 4 4 4
TYPE F F F F
COUNT 1 1 1 1
WIDTH 2268
HEIGHT 1
VIEWPOINT 0 0 0 1 0 0 0
POINTS 2268
DATA ascii
-4.727 -0.578 2.639 1
-3.184 -0.426 2.723 0
-3.112 -0.453 2.695 2
-2.184 -0.344 2.759 3
-2.161 -0.365 2.735 2
0.0 -0.0 3.0 0
-1.407 -0.27 2.789 1
-1.149 -0.233 2.811 3
-1.117 -0.239 2.8 8
-1.093 -0.245 2.787 8
0.0 -0.0 3.0 0
0.0 -0.0 3.0 0
-50.296 -11.891 0.472 2
0.0 -0.0 3.0 0
0.0 -0.0 3.0 0
0.0 -0.0 3.0 0
-53.224 -8.88 0.454 13
-54.244 -8.167 0.503 18
-55.767 -7.517 0.558 22
-61.468 -7.367 0.463 7
-62.522 -6.609 0.594 18
0.0 -0.0 3.0 0
0.0 -0.0 3.0 0
0.0 -0.0 3.0 0
-53.745 -3.581 1.406 4
0.0 -0.0 3.0 0
0.0 -0.0 3.0 0
0.0 -0.0 3.0 0
-100.678 -7.875 -1.187 8
0.0 -0.0 3.0 0
0.0 -0.0 3.0 0
-12.721 -1.388 2.166 4
-4.752 -0.574 2.641 2
-3.149 -0.418 2.729 2
-3.105 -0.449 2.697 3
-2.169 -0.339 2.763 2
-1.974 -0.332 2.759 2
-1.643 -0.295 2.778 1
-1.38 -0.263 2.794 1
-1.161 -0.235 2.81 3
-1.114 -0.237 2.801 8
-1.101 -0.246 2.786 8
0.0 -0.0 3.0 0
0.0 -0.0 3.0 0
-50.275 -11.841 0.483 42
0.0 -0.0 3.0 0
-52.154 -10.421 0.402 15
0.0 -0.0 3.0 0
-53.547 -8.868 0.457 11
-54.564 -8.142 0.511 15
-56.115 -7.482 0.569 22
-57.973 -6.852 0.641 7
-62.897 -6.533 0.622 20
0.0 -0.0 3.0 0
0.0 -0.0 3.0 0
0.0 -0.0 3.0 0
0.0 -0.0 3.0 0
-55.696 -3.423 1.404 16
0.0 -0.0 3.0 0
0.0 -0.0 3.0 0
0.0 -0.0 3.0 0
0.0 -0.0 3.0 0
0.0 -0.0 3.0 0
-12.855 -1.384 2.169 5
-3.969 -0.474 2.704 1
-3.126 -0.41 2.734 2
-3.106 -0.445 2.7 4
-2.138 -0.332 2.767 1
-1.931 -0.323 2.766 2
-1.585 -0.284 2.786 1
-1.388 -0.264 2.794 2
-1.193 -0.24 2.805 4
-1.11 -0.236 2.802 9
-1.097 -0.245 2.787 10
0.0 -0.0 3.0 0
0.0 -0.0 3.0 0
0.0 -0.0 3.0 0
0.0 -0.0 3.0 0
-52.215 -10.381 0.412 15
0.0 -0.0 3.0 0
-54.071 -8.89 0.451 34
-54.903 -8.121 0.517 19
-56.313 -7.427 0.587 14
-59.029 -6.882 0.63 15
-63.28 -6.46 0.649 19
-75.957 -6.744 0.411 4
0.0 -0.0 3.0 0
-53.684 -3.626 1.461 69
-54.794 -3.345 1.511 14
-56.055 -3.285 1.468 8
0.0 -0.0 3.0 0
0.0 -0.0 3.0 0
0.0 -0.0 3.0 0
0.0 -0.0 3.0 0
0.0 -0.0 3.0 0
-4.787 -0.508 2.695 0
-4.703 -0.556 2.653 18
-3.119 -0.406 2.736 2
-3.11 -0.443 2.701 3
-2.052 -0.317 2.778 2
-1.889 -0.314 2.772 2
-1.523 -0.271 2.796 2
-1.392 -0.264 2.794 2
-1.247 -0.251 2.797 3
-1.106 -0.234 2.803 9
-1.086 -0.242 2.79 12
0.0 -0.0 3.0 0
0.0 -0.0 3.0 0
0.0 -0.0 3.0 0
0.0 -0.0 3.0 0
0.0 -0.0 3.0 0
0.0 -0.0 3.0 0
0.0 -0.0 3.0 0
-55.234 -8.101 0.523 15
-56.269 -7.344 0.614 17
-58.981 -6.786 0.663 26
-63.67 -6.389 0.675 18
-68.281 -5.928 0.724 5
0.0 -0.0 3.0 0
-53.742 -3.493 1.517 6
0.0 -0.0 3.0 0
-56.413 -3.145 1.534 5
-57.718 -3.317 1.382 35
0.0 -0.0 3.0 0
0.0 -0.0 3.0 0
0.0 -0.0 3.0 0
-15.189 -1.412 2.185 2
-4.554 -0.478 2.713 1
-4.719 -0.552 2.655 16
-3.111 -0.402 2.739 3
-2.015 -0.285 2.808 0
-2.037 -0.313 2.781 3
-1.76 -0.291 2.788 2
-1.511 -0.268 2.798 2
-1.4 -0.265 2.793 3
-1.309 -0.262 2.788 3
-1.099 -0.232 2.805 9
-1.098 -0.243 2.788 12
0.0 -0.0 3.0 0
0.0 -0.0 3.0 0
0.0 -0.0 3.0 0
-52.183 -11.208 0.412 12
0.0 -0.0 3.0 0
-54.075 -9.702 0.4 22
0.0 -0.0 3.0 0
-55.577 -8.086 0.528 17
-56.604 -7.313 0.624 15
-58.547 -6.65 0.71 11
-64.012 -6.316 0.701 17
0.0 -0.0 3.0 0
0.0 -0.0 3.0 0
0.0 -0.0 3.0 0
0.0 -0.0 3.0 0
0.0 -0.0 3.0 0
-58.124 -3.183 1.448 26
0.0 -0.0 3.0 0
-115.678 -8.044 -1.277 21
0.0 -0.0 3.0 0
-6.739 -0.617 2.644 0
-4.789 -0.495 2.703 12
-3.119 -0.361 2.774 2
-3.112 -0.398 2.741 3
-1.996 -0.28 2.811 0
-2.005 -0.306 2.786 3
-1.619 -0.266 2.806 4
-1.531 -0.27 2.796 3
-1.408 -0.265 2.793 3
-1.286 -0.257 2.792 1
-1.095 -0.231 2.806 11
-1.105 -0.245 2.787 12
0.0 -0.0 3.0 0
0.0 -0.0 3.0 0
0.0 -0.0 3.0 0
-52.235 -11.177 0.42 6
0.0 -0.0 3.0 0
-54.116 -9.657 0.412 5
0.0 -0.0 3.0 0
-55.946 -8.075 0.531 18
-56.971 -7.288 0.632 17
-58.478 -6.558 0.742 24
-64.023 -6.214 0.738 37
-65.585 -5.447 0.909 11
0.0 -0.0 3.0 0
-54.867 -3.294 1.602 11
0.0 -0.0 3.0 0
0.0 -0.0 3.0 0
-58.342 -3.037 1.519 7
0.0 -0.0 3.0 0
0.0 -0.0 3.0 0
0.0 -0.0 3.0 0
-6.76 -0.608 2.649 2
0.0 -0.0 3.0 0
-3.108 -0.356 2.778 4
-2.349 -0.299 2.806 1
-2.0 -0.279 2.812 0
-1.947 -0.296 2.793 2
-1.592 -0.261 2.81 8
-1.539 -0.271 2.796 4
-1.389 -0.26 2.797 2
-1.302 -0.259 2.79 2
-1.099 -0.231 2.806 10
-1.109 -0.245 2.787 14
0.0 -0.0 3.0 0
0.0 -0.0 3.0 0
-130.748 -30.27 -3.434 18
0.0 -0.0 3.0 0
0.0 -0.0 3.0 0
0.0 -0.0 3.0 0
-56.008 -8.972 0.427 5
-56.256 -8.059 0.536 15
-57.31 -7.262 0.64 14
-58.841 -6.52 0.755 44
-63.97 -6.11 0.776 35
-65.998 -5.363 0.941 17
-89.908 -6.141 0.519 9
0.0 -0.0 3.0 0
0.0 -0.0 3.0 0
-125.454 -5.919 0.24 15
-58.704 -2.897 1.587 5
0.0 -0.0 3.0 0
0.0 -0.0 3.0 0
-100.333 -7.675 -1.254 14
-5.161 -0.456 2.736 3
-4.08 -0.411 2.753 3
-3.112 -0.353 2.779 2
-2.306 -0.291 2.811 1
-2.024 -0.281 2.811 0
-1.837 -0.277 2.806 2
-1.592 -0.26 2.811 9
-1.516 -0.266 2.8 2
-1.386 -0.259 2.798 2
-1.322 -0.262 2.788 2
-1.103 -0.231 2.806 8
-1.113 -0.246 2.786 14
0.0 -0.0 3.0 0
0.0 -0.0 3.0 0
0.0 -0.0 3.0 0
0.0 -0.0 3.0 0
-54.069 -10.514 0.379 15
0.0 -0.0 3.0 0
-55.957 -8.912 0.445 37
-56.617 -8.053 0.538 14
-57.719 -7.248 0.645 17
-59.3 -6.494 0.764 19
-63.905 -6.009 0.813 33
-66.407 -5.282 0.972 17
0.0 -0.0 3.0 0
0.0 -0.0 3.0 0
0.0 -0.0 3.0 0
-125.41 -5.559 0.408 16
0.0 -0.0 3.0 0
0.0 -0.0 3.0 0
0.0 -0.0 3.0 0
0.0 -0.0 3.0 0
-5.003 -0.435 2.749 1
-4.041 -0.403 2.758 10
-2.736 -0.307 2.808 2
-2.303 -0.288 2.813 1
-2.02 -0.278 2.812 1
-1.833 -0.276 2.807 2
-1.592 -0.259 2.812 10
-1.52 -0.266 2.8 2
-1.409 -0.263 2.795 2
-1.306 -0.258 2.791 1
-1.111 -0.232 2.805 7
-1.117 -0.246 2.786 14
0.0 -0.0 3.0 0
0.0 -0.0 3.0 0
0.0 -0.0 3.0 0
0.0 -0.0 3.0 0
-54.108 -10.481 0.387 7
0.0 -0.0 3.0 0
0.0 -0.0 3.0 0
0.0 -0.0 3.0 0
-58.049 -7.228 0.652 15
-59.694 -6.463 0.774 18
-61.701 -5.715 0.92 6
-66.808 -5.204 1.002 19
-54.317 -3.495 1.588 7
0.0 -0.0 3.0 0
0.0 -0.0 3.0 0
0.0 -0.0 3.0 0
-60.044 -2.644 1.711 4
0.0 -0.0 3.0 0
0.0 -0.0 3.0 0
-4.879 -0.358 2.802 0
-4.992 -0.428 2.753 3
-3.04 -0.3 2.82 0
-2.812 -0.314 2.804 3
-2.366 -0.294 2.809 2
-2.028 -0.278 2.812 2
-1.802 -0.269 2.811 1
-1.581 -0.256 2.814 14
-1.532 -0.267 2.799 3
-1.413 -0.263 2.795 1
-1.338 -0.264 2.786 1
-1.142 -0.238 2.8 2
-1.125 -0.247 2.785 13
0.0 -0.0 3.0 0
0.0 -0.0 3.0 0
0.0 -0.0 3.0 0
0.0 -0.0 3.0 0
0.0 -0.0 3.0 0
0.0 -0.0 3.0 0
0.0 -0.0 3.0 0
-57.852 -8.121 0.517 26
-58.406 -7.213 0.656 15
-59.781 -6.405 0.795 9
-63.788 -5.824 0.88 31
-67.204 -5.13 1.031 18
-54.385 -3.397 1.628 8
0.0 -0.0 3.0 0
0.0 -0.0 3.0 0
0.0 -0.0 3.0 0
0.0 -0.0 3.0 0
0.0 -0.0 3.0 0
-117.905 -7.059 -0.753 115
-4.88 -0.351 2.805 3
-4.097 -0.347 2.8 2
-2.973 -0.29 2.826 2
-2.832 -0.313 2.804 4
-2.291 -0.283 2.817 3
-2.072 -0.283 2.809 1
-1.795 -0.267 2.813 2
-1.577 -0.255 2.815 17
-1.544 -0.268 2.798 2
-1.406 -0.261 2.796 1
-1.338 -0.264 2.787 1
-1.212 -0.252 2.788 2
-1.133 -0.248 2.784 11
0.0 -0.0 3.0 0
0.0 -0.0 3.0 0
0.0 -0.0 3.0 0
0.0 -0.0 3.0 0
0.0 -0.0 3.0 0
-55.974 -9.766 0.383 41
0.0 -0.0 3.0 0
0.0 -0.0 3.0 0
-58.782 -7.203 0.66 16
-59.888 -6.351 0.813 18
-63.692 -5.735 0.912 30
-67.631 -5.062 1.057 17
-54.519 -3.307 1.664 4
0.0 -0.0 3.0 0
0.0 -0.0 3.0 0
-99.65 -3.565 1.338 25
-124.804 -4.841 0.639 12
-61.65 -2.903 1.521 4
0.0 -0.0 3.0 0
-4.876 -0.343 2.81 12
-3.611 -0.301 2.826 2
-2.973 -0.287 2.828 2
-2.789 -0.306 2.809 4
-2.303 -0.283 2.816 2
-2.009 -0.273 2.816 0
-1.807 -0.268 2.812 1
-1.573 -0.253 2.816 16
-1.544 -0.268 2.798 1
-1.429 -0.264 2.794 1
-4.754 -0.934 2.244 1
-1.204 -0.25 2.79 3
-1.149 -0.252 2.781 9
0.0 -0.0 3.0 0
0.0 -0.0 3.0 0
0.0 -0.0 3.0 0
0.0 -0.0 3.0 0
0.0 -0.0 3.0 0
0.0 -0.0 3.0 0
0.0 -0.0 3.0 0
0.0 -0.0 3.0 0
-59.146 -7.196 0.662 15
-60.273 -6.331 0.82 16
-63.656 -5.658 0.941 37
-68.002 -4.995 1.083 20
0.0 -0.0 3.0 0
0.0 -0.0 3.0 0
-99.959 -3.666 1.368 17
-99.506 -3.275 1.473 29
-61.294 -2.22 1.917 30
0.0 -0.0 3.0 0
-8.646 -0.488 2.74 0
-4.861 -0.336 2.814 16
-3.759 -0.309 2.822 3
-3.009 -0.288 2.827 3
-2.634 -0.287 2.821 3
-2.252 -0.275 2.822 1
-2.013 -0.272 2.817 0
-1.823 -0.27 2.811 1
-1.577 -0.253 2.816 19
-1.56 -0.269 2.797 1
-1.457 -0.269 2.79 0
-7.055 -1.383 1.88 9
-1.193 -0.248 2.792 3
-1.168 -0.255 2.778 10
0.0 -0.0 3.0 0
0.0 -0.0 3.0 0
0.0 -0.0 3.0 0
0.0 -0.0 3.0 0
-55.975 -10.706 0.331 10
0.0 -0.0 3.0 0
-57.872 -8.997 0.42 28
0.0 -0.0 3.0 0
-59.513 -7.192 0.663 12
-60.661 -6.316 0.825 14
-62.38 -5.476 1.007 20
-68.456 -4.939 1.104 16
0.0 -0.0 3.0 0
0.0 -0.0 3.0 0
-99.822 -3.405 1.484 22
-99.361 -2.987 1.607 30
-4.829 -0.162 2.921 0
0.0 -0.0 3.0 0
-7.797 -0.428 2.772 0
-4.849 -0.329 2.818 17
-3.803 -0.309 2.822 6
-3.034 -0.287 2.828 2
-2.567 -0.277 2.827 2
-2.264 -0.274 2.822 1
-2.053 -0.276 2.814 1
-1.811 -0.267 2.813 0
-1.574 -0.251 2.817 20
-1.584 -0.273 2.795 0
-7.654 -1.409 1.9 4
-7.106 -1.391 1.874 8
-1.185 -0.246 2.794 4
-1.164 -0.254 2.779 10
0.0 -0.0 3.0 0
0.0 -0.0 3.0 0
0.0 -0.0 3.0 0
0.0 -0.0 3.0 0
-56.059 -10.694 0.334 13
0.0 -0.0 3.0 0
-57.925 -8.971 0.428 3
0.0 -0.0 3.0 0
-59.876 -7.192 0.663 12
-61.049 -6.304 0.829 15
-62.765 -5.448 1.017 26
-68.634 -4.869 1.131 45
-70.137 -3.918 1.417 4
-94.664 -4.004 1.3 12
-99.668 -3.149 1.598 23
-99.223 -2.701 1.741 30
-4.865 -0.152 2.926 1
-4.707 -0.193 2.902 0
-7.917 -0.424 2.775 87
-4.83 -0.322 2.821 17
-3.855 -0.309 2.821 5
-2.994 -0.281 2.831 3
-2.552 -0.274 2.829 2
-2.284 -0.276 2.821 2
-2.077 -0.278 2.813 0
-1.803 -0.264 2.815 0
-1.574 -0.251 2.818 19
-4.888 -0.839 2.367 16
-4.71 -0.865 2.324 0
-7.153 -1.397 1.868 9
-1.193 -0.247 2.793 7
-1.168 -0.254 2.779 6
0.0 -0.0 3.0 0
0.0 -0.0 3.0 0
0.0 -0.0 3.0 0
0.0 -0.0 3.0 0
0.0 -0.0 3.0 0
0.0 -0.0 3.0 0
0.0 -0.0 3.0 0
-59.732 -8.169 0.502 24
0.0 -0.0 3.0 0
-61.432 -6.296 0.832 13
-63.177 -5.426 1.025 20
-68.552 -4.788 1.162 36
-70.582 -3.845 1.446 16
0.0 -0.0 3.0 0
-4.826 -0.141 2.937 0
-99.084 -2.414 1.874 30
-4.846 -0.14 2.932 8
-4.719 -0.186 2.905 1
-4.943 -0.258 2.863 1
-4.563 -0.299 2.834 6
-3.605 -0.287 2.834 4
-2.978 -0.277 2.833 3
-2.584 -0.275 2.828 2
-2.32 -0.279 2.819 1
-3.531 -0.47 2.683 4
-3.355 -0.491 2.656 4
-1.566 -0.249 2.819 17
-4.693 -0.804 2.394 17
-4.683 -0.859 2.329 2
-7.189 -1.402 1.864 8
-1.193 -0.247 2.793 8
-1.161 -0.253 2.78 4
0.0 -0.0 3.0 0
0.0 -0.0 3.0 0
0.0 -0.0 3.0 0
0.0 -0.0 3.0 0
0.0 -0.0 3.0 0
-57.884 -9.944 0.336 32
0.0 -0.0 3.0 0
-59.792 -8.145 0.51 13
0.0 -0.0 3.0 0
-61.823 -6.294 0.833 15
-63.413 -5.395 1.036 43
-65.749 -4.527 1.262 4
-71.031 -3.781 1.472 17
-85.876 -3.331 1.586 9
-4.822 -0.129 2.942 2
-98.932 -2.129 2.007 30
-4.838 -0.128 2.938 8
-4.72 -0.178 2.909 9
-4.928 -0.251 2.867 1
-4.556 -0.295 2.836 6
-3.581 -0.281 2.838 3
-2.995 -0.277 2.833 2
-2.639 -0.28 2.825 1
-4.712 -0.564 2.634 34
-3.547 -0.471 2.682 5
-3.399 -0.495 2.653 4
-1.566 -0.249 2.819 15
-4.717 -0.806 2.392 25
-4.656 -0.852 2.334 17
-7.244 -1.411 1.857 8
-1.19 -0.245 2.794 8
-1.172 -0.255 2.779 3
0.0 -0.0 3.0 0
0.0 -0.0 3.0 0
0.0 -0.0 3.0 0
0.0 -0.0 3.0 0
0.0 -0.0 3.0 0
0.0 -0.0 3.0 0
0.0 -0.0 3.0 0
0.0 -0.0 3.0 0
-61.617 -7.29 0.631 24
-62.221 -6.296 0.832 15
-63.513 -5.358 1.05 14
-66.085 -4.492 1.276 6
-71.467 -3.723 1.496 16
-84.863 -3.161 1.658 10
-4.822 -0.118 2.948 12
-4.819 -0.09 2.958 1
-4.854 -0.118 2.942 4
-4.72 -0.171 2.913 19
-4.932 -0.246 2.869 4
-4.763 -0.304 2.831 21
-3.586 -0.28 2.838 2
-3.051 -0.281 2.831 2
-5.025 -0.531 2.668 27
-4.717 -0.562 2.635 25
-3.539 -0.469 2.683 5
-3.541 -0.515 2.639 3
-1.566 -0.248 2.82 13
-4.733 -0.808 2.391 24
-4.684 -0.856 2.331 30
-7.291 -1.418 1.851 8
-1.178 -0.243 2.796 8
-1.176 -0.255 2.778 4
0.0 -0.0 3.0 0
0.0 -0.0 3.0 0
0.0 -0.0 3.0 0
-137.189 -28.499 -3.58 19
0.0 -0.0 3.0 0
0.0 -0.0 3.0 0
-59.735 -9.145 0.378 8
0.0 -0.0 3.0 0
-61.652 -7.267 0.639 5
-62.594 -6.302 0.83 15
-63.831 -5.346 1.054 17
-68.339 -4.593 1.237 46
-71.915 -3.676 1.515 15
0.0 -0.0 3.0 0
-4.823 -0.108 2.952 32
-4.815 -0.076 2.965 2
-4.863 -0.108 2.947 4
-4.724 -0.165 2.916 30
-4.92 -0.241 2.872 19
-4.883 -0.309 2.829 31
-3.669 -0.284 2.836 0
-4.749 -0.434 2.739 37
-4.986 -0.525 2.672 25
-4.733 -0.562 2.635 30
-3.559 -0.471 2.683 4
-1.599 -0.232 2.837 0
-1.566 -0.248 2.82 11
-4.737 -0.807 2.392 32
-4.688 -0.855 2.332 44
-7.342 -1.427 1.844 8
-1.17 -0.241 2.798 8
-1.176 -0.255 2.778 5
0.0 -0.0 3.0 0
-134.821 -33.044 -3.423 21
-78.664 -17.795 -0.782 15
0.0 -0.0 3.0 0
0.0 -0.0 3.0 0
0.0 -0.0 3.0 0
-59.781 -9.135 0.381 15
0.0 -0.0 3.0 0
0.0 -0.0 3.0 0
-63.015 -6.317 0.825 13
-64.248 -5.348 1.053 15
-68.247 -4.544 1.256 29
-72.35 -3.638 1.53 16
-76.358 -2.649 1.876 5
-4.811 -0.099 2.956 39
-4.808 -0.063 2.971 22
-4.855 -0.098 2.952 16
-4.733 -0.159 2.919 32
-4.909 -0.236 2.875 15
-4.788 -0.299 2.834 20
-4.853 -0.373 2.784 17
-4.749 -0.432 2.74 40
-4.919 -0.516 2.678 23
-4.745 -0.563 2.635 31
-3.587 -0.473 2.681 3
-1.619 -0.234 2.836 0
-1.563 -0.247 2.821 10
-4.753 -0.809 2.391 28
-4.7 -0.857 2.33 40
-7.393 -1.435 1.838 8
-1.178 -0.243 2.797 10
-1.188 -0.258 2.776 3
0.0 -0.0 3.0 0
0.0 -0.0 3.0 0
0.0 -0.0 3.0 0
0.0 -0.0 3.0 0
0.0 -0.0 3.0 0
0.0 -0.0 3.0 0
0.0 -0.0 3.0 0
-61.623 -8.305 0.461 22
0.0 -0.0 3.0 0
-63.423 -6.335 0.819 11
-64.665 -5.356 1.051 14
-66.49 -4.393 1.314 18
-72.788 -3.612 1.541 15
0.0 -0.0 3.0 0
-4.803 -0.091 2.96 41
-4.804 -0.049 2.977 25
-4.859 -0.091 2.956 24
-4.741 -0.156 2.921 25
-4.917 -0.233 2.876 18
-4.708 -0.292 2.838 29
-4.801 -0.367 2.788 14
-4.757 -0.431 2.741 41
-4.911 -0.514 2.679 28
-4.749 -0.561 2.635 26
-3.611 -0.476 2.679 2
-1.646 -0.238 2.833 0
-1.559 -0.246 2.822 9
-4.773 -0.812 2.388 28
-4.704 -0.857 2.33 32
-7.444 -1.444 1.83 8
-1.186 -0.244 2.795 12
-1.2 -0.26 2.774 1
0.0 -0.0 3.0 0
0.0 -0.0 3.0 0
0.0 -0.0 3.0 0
0.0 -0.0 3.0 0
0.0 -0.0 3.0 0
0.0 -0.0 3.0 0
0.0 -0.0 3.0 0
-61.684 -8.301 0.462 6
0.0 -0.0 3.0 0
0.0 -0.0 3.0 0
-65.074 -5.369 1.046 14
-66.931 -4.395 1.313 20
-73.177 -3.594 1.548 19
-4.785 -0.158 2.933 0
-4.803 -0.084 2.963 31
-4.784 -0.034 2.984 40
-4.843 -0.084 2.959 31
-4.809 -0.154 2.922 26
-4.925 -0.231 2.877 27
-4.712 -0.291 2.839 30
-4.821 -0.367 2.788 16
-4.762 -0.43 2.742 36
-4.883 -0.51 2.681 33
-4.761 -0.562 2.635 19
-3.631 -0.477 2.678 1
-1.619 -0.234 2.836 0
-1.551 -0.244 2.823 8
-4.781 -0.812 2.388 23
-4.7 -0.856 2.331 2
-7.498 -1.454 1.822 8
-1.19 -0.245 2.795 12
-1.219 -0.264 2.77 0
0.0 -0.0 3.0 0
0.0 -0.0 3.0 0
0.0 -0.0 3.0 0
0.0 -0.0 3.0 0
0.0 -0.0 3.0 0
0.0 -0.0 3.0 0
0.0 -0.0 3.0 0
0.0 -0.0 3.0 0
-63.514 -7.422 0.589 34
0.0 -0.0 3.0 0
-65.513 -5.393 1.037 14
-67.351 -4.406 1.309 19
-56.746 -2.768 1.882 4
-4.777 -0.155 2.934 3
-4.803 -0.08 2.965 10
-4.78 -0.021 2.99 44
-4.759 -0.077 2.962 33
-4.837 -0.152 2.923 25
-4.885 -0.227 2.879 25
-4.716 -0.289 2.84 26
-4.881 -0.37 2.786 23
-4.766 -0.43 2.742 34
-4.828 -0.503 2.685 38
-4.777 -0.563 2.634 15
-4.836 -0.635 2.571 52
-1.619 -0.234 2.836 0
-1.559 -0.245 2.822 7
-1.706 -0.29 2.781 0
-4.716 -0.858 2.329 0
-7.541 -1.461 1.817 8
-1.186 -0.244 2.796 11
-1.238 -0.268 2.767 0
0.0 -0.0 3.0 0
0.0 -0.0 3.0 0
0.0 -0.0 3.0 0
0.0 -0.0 3.0 0
0.0 -0.0 3.0 0
0.0 -0.0 3.0 0
-61.675 -9.39 0.308 42
0.0 -0.0 3.0 0
0.0 -0.0 3.0 0
-65.352 -6.495 0.764 14
-65.932 -5.421 1.027 18
-67.822 -4.429 1.3 19
-56.63 -2.753 1.888 9
-4.773 -0.154 2.935 13
-4.799 -0.077 2.966 3
-4.78 -0.007 2.997 54
-4.731 -0.075 2.963 33
-4.893 -0.153 2.922 26
-4.845 -0.224 2.881 43
-4.728 -0.29 2.839 20
-4.897 -0.371 2.786 51
-4.714 -0.424 2.745 27
-4.76 -0.495 2.69 34
-4.797 -0.565 2.633 15
-5.002 -0.657 2.557 30
-1.623 -0.234 2.836 0
-1.594 -0.251 2.818 12
-1.706 -0.29 2.782 8
-1.719 -0.313 2.756 0
-7.595 -1.472 1.808 10
-1.182 -0.243 2.796 10
-1.215 -0.263 2.772 1
0.0 -0.0 3.0 0
0.0 -0.0 3.0 0
0.0 -0.0 3.0 0
0.0 -0.0 3.0 0
0.0 -0.0 3.0 0
0.0 -0.0 3.0 0
0.0 -0.0 3.0 0
0.0 -0.0 3.0 0
0.0 -0.0 3.0 0
-65.392 -6.5 0.762 14
-66.362 -5.457 1.014 15
-67.758 -4.425 1.302 15
-70.543 -3.43 1.614 5
-4.781 -0.154 2.935 13
-4.791 -0.077 2.966 3
-4.784 -0.006 2.997 55
-4.739 -0.075 2.963 33
-4.829 -0.151 2.923 22
-4.789 -0.222 2.882 19
-4.744 -0.29 2.839 15
-4.909 -0.372 2.785 56
-4.726 -0.426 2.744 31
-4.705 -0.49 2.694 28
-4.825 -0.569 2.631 36
-5.021 -0.659 2.555 23
-1.631 -0.236 2.835 0
-1.618 -0.254 2.815 12
-1.714 -0.291 2.781 11
-1.715 -0.312 2.756 2
-7.475 -1.449 1.827 5
-1.175 -0.241 2.798 10
-1.23 -0.266 2.768 1
0.0 -0.0 3.0 0
0.0 -0.0 3.0 0
0.0 -0.0 3.0 0
0.0 -0.0 3.0 0
0.0 -0.0 3.0 0
0.0 -0.0 3.0 0
0.0 -0.0 3.0 0
-63.535 -8.545 0.388 43
0.0 -0.0 3.0 0
0.0 -0.0 3.0 0
-66.812 -5.502 0.998 16
-68.137 -4.459 1.288 17
-4.841 -0.237 2.904 1
-4.789 -0.155 2.934 11
-4.791 -0.08 2.965 22
-4.772 -0.02 2.991 50
-4.763 -0.077 2.962 32
-4.777 -0.15 2.924 22
-4.861 -0.226 2.88 33
-4.796 -0.294 2.837 15
-4.901 -0.372 2.785 50
-4.73 -0.426 2.744 37
-4.713 -0.491 2.693 29
-4.809 -0.567 2.632 45
-5.01 -0.658 2.556 18
-1.654 -0.239 2.832 5
-1.626 -0.256 2.814 12
-1.71 -0.29 2.782 12
-1.715 -0.312 2.756 0
-1.188 -0.23 2.814 0
-1.175 -0.241 2.798 10
-1.219 -0.264 2.77 2
0.0 -0.0 3.0 0
0.0 -0.0 3.0 0
0.0 -0.0 3.0 0
0.0 -0.0 3.0 0
0.0 -0.0 3.0 0
0.0 -0.0 3.0 0
0.0 -0.0 3.0 0
0.0 -0.0 3.0 0
-65.371 -7.652 0.514 14
0.0 -0.0 3.0 0
-67.201 -5.55 0.98 15
-56.696 -3.726 1.57 3
-72.746 -3.577 1.555 29
-4.789 -0.158 2.933 34
-4.795 -0.084 2.963 39
-4.76 -0.034 2.984 45
-4.823 -0.082 2.96 39
-4.769 -0.152 2.922 24
-4.833 -0.226 2.88 32
-4.888 -0.301 2.833 17
-4.905 -0.373 2.785 44
-4.734 -0.428 2.743 34
-4.736 -0.494 2.691 31
-4.638 -0.547 2.644 16
-4.99 -0.656 2.558 13
-1.654 -0.239 2.832 9
-1.629 -0.257 2.814 15
-1.702 -0.289 2.782 14
-7.666 -1.395 1.91 6
-1.219 -0.236 2.809 0
-1.186 -0.244 2.796 10
-1.234 -0.267 2.768 2
0.0 -0.0 3.0 0
0.0 -0.0 3.0 0
0.0 -0.0 3.0 0
0.0 -0.0 3.0 0
0.0 -0.0 3.0 0
0.0 -0.0 3.0 0
0.0 -0.0 3.0 0
0.0 -0.0 3.0 0
-65.393 -7.67 0.508 17
0.0 -0.0 3.0 0
-67.653 -5.609 0.959 6
-69.003 -4.562 1.249 13
-70.918 -3.524 1.576 10
-4.769 -0.161 2.932 42
-4.791 -0.091 2.96 59
-4.756 -0.046 2.978 42
-4.863 -0.09 2.956 34
-4.777 -0.156 2.921 22
-4.837 -0.229 2.878 22
-4.996 -0.309 2.829 29
-4.885 -0.372 2.785 33
-4.754 -0.431 2.741 23
-4.8 -0.501 2.687 30
-4.626 -0.547 2.645 21
-1.663 -0.218 2.853 0
-1.65 -0.239 2.833 10
-1.645 -0.259 2.812 25
-1.702 -0.289 2.782 21
-7.498 -1.365 1.933 6
-1.203 -0.233 2.811 0
-1.229 -0.252 2.788 10
-1.346 -0.291 2.747 4
0.0 -0.0 3.0 0
0.0 -0.0 3.0 0
0.0 -0.0 3.0 0
0.0 -0.0 3.0 0
0.0 -0.0 3.0 0
0.0 -0.0 3.0 0
0.0 -0.0 3.0 0
0.0 -0.0 3.0 0
0.0 -0.0 3.0 0
-67.243 -6.746 0.677 35
0.0 -0.0 3.0 0
-69.479 -4.63 1.223 14
-71.459 -3.6 1.546 17
-4.757 -0.165 2.93 47
-4.803 -0.099 2.956 55
-4.764 -0.061 2.972 39
-4.855 -0.098 2.952 19
-4.801 -0.161 2.918 18
-4.885 -0.234 2.876 16
-5.051 -0.315 2.826 40
-4.897 -0.375 2.783 31
-4.765 -0.433 2.74 25
-4.851 -0.508 2.682 45
-4.63 -0.548 2.644 18
-1.655 -0.218 2.853 0
-1.65 -0.239 2.833 11
-1.657 -0.261 2.81 27
-1.698 -0.289 2.782 22
-7.323 -1.335 1.957 6
-1.203 -0.233 2.811 0
-1.317 -0.271 2.773 18
-1.311 -0.284 2.753 4
0.0 -0.0 3.0 0
0.0 -0.0 3.0 0
0.0 -0.0 3.0 0
0.0 -0.0 3.0 0
0.0 -0.0 3.0 0
0.0 -0.0 3.0 0
0.0 -0.0 3.0 0
-65.434 -8.866 0.289 42
0.0 -0.0 3.0 0
0.0 -0.0 3.0 0
-69.105 -5.796 0.89 37
-69.951 -4.707 1.193 17
-71.878 -3.682 1.512 17
-4.752 -0.17 2.928 39
-4.791 -0.108 2.952 44
-4.759 -0.073 2.966 34
-5.07 -0.112 2.945 31
-4.872 -0.168 2.914 16
-4.968 -0.241 2.872 18
-5.059 -0.318 2.823 42
-4.905 -0.378 2.782 31
-4.789 -0.436 2.738 24
-4.851 -0.51 2.681 47
-4.63 -0.55 2.643 14
-1.643 -0.217 2.854 2
-1.654 -0.24 2.832 18
-1.661 -0.262 2.809 27
-1.702 -0.29 2.782 25
-7.17 -1.308 1.978 6
-1.203 -0.234 2.811 0
-1.364 -0.28 2.765 17
-1.299 -0.282 2.755 5
0.0 -0.0 3.0 0
0.0 -0.0 3.0 0
0.0 -0.0 3.0 0
0.0 -0.0 3.0 0
0.0 -0.0 3.0 0
0.0 -0.0 3.0 0
0.0 -0.0 3.0 0
0.0 -0.0 3.0 0
0.0 -0.0 3.0 0
0.0 -0.0 3.0 0
0.0 -0.0 3.0 0
-70.389 -4.791 1.161 14
-72.369 -3.78 1.473 29
-4.74 -0.177 2.925 35
-4.794 -0.118 2.948 29
-4.839 -0.089 2.959 24
-5.126 -0.123 2.94 37
-5.068 -0.182 2.907 37
-4.996 -0.247 2.869 20
-5.071 -0.323 2.821 43
-4.92 -0.383 2.779 25
-4.832 -0.443 2.734 35
-4.95 -0.522 2.674 54
-4.626 -0.55 2.643 14
-1.639 -0.217 2.854 6
-1.654 -0.241 2.832 21
-1.657 -0.262 2.81 29
-1.694 -0.289 2.782 28
-1.722 -0.315 2.754 0
-1.238 -0.241 2.805 0
-1.395 -0.287 2.759 16
-1.288 -0.279 2.757 5
0.0 -0.0 3.0 0
0.0 -0.0 3.0 0
0.0 -0.0 3.0 0
0.0 -0.0 3.0 0
0.0 -0.0 3.0 0
0.0 -0.0 3.0 0
0.0 -0.0 3.0 0
0.0 -0.0 3.0 0
-67.239 -8.004 0.399 39
0.0 -0.0 3.0 0
0.0 -0.0 3.0 0
-70.875 -4.887 1.124 12
-72.34 -3.86 1.441 15
-4.744 -0.184 2.922 28
-4.79 -0.129 2.943 8
-4.851 -0.102 2.952 6
-5.094 -0.134 2.935 37
-5.08 -0.19 2.903 43
-5.02 -0.254 2.865 19
-4.986 -0.321 2.822 39
-4.9 -0.384 2.778 29
-4.824 -0.445 2.733 43
-4.854 -0.514 2.679 40
-4.625 -0.552 2.641 13
-1.627 -0.216 2.854 8
-1.642 -0.239 2.832 21
-1.657 -0.262 2.809 30
-1.69 -0.288 2.783 28
-1.707 -0.312 2.756 0
-1.296 -0.252 2.796 0
-1.429 -0.294 2.753 23
-1.28 -0.278 2.759 5
0.0 -0.0 3.0 0
0.0 -0.0 3.0 0
0.0 -0.0 3.0 0
0.0 -0.0 3.0 0
0.0 -0.0 3.0 0
0.0 -0.0 3.0 0
0.0 -0.0 3.0 0
0.0 -0.0 3.0 0
0.0 -0.0 3.0 0
-69.114 -7.095 0.557 39
0.0 -0.0 3.0 0
-71.328 -4.991 1.084 12
-72.774 -3.975 1.394 14
-4.747 -0.192 2.918 5
-4.798 -0.14 2.938 1
-4.842 -0.116 2.946 5
-4.874 -0.139 2.932 20
-5.059 -0.197 2.899 46
-5.047 -0.261 2.861 19
-4.906 -0.32 2.823 27
-4.86 -0.384 2.778 23
-4.844 -0.449 2.73 36
-4.759 -0.506 2.684 29
-4.661 -0.558 2.637 15
-1.631 -0.217 2.854 10
-1.638 -0.239 2.832 26
-1.656 -0.263 2.809 30
-1.686 -0.288 2.783 28
-6.725 -1.231 2.038 7
-1.377 -0.269 2.782 1
-1.475 -0.304 2.745 30
-1.272 -0.277 2.76 5
0.0 -0.0 3.0 0
0.0 -0.0 3.0 0
0.0 -0.0 3.0 0
0.0 -0.0 3.0 0
0.0 -0.0 3.0 0
0.0 -0.0 3.0 0
0.0 -0.0 3.0 0
0.0 -0.0 3.0 0
0.0 -0.0 3.0 0
0.0 -0.0 3.0 0
-17.063 -1.485 2.46 2
-71.82 -5.104 1.041 11
-73.266 -4.104 1.342 13
-4.747 -0.201 2.915 1
-82.043 -2.592 1.846 18
-4.854 -0.131 2.939 5
-4.877 -0.151 2.926 24
-4.835 -0.197 2.899 35
-5.095 -0.27 2.856 40
-4.918 -0.326 2.819 26
-4.796 -0.383 2.779 21
-4.867 -0.455 2.726 35
-4.675 -0.5 2.688 27
-4.775 -0.575 2.627 5
-1.627 -0.217 2.853 15
-1.638 -0.24 2.832 28
-1.656 -0.263 2.809 31
-1.686 -0.288 2.783 28
-6.588 -1.208 2.056 7
-1.424 -0.278 2.775 1
-1.506 -0.311 2.739 24
-1.322 -0.287 2.75 10
0.0 -0.0 3.0 0
0.0 -0.0 3.0 0
0.0 -0.0 3.0 0
0.0 -0.0 3.0 0
0.0 -0.0 3.0 0
0.0 -0.0 3.0 0
0.0 -0.0 3.0 0
0.0 -0.0 3.0 0
0.0 -0.0 3.0 0
0.0 -0.0 3.0 0
-16.775 -1.476 2.463 2
-72.778 -5.261 0.981 25
-73.754 -4.243 1.286 16
-75.765 -3.352 1.577 5
-82.091 -2.8 1.753 40
-4.857 -0.144 2.933 1
-4.881 -0.163 2.921 30
-4.807 -0.205 2.896 41
-4.883 -0.266 2.859 29
-4.901 -0.331 2.817 25
-4.799 -0.388 2.776 29
-4.918 -0.464 2.721 27
-4.655 -0.501 2.687 26
-4.767 -0.576 2.626 1
-1.627 -0.218 2.853 19
-1.638 -0.241 2.832 28
-1.652 -0.263 2.809 30
-1.685 -0.289 2.782 29
-6.455 -1.186 2.073 7
-1.466 -0.287 2.768 2
-1.518 -0.314 2.737 26
-1.33 -0.289 2.749 14
0.0 -0.0 3.0 0
0.0 -0.0 3.0 0
0.0 -0.0 3.0 0
0.0 -0.0 3.0 0
0.0 -0.0 3.0 0
0.0 -0.0 3.0 0
0.0 -0.0 3.0 0
0.0 -0.0 3.0 0
-69.118 -8.428 0.261 14
0.0 -0.0 3.0 0
-16.526 -1.473 2.464 2
0.0 -0.0 3.0 0
-74.217 -4.389 1.227 13
-76.284 -3.53 1.501 19
-83.101 -3.048 1.643 9
-4.857 -0.159 2.926 3
-4.884 -0.176 2.914 29
-4.802 -0.214 2.891 38
-1.701 -0.095 2.949 1
-4.905 -0.337 2.813 24
-4.842 -0.396 2.771 35
-4.886 -0.465 2.721 19
-4.65 -0.504 2.685 22
-9.319 -1.133 2.264 19
-1.623 -0.218 2.853 20
-1.638 -0.241 2.831 28
-1.656 -0.265 2.808 29
-1.685 -0.29 2.782 26
-6.33 -1.165 2.09 7
-1.482 -0.29 2.765 3
-1.514 -0.314 2.737 29
-1.287 -0.28 2.756 6
0.0 -0.0 3.0 0
0.0 -0.0 3.0 0
0.0 -0.0 3.0 0
0.0 -0.0 3.0 0
0.0 -0.0 3.0 0
0.0 -0.0 3.0 0
0.0 -0.0 3.0 0
0.0 -0.0 3.0 0
0.0 -0.0 3.0 0
-14.155 -1.504 2.482 2
-16.285 -1.471 2.465 2
0.0 -0.0 3.0 0
-74.751 -4.55 1.162 15
-76.846 -3.72 1.421 32
-83.591 -3.283 1.538 17
-4.852 -0.172 2.92 20
-4.872 -0.188 2.908 23
-4.781 -0.223 2.887 25
-1.696 -0.098 2.948 2
-4.829 -0.338 2.813 28
-4.858 -0.402 2.768 38
-4.854 -0.466 2.72 13
-4.665 -0.509 2.682 15
-9.23 -1.129 2.267 11
-1.623 -0.219 2.852 22
-1.626 -0.241 2.832 28
-1.652 -0.265 2.808 29
-1.681 -0.29 2.781 27
-6.204 -1.144 2.106 8
-1.482 -0.291 2.764 5
-1.513 -0.314 2.736 28
-1.203 -0.263 2.772 6
0.0 -0.0 3.0 0
0.0 -0.0 3.0 0
0.0 -0.0 3.0 0
0.0 -0.0 3.0 0
0.0 -0.0 3.0 0
0.0 -0.0 3.0 0
0.0 -0.0 3.0 0
0.0 -0.0 3.0 0
0.0 -0.0 3.0 0
-13.97 -1.501 2.483 2
-16.12 -1.477 2.462 3
0.0 -0.0 3.0 0
-75.224 -4.713 1.096 14
-77.251 -3.909 1.341 16
-84.127 -3.527 1.43 13
-4.872 -0.187 2.913 19
-4.859 -0.199 2.903 18
-4.761 -0.232 2.882 34
-1.672 -0.099 2.947 3
-4.924 -0.351 2.805 23
-4.885 -0.411 2.763 43
-4.829 -0.469 2.718 13
-4.677 -0.515 2.678 23
-9.019 -1.11 2.279 11
-1.614 -0.219 2.852 26
-1.629 -0.242 2.83 29
-1.652 -0.265 2.807 28
-1.681 -0.291 2.781 28
-6.091 -1.126 2.12 8
-1.493 -0.294 2.762 7
-1.482 -0.308 2.741 21
-1.172 -0.256 2.777 10
0.0 -0.0 3.0 0
0.0 -0.0 3.0 0
0.0 -0.0 3.0 0
0.0 -0.0 3.0 0
0.0 -0.0 3.0 0
0.0 -0.0 3.0 0
0.0 -0.0 3.0 0
0.0 -0.0 3.0 0
-12.16 -1.519 2.507 0
-13.801 -1.498 2.484 2
-15.914 -1.479 2.462 2
-74.647 -5.828 0.763 29
-15.403 -0.994 2.598 0
-77.313 -4.088 1.265 10
-4.79 -0.213 2.905 0
-4.891 -0.201 2.906 35
-4.81 -0.21 2.898 12
-4.756 -0.242 2.877 32
-1.668 -0.102 2.946 3
-4.935 -0.359 2.801 17
-4.996 -0.426 2.754 36
-4.829 -0.474 2.715 16
-4.684 -0.52 2.675 27
-8.674 -1.074 2.303 8
-1.614 -0.22 2.851 27
-1.617 -0.241 2.831 28
-1.648 -0.266 2.807 28
-1.681 -0.292 2.78 28
-5.992 -1.111 2.132 8
-1.493 -0.294 2.762 9
-1.347 -0.28 2.765 23
-1.164 -0.255 2.778 10
0.0 -0.0 3.0 0
0.0 -0.0 3.0 0
0.0 -0.0 3.0 0
0.0 -0.0 3.0 0
0.0 -0.0 3.0 0
0.0 -0.0 3.0 0
0.0 -0.0 3.0 0
0.0 -0.0 3.0 0
-12.027 -1.515 2.508 2
-13.628 -1.496 2.485 2
-15.721 -1.483 2.46 3
0.0 -0.0 3.0 0
-13.789 -0.916 2.63 0
-15.444 -0.853 2.638 9
-4.79 -0.226 2.899 6
-4.878 -0.215 2.9 37
-4.754 -0.221 2.892 32
-4.756 -0.253 2.871 31
-1.676 -0.106 2.944 4
-1.678 -0.124 2.931 1
-5.067 -0.438 2.747 36
-4.828 -0.479 2.712 25
-4.687 -0.524 2.672 25
-8.669 -1.081 2.298 18
-1.61 -0.221 2.851 24
-1.558 -0.233 2.837 24
-1.639 -0.266 2.807 23
-1.681 -0.293 2.779 27
-5.98 -1.112 2.131 11
-1.493 -0.295 2.761 12
-1.324 -0.276 2.768 22
-1.137 -0.249 2.783 7
0.0 -0.0 3.0 0
0.0 -0.0 3.0 0
0.0 -0.0 3.0 0
0.0 -0.0 3.0 0
0.0 -0.0 3.0 0
0.0 -0.0 3.0 0
0.0 -0.0 3.0 0
0.0 -0.0 3.0 0
-11.89 -1.511 2.509 2
-13.535 -1.504 2.482 2
-15.547 -1.49 2.458 2
0.0 -0.0 3.0 0
-13.735 -0.941 2.62 22
-13.829 -0.796 2.662 0
-4.789 -0.239 2.894 3
-4.877 -0.228 2.894 43
-4.741 -0.232 2.887 33
-4.755 -0.264 2.866 28
-1.675 -0.109 2.942 4
-1.65 -0.126 2.93 3
-5.09 -0.448 2.742 35
-4.827 -0.484 2.709 24
-4.695 -0.53 2.669 24
-8.62 -1.082 2.297 4
-1.515 -0.209 2.859 25
-1.389 -0.209 2.854 35
-1.482 -0.242 2.825 29
-1.672 -0.292 2.78 26
-5.971 -1.113 2.13 9
-1.488 -0.295 2.761 13
-1.312 -0.274 2.77 19
-1.133 -0.249 2.784 7
0.0 -0.0 3.0 0
0.0 -0.0 3.0 0
0.0 -0.0 3.0 0
0.0 -0.0 3.0 0
0.0 -0.0 3.0 0
0.0 -0.0 3.0 0
0.0 -0.0 3.0 0
-10.528 -1.524 2.534 2
-11.765 -1.51 2.509 2
-13.338 -1.5 2.483 4
-15.354 -1.495 2.456 2
-76.484 -6.368 0.556 16
-13.66 -0.965 2.61 24
-13.811 -0.829 2.648 32
-16.233 -0.856 2.619 1
-4.809 -0.239 2.888 34
-4.728 -0.244 2.881 34
-4.798 -0.277 2.859 27
-1.675 -0.112 2.941 6
-1.63 -0.126 2.93 3
-5.101 -0.455 2.737 3
-4.818 -0.489 2.706 25
-4.872 -0.555 2.653 27
-8.563 -1.083 2.297 4
-1.499 -0.208 2.859 25
-1.408 -0.213 2.851 31
-1.408 -0.23 2.833 30
-1.668 -0.292 2.78 23
-5.9 -1.103 2.138 1
-1.48 -0.294 2.762 14
-1.231 -0.258 2.784 15
-1.113 -0.246 2.787 10
0.0 -0.0 3.0 0
0.0 -0.0 3.0 0
0.0 -0.0 3.0 0
0.0 -0.0 3.0 0
0.0 -0.0 3.0 0
0.0 -0.0 3.0 0
0.0 -0.0 3.0 0
-10.427 -1.521 2.535 2
-11.636 -1.508 2.51 2
-13.244 -1.508 2.481 4
-15.168 -1.502 2.453 2
0.0 -0.0 3.0 0
-13.638 -0.993 2.599 46
-13.796 -0.863 2.634 0
-16.206 -0.899 2.6 8
-4.772 -0.251 2.883 42
-4.727 -0.257 2.874 37
-4.821 -0.291 2.852 28
-1.667 -0.115 2.939 9
-1.562 -0.124 2.931 6
-1.552 -0.141 2.919 0
-4.821 -0.496 2.702 25
-4.931 -0.567 2.646 36
-8.139 -1.038 2.326 0
-1.503 -0.21 2.858 24
-1.424 -0.216 2.849 28
-1.407 -0.231 2.832 27
-1.563 -0.275 2.793 21
-5.841 -1.096 2.143 13
-1.476 -0.294 2.762 13
-1.223 -0.257 2.785 14
-1.063 -0.235 2.796 11
0.0 -0.0 3.0 0
0.0 -0.0 3.0 0
0.0 -0.0 3.0 0
0.0 -0.0 3.0 0
0.0 -0.0 3.0 0
-13.183 -2.384 2.361 6
-9.333 -1.529 2.562 0
-10.327 -1.519 2.536 2
-11.583 -1.517 2.507 5
-13.063 -1.508 2.481 5
-14.966 -1.507 2.451 2
-17.118 -1.49 2.428 6
-12.132 -0.91 2.633 5
-12.15 -0.79 2.665 5
-16.203 -0.944 2.58 8
-4.759 -0.264 2.877 43
-4.734 -0.271 2.868 30
-4.828 -0.302 2.846 13
-1.663 -0.118 2.937 8
-1.577 -0.128 2.929 8
-1.551 -0.143 2.917 2
-4.821 -0.502 2.698 23
-4.962 -0.576 2.64 15
-7.963 -1.023 2.336 0
-1.503 -0.211 2.858 16
-1.345 -0.206 2.856 22
-1.372 -0.226 2.836 19
-1.422 -0.251 2.811 33
-1.638 -0.308 2.759 4
-1.464 -0.293 2.763 14
-1.223 -0.257 2.784 13
-1.036 -0.23 2.8 12
0.0 -0.0 3.0 0
0.0 -0.0 3.0 0
0.0 -0.0 3.0 0
0.0 -0.0 3.0 0
0.0 -0.0 3.0 0
-13.188 -2.399 2.357 84
-9.261 -1.528 2.562 2
-10.222 -1.517 2.536 2
-11.469 -1.518 2.507 7
-12.941 -1.513 2.479 4
-14.768 -1.514 2.449 2
-17.003 -1.514 2.419 2
-12.062 -0.931 2.624 20
-12.131 -0.819 2.652 18
-16.0 -0.977 2.565 5
-4.754 -0.277 2.871 41
-4.745 -0.284 2.861 22
-4.847 -0.316 2.839 3
-1.65 -0.121 2.936 6
-1.601 -0.132 2.927 11
-1.543 -0.144 2.917 7
-1.58 -0.167 2.9 3
-4.969 -0.583 2.635 1
-7.78 -1.009 2.345 0
-1.451 -0.205 2.861 11
-1.333 -0.205 2.857 17
-1.277 -0.212 2.846 13
-1.425 -0.253 2.809 34
-1.63 -0.308 2.759 8
-1.46 -0.293 2.763 12
-1.141 -0.241 2.798 11
-1.048 -0.233 2.798 12
0.0 -0.0 3.0 0
0.0 -0.0 3.0 0
0.0 -0.0 3.0 0
0.0 -0.0 3.0 0
-11.822 -2.369 2.409 0
-13.181 -2.413 2.353 85
-9.18 -1.525 2.563 2
-10.133 -1.516 2.536 2
-11.352 -1.519 2.506 10
-12.796 -1.517 2.478 3
-14.614 -1.524 2.445 2
-10.478 -0.954 2.634 0
-12.008 -0.955 2.614 21
-10.526 -0.738 2.687 1
-15.889 -1.014 2.548 9
-4.757 -0.291 2.864 35
-4.76 -0.298 2.855 26
-4.842 -0.327 2.833 0
-1.646 -0.123 2.934 3
-1.589 -0.135 2.925 10
-1.539 -0.147 2.915 7
-1.576 -0.168 2.899 3
-1.592 -0.189 2.882 0
-7.608 -0.995 2.354 0
-1.427 -0.204 2.862 11
-1.305 -0.202 2.858 15
-1.273 -0.212 2.846 12
-1.421 -0.253 2.809 29
-1.622 -0.307 2.76 7
-1.448 -0.291 2.764 11
-1.083 -0.23 2.807 10
-1.044 -0.232 2.798 12
0.0 -0.0 3.0 0
0.0 -0.0 3.0 0
0.0 -0.0 3.0 0
0.0 -0.0 3.0 0
-11.792 -2.376 2.408 69
-8.306 -1.53 2.59 4
-9.103 -1.523 2.563 2
-10.071 -1.521 2.535 3
-11.247 -1.521 2.506 10
-12.654 -1.521 2.476 4
-14.42 -1.531 2.443 2
-10.452 -0.974 2.626 54
-11.981 -0.98 2.604 17
-10.511 -0.764 2.676 31
-15.81 -1.053 2.531 30
-4.768 -0.305 2.858 30
-4.775 -0.312 2.848 6
-9.527 -0.667 2.66 0
-1.65 -0.128 2.932 1
-1.568 -0.136 2.925 14
-1.534 -0.15 2.914 8
-1.552 -0.168 2.899 7
-1.588 -0.19 2.881 3
-7.444 -0.982 2.362 0
-1.372 -0.197 2.867 9
-1.257 -0.196 2.863 16
-1.242 -0.208 2.849 12
-1.308 -0.234 2.823 12
-1.551 -0.295 2.769 3
-1.417 -0.285 2.769 11
-1.087 -0.231 2.806 11
-1.047 -0.234 2.797 12
0.0 -0.0 3.0 0
0.0 -0.0 3.0 0
0.0 -0.0 3.0 0
-10.371 -2.284 2.473 0
-11.778 -2.386 2.405 86
-8.253 -1.53 2.59 3
-9.03 -1.523 2.563 2
-10.006 -1.525 2.534 5
-11.137 -1.524 2.505 7
-12.52 -1.527 2.474 4
-14.258 -1.541 2.439 3
-10.414 -0.992 2.619 102
-10.509 -0.885 2.642 5
-15.991 -1.205 2.489 5
-15.192 -1.055 2.53 39
-4.823 -0.323 2.85 25
-4.766 -0.325 2.841 2
-9.485 -0.689 2.649 10
-9.386 -0.748 2.602 10
-1.568 -0.139 2.923 13
-1.542 -0.152 2.912 11
-1.547 -0.17 2.898 7
-1.576 -0.191 2.88 5
-7.285 -0.97 2.37 0
-1.379 -0.2 2.865 11
-1.265 -0.198 2.861 16
-1.241 -0.209 2.848 15
-1.26 -0.227 2.829 12
-1.489 -0.285 2.777 10
-1.374 -0.278 2.775 9
-1.083 -0.231 2.806 11
-1.058 -0.236 2.794 12
0.0 -0.0 3.0 0
0.0 -0.0 3.0 0
0.0 -0.0 3.0 0
-10.173 -2.251 2.48 56
-7.587 -1.546 2.615 0
-8.196 -1.53 2.59 2
-8.957 -1.523 2.563 2
-9.909 -1.525 2.534 10
-11.028 -1.527 2.504 10
-12.414 -1.536 2.471 4
-14.08 -1.549 2.436 3
-10.368 -1.01 2.612 95
-10.466 -0.907 2.634 14
-15.887 -1.238 2.474 9
-15.153 -1.095 2.512 44
-4.814 -0.335 2.844 5
-12.581 -0.892 2.565 16
-9.442 -0.71 2.638 11
-9.368 -0.769 2.591 15
-1.556 -0.141 2.922 14
-1.534 -0.155 2.911 16
-1.547 -0.172 2.896 10
-1.564 -0.192 2.88 7
-7.145 -0.96 2.376 0
-1.434 -0.21 2.859 10
-1.284 -0.203 2.858 16
-1.241 -0.21 2.847 15
-1.241 -0.224 2.831 12
-1.415 -0.272 2.788 12
-1.358 -0.276 2.776 8
-1.086 -0.232 2.805 10
-1.051 -0.236 2.795 13
0.0 -0.0 3.0 0
0.0 -0.0 3.0 0
-9.381 -2.253 2.521 0
-10.081 -2.242 2.482 60
-7.545 -1.547 2.614 3
-8.143 -1.531 2.59 2
-8.888 -1.524 2.563 2
-9.819 -1.525 2.534 8
-10.946 -1.534 2.502 5
-12.264 -1.539 2.47 2
-13.826 -1.549 2.436 6
-10.353 -1.032 2.604 56
-10.412 -0.928 2.625 19
-15.811 -1.275 2.459 26
-15.009 -1.127 2.498 13
-4.844 -0.352 2.836 1
-9.544 -0.704 2.657 0
-9.412 -0.732 2.627 12
-9.33 -0.787 2.582 108
-1.559 -0.144 2.92 17
-1.557 -0.16 2.908 19
-1.539 -0.174 2.896 11
-1.551 -0.193 2.88 8
-1.579 -0.214 2.861 0
-1.595 -0.234 2.842 8
-1.327 -0.211 2.852 14
-1.249 -0.212 2.846 16
-1.221 -0.222 2.833 15
-1.36 -0.262 2.795 12
-1.327 -0.27 2.781 7
-1.094 -0.235 2.803 11
-1.062 -0.239 2.793 12
0.0 -0.0 3.0 0
0.0 -0.0 3.0 0
-9.41 -2.27 2.518 26
-10.07 -2.251 2.48 57
-7.493 -1.545 2.615 3
-8.082 -1.529 2.59 2
-8.901 -1.539 2.559 8
-9.773 -1.534 2.531 11
-10.812 -1.533 2.502 5
-12.119 -1.543 2.469 3
-13.751 -1.568 2.429 13
-10.339 -1.054 2.596 31
-10.445 -0.956 2.614 17
-15.23 -1.269 2.461 56
-14.001 -1.09 2.515 1
-12.732 -0.961 2.552 26
-9.486 -0.726 2.646 10
-9.398 -0.755 2.615 12
-9.295 -0.806 2.571 255
-1.579 -0.15 2.917 12
-1.545 -0.162 2.907 19
-1.538 -0.176 2.894 18
-1.551 -0.195 2.878 11
-1.575 -0.216 2.86 3
-1.63 -0.242 2.837 10
-1.323 -0.211 2.852 14
-1.256 -0.215 2.844 16
-1.228 -0.224 2.831 15
-1.328 -0.257 2.799 15
-1.284 -0.262 2.787 8
-1.097 -0.236 2.802 11
-1.065 -0.241 2.791 12
0.0 -0.0 3.0 0
0.0 -0.0 3.0 0
-9.376 -2.273 2.517 29
-6.942 -1.56 2.64 3
-7.444 -1.544 2.615 3
-8.021 -1.529 2.59 2
-8.804 -1.535 2.56 17
-9.684 -1.536 2.531 14
-10.73 -1.541 2.499 7
-12.0 -1.552 2.466 9
-8.872 -1.031 2.625 4
-8.829 -0.92 2.647 0
-10.454 -0.983 2.603 16
-8.853 -0.762 2.677 3
-12.77 -1.031 2.541 6
-12.525 -0.982 2.542 12
-9.435 -0.748 2.635 11
-9.379 -0.778 2.604 12
-9.142 -0.814 2.567 255
-1.594 -0.155 2.914 10
-1.529 -0.162 2.906 21
-1.538 -0.179 2.892 21
-1.543 -0.196 2.877 12
-1.523 -0.211 2.863 6
-1.634 -0.245 2.835 13
-1.358 -0.218 2.847 25
-1.256 -0.216 2.843 16
-1.236 -0.227 2.829 14
-1.258 -0.245 2.809 12
-1.238 -0.254 2.794 11
-1.097 -0.237 2.801 11
-1.065 -0.241 2.79 12
0.0 -0.0 3.0 0
-8.952 -2.341 2.545 0
-9.339 -2.274 2.517 31
-6.897 -1.559 2.64 3
-7.387 -1.543 2.615 3
-7.976 -1.532 2.59 3
-8.751 -1.539 2.559 5
-9.582 -1.535 2.531 7
-10.637 -1.546 2.498 6
-11.886 -1.559 2.463 4
-8.795 -1.041 2.621 19
-8.827 -0.94 2.639 17
-8.848 -0.855 2.654 0
-14.855 -1.318 2.44 21
-12.755 -1.066 2.525 49
-9.53 -0.774 2.639 1
-9.417 -0.773 2.623 11
-9.349 -0.8 2.592 19
-8.769 -0.802 2.573 255
-1.59 -0.158 2.912 6
-1.532 -0.166 2.904 18
-1.537 -0.182 2.891 20
-1.534 -0.197 2.877 19
-1.499 -0.21 2.864 7
-1.582 -0.239 2.839 13
-1.373 -0.223 2.844 26
-1.271 -0.22 2.84 16
-1.239 -0.228 2.828 15
-1.238 -0.242 2.811 13
-1.28 -0.264 2.786 10
-1.101 -0.239 2.8 11
-1.069 -0.243 2.789 12
0.0 -0.0 3.0 0
-8.907 -2.34 2.545 41
-6.43 -1.574 2.666 1
-6.844 -1.555 2.641 3
-7.342 -1.543 2.615 3
-7.966 -1.542 2.587 4
-8.689 -1.542 2.558 17
-9.521 -1.542 2.529 5
-10.523 -1.549 2.497 6
-11.748 -1.565 2.461 8
-8.76 -1.055 2.616 14
-8.78 -0.957 2.633 25
-8.846 -0.878 2.645 31
-13.995 -1.28 2.457 2
-12.719 -1.099 2.511 16
-9.475 -0.797 2.629 10
-9.394 -0.797 2.611 12
-9.314 -0.821 2.581 65
-8.675 -0.815 2.567 255
-1.573 -0.159 2.912 0
-1.54 -0.17 2.902 20
-1.529 -0.183 2.89 20
-1.522 -0.199 2.876 21
-1.499 -0.212 2.862 8
-1.57 -0.239 2.839 18
-1.393 -0.228 2.84 27
-1.302 -0.227 2.835 20
-1.243 -0.23 2.826 16
-1.219 -0.24 2.813 14
-1.287 -0.267 2.784 11
-1.1 -0.24 2.799 12
-1.068 -0.244 2.788 12
-7.976 -2.248 2.604 2
-8.885 -2.344 2.544 74
-6.381 -1.57 2.666 3
-6.807 -1.556 2.641 3
-7.293 -1.543 2.615 3
-7.912 -1.543 2.587 20
-8.6 -1.54 2.559 5
-9.451 -1.546 2.527 8
-10.448 -1.557 2.494 12
-11.642 -1.574 2.458 8
-8.734 -1.072 2.61 14
-8.742 -0.973 2.627 20
-8.831 -0.898 2.637 5
-16.223 -1.528 2.352 0
-12.508 -1.116 2.503 8
-9.437 -0.82 2.618 11
-9.376 -0.821 2.599 13
-9.288 -0.844 2.57 255
-8.673 -0.836 2.556 255
-8.091 -0.839 2.535 1
-1.527 -0.172 2.901 15
-1.525 -0.186 2.888 20
-1.51 -0.199 2.875 21
-1.506 -0.215 2.86 11
-1.554 -0.239 2.839 22
-1.447 -0.238 2.833 23
-1.317 -0.231 2.832 23
-1.25 -0.233 2.824 16
-1.218 -0.241 2.812 16
-1.283 -0.267 2.784 13
-1.108 -0.242 2.797 11
-1.076 -0.246 2.786 12
-7.969 -2.256 2.602 79
-8.882 -2.354 2.542 64
-6.344 -1.569 2.667 2
-6.762 -1.556 2.641 3
-7.244 -1.543 2.615 3
-7.871 -1.547 2.585 3
-8.578 -1.55 2.556 13
-9.357 -1.548 2.527 9
-10.335 -1.56 2.493 6
-7.173 -0.985 2.661 0
-8.707 -1.088 2.604 21
-8.72 -0.991 2.619 18
-8.9 -0.929 2.625 1
-12.606 -1.222 2.481 6
-9.528 -0.878 2.609 1
-9.422 -0.846 2.605 11
-9.357 -0.846 2.587 26
-8.704 -0.814 2.585 44
-8.65 -0.855 2.545 75
-7.906 -0.838 2.535 0
-1.554 -0.178 2.897 11
-1.524 -0.189 2.887 22
-1.501 -0.201 2.874 25
-1.486 -0.215 2.861 14
-1.553 -0.241 2.838 21
-1.517 -0.252 2.824 22
-1.321 -0.234 2.83 24
-1.262 -0.237 2.822 18
-1.222 -0.242 2.811 16
-1.282 -0.268 2.783 13
-1.115 -0.245 2.795 11
-1.075 -0.247 2.785 13
-7.971 -2.265 2.601 80
-5.934 -1.58 2.693 3
-6.307 -1.568 2.667 2
-6.725 -1.556 2.641 3
-7.253 -1.556 2.612 19
-7.806 -1.547 2.586 19
-8.485 -1.547 2.556 9
-9.283 -1.552 2.525 7
-10.244 -1.567 2.491 9
-7.147 -0.996 2.657 1
-8.713 -1.108 2.597 16
-8.697 -1.01 2.612 30
-7.204 -0.77 2.689 7
-12.065 -1.203 2.489 3
-9.481 -0.9 2.599 9
-9.399 -0.871 2.594 12
-9.302 -0.867 2.577 35
-8.674 -0.835 2.575 42
-8.604 -0.872 2.537 20
-7.741 -0.838 2.535 0
-1.57 -0.183 2.894 10
-1.528 -0.192 2.885 29
-1.485 -0.201 2.874 22
-1.498 -0.219 2.858 19
-1.529 -0.239 2.839 21
-1.517 -0.254 2.822 25
-1.32 -0.235 2.829 23
-1.288 -0.243 2.817 24
-1.241 -0.247 2.807 18
-1.301 -0.273 2.779 13
-1.111 -0.245 2.795 11
-1.071 -0.247 2.785 13
-7.972 -2.276 2.599 77
-5.901 -1.579 2.693 2
-6.271 -1.567 2.667 2
-6.684 -1.556 2.641 3
-7.196 -1.554 2.612 3
-7.768 -1.551 2.584 4
-8.466 -1.558 2.553 8
-9.241 -1.562 2.522 12
-10.166 -1.574 2.489 6
-7.176 -1.016 2.65 23
-8.71 -1.127 2.59 14
-8.69 -1.031 2.604 23
-7.206 -0.789 2.681 37
-11.668 -1.196 2.492 2
-9.438 -0.923 2.589 10
-9.376 -0.896 2.582 13
-9.152 -0.879 2.571 8
-8.679 -0.859 2.563 250
-8.124 -0.843 2.552 0
-7.564 -0.837 2.536 0
-1.542 -0.183 2.894 8
-1.531 -0.196 2.882 26
-1.477 -0.203 2.873 23
-1.493 -0.22 2.857 26
-1.513 -0.239 2.839 23
-1.508 -0.254 2.822 27
-1.347 -0.241 2.825 26
-1.308 -0.248 2.813 26
-1.279 -0.256 2.8 28
-1.258 -0.265 2.785 14
-1.126 -0.249 2.791 13
-1.082 -0.25 2.783 13
-5.527 -1.585 2.721 1
-5.864 -1.577 2.694 2
-6.234 -1.567 2.667 2
-6.647 -1.557 2.641 3
-7.154 -1.557 2.612 13
-7.698 -1.55 2.585 13
-8.365 -1.555 2.554 13
-9.143 -1.563 2.522 10
-10.084 -1.583 2.486 8
-7.122 -1.023 2.648 146
-7.186 -0.946 2.656 4
-8.691 -1.052 2.596 23
-7.176 -0.805 2.675 0
-9.534 -1.003 2.574 1
-9.415 -0.948 2.578 11
-9.349 -0.921 2.571 19
-8.688 -0.86 2.581 24
-8.644 -0.879 2.552 15
-7.919 -0.842 2.553 0
-7.403 -0.836 2.536 0
-1.537 -0.185 2.893 11
-1.527 -0.198 2.881 22
-1.468 -0.204 2.873 24
-1.477 -0.22 2.857 23
-1.504 -0.24 2.838 23
-1.52 -0.259 2.819 30
-1.347 -0.243 2.823 28
-1.307 -0.25 2.812 25
-1.287 -0.259 2.797 28
-1.254 -0.265 2.785 16
-1.137 -0.252 2.788 17
-1.082 -0.251 2.782 12
-5.505 -1.586 2.72 3
-5.831 -1.575 2.694 2
-6.181 -1.562 2.668 2
-6.644 -1.566 2.638 4
-7.132 -1.563 2.61 8
-7.676 -1.558 2.582 7
-8.327 -1.562 2.552 5
-9.085 -1.57 2.52 6
-10.005 -1.59 2.483 12
-7.088 -1.034 2.644 176
-7.167 -0.961 2.65 10
-7.217 -0.893 2.657 1
-12.651 -1.454 2.413 10
-9.483 -1.025 2.565 10
-9.4 -0.974 2.566 12
-9.318 -0.944 2.56 37
-8.677 -0.882 2.57 21
-8.605 -0.898 2.543 6
-7.722 -0.841 2.553 0
-7.261 -0.837 2.536 0
-1.541 -0.189 2.891 11
-1.542 -0.203 2.878 20
-1.46 -0.205 2.872 23
-1.468 -0.222 2.856 26
-1.488 -0.239 2.839 24
-1.523 -0.261 2.817 26
-1.374 -0.25 2.818 28
-1.318 -0.254 2.809 25
-1.29 -0.262 2.795 26
-1.265 -0.269 2.782 13
-1.141 -0.254 2.787 16
-1.085 -0.253 2.78 12
-5.477 -1.584 2.721 3
-5.794 -1.574 2.694 2
-6.159 -1.566 2.667 2
-6.599 -1.566 2.639 15
-7.067 -1.56 2.611 6
-7.595 -1.555 2.583 9
-8.253 -1.564 2.552 17
-9.019 -1.576 2.518 12
-9.907 -1.595 2.482 11
-7.062 -1.046 2.64 93
-7.165 -0.978 2.644 16
-7.21 -0.91 2.651 7
-12.194 -1.434 2.42 4
-9.44 -1.046 2.556 11
-9.377 -0.998 2.556 13
-9.231 -0.962 2.551 41
-8.677 -0.907 2.557 73
-8.086 -0.865 2.559 0
-7.552 -0.842 2.553 0
-1.55 -0.183 2.899 0
-1.54 -0.193 2.889 17
-1.537 -0.206 2.876 22
-1.444 -0.206 2.871 24
-1.464 -0.223 2.855 25
-1.484 -0.241 2.837 26
-1.515 -0.262 2.817 27
-1.385 -0.254 2.816 32
-1.341 -0.26 2.804 27
-1.324 -0.27 2.789 29
-1.288 -0.275 2.777 12
-1.163 -0.261 2.781 16
-1.085 -0.254 2.779 11
-5.44 -1.581 2.721 3
-5.757 -1.572 2.694 2
-6.111 -1.563 2.668 2
-6.542 -1.562 2.639 11
-7.034 -1.565 2.61 25
-7.573 -1.564 2.581 9
-8.187 -1.567 2.551 4
-8.921 -1.577 2.518 8
-9.813 -1.601 2.48 8
-7.047 -1.06 2.635 104
-7.103 -0.987 2.641 31
-7.247 -0.933 2.642 9
-9.536 -1.147 2.537 1
-9.413 -1.07 2.546 11
-9.349 -1.022 2.545 18
-8.692 -0.931 2.566 23
-8.623 -0.926 2.548 8
-7.888 -0.865 2.559 0
-7.379 -0.841 2.553 0
-1.534 -0.184 2.898 2
-1.532 -0.195 2.888 22
-1.537 -0.209 2.875 23
-1.443 -0.209 2.87 23
-1.46 -0.225 2.854 24
-1.483 -0.244 2.836 27
-1.573 -0.274 2.808 21
-1.388 -0.257 2.814 34
-1.352 -0.263 2.802 27
-1.32 -0.271 2.789 27
-1.261 -0.271 2.781 13
-1.167 -0.263 2.779 17
-1.092 -0.256 2.777 11
-5.407 -1.58 2.721 2
-5.732 -1.573 2.694 3
-6.128 -1.576 2.665 4
-6.524 -1.569 2.638 4
-5.916 -1.326 2.669 0
-7.492 -1.561 2.582 8
-8.137 -1.572 2.549 13
-8.878 -1.587 2.515 7
-9.758 -1.613 2.476 9
-7.041 -1.074 2.63 49
-7.08 -1.001 2.636 33
-7.209 -0.946 2.637 12
-9.481 -1.166 2.529 9
-9.397 -1.094 2.535 12
-9.322 -1.046 2.534 29
-8.684 -0.955 2.555 16
-8.576 -0.945 2.539 2
-7.711 -0.867 2.558 0
-7.225 -0.842 2.552 0
-1.529 -0.187 2.896 6
-1.531 -0.198 2.885 23
-1.54 -0.212 2.873 36
-1.435 -0.21 2.869 23
-1.455 -0.227 2.852 25
-1.475 -0.244 2.835 26
-1.611 -0.283 2.802 22
-1.38 -0.256 2.814 33
-1.375 -0.269 2.797 24
-1.312 -0.271 2.789 17
-1.225 -0.265 2.785 15
-1.193 -0.27 2.774 16
-1.088 -0.256 2.777 11
-5.382 -1.58 2.721 2
-5.691 -1.57 2.695 2
-6.091 -1.576 2.665 4
-6.479 -1.568 2.638 15
-5.867 -1.325 2.67 0
-7.473 -1.57 2.579 17
-8.06 -1.573 2.549 4
-8.8 -1.591 2.514 15
-9.675 -1.62 2.474 13
-7.026 -1.089 2.625 33
-7.062 -1.015 2.63 15
-7.175 -0.961 2.631 7
-9.434 -1.186 2.521 10
-9.374 -1.118 2.525 13
-9.231 -1.062 2.527 40
-8.669 -0.979 2.544 37
-8.072 -0.912 2.555 0
-7.541 -0.868 2.557 0
-7.088 -0.844 2.551 0
-1.513 -0.189 2.895 8
-1.526 -0.201 2.884 26
-1.544 -0.215 2.871 39
-1.43 -0.212 2.867 21
-1.454 -0.229 2.851 24
-1.474 -0.246 2.834 24
-1.626 -0.288 2.798 22
-1.383 -0.259 2.812 22
-1.406 -0.278 2.791 22
-1.4 -0.291 2.773 12
-1.213 -0.264 2.786 17
-1.223 -0.278 2.767 17
-1.091 -0.258 2.775 11
-5.342 -1.575 2.722 3
-5.658 -1.57 2.695 3
-6.057 -1.577 2.665 22
-6.484 -1.58 2.635 11
-5.795 -1.319 2.671 0
-7.404 -1.569 2.58 3
-8.029 -1.583 2.546 13
-8.726 -1.596 2.512 5
-9.557 -1.622 2.473 5
-7.023 -1.105 2.62 22
-7.047 -1.031 2.625 20
-7.247 -0.989 2.62 7
-9.414 -1.209 2.511 11
-9.35 -1.142 2.515 18
-8.696 -1.025 2.543 19
-8.61 -0.997 2.535 6
-7.875 -0.913 2.555 0
-7.376 -0.87 2.557 0
-6.942 -0.845 2.551 0
-1.524 -0.194 2.893 12
-1.53 -0.205 2.881 40
-1.535 -0.218 2.869 40
-1.371 -0.206 2.871 21
-1.387 -0.222 2.856 23
-1.47 -0.248 2.832 21
-1.626 -0.291 2.796 17
-1.383 -0.261 2.81 21
-1.401 -0.279 2.79 22
-1.454 -0.303 2.763 20
-1.217 -0.266 2.784 16
-1.184 -0.271 2.773 20
-1.091 -0.26 2.774 11
-5.313 -1.575 2.722 3
-5.652 -1.577 2.693 4
-6.039 -1.581 2.664 7
-6.423 -1.576 2.636 4
-6.851 -1.571 2.608 4
-5.721 -1.224 2.672 0
-7.943 -1.581 2.547 5
-8.687 -1.607 2.509 12
-5.597 -0.962 2.687 0
-7.017 -1.121 2.614 34
-7.036 -1.047 2.619 20
-7.185 -1.0 2.616 6
-9.394 -1.233 2.502 11
-9.319 -1.165 2.506 40
-8.684 -1.05 2.533 13
-8.523 -1.011 2.528 1
-7.689 -0.913 2.555 0
-7.23 -0.872 2.556 0
-6.809 -0.847 2.55 0
-1.527 -0.198 2.89 18
-1.525 -0.208 2.88 41
-1.531 -0.221 2.867 38
-1.366 -0.208 2.87 20
-1.379 -0.223 2.855 23
-1.356 -0.232 2.844 26
-1.598 -0.288 2.798 13
-1.382 -0.263 2.809 22
-1.397 -0.279 2.79 20
-1.403 -0.295 2.77 15
-1.197 -0.263 2.787 17
-1.188 -0.273 2.771 20
-1.106 -0.265 2.77 11
-5.284 -1.574 2.722 3
-5.623 -1.578 2.693 11
-5.986 -1.578 2.665 3
-6.382 -1.577 2.636 16
-6.825 -1.578 2.607 18
-7.324 -1.58 2.577 4
-7.917 -1.592 2.543 13
-8.597 -1.609 2.508 7
-5.532 -0.963 2.687 0
-7.026 -1.139 2.608 20
-7.033 -1.064 2.613 42
-9.444 -1.339 2.486 9
-9.375 -1.256 2.492 11
-9.259 -1.184 2.498 6
-8.669 -1.073 2.522 24
-8.044 -0.978 2.544 0
-7.527 -0.916 2.553 0
-7.072 -0.872 2.555 0
-6.675 -0.848 2.549 0
-1.515 -0.201 2.889 24
-1.529 -0.212 2.878 42
-1.514 -0.221 2.867 37
-1.369 -0.212 2.868 21
-1.382 -0.225 2.854 23
-1.367 -0.235 2.841 26
-1.386 -0.253 2.823 20
-1.378 -0.264 2.808 20
-1.392 -0.281 2.788 16
-1.379 -0.291 2.773 10
-1.193 -0.264 2.787 18
-1.206 -0.278 2.767 12
-1.128 -0.271 2.765 12
-5.243 -1.57 2.723 3
-5.605 -1.582 2.693 21
-5.953 -1.579 2.664 12
-6.368 -1.584 2.634 10
-6.795 -1.583 2.605 7
-7.266 -1.581 2.576 9
-7.839 -1.593 2.543 5
-5.509 -1.043 2.681 0
-5.553 -0.98 2.682 5
-5.529 -0.909 2.687 0
-7.034 -1.082 2.606 48
-5.542 -0.8 2.693 0
-9.347 -1.278 2.484 16
-8.685 -1.135 2.518 14
-8.61 -1.091 2.514 6
-7.862 -0.979 2.544 0
-7.378 -0.918 2.552 0
-6.927 -0.874 2.555 0
-6.55 -0.849 2.549 0
-1.51 -0.204 2.887 25
-1.524 -0.215 2.876 42
-1.529 -0.227 2.864 35
-1.349 -0.211 2.868 18
-1.362 -0.225 2.854 19
-1.37 -0.239 2.839 25
-1.347 -0.248 2.827 17
-1.381 -0.267 2.806 13
-1.403 -0.285 2.785 11
-1.336 -0.284 2.778 10
-1.188 -0.264 2.786 13
-1.279 -0.297 2.751 11
-1.17 -0.282 2.755 13
-5.268 -1.586 2.72 6
-5.587 -1.585 2.692 6
-5.943 -1.587 2.663 12
-6.318 -1.584 2.634 4
-6.737 -1.583 2.605 4
-7.247 -1.592 2.573 10
-7.804 -1.602 2.541 15
-5.538 -1.06 2.676 2
-5.527 -0.988 2.679 33
-5.562 -0.928 2.68 1
-7.035 -1.1 2.6 129
-5.536 -0.815 2.687 1
-9.327 -1.302 2.474 16
-8.677 -1.159 2.508 10
-8.408 -1.089 2.515 1
-7.681 -0.978 2.544 0
-7.22 -0.919 2.552 0
-6.797 -0.877 2.553 0
-1.527 -0.202 2.893 0
-1.506 -0.207 2.886 26
-1.519 -0.218 2.874 41
-1.529 -0.23 2.862 35
-1.329 -0.211 2.868 15
-1.322 -0.221 2.856 15
-1.338 -0.236 2.841 21
-1.291 -0.239 2.832 11
-1.365 -0.266 2.807 12
-1.395 -0.285 2.785 10
-1.204 -0.258 2.798 10
-1.169 -0.261 2.788 9
-1.309 -0.305 2.744 12
-1.154 -0.28 2.757 12
-5.231 -1.582 2.721 6
-5.546 -1.583 2.692 4
-5.89 -1.582 2.664 4
-6.277 -1.585 2.634 14
-6.703 -1.588 2.604 19
-7.17 -1.589 2.574 6
-7.73 -1.603 2.54 4
-5.492 -1.064 2.675 28
-5.474 -0.991 2.678 14
-5.552 -0.941 2.676 8
-7.048 -1.121 2.592 146
-5.545 -0.831 2.681 25
-9.303 -1.325 2.465 26
-8.665 -1.182 2.498 15
-8.036 -1.065 2.526 0
-7.503 -0.978 2.544 0
-7.007 -0.912 2.555 0
-6.664 -0.878 2.553 0
-1.514 -0.204 2.891 0
-1.509 -0.211 2.883 33
-1.523 -0.222 2.872 41
-1.528 -0.233 2.86 32
-1.324 -0.212 2.867 17
-1.314 -0.222 2.856 15
-1.306 -0.233 2.843 20
-1.279 -0.239 2.832 10
-1.341 -0.263 2.809 8
-1.379 -0.284 2.786 5
-1.192 -0.257 2.799 13
-1.168 -0.262 2.788 16
-1.32 -0.309 2.741 12
-1.157 -0.281 2.755 12
-5.205 -1.583 2.721 6
-5.517 -1.585 2.692 9
-5.852 -1.583 2.664 6
-6.266 -1.594 2.632 11
-6.673 -1.593 2.603 5
-7.139 -1.596 2.572 22
-7.695 -1.612 2.538 18
-5.47 -1.072 2.672 17
-5.444 -0.999 2.675 13
-5.51 -0.947 2.674 9
-7.064 -1.142 2.584 53
-5.546 -0.846 2.675 4
-8.694 -1.262 2.49 7
-8.614 -1.199 2.491 5
-7.842 -1.062 2.527 0
-7.345 -0.978 2.544 0
-6.917 -0.92 2.551 0
-6.542 -0.88 2.552 0
-1.522 -0.209 2.889 1
-1.508 -0.215 2.881 42
-1.522 -0.226 2.87 41
-1.515 -0.235 2.859 29
-1.273 -0.207 2.871 12
-1.246 -0.213 2.862 12
-1.286 -0.231 2.844 16
-1.24 -0.234 2.836 10
-1.197 -0.237 2.828 3
-1.247 -0.259 2.805 0
-1.199 -0.26 2.797 12
-1.171 -0.265 2.786 22
-1.376 -0.324 2.728 11
-1.214 -0.297 2.742 14
-5.18 -1.584 2.721 12
-5.491 -1.586 2.692 18
-5.823 -1.586 2.663 22
-6.209 -1.591 2.633 4
-6.623 -1.594 2.603 6
-7.085 -1.599 2.572 3
-7.629 -1.614 2.537 3
-5.448 -1.08 2.67 17
-5.429 -1.009 2.672 22
-5.46 -0.952 2.672 14
-5.579 -0.917 2.666 0
-5.52 -0.857 2.671 0
-8.635 -1.278 2.484 7
-8.246 -1.172 2.502 0
-7.677 -1.062 2.527 0
-7.207 -0.981 2.543 0
-6.787 -0.922 2.55 0
-6.227 -0.855 2.564 0
