# .PCD v0.7 - Point Cloud Data file format
VERSION 0.7
FIELDS x y z intensity
SIZE 4 4 4 4
TYPE F F F F
COUNT 1 1 1 1
WIDTH 2132
HEIGHT 1
VIEWPOINT 0 0 0 1 0 0 0
POINTS 2132
DATA ascii
125.324 -31.755 -6.708 23
89.45 -21.738 -4.063 7
96.726 -22.585 -4.777 9
99.76 -22.48 -5.182 13
0.0 -0.0 3.0 0
0.0 -0.0 3.0 0
0.0 -0.0 3.0 0
0.0 -0.0 3.0 0
0.0 -0.0 3.0 0
64.418 -12.877 -3.281 3
55.566 -11.109 -2.661 4
51.739 -10.404 -2.532 10
47.558 -9.676 -2.364 7
43.452 -8.979 -2.184 21
0.0 -0.0 3.0 0
35.475 -7.649 -1.78 1
0.0 -0.0 3.0 0
26.619 -6.046 -1.078 0
26.445 -6.179 -1.326 1
7.354 -1.768 1.716 2
7.351 -1.82 1.629 58
7.338 -1.869 1.54 59
7.365 -1.93 1.437 58
7.365 -1.985 1.334 17
7.371 -2.041 1.226 15
0.0 -0.0 3.0 0
0.0 -0.0 3.0 0
68.246 -21.86 -1.646 11
70.892 -21.701 -2.01 12
75.8 -22.167 -2.527 11
82.593 -23.095 -3.188 8
0.0 -0.0 3.0 0
85.72 -21.951 -3.711 11
89.294 -21.949 -4.132 9
95.463 -22.562 -4.769 7
0.0 -0.0 3.0 0
52.94 -11.688 -1.487 5
0.0 -0.0 3.0 0
0.0 -0.0 3.0 0
0.0 -0.0 3.0 0
0.0 -0.0 3.0 0
63.748 -12.932 -3.307 3
53.745 -10.901 -2.554 19
51.196 -10.44 -2.551 10
46.956 -9.684 -2.368 16
43.169 -9.036 -2.217 7
39.879 -8.51 -2.114 9
35.431 -7.727 -1.828 2
0.0 -0.0 3.0 0
26.628 -6.108 -1.12 0
26.415 -6.229 -1.361 2
0.0 -0.0 3.0 0
7.354 -1.834 1.618 58
7.341 -1.884 1.528 59
7.341 -1.936 1.432 59
7.368 -1.998 1.323 24
7.359 -2.05 1.218 26
64.444 -22.74 -1.01 57
66.4 -22.413 -1.357 42
67.627 -21.821 -1.638 11
70.349 -21.705 -2.011 12
77.177 -22.762 -2.675 22
81.632 -23.036 -3.172 40
0.0 -0.0 3.0 0
85.149 -22.038 -3.738 6
90.291 -22.445 -4.293 12
91.288 -21.836 -4.519 14
100.197 -23.161 -5.43 15
51.723 -11.572 -1.442 7
0.0 -0.0 3.0 0
0.0 -0.0 3.0 0
0.0 -0.0 3.0 0
0.0 -0.0 3.0 0
63.044 -12.976 -3.329 4
53.734 -11.055 -2.633 24
50.759 -10.495 -2.58 11
46.666 -9.753 -2.406 15
42.777 -9.068 -2.235 7
39.556 -8.544 -2.133 12
36.699 -8.094 -2.058 6
0.0 -0.0 3.0 0
26.559 -6.153 -1.15 1
26.404 -6.284 -1.4 2
26.427 -6.462 -1.695 0
7.352 -1.849 1.607 58
7.343 -1.898 1.517 57
7.339 -1.949 1.421 58
7.363 -2.01 1.314 17
7.372 -2.066 1.204 15
0.0 -0.0 3.0 0
0.0 -0.0 3.0 0
66.986 -21.774 -1.628 11
69.677 -21.669 -2.003 13
77.163 -22.953 -2.723 29
80.909 -23.042 -3.174 14
0.0 -0.0 3.0 0
0.0 -0.0 3.0 0
84.954 -21.357 -3.939 11
90.982 -22.023 -4.583 13
0.0 -0.0 3.0 0
110.893 -25.139 -6.65 15
0.0 -0.0 3.0 0
0.0 -0.0 3.0 0
0.0 -0.0 3.0 0
0.0 -0.0 3.0 0
0.0 -0.0 3.0 0
54.178 -11.305 -2.76 16
50.395 -10.564 -2.617 11
46.213 -9.786 -2.425 7
42.494 -9.122 -2.267 25
39.221 -8.573 -2.151 14
36.537 -8.149 -2.092 14
0.0 -0.0 3.0 0
26.543 -6.21 -1.188 3
0.0 -0.0 3.0 0
0.0 -0.0 3.0 0
7.351 -1.863 1.596 11
7.345 -1.913 1.506 57
7.341 -1.963 1.41 59
7.365 -2.023 1.303 52
7.367 -2.076 1.195 25
0.0 -0.0 3.0 0
64.46 -22.058 -1.288 8
66.265 -21.699 -1.612 10
68.879 -21.591 -1.985 7
77.164 -23.149 -2.772 34
80.121 -23.027 -3.17 11
0.0 -0.0 3.0 0
85.044 -22.477 -3.872 15
84.838 -21.566 -4.007 10
90.454 -22.155 -4.629 8
0.0 -0.0 3.0 0
0.0 -0.0 3.0 0
0.0 -0.0 3.0 0
0.0 -0.0 3.0 0
0.0 -0.0 3.0 0
0.0 -0.0 3.0 0
61.707 -13.067 -3.373 3
54.1 -11.446 -2.832 17
50.008 -10.625 -2.65 11
45.802 -9.827 -2.447 17
42.261 -9.186 -2.304 17
38.933 -8.611 -2.174 12
36.271 -8.181 -2.112 14
0.0 -0.0 3.0 0
26.52 -6.266 -1.226 8
0.0 -0.0 3.0 0
0.0 -0.0 3.0 0
20.866 -5.331 -1.017 0
7.344 -1.926 1.495 58
7.344 -1.977 1.399 58
7.352 -2.032 1.295 47
7.369 -2.089 1.184 15
62.461 -22.465 -0.961 15
63.8 -21.982 -1.273 14
65.621 -21.646 -1.601 13
71.446 -22.573 -2.211 39
75.85 -22.949 -2.722 23
0.0 -0.0 3.0 0
83.937 -23.345 -3.694 10
0.0 -0.0 3.0 0
84.187 -21.639 -4.031 5
89.648 -22.217 -4.65 16
0.0 -0.0 3.0 0
35.766 -8.321 -0.194 6
0.0 -0.0 3.0 0
0.0 -0.0 3.0 0
0.0 -0.0 3.0 0
0.0 -0.0 3.0 0
61.027 -13.105 -3.392 3
54.546 -11.701 -2.962 2
49.723 -10.707 -2.693 12
45.473 -9.883 -2.478 10
41.861 -9.213 -2.319 5
38.641 -8.647 -2.196 12
36.016 -8.215 -2.133 13
0.0 -0.0 3.0 0
26.501 -6.323 -1.265 11
0.0 -0.0 3.0 0
26.431 -6.63 -1.817 4
20.79 -5.354 -1.034 0
7.346 -1.941 1.483 57
7.346 -1.991 1.387 57
7.347 -2.044 1.285 58
7.364 -2.1 1.174 23
62.413 -22.592 -0.984 21
63.25 -21.943 -1.265 13
65.011 -21.604 -1.592 13
71.437 -22.75 -2.252 43
75.842 -23.142 -2.77 36
78.021 -22.835 -3.118 10
87.191 -24.487 -4.021 7
84.951 -22.923 -4.008 6
85.775 -22.292 -4.243 7
89.804 -22.516 -4.753 6
0.0 -0.0 3.0 0
35.747 -8.423 -0.233 6
0.0 -0.0 3.0 0
0.0 -0.0 3.0 0
0.0 -0.0 3.0 0
0.0 -0.0 3.0 0
60.444 -13.159 -3.418 3
55.181 -11.998 -3.113 6
49.46 -10.793 -2.738 14
45.039 -9.915 -2.496 8
41.497 -9.245 -2.338 18
38.333 -8.679 -2.215 10
35.773 -8.25 -2.155 13
29.41 -6.927 -1.499 0
26.473 -6.378 -1.302 9
0.0 -0.0 3.0 0
26.415 -6.682 -1.855 8
20.725 -5.379 -1.053 0
7.344 -1.955 1.472 25
7.348 -2.006 1.376 58
7.352 -2.058 1.273 57
7.362 -2.112 1.164 29
0.0 -0.0 3.0 0
62.636 -21.88 -1.253 13
64.435 -21.57 -1.585 11
67.997 -21.827 -2.039 6
75.445 -23.216 -2.788 30
78.026 -23.044 -3.175 34
85.098 -24.131 -3.919 6
82.901 -22.601 -3.91 18
85.848 -22.555 -4.329 10
90.022 -22.832 -4.862 8
37.061 -9.111 -0.316 3
0.0 -0.0 3.0 0
0.0 -0.0 3.0 0
0.0 -0.0 3.0 0
0.0 -0.0 3.0 0
66.087 -14.668 -3.84 4
59.796 -13.196 -3.436 4
54.611 -12.034 -3.132 8
49.166 -10.87 -2.78 10
44.664 -9.957 -2.519 17
41.268 -9.307 -2.373 27
38.049 -8.715 -2.236 10
35.541 -8.286 -2.178 13
0.0 -0.0 3.0 0
26.464 -6.437 -1.342 13
0.0 -0.0 3.0 0
26.398 -6.735 -1.893 5
20.607 -5.39 -1.062 0
20.532 -5.506 -1.301 0
7.35 -2.02 1.364 57
7.351 -2.071 1.262 57
7.36 -2.124 1.153 47
0.0 -0.0 3.0 0
62.049 -21.825 -1.242 15
64.502 -21.753 -1.624 15
71.422 -23.108 -2.335 34
74.914 -23.249 -2.797 12
0.0 -0.0 3.0 0
84.818 -24.284 -3.963 8
82.541 -22.734 -3.951 14
0.0 -0.0 3.0 0
88.485 -22.701 -4.817 9
36.015 -8.961 -0.261 5
100.864 -24.372 -6.356 9
84.16 -19.85 -5.02 13
0.0 -0.0 3.0 0
0.0 -0.0 3.0 0
0.0 -0.0 3.0 0
59.171 -13.235 -3.455 3
54.017 -12.063 -3.146 8
49.031 -10.981 -2.839 13
44.389 -10.021 -2.555 10
41.039 -9.367 -2.408 9
37.803 -8.758 -2.262 12
35.314 -8.323 -2.201 16
0.0 -0.0 3.0 0
26.444 -6.495 -1.381 42
0.0 -0.0 3.0 0
26.42 -6.798 -1.939 3
20.568 -5.423 -1.086 0
20.437 -5.521 -1.313 0
7.348 -2.034 1.353 57
7.356 -2.086 1.25 57
7.351 -2.134 1.145 57
60.466 -22.314 -0.935 58
61.503 -21.783 -1.234 16
63.903 -21.71 -1.615 14
71.438 -23.295 -2.378 41
74.131 -23.201 -2.785 10
76.235 -22.924 -3.143 16
82.479 -23.842 -3.837 17
83.643 -23.274 -4.116 15
84.648 -22.726 -4.384 6
35.731 -9.271 -0.192 6
36.083 -9.086 -0.307 5
35.641 -8.719 -0.347 6
84.09 -20.088 -5.116 72
0.0 -0.0 3.0 0
0.0 -0.0 3.0 0
0.0 -0.0 3.0 0
58.562 -13.275 -3.475 3
53.486 -12.102 -3.166 10
48.369 -10.972 -2.834 9
44.072 -10.073 -2.584 7
40.69 -9.398 -2.426 8
37.55 -8.8 -2.287 11
35.093 -8.361 -2.225 13
0.0 -0.0 3.0 0
0.0 -0.0 3.0 0
0.0 -0.0 3.0 0
26.502 -6.877 -1.996 2
20.541 -5.459 -1.114 2
20.379 -5.546 -1.333 0
7.354 -2.049 1.34 42
7.35 -2.098 1.24 58
7.345 -2.145 1.135 56
59.34 -22.04 -0.886 7
60.943 -21.733 -1.225 13
63.308 -21.668 -1.606 15
71.403 -23.468 -2.418 29
73.395 -23.164 -2.776 9
75.648 -22.953 -3.15 10
77.71 -22.679 -3.503 21
84.114 -23.644 -4.229 11
82.573 -22.408 -4.281 15
36.893 -9.682 -0.334 1
35.985 -9.168 -0.337 3
35.949 -8.903 -0.418 10
35.894 -8.684 -0.509 16
0.0 -0.0 3.0 0
0.0 -0.0 3.0 0
63.951 -14.774 -3.889 3
58.0 -13.321 -3.497 3
53.181 -12.19 -3.211 21
47.924 -11.011 -2.854 8
43.685 -10.108 -2.603 15
40.437 -9.451 -2.457 7
37.304 -8.841 -2.312 10
34.869 -8.398 -2.247 13
0.0 -0.0 3.0 0
0.0 -0.0 3.0 0
0.0 -0.0 3.0 0
27.14 -7.102 -2.16 14
20.521 -5.497 -1.142 7
20.378 -5.587 -1.365 0
18.744 -5.26 -1.259 0
7.352 -2.112 1.228 57
7.347 -2.159 1.123 56
58.828 -21.993 -0.878 12
60.394 -21.687 -1.216 11
62.597 -21.583 -1.588 7
70.728 -23.43 -2.409 13
72.697 -23.137 -2.769 10
75.034 -22.971 -3.155 46
77.169 -22.736 -3.519 16
82.397 -23.395 -4.153 9
82.367 -22.59 -4.34 12
35.527 -9.428 -0.246 3
0.0 -0.0 3.0 0
35.765 -8.965 -0.441 5
35.854 -8.783 -0.549 7
0.0 -0.0 3.0 0
0.0 -0.0 3.0 0
63.253 -14.805 -3.903 4
57.373 -13.349 -3.511 4
52.82 -12.263 -3.248 9
47.418 -11.032 -2.866 6
43.426 -10.171 -2.638 21
40.065 -9.475 -2.47 8
37.055 -8.882 -2.337 11
34.622 -8.427 -2.266 13
0.0 -0.0 3.0 0
0.0 -0.0 3.0 0
0.0 -0.0 3.0 0
27.008 -7.127 -2.178 14
20.504 -5.536 -1.171 4
0.0 -0.0 3.0 0
18.623 -5.262 -1.261 0
7.354 -2.126 1.216 57
7.348 -2.172 1.112 56
58.335 -21.95 -0.87 15
59.834 -21.635 -1.205 17
66.454 -23.083 -1.906 42
70.053 -23.389 -2.4 13
71.992 -23.106 -2.761 10
75.022 -23.173 -3.209 23
77.006 -22.904 -3.568 11
0.0 -0.0 3.0 0
82.849 -22.964 -4.461 7
34.69 -9.308 -0.205 7
36.751 -9.583 -0.488 9
35.508 -9.009 -0.458 10
37.239 -9.236 -0.732 17
0.0 -0.0 3.0 0
0.0 -0.0 3.0 0
62.594 -14.84 -3.92 4
56.85 -13.399 -3.535 3
52.073 -12.244 -3.239 7
46.989 -11.069 -2.885 7
43.093 -10.215 -2.662 6
39.871 -9.539 -2.507 16
36.805 -8.92 -2.36 11
34.41 -8.465 -2.289 13
0.0 -0.0 3.0 0
0.0 -0.0 3.0 0
26.294 -6.85 -1.797 4
24.257 -6.455 -1.69 1
20.51 -5.581 -1.205 1
0.0 -0.0 3.0 0
18.552 -5.278 -1.274 0
7.355 -2.14 1.204 55
7.353 -2.187 1.099 57
57.809 -21.893 -0.86 14
59.312 -21.595 -1.198 16
66.448 -23.251 -1.942 43
69.405 -23.356 -2.392 10
0.0 -0.0 3.0 0
75.039 -23.385 -3.266 17
76.835 -23.069 -3.615 14
81.358 -23.566 -4.205 9
80.647 -22.589 -4.34 10
34.715 -9.418 -0.243 1
35.388 -9.334 -0.397 2
36.296 -9.32 -0.577 5
37.25 -9.354 -0.779 17
0.0 -0.0 3.0 0
0.0 -0.0 3.0 0
61.892 -14.863 -3.931 3
56.223 -13.42 -3.546 3
51.532 -12.27 -3.252 6
46.591 -11.11 -2.907 8
42.707 -10.246 -2.679 9
39.553 -9.573 -2.527 16
36.54 -8.954 -2.38 10
34.216 -8.506 -2.315 14
0.0 -0.0 3.0 0
0.0 -0.0 3.0 0
26.379 -6.934 -1.855 3
24.237 -6.504 -1.725 1
0.0 -0.0 3.0 0
20.385 -5.713 -1.464 0
18.454 -5.287 -1.281 0
8.522 -2.496 0.906 3
7.351 -2.2 1.088 56
57.331 -21.854 -0.853 17
59.295 -21.739 -1.226 9
61.989 -21.851 -1.645 6
68.776 -23.327 -2.385 13
0.0 -0.0 3.0 0
75.037 -23.592 -3.321 18
77.114 -23.372 -3.702 10
0.0 -0.0 3.0 0
35.225 -9.97 -0.239 8
35.239 -9.665 -0.328 10
35.32 -9.423 -0.43 8
35.553 -9.237 -0.546 7
35.969 -9.142 -0.694 3
0.0 -0.0 3.0 0
0.0 -0.0 3.0 0
61.238 -14.892 -3.944 4
55.647 -13.45 -3.56 3
51.076 -12.313 -3.274 7
46.197 -11.151 -2.929 8
42.428 -10.3 -2.709 23
39.227 -9.603 -2.544 10
36.298 -8.993 -2.403 11
34.011 -8.545 -2.339 12
0.0 -0.0 3.0 0
0.0 -0.0 3.0 0
26.289 -6.971 -1.881 3
24.213 -6.552 -1.761 255
0.0 -0.0 3.0 0
20.353 -5.746 -1.49 2
18.379 -5.302 -1.293 0
0.0 -0.0 3.0 0
7.352 -2.214 1.076 55
56.839 -21.808 -0.845 16
58.93 -21.755 -1.229 17
66.411 -23.584 -2.013 9
68.148 -23.295 -2.378 14
0.0 -0.0 3.0 0
75.022 -23.797 -3.376 29
76.995 -23.554 -3.754 17
80.467 -23.773 -4.268 7
34.954 -9.996 -0.248 5
35.474 -9.836 -0.387 3
35.436 -9.561 -0.48 4
35.338 -9.288 -0.565 9
36.813 -9.47 -0.826 7
0.0 -0.0 3.0 0
66.878 -16.648 -4.412 3
60.576 -14.916 -3.955 4
55.121 -13.49 -3.58 4
50.542 -12.335 -3.285 10
45.803 -11.19 -2.95 7
42.165 -10.356 -2.741 11
38.84 -9.616 -2.552 9
36.06 -9.031 -2.427 11
33.772 -8.572 -2.357 12
27.543 -7.105 -1.614 0
0.0 -0.0 3.0 0
26.297 -7.036 -1.927 10
24.197 -6.602 -1.797 187
0.0 -0.0 3.0 0
20.328 -5.782 -1.518 5
18.307 -5.317 -1.306 0
0.0 -0.0 3.0 0
7.35 -2.227 1.064 54
56.384 -21.775 -0.839 14
58.431 -21.721 -1.222 18
65.809 -23.543 -2.004 15
67.531 -23.266 -2.371 14
0.0 -0.0 3.0 0
75.045 -24.014 -3.434 27
76.86 -23.732 -3.805 8
80.685 -24.073 -4.36 6
80.874 -23.368 -4.593 8
35.099 -9.837 -0.387 6
35.49 -9.684 -0.525 2
35.331 -9.395 -0.607 9
36.766 -9.571 -0.867 2
0.0 -0.0 3.0 0
0.0 -0.0 3.0 0
59.938 -14.942 -3.968 4
54.576 -13.522 -3.595 4
50.029 -12.359 -3.297 8
45.448 -11.236 -2.974 8
41.759 -10.376 -2.752 6
38.634 -9.673 -2.585 14
35.807 -9.065 -2.447 11
33.524 -8.598 -2.372 11
27.458 -7.153 -1.645 0
0.0 -0.0 3.0 0
26.297 -7.098 -1.97 3
26.327 -7.244 -2.263 15
0.0 -0.0 3.0 0
20.326 -5.824 -1.55 6
18.246 -5.337 -1.322 0
17.989 -5.372 -1.508 0
7.362 -2.244 1.049 15
55.88 -21.722 -0.83 14
57.931 -21.685 -1.215 23
65.215 -23.502 -1.996 15
66.462 -23.077 -2.328 35
0.0 -0.0 3.0 0
74.194 -23.95 -3.417 9
77.375 -24.113 -3.914 8
82.4 -24.824 -4.589 7
35.616 -10.396 -0.378 9
34.972 -9.907 -0.411 7
36.614 -10.102 -0.677 7
35.88 -9.651 -0.705 4
0.0 -0.0 3.0 0
0.0 -0.0 3.0 0
65.391 -16.68 -4.426 3
59.362 -14.98 -3.985 4
54.036 -13.552 -3.61 4
49.5 -12.376 -3.306 7
45.139 -11.293 -3.004 8
41.458 -10.42 -2.776 22
38.308 -9.699 -2.6 13
35.569 -9.102 -2.469 12
33.262 -8.619 -2.386 11
0.0 -0.0 3.0 0
0.0 -0.0 3.0 0
26.309 -7.164 -2.016 5
26.202 -7.269 -2.281 19
0.0 -0.0 3.0 0
19.144 -5.526 -1.317 1
18.163 -5.349 -1.332 0
17.944 -5.394 -1.526 0
7.767 -2.382 0.929 3
55.415 -21.682 -0.823 17
57.14 -21.538 -1.187 16
64.662 -23.475 -1.99 14
0.0 -0.0 3.0 0
0.0 -0.0 3.0 0
74.845 -24.372 -3.531 10
77.718 -24.444 -4.009 11
35.633 -10.84 -0.314 7
35.558 -10.485 -0.407 7
34.876 -9.985 -0.438 7
34.412 -9.6 -0.494 12
35.472 -9.651 -0.705 4
36.56 -9.743 -0.936 1
36.897 -9.658 -1.099 10
64.632 -16.686 -4.429 4
58.755 -15.008 -3.999 5
53.522 -13.586 -3.627 4
49.041 -12.408 -3.322 7
44.796 -11.339 -3.029 9
41.229 -10.483 -2.811 31
38.064 -9.744 -2.625 17
35.335 -9.139 -2.491 12
33.03 -8.646 -2.403 11
0.0 -0.0 3.0 0
0.0 -0.0 3.0 0
26.267 -7.215 -2.052 7
26.066 -7.292 -2.298 19
0.0 -0.0 3.0 0
19.026 -5.533 -1.323 1
18.118 -5.373 -1.351 0
17.991 -5.444 -1.568 0
7.816 -2.412 0.904 3
54.942 -21.638 -0.815 19
61.462 -23.328 -1.534 49
64.091 -23.439 -1.982 14
28.371 -10.006 0.69 1
75.069 -25.534 -3.366 6
75.043 -24.65 -3.605 25
77.538 -24.612 -4.057 5
79.557 -24.436 -4.471 18
35.438 -10.556 -0.43 4
34.979 -10.12 -0.485 3
34.492 -9.727 -0.54 8
0.0 -0.0 3.0 0
36.715 -9.898 -0.999 12
36.861 -9.763 -1.144 10
63.979 -16.716 -4.442 3
58.133 -15.028 -4.008 3
52.936 -13.598 -3.632 9
48.571 -12.436 -3.336 7
44.464 -11.386 -3.054 8
41.032 -10.55 -2.848 12
37.812 -9.786 -2.65 16
35.1 -9.174 -2.512 11
32.829 -8.681 -2.424 12
0.0 -0.0 3.0 0
0.0 -0.0 3.0 0
26.433 -7.324 -2.129 3
25.914 -7.309 -2.31 20
0.0 -0.0 3.0 0
18.915 -5.541 -1.329 1
18.064 -5.395 -1.369 1
17.946 -5.466 -1.586 0
7.913 -2.457 0.864 5
54.502 -21.605 -0.81 20
61.469 -23.492 -1.566 53
63.542 -23.41 -1.976 15
28.375 -10.085 0.672 6
75.035 -25.733 -3.416 18
75.04 -24.864 -3.662 23
77.191 -24.726 -4.09 7
81.449 -25.258 -4.722 10
35.174 -10.583 -0.439 7
36.144 -10.567 -0.639 9
34.499 -9.836 -0.58 9
35.777 -9.955 -0.821 2
36.698 -10.007 -1.043 7
0.0 -0.0 3.0 0
63.279 -16.73 -4.449 3
57.52 -15.047 -4.016 4
52.558 -13.662 -3.663 6
48.124 -12.466 -3.352 7
44.109 -11.426 -3.075 7
40.745 -10.595 -2.873 6
37.502 -9.812 -2.665 14
34.862 -9.208 -2.533 11
32.609 -8.709 -2.442 12
0.0 -0.0 3.0 0
0.0 -0.0 3.0 0
26.25 -7.337 -2.137 8
25.782 -7.331 -2.327 18
0.0 -0.0 3.0 0
18.827 -5.556 -1.341 1
18.044 -5.426 -1.394 2
17.937 -5.499 -1.614 0
7.876 -2.461 0.861 2
54.571 -21.774 -0.839 14
56.862 -21.883 -1.254 8
62.994 -23.379 -1.969 15
28.372 -10.162 0.654 8
28.414 -9.824 0.55 1
75.047 -25.082 -3.721 25
77.712 -25.121 -4.203 6
81.325 -25.461 -4.784 5
35.557 -10.805 -0.511 9
35.374 -10.45 -0.598 8
34.364 -9.903 -0.604 24
35.411 -9.963 -0.824 7
36.91 -10.18 -1.113 15
0.0 -0.0 3.0 0
0.0 -0.0 3.0 0
56.907 -15.062 -4.023 3
52.05 -13.689 -3.677 6
47.696 -12.499 -3.368 6
43.743 -11.46 -3.094 6
40.475 -10.642 -2.899 6
37.25 -9.851 -2.688 14
34.644 -9.246 -2.556 11
32.411 -8.744 -2.464 11
0.0 -0.0 3.0 0
0.0 -0.0 3.0 0
26.23 -7.395 -2.178 4
25.645 -7.353 -2.342 19
0.0 -0.0 3.0 0
18.735 -5.57 -1.351 1
18.047 -5.465 -1.425 0
17.913 -5.527 -1.638 1
17.769 -5.585 -1.855 1
54.191 -21.764 -0.838 20
56.452 -21.876 -1.252 5
62.465 -23.353 -1.964 16
28.409 -10.254 0.633 0
28.354 -9.884 0.536 0
75.041 -25.297 -3.778 28
77.966 -25.431 -4.292 5
35.712 -11.287 -0.451 1
35.037 -10.753 -0.494 19
35.059 -10.464 -0.603 11
36.724 -10.696 -0.893 8
35.042 -9.967 -0.826 17
37.059 -10.337 -1.176 17
0.0 -0.0 3.0 0
61.936 -16.76 -4.462 3
56.321 -15.081 -4.032 5
51.599 -13.728 -3.696 7
47.265 -12.529 -3.384 6
43.411 -11.503 -3.116 6
40.212 -10.69 -2.925 3
36.963 -9.881 -2.705 10
34.387 -9.272 -2.571 10
32.214 -8.777 -2.485 11
30.324 -8.37 -2.435 13
0.0 -0.0 3.0 0
26.886 -7.646 -2.354 21
21.877 -6.324 -1.595 2
20.313 -5.977 -1.504 0
18.677 -5.593 -1.37 1
0.0 -0.0 3.0 0
17.886 -5.555 -1.661 14
17.752 -5.614 -1.88 1
53.77 -21.737 -0.833 19
60.433 -23.581 -1.584 17
61.481 -23.153 -1.921 46
0.0 -0.0 3.0 0
75.064 -26.381 -3.577 17
75.024 -25.508 -3.835 26
70.922 -23.343 -3.693 4
0.0 -0.0 3.0 0
34.43 -10.671 -0.467 15
33.608 -10.134 -0.489 8
84.87 -24.982 -6.093 9
35.032 -10.074 -0.867 10
35.819 -10.103 -1.082 2
0.0 -0.0 3.0 0
61.284 -16.775 -4.469 3
55.751 -15.102 -4.042 5
51.106 -13.754 -3.708 9
46.857 -12.562 -3.401 7
43.099 -11.548 -3.14 6
39.918 -10.728 -2.947 7
36.696 -9.914 -2.724 10
34.164 -9.307 -2.592 10
32.017 -8.81 -2.505 11
30.148 -8.4 -2.455 14
26.44 -7.468 -2.037 5
26.717 -7.664 -2.366 23
21.808 -6.356 -1.618 1
20.31 -6.022 -1.538 1
18.596 -5.61 -1.383 0
0.0 -0.0 3.0 0
17.877 -5.589 -1.69 10
17.754 -5.65 -1.911 1
53.342 -21.706 -0.827 20
59.948 -23.554 -1.578 19
61.423 -23.301 -1.953 25
76.977 -28.218 -3.515 16
75.053 -26.592 -3.63 23
28.369 -9.728 0.393 31
68.67 -22.804 -3.539 14
0.0 -0.0 3.0 0
35.187 -11.014 -0.579 11
33.927 -10.334 -0.558 7
33.696 -10.023 -0.648 12
83.54 -24.284 -6.322 5
35.629 -10.161 -1.105 2
0.0 -0.0 3.0 0
60.671 -16.796 -4.478 4
55.224 -15.13 -4.055 4
50.629 -13.781 -3.721 12
46.457 -12.596 -3.418 8
42.783 -11.591 -3.163 7
39.663 -10.776 -2.973 12
36.444 -9.95 -2.745 10
33.93 -9.338 -2.611 10
31.827 -8.844 -2.527 12
29.971 -8.43 -2.474 14
26.498 -7.552 -2.094 1
26.568 -7.686 -2.382 20
21.686 -6.372 -1.629 1
20.395 -6.094 -1.592 4
18.534 -5.632 -1.4 0
0.0 -0.0 3.0 0
17.863 -5.621 -1.717 5
17.756 -5.685 -1.942 0
52.866 -21.653 -0.818 17
59.445 -23.518 -1.572 17
60.902 -23.272 -1.947 17
75.897 -28.036 -3.473 31
75.052 -26.808 -3.684 15
0.0 -0.0 3.0 0
0.0 -0.0 3.0 0
69.135 -22.473 -3.871 5
33.651 -10.635 -0.456 3
33.826 -10.408 -0.584 5
34.106 -10.251 -0.731 9
34.927 -10.263 -0.939 12
0.0 -0.0 3.0 0
0.0 -0.0 3.0 0
59.986 -16.794 -4.477 3
54.697 -15.155 -4.067 7
50.141 -13.803 -3.732 17
46.057 -12.627 -3.434 7
42.452 -11.628 -3.183 6
39.384 -10.816 -2.995 14
36.161 -9.977 -2.76 10
33.711 -9.372 -2.631 10
31.622 -8.873 -2.545 11
29.791 -8.457 -2.492 14
26.616 -7.654 -2.162 0
26.411 -7.705 -2.395 22
21.496 -6.367 -1.626 1
20.391 -6.14 -1.627 4
18.497 -5.662 -1.424 0
0.0 -0.0 3.0 0
17.846 -5.653 -1.743 2
17.754 -5.72 -1.972 0
56.482 -23.287 -1.106 46
58.947 -23.483 -1.565 17
60.377 -23.241 -1.94 16
75.214 -27.998 -3.464 5
75.058 -27.027 -3.739 22
67.905 -23.684 -3.346 17
0.0 -0.0 3.0 0
66.166 -21.708 -3.637 4
33.652 -10.739 -0.489 13
33.85 -10.521 -0.623 11
33.875 -10.288 -0.744 15
34.947 -10.378 -0.984 4
35.11 -10.234 -1.135 3
0.0 -0.0 3.0 0
59.355 -16.804 -4.482 4
54.193 -15.185 -4.081 11
49.634 -13.816 -3.739 21
45.646 -12.654 -3.448 8
42.14 -11.669 -3.204 7
38.744 -10.754 -2.961 7
35.879 -10.002 -2.775 11
33.504 -9.408 -2.653 11
31.413 -8.9 -2.562 11
29.592 -8.479 -2.507 11
27.807 -8.067 -2.441 20
26.269 -7.73 -2.412 22
21.401 -6.391 -1.643 1
20.379 -6.183 -1.659 3
18.446 -5.688 -1.444 0
0.0 -0.0 3.0 0
17.829 -5.685 -1.77 0
17.744 -5.752 -2.0 0
56.482 -23.44 -1.133 57
58.448 -23.445 -1.557 19
0.0 -0.0 3.0 0
77.119 -28.928 -3.678 15
75.067 -27.248 -3.794 22
64.783 -22.786 -3.105 6
28.36 -9.672 0.227 255
66.048 -21.871 -3.687 13
35.059 -11.296 -0.67 2
33.95 -10.657 -0.67 8
34.412 -10.558 -0.843 8
34.981 -10.498 -1.03 13
35.06 -10.33 -1.174 4
64.81 -18.789 -4.975 3
58.755 -16.819 -4.488 4
53.667 -15.205 -4.09 13
49.238 -13.859 -3.759 14
45.284 -12.692 -3.467 7
41.783 -11.696 -3.219 6
38.443 -10.783 -2.977 13
35.642 -10.039 -2.796 11
33.315 -9.45 -2.678 11
31.212 -8.928 -2.579 11
29.405 -8.505 -2.523 11
27.659 -8.096 -2.461 20
26.126 -7.753 -2.428 21
21.32 -6.418 -1.663 1
20.37 -6.229 -1.694 1
18.41 -5.718 -1.467 0
0.0 -0.0 3.0 0
17.794 -5.71 -1.792 1
17.749 -5.79 -2.033 0
56.489 -23.596 -1.161 36
58.017 -23.433 -1.555 18
28.389 -11.087 0.643 2
75.909 -28.691 -3.624 6
75.034 -27.455 -3.845 18
64.824 -22.993 -3.161 3
28.324 -9.746 0.205 7
65.919 -22.029 -3.735 21
35.081 -11.411 -0.708 4
33.7 -10.684 -0.679 12
34.332 -10.642 -0.873 10
35.0 -10.614 -1.074 1
0.0 -0.0 3.0 0
0.0 -0.0 3.0 0
58.213 -16.847 -4.501 4
53.141 -15.222 -4.098 18
48.717 -13.863 -3.761 5
44.901 -12.722 -3.482 7
41.456 -11.729 -3.236 9
38.086 -10.796 -2.984 10
35.379 -10.067 -2.812 11
33.097 -9.481 -2.697 11
31.018 -8.959 -2.598 12
29.217 -8.528 -2.538 12
27.518 -8.126 -2.481 20
25.969 -7.772 -2.442 21
21.228 -6.442 -1.68 1
20.346 -6.268 -1.724 3
18.377 -5.75 -1.492 0
0.0 -0.0 3.0 0
17.776 -5.742 -1.818 3
17.746 -5.825 -2.063 0
52.025 -21.874 -0.857 7
57.545 -23.404 -1.549 23
0.0 -0.0 3.0 0
75.292 -28.676 -3.62 9
74.248 -27.386 -3.828 13
65.085 -23.28 -3.238 9
64.504 -22.389 -3.42 9
0.0 -0.0 3.0 0
34.467 -11.318 -0.678 10
33.651 -10.774 -0.71 12
34.245 -10.722 -0.903 13
36.086 -11.057 -1.245 1
0.0 -0.0 3.0 0
0.0 -0.0 3.0 0
57.599 -16.851 -4.502 3
52.653 -15.248 -4.11 10
48.23 -13.874 -3.767 5
44.551 -12.76 -3.501 8
41.14 -11.764 -3.255 6
37.74 -10.809 -2.991 10
35.147 -10.103 -2.833 11
32.871 -9.509 -2.713 11
30.829 -8.989 -2.617 11
29.029 -8.551 -2.553 11
27.401 -8.163 -2.506 20
25.816 -7.791 -2.455 21
21.139 -6.466 -1.698 1
20.334 -6.313 -1.757 2
18.347 -5.782 -1.517 0
0.0 -0.0 3.0 0
17.773 -5.779 -1.849 4
17.762 -5.867 -2.1 0
55.79 -23.612 -1.163 15
56.486 -23.132 -1.496 38
0.0 -0.0 3.0 0
74.074 -28.427 -3.563 24
75.07 -27.911 -3.959 16
64.502 -23.264 -3.234 12
64.318 -22.519 -3.457 10
28.354 -9.65 0.05 5
34.334 -11.381 -0.698 1
34.087 -11.019 -0.794 10
34.138 -10.797 -0.93 9
36.824 -11.401 -1.376 4
35.571 -10.819 -1.371 4
35.38 -10.593 -1.496 11
57.034 -16.866 -4.509 3
52.071 -15.243 -4.108 5
47.782 -13.893 -3.776 21
44.133 -12.775 -3.509 5
40.837 -11.8 -3.274 7
37.436 -10.833 -3.005 10
34.925 -10.14 -2.854 11
32.648 -9.537 -2.73 13
30.654 -9.022 -2.638 12
28.883 -8.586 -2.576 11
27.287 -8.2 -2.531 16
25.67 -7.811 -2.47 20
21.051 -6.491 -1.716 1
20.313 -6.354 -1.788 2
18.34 -5.822 -1.549 0
0.0 -0.0 3.0 0
17.755 -5.811 -1.876 4
17.755 -5.901 -2.129 0
55.359 -23.582 -1.158 20
56.498 -23.296 -1.528 53
70.716 -28.224 -2.999 13
74.853 -28.945 -3.683 22
75.052 -28.127 -4.013 16
63.916 -23.245 -3.228 7
64.489 -22.776 -3.531 11
64.737 -22.231 -3.797 13
66.429 -22.227 -4.222 14
33.855 -11.051 -0.805 6
34.024 -10.869 -0.956 5
77.331 -24.187 -6.285 7
0.0 -0.0 3.0 0
34.96 -10.578 -1.49 15
0.0 -0.0 3.0 0
51.577 -15.26 -4.116 5
47.383 -13.925 -3.792 25
43.743 -12.797 -3.52 6
40.529 -11.835 -3.293 6
37.151 -10.861 -3.021 11
34.685 -10.172 -2.873 10
32.433 -9.567 -2.749 13
30.457 -9.05 -2.655 11
28.718 -8.614 -2.594 12
27.127 -8.223 -2.546 12
25.528 -7.834 -2.485 21
20.947 -6.511 -1.73 1
20.293 -6.396 -1.82 2
18.321 -5.858 -1.577 0
0.0 -0.0 3.0 0
17.756 -5.849 -1.908 3
17.781 -5.946 -2.169 0
54.92 -23.549 -1.152 20
56.2 -23.333 -1.535 21
70.165 -28.207 -2.996 13
74.82 -29.152 -3.73 24
74.975 -28.321 -4.061 26
63.924 -23.442 -3.281 8
64.152 -22.853 -3.553 11
65.963 -22.856 -3.988 12
28.395 -9.59 -0.116 1
33.65 -11.09 -0.819 3
36.149 -11.662 -1.245 2
36.991 -11.687 -1.486 4
0.0 -0.0 3.0 0
0.0 -0.0 3.0 0
0.0 -0.0 3.0 0
51.091 -15.278 -4.124 5
46.879 -13.923 -3.791 15
43.394 -12.828 -3.536 6
40.211 -11.864 -3.308 6
36.874 -10.89 -3.037 11
34.441 -10.201 -2.89 10
32.219 -9.596 -2.766 15
30.286 -9.083 -2.676 12
28.553 -8.642 -2.612 12
26.968 -8.246 -2.562 12
25.404 -7.86 -2.504 19
20.87 -6.539 -1.751 1
20.279 -6.44 -1.853 3
18.321 -5.9 -1.61 0
0.0 -0.0 3.0 0
17.745 -5.884 -1.938 2
17.74 -5.969 -2.189 0
54.496 -23.52 -1.147 19
55.744 -23.303 -1.53 21
69.567 -28.168 -2.987 11
74.842 -29.381 -3.783 12
74.867 -28.504 -4.107 18
63.816 -23.596 -3.323 17
63.561 -22.838 -3.549 11
64.606 -22.587 -3.906 8
28.38 -9.674 -0.143 0
34.758 -11.566 -0.982 8
36.285 -11.822 -1.303 8
75.831 -24.202 -6.29 6
0.0 -0.0 3.0 0
0.0 -0.0 3.0 0
34.846 -10.637 -1.736 20
50.586 -15.287 -4.128 5
46.553 -13.972 -3.815 5
43.06 -12.863 -3.554 6
39.919 -11.899 -3.327 5
36.582 -10.914 -3.05 11
34.19 -10.227 -2.904 10
31.974 -9.614 -2.777 13
30.104 -9.112 -2.694 11
28.373 -8.665 -2.627 12
26.787 -8.262 -2.573 13
25.295 -7.892 -2.526 18
20.807 -6.571 -1.774 1
20.266 -6.486 -1.887 3
18.313 -5.94 -1.641 0
0.0 -0.0 3.0 0
17.73 -5.918 -1.966 2
17.77 -6.017 -2.23 0
54.091 -23.498 -1.143 19
55.31 -23.28 -1.525 19
0.0 -0.0 3.0 0
74.722 -29.555 -3.823 45
63.327 -24.301 -3.059 9
63.82 -23.792 -3.375 12
62.109 -22.507 -3.454 6
63.333 -22.34 -3.83 4
35.926 -12.359 -1.016 11
34.684 -11.651 -1.012 11
35.726 -11.754 -1.278 18
75.093 -24.207 -6.292 5
0.0 -0.0 3.0 0
28.377 -8.858 -0.76 4
0.0 -0.0 3.0 0
34.722 -10.603 -1.944 16
46.132 -13.991 -3.824 6
42.689 -12.885 -3.565 6
39.615 -11.929 -3.343 6
36.321 -10.944 -3.067 10
33.965 -10.259 -2.923 11
31.767 -9.644 -2.795 15
29.922 -9.141 -2.712 11
28.201 -8.689 -2.643 12
26.642 -8.288 -2.59 13
25.217 -7.933 -2.555 20
20.737 -6.6 -1.796 0
20.255 -6.531 -1.922 2
18.309 -5.982 -1.674 0
17.714 -5.867 -1.751 0
17.733 -5.958 -1.999 1
17.802 -6.066 -2.273 0
53.671 -23.469 -1.138 20
0.0 -0.0 3.0 0
0.0 -0.0 3.0 0
74.953 -29.87 -3.896 18
64.512 -24.95 -3.221 4
63.964 -24.041 -3.442 6
0.0 -0.0 3.0 0
63.153 -22.473 -3.871 19
65.057 -22.586 -4.339 16
28.374 -9.622 -0.313 15
36.747 -12.207 -1.443 8
74.254 -24.175 -6.28 6
58.62 -18.767 -4.582 19
28.301 -8.926 -0.789 9
0.0 -0.0 3.0 0
34.716 -10.711 -1.995 2
34.797 -10.663 -2.201 15
42.345 -12.912 -3.579 6
39.369 -11.976 -3.368 6
36.048 -10.971 -3.081 10
33.729 -10.288 -2.94 10
31.59 -9.681 -2.817 15
29.743 -9.17 -2.73 11
28.021 -8.71 -2.657 11
26.491 -8.311 -2.606 12
25.093 -7.959 -2.573 16
20.685 -6.636 -1.821 0
20.267 -6.584 -1.962 2
18.3 -6.022 -1.705 0
17.692 -5.9 -1.777 1
17.729 -5.996 -2.031 1
17.769 -6.092 -2.295 0
53.266 -23.445 -1.134 23
0.0 -0.0 3.0 0
0.0 -0.0 3.0 0
75.076 -30.143 -3.959 18
74.839 -29.172 -4.273 13
63.24 -23.963 -3.421 5
60.68 -22.366 -3.413 3
0.0 -0.0 3.0 0
64.979 -22.765 -4.397 16
34.681 -11.871 -1.088 7
0.0 -0.0 3.0 0
73.375 -24.125 -6.261 6
58.119 -18.794 -4.593 15
28.274 -9.008 -0.824 2
0.0 -0.0 3.0 0
0.0 -0.0 3.0 0
34.775 -10.765 -2.25 3
41.974 -12.929 -3.588 4
39.096 -12.012 -3.387 6
35.764 -10.992 -3.093 10
33.501 -10.317 -2.957 10
31.387 -9.709 -2.834 13
29.535 -9.189 -2.742 10
27.845 -8.732 -2.671 11
26.343 -8.335 -2.622 12
24.947 -7.977 -2.585 13
20.644 -6.674 -1.849 0
20.271 -6.635 -2.0 1
18.314 -6.07 -1.742 0
17.713 -5.948 -1.816 5
17.729 -6.035 -2.064 1
17.782 -6.134 -2.333 1
52.869 -23.421 -1.13 23
28.355 -12.182 0.632 6
79.367 -33.07 -4.029 10
74.056 -29.956 -3.916 15
74.387 -29.222 -4.286 36
0.0 -0.0 3.0 0
61.67 -22.924 -3.573 15
61.722 -22.353 -3.834 4
65.704 -23.228 -4.547 14
34.659 -11.975 -1.123 2
0.0 -0.0 3.0 0
72.56 -24.091 -6.248 6
57.584 -18.806 -4.598 19
0.0 -0.0 3.0 0
0.0 -0.0 3.0 0
0.0 -0.0 3.0 0
44.949 -14.057 -3.856 5
34.769 -10.819 -2.512 27
38.858 -12.059 -3.412 6
35.492 -11.016 -3.106 13
33.254 -10.339 -2.969 9
31.199 -9.742 -2.853 14
29.36 -9.218 -2.76 11
27.669 -8.754 -2.685 11
26.195 -8.359 -2.638 12
24.812 -7.999 -2.601 15
20.618 -6.719 -1.881 0
20.397 -6.726 -2.069 1
18.309 -6.112 -1.775 0
17.735 -5.996 -1.855 0
17.728 -6.074 -2.096 1
17.785 -6.174 -2.367 2
52.472 -23.397 -1.126 25
28.339 -12.259 0.617 28
78.761 -33.053 -4.026 13
75.081 -30.599 -4.064 16
67.105 -26.567 -3.624 9
60.672 -23.366 -3.261 7
60.603 -22.718 -3.514 9
61.752 -22.559 -3.897 17
66.497 -23.72 -4.707 10
34.726 -12.109 -1.169 8
28.362 -9.696 -0.529 6
71.633 -24.015 -6.219 4
57.133 -18.844 -4.614 18
0.0 -0.0 3.0 0
0.0 -0.0 3.0 0
0.0 -0.0 3.0 0
0.0 -0.0 3.0 0
34.765 -10.926 -2.567 6
38.631 -12.107 -3.437 6
35.381 -11.089 -3.146 21
32.999 -10.358 -2.98 10
31.003 -9.771 -2.871 12
29.197 -9.25 -2.78 11
27.496 -8.775 -2.699 12
26.05 -8.383 -2.654 12
24.677 -8.02 -2.615 15
20.551 -6.749 -1.903 0
20.541 -6.825 -2.143 3
18.296 -6.152 -1.806 0
17.792 -6.056 -1.904 0
17.712 -6.108 -2.125 0
17.776 -6.209 -2.398 3
51.529 -23.127 -1.078 22
28.267 -12.31 0.607 27
78.141 -33.026 -4.02 13
75.038 -30.809 -4.113 22
61.159 -24.402 -3.084 5
60.37 -23.437 -3.28 3
61.258 -23.156 -3.64 15
61.728 -22.747 -3.954 18
62.491 -22.492 -4.308 15
76.19 -26.813 -6.233 21
0.0 -0.0 3.0 0
0.0 -0.0 3.0 0
56.663 -18.873 -4.625 20
0.0 -0.0 3.0 0
0.0 -0.0 3.0 0
0.0 -0.0 3.0 0
0.0 -0.0 3.0 0
40.977 -13.007 -3.627 5
34.856 -11.032 -2.866 31
35.143 -11.121 -3.164 19
32.786 -10.389 -2.998 11
30.834 -9.807 -2.893 12
29.026 -9.278 -2.798 11
27.328 -8.798 -2.713 12
25.906 -8.407 -2.67 13
24.564 -8.048 -2.635 12
20.555 -6.803 -1.942 0
20.36 -6.815 -2.136 1
18.287 -6.192 -1.838 0
17.784 -6.095 -1.936 1
17.725 -6.153 -2.163 0
17.775 -6.248 -2.431 4
51.518 -23.273 -1.104 55
28.231 -12.379 0.594 12
0.0 -0.0 3.0 0
74.306 -30.735 -4.096 7
61.154 -24.588 -3.13 7
59.294 -23.204 -3.218 10
0.0 -0.0 3.0 0
61.386 -22.816 -3.976 14
62.772 -22.794 -4.406 8
75.973 -26.982 -6.291 24
76.798 -26.751 -6.736 13
28.393 -9.703 -0.725 0
56.223 -18.91 -4.64 22
0.0 -0.0 3.0 0
0.0 -0.0 3.0 0
0.0 -0.0 3.0 0
0.0 -0.0 3.0 0
40.672 -13.038 -3.643 5
34.844 -11.136 -2.921 11
34.885 -11.145 -3.178 18
32.525 -10.403 -3.006 12
30.627 -9.831 -2.907 11
28.859 -9.308 -2.816 12
27.182 -8.826 -2.732 12
25.751 -8.426 -2.684 13
24.444 -8.073 -2.653 15
0.0 -0.0 3.0 0
20.308 -6.848 -2.16 0
18.3 -6.241 -1.876 0
17.764 -6.129 -1.963 2
17.727 -6.193 -2.197 0
17.759 -6.281 -2.46 4
51.344 -23.345 -1.116 25
28.243 -12.468 0.576 9
0.0 -0.0 3.0 0
75.06 -31.278 -4.221 18
0.0 -0.0 3.0 0
59.083 -23.307 -3.245 12
61.283 -23.553 -3.754 12
60.632 -22.73 -3.949 13
65.616 -24.039 -4.811 18
12.373 -4.434 1.473 1
76.081 -26.749 -6.736 12
13.094 -4.518 1.266 0
55.878 -18.976 -4.667 18
0.0 -0.0 3.0 0
0.0 -0.0 3.0 0
0.0 -0.0 3.0 0
0.0 -0.0 3.0 0
40.37 -13.068 -3.659 4
37.889 -12.227 -3.501 8
34.52 -11.134 -3.172 13
32.327 -10.437 -3.026 10
30.431 -9.858 -2.923 12
28.692 -9.337 -2.834 11
27.017 -8.849 -2.746 11
25.61 -8.45 -2.699 12
24.331 -8.1 -2.672 15
0.0 -0.0 3.0 0
19.262 -6.544 -1.931 1
18.242 -6.266 -1.895 0
17.744 -6.164 -1.992 2
17.726 -6.233 -2.23 0
17.96 -6.391 -2.556 1
50.944 -23.314 -1.111 24
28.251 -12.557 0.559 8
0.0 -0.0 3.0 0
75.11 -31.529 -4.279 22
0.0 -0.0 3.0 0
59.326 -23.591 -3.321 12
59.529 -23.068 -3.615 14
60.384 -22.83 -3.98 19
12.255 -4.529 1.528 1
12.292 -4.446 1.469 14
73.027 -25.913 -6.432 9
13.057 -4.547 1.254 9
55.758 -19.117 -4.724 255
0.0 -0.0 3.0 0
0.0 -0.0 3.0 0
0.0 -0.0 3.0 0
0.0 -0.0 3.0 0
40.08 -13.101 -3.675 5
34.082 -11.104 -2.904 10
34.341 -11.181 -3.198 16
32.103 -10.46 -3.039 10
30.259 -9.891 -2.943 12
28.503 -9.357 -2.847 14
26.882 -8.88 -2.767 11
25.47 -8.473 -2.715 12
24.207 -8.124 -2.689 16
20.755 -7.029 -2.107 1
19.152 -6.555 -1.939 1
18.277 -6.322 -1.939 2
17.771 -6.216 -2.034 2
17.749 -6.282 -2.271 0
18.102 -6.482 -2.635 17
50.505 -23.264 -1.102 16
0.0 -0.0 3.0 0
75.103 -32.653 -3.941 13
75.093 -31.755 -4.331 25
63.842 -26.266 -3.549 9
59.091 -23.684 -3.346 12
59.597 -23.285 -3.677 8
60.433 -23.044 -4.045 16
61.659 -22.988 -4.469 16
75.306 -27.48 -6.462 25
72.326 -25.901 -6.427 16
0.0 -0.0 3.0 0
28.379 -9.823 -0.969 6
0.0 -0.0 3.0 0
0.0 -0.0 3.0 0
0.0 -0.0 3.0 0
0.0 -0.0 3.0 0
39.786 -13.13 -3.69 5
34.072 -11.208 -2.959 20
34.089 -11.204 -3.211 18
31.894 -10.489 -3.056 12
30.059 -9.915 -2.957 12
28.314 -9.376 -2.859 15
26.721 -8.902 -2.781 11
25.329 -8.496 -2.731 13
24.076 -8.144 -2.702 14
22.824 -7.79 -2.66 15
19.056 -6.57 -1.951 1
18.051 -6.288 -1.913 0
17.736 -6.246 -2.058 1
17.743 -6.321 -2.304 0
18.02 -6.493 -2.644 18
0.0 -0.0 3.0 0
66.928 -30.152 -2.861 9
74.223 -32.499 -3.908 14
75.104 -31.993 -4.386 25
57.603 -23.88 -2.954 3
55.845 -22.56 -3.045 4
60.109 -23.678 -3.789 17
60.17 -23.138 -4.074 13
62.082 -23.348 -4.586 7
13.228 -4.871 1.323 8
71.666 -25.9 -6.427 20
56.934 -20.203 -4.755 12
28.368 -9.913 -1.005 1
0.0 -0.0 3.0 0
0.0 -0.0 3.0 0
0.0 -0.0 3.0 0
0.0 -0.0 3.0 0
39.489 -13.158 -3.704 4
33.733 -11.201 -2.956 17
33.843 -11.227 -3.223 16
31.677 -10.513 -3.07 11
29.872 -9.941 -2.973 12
28.14 -9.4 -2.874 13
26.575 -8.929 -2.799 11
25.204 -8.523 -2.749 13
23.952 -8.166 -2.718 15
22.709 -7.809 -2.674 14
18.946 -6.58 -1.958 1
17.997 -6.314 -1.933 0
17.734 -6.288 -2.092 1
17.741 -6.361 -2.338 0
17.93 -6.501 -2.651 18
0.0 -0.0 3.0 0
13.965 -6.334 1.769 15
75.109 -33.119 -4.04 15
75.107 -32.229 -4.441 20
57.766 -24.13 -3.016 5
59.42 -24.195 -3.483 6
57.276 -22.747 -3.522 11
58.041 -22.508 -3.881 11
12.339 -4.681 1.479 2
12.476 -4.634 1.404 32
69.46 -25.332 -6.22 34
56.867 -20.367 -4.818 3
55.365 -19.528 -4.89 64
0.0 -0.0 3.0 0
0.0 -0.0 3.0 0
0.0 -0.0 3.0 0
0.0 -0.0 3.0 0
39.203 -13.187 -3.719 4
33.223 -11.136 -2.921 16
33.579 -11.243 -3.232 20
31.487 -10.545 -3.088 12
29.665 -9.961 -2.985 11
27.958 -9.42 -2.887 14
26.444 -8.959 -2.818 12
25.078 -8.55 -2.767 13
23.799 -8.179 -2.727 14
22.602 -7.832 -2.69 14
18.862 -6.599 -1.973 1
17.95 -6.342 -1.955 0
17.731 -6.329 -2.125 1
17.724 -6.397 -2.367 0
17.848 -6.511 -2.66 18
0.0 -0.0 3.0 0
13.916 -6.355 1.765 21
75.114 -33.354 -4.09 22
75.102 -32.463 -4.495 18
75.132 -31.622 -4.884 5
58.764 -24.115 -3.462 13
13.16 -5.269 1.489 0
57.71 -22.567 -3.899 6
12.305 -4.708 1.47 24
12.714 -4.765 1.359 48
12.928 -4.757 1.268 6
12.925 -4.672 1.207 2
55.37 -19.713 -4.964 14
28.366 -9.962 -1.229 4
0.0 -0.0 3.0 0
28.647 -9.852 -1.594 3
0.0 -0.0 3.0 0
38.925 -13.218 -3.735 4
32.888 -11.127 -2.917 15
33.364 -11.275 -3.25 27
31.282 -10.573 -3.104 10
29.478 -9.985 -3.0 11
27.784 -9.443 -2.901 12
26.309 -8.989 -2.837 12
24.956 -8.578 -2.786 12
23.667 -8.197 -2.74 14
22.487 -7.852 -2.705 15
18.784 -6.62 -1.989 1
17.918 -6.375 -1.981 0
17.717 -6.367 -2.156 2
17.742 -6.444 -2.407 1
17.762 -6.52 -2.668 25
0.0 -0.0 3.0 0
13.896 -6.388 1.758 17
75.115 -33.589 -4.14 23
75.099 -32.698 -4.549 20
63.863 -27.083 -3.753 11
55.851 -23.1 -3.19 7
13.03 -5.259 1.492 25
56.993 -22.473 -3.871 17
12.272 -4.736 1.461 7
12.364 -4.675 1.39 1
12.913 -4.795 1.255 17
64.604 -23.564 -6.046 3
55.349 -19.888 -5.035 15
52.838 -18.73 -4.95 3
28.535 -10.003 -1.454 35
28.616 -9.935 -1.633 37
39.178 -13.504 -3.586 1
38.655 -13.249 -3.751 5
32.468 -11.087 -2.895 19
33.112 -11.292 -3.259 29
31.092 -10.603 -3.122 11
29.305 -10.014 -3.017 11
27.621 -9.468 -2.917 12
26.155 -9.011 -2.852 11
24.826 -8.603 -2.803 11
23.543 -8.218 -2.755 14
22.368 -7.87 -2.718 14
18.703 -6.64 -2.003 1
17.882 -6.407 -2.006 0
17.704 -6.405 -2.186 2
17.721 -6.479 -2.436 0
17.684 -6.532 -2.678 17
59.623 -28.366 -2.002 20
13.882 -6.425 1.751 11
13.397 -6.033 1.718 17
12.562 -5.509 1.728 0
63.738 -27.234 -3.79 12
55.519 -23.142 -3.201 3
13.07 -5.318 1.475 22
60.363 -24.0 -4.337 4
12.268 -4.775 1.448 6
13.11 -5.0 1.278 21
12.871 -4.822 1.245 26
0.0 -0.0 3.0 0
55.33 -20.066 -5.107 16
52.394 -18.746 -4.957 5
28.505 -10.086 -1.491 5
28.585 -10.017 -1.671 18
38.869 -13.525 -3.596 2
38.407 -13.287 -3.77 4
32.142 -11.078 -2.89 26
32.875 -11.313 -3.271 26
30.888 -10.628 -3.136 12
29.121 -10.039 -3.032 11
27.465 -9.496 -2.934 12
26.016 -9.038 -2.869 13
24.697 -8.628 -2.819 12
23.427 -8.242 -2.771 15
22.257 -7.89 -2.732 14
18.637 -6.665 -2.022 1
17.846 -6.439 -2.031 0
17.74 -6.462 -2.232 1
0.0 -0.0 3.0 0
17.598 -6.541 -2.686 16
59.176 -28.335 -1.996 19
13.836 -6.446 1.747 20
13.344 -6.051 1.714 29
12.507 -5.525 1.724 9
61.144 -26.323 -3.563 4
59.142 -24.843 -3.657 11
13.006 -5.334 1.471 26
57.781 -23.162 -4.081 8
75.022 -29.447 -6.568 20
13.06 -5.024 1.27 20
12.851 -4.857 1.232 24
0.0 -0.0 3.0 0
0.0 -0.0 3.0 0
51.846 -18.721 -4.947 4
28.38 -10.136 -1.513 5
0.0 -0.0 3.0 0
0.0 -0.0 3.0 0
38.118 -13.309 -3.781 5
31.895 -11.093 -2.898 31
32.619 -11.328 -3.279 20
30.675 -10.649 -3.148 10
28.945 -10.065 -3.048 12
27.31 -9.523 -2.951 13
25.87 -9.062 -2.885 13
24.556 -8.647 -2.833 11
23.314 -8.266 -2.788 14
22.15 -7.911 -2.748 14
18.556 -6.684 -2.037 1
17.835 -6.48 -2.063 0
17.733 -6.502 -2.265 2
17.725 -6.564 -2.508 2
17.523 -6.553 -2.696 14
58.621 -28.251 -1.981 5
13.823 -6.483 1.74 27
13.353 -6.097 1.704 10
12.542 -5.58 1.712 8
56.964 -24.707 -3.16 14
58.651 -24.828 -3.653 14
12.971 -5.363 1.462 25
59.894 -24.208 -4.401 6
12.334 -4.883 1.414 1
13.037 -5.058 1.258 26
12.824 -4.89 1.22 28
0.0 -0.0 3.0 0
56.202 -20.756 -5.386 2
51.354 -18.714 -4.944 4
28.435 -10.249 -1.563 25
28.422 -10.147 -1.732 9
0.0 -0.0 3.0 0
37.851 -13.338 -3.796 5
31.733 -11.138 -2.922 29
32.338 -11.331 -3.281 26
30.46 -10.667 -3.159 10
28.754 -10.085 -3.06 11
27.165 -9.553 -2.969 12
25.75 -9.094 -2.906 12
24.423 -8.67 -2.848 12
23.186 -8.285 -2.801 14
22.038 -7.93 -2.762 14
18.501 -6.712 -2.058 0
17.817 -6.519 -2.093 0
17.711 -6.538 -2.295 2
17.725 -6.607 -2.544 6
17.483 -6.579 -2.719 18
0.0 -0.0 3.0 0
13.006 -6.141 1.806 24
13.296 -6.114 1.7 24
12.512 -5.607 1.705 29
0.0 -0.0 3.0 0
55.219 -23.556 -3.312 9
13.04 -5.434 1.442 26
56.051 -22.84 -3.983 4
12.297 -4.908 1.405 11
13.013 -5.093 1.246 21
12.842 -4.94 1.202 20
0.0 -0.0 3.0 0
55.738 -20.771 -5.392 3
50.878 -18.71 -4.942 4
28.396 -10.329 -1.599 27
28.346 -10.213 -1.762 30
28.684 -10.26 -2.004 4
37.589 -13.367 -3.811 5
31.597 -11.19 -2.95 26
32.067 -11.336 -3.284 25
30.252 -10.688 -3.171 13
28.578 -10.111 -3.075 12
27.01 -9.578 -2.985 12
25.589 -9.112 -2.917 12
24.279 -8.688 -2.86 11
23.059 -8.303 -2.814 14
21.931 -7.951 -2.777 14
18.452 -6.743 -2.081 0
17.781 -6.55 -2.118 0
17.715 -6.583 -2.331 15
17.732 -6.652 -2.582 13
17.444 -6.605 -2.741 18
12.203 -5.957 1.95 4
13.176 -6.264 1.782 67
12.683 -5.872 1.752 22
12.496 -5.64 1.698 32
56.053 -24.675 -3.152 5
12.707 -5.462 1.536 9
12.972 -5.448 1.438 25
12.646 -5.196 1.412 2
12.315 -4.956 1.39 28
12.761 -5.037 1.266 24
12.822 -4.975 1.189 9
61.182 -23.338 -5.959 3
55.187 -20.75 -5.384 3
50.402 -18.704 -4.94 4
0.0 -0.0 3.0 0
28.333 -10.302 -1.804 24
28.637 -10.338 -2.042 21
37.308 -13.388 -3.822 4
31.717 -11.334 -3.026 15
31.853 -11.361 -3.298 29
30.051 -10.71 -3.183 13
28.387 -10.129 -3.086 11
26.858 -9.604 -3.001 12
25.45 -9.137 -2.933 13
24.15 -8.71 -2.875 13
22.924 -8.318 -2.824 11
21.823 -7.971 -2.791 14
18.393 -6.77 -2.102 0
17.773 -6.593 -2.151 0
18.049 -6.753 -2.468 14
17.746 -6.7 -2.622 13
17.401 -6.629 -2.763 18
68.021 -33.418 -2.892 9
12.915 -6.181 1.799 25
12.595 -5.872 1.752 21
12.495 -5.68 1.689 28
55.112 -24.441 -3.094 3
12.778 -5.535 1.517 19
13.014 -5.509 1.42 23
12.63 -5.231 1.401 11
11.994 -4.867 1.418 29
12.686 -5.05 1.261 22
12.758 -4.993 1.183 0
0.0 -0.0 3.0 0
54.665 -20.739 -5.379 4
49.905 -18.687 -4.932 4
0.0 -0.0 3.0 0
28.449 -10.438 -1.867 4
28.404 -10.346 -2.046 21
37.053 -13.417 -3.836 4
31.228 -11.26 -2.987 11
30.566 -10.999 -3.097 9
29.836 -10.725 -3.192 11
28.218 -10.155 -3.102 12
26.699 -9.627 -3.016 11
25.323 -9.164 -2.951 12
24.028 -8.734 -2.891 12
22.789 -8.333 -2.835 13
21.712 -7.988 -2.804 14
18.359 -6.806 -2.128 0
17.758 -6.634 -2.183 0
17.714 -6.671 -2.402 21
17.752 -6.746 -2.66 10
17.343 -6.648 -2.779 17
67.555 -33.402 -2.89 24
12.389 -5.968 1.84 24
12.568 -5.9 1.746 22
12.49 -5.719 1.68 22
54.628 -24.405 -3.085 16
12.711 -5.548 1.513 29
13.045 -5.566 1.404 26
12.6 -5.26 1.392 5
12.052 -4.932 1.398 21
12.688 -5.094 1.246 22
64.345 -25.4 -6.245 17
0.0 -0.0 3.0 0
54.114 -20.712 -5.368 3
49.464 -18.688 -4.933 4
0.0 -0.0 3.0 0
28.413 -10.52 -1.905 1
28.338 -10.416 -2.08 32
36.776 -13.436 -3.846 4
30.834 -11.216 -2.964 25
30.317 -11.005 -3.1 16
29.617 -10.739 -3.2 15
28.046 -10.179 -3.116 13
26.551 -9.653 -3.032 12
25.192 -9.191 -2.968 11
23.88 -8.749 -2.901 16
22.665 -8.351 -2.847 13
21.59 -8.003 -2.814 14
18.299 -6.832 -2.148 0
17.75 -6.676 -2.216 0
17.777 -6.74 -2.458 5
17.722 -6.778 -2.687 13
17.296 -6.671 -2.799 17
0.0 -0.0 3.0 0
12.279 -5.954 1.843 21
12.562 -5.938 1.738 24
12.517 -5.772 1.667 29
55.305 -24.89 -3.206 10
12.763 -5.613 1.496 24
13.024 -5.601 1.394 12
59.937 -25.225 -4.712 17
11.981 -4.943 1.394 24
12.631 -5.113 1.239 23
14.279 -5.685 0.931 1
59.229 -23.193 -5.903 3
53.613 -20.701 -5.364 3
49.008 -18.681 -4.93 4
0.0 -0.0 3.0 0
28.38 -10.601 -1.943 19
28.401 -10.532 -2.137 15
36.515 -13.46 -3.858 4
30.661 -11.252 -2.983 17
30.189 -11.054 -3.127 13
29.417 -10.758 -3.211 10
27.881 -10.204 -3.131 11
26.403 -9.678 -3.048 12
25.071 -9.221 -2.988 12
23.751 -8.77 -2.915 13
22.541 -8.368 -2.859 13
21.471 -8.018 -2.825 14
18.25 -6.863 -2.171 0
17.777 -6.733 -2.26 0
17.697 -6.754 -2.469 17
17.714 -6.818 -2.721 35
17.242 -6.692 -2.817 17
12.461 -6.24 1.9 26
12.274 -5.991 1.835 28
12.546 -5.971 1.731 21
12.537 -5.822 1.656 13
67.423 -30.567 -4.621 11
12.79 -5.668 1.481 20
13.026 -5.645 1.381 26
12.103 -5.135 1.43 0
12.057 -5.016 1.37 27
12.692 -5.181 1.216 21
14.242 -5.719 0.919 3
0.0 -0.0 3.0 0
53.045 -20.663 -5.348 3
13.058 -5.022 0.868 0
0.0 -0.0 3.0 0
28.336 -10.679 -1.98 15
28.453 -10.646 -2.192 1
28.416 -10.567 -2.384 46
30.426 -11.264 -2.989 23
29.756 -10.99 -3.092 28
29.264 -10.794 -3.232 12
27.716 -10.229 -3.146 12
26.248 -9.701 -3.062 12
24.929 -9.242 -3.002 12
23.589 -8.778 -2.921 12
22.421 -8.387 -2.873 13
21.364 -8.036 -2.839 13
18.227 -6.902 -2.201 0
17.765 -6.775 -2.293 0
17.696 -6.799 -2.506 2
17.694 -6.854 -2.751 3
17.184 -6.71 -2.833 16
12.488 -6.294 1.89 17
12.337 -6.062 1.822 15
12.558 -6.018 1.721 29
12.535 -5.863 1.646 26
50.947 -23.266 -2.801 17
12.763 -5.698 1.473 27
13.063 -5.705 1.364 30
12.05 -5.152 1.425 15
12.1 -5.074 1.351 31
12.671 -5.216 1.204 24
14.246 -5.769 0.9 7
14.367 -5.723 0.803 12
52.552 -20.649 -5.343 3
13.045 -5.06 0.852 17
44.3 -17.005 -4.571 4
38.401 -14.602 -3.809 8
38.303 -14.458 -4.052 4
28.405 -10.656 -2.43 76
30.109 -11.245 -2.979 25
29.949 -11.156 -3.184 10
29.127 -10.835 -3.255 30
27.537 -10.248 -3.157 11
26.096 -9.724 -3.076 12
24.79 -9.264 -3.016 11
23.441 -8.791 -2.929 16
22.304 -8.406 -2.886 14
21.245 -8.05 -2.849 13
18.21 -6.945 -2.234 0
17.799 -6.834 -2.34 0
17.694 -6.843 -2.541 1
17.771 -6.928 -2.813 14
17.108 -6.722 -2.843 16
12.46 -6.32 1.886 1
12.338 -6.102 1.814 8
12.534 -6.047 1.715 24
12.572 -5.921 1.633 1
51.646 -23.758 -2.923 12
12.742 -5.732 1.464 24
12.991 -5.717 1.361 30
12.049 -5.193 1.412 17
12.288 -5.195 1.312 27
12.405 -5.149 1.227 23
14.3 -5.84 0.875 0
14.333 -5.759 0.789 27
52.052 -20.63 -5.335 3
13.017 -5.094 0.838 20
43.884 -16.993 -4.566 16
0.0 -0.0 3.0 0
37.995 -14.468 -4.057 4
28.43 -10.759 -2.482 255
28.436 -10.712 -2.696 5
29.394 -11.045 -3.122 3
28.96 -10.864 -3.272 31
27.369 -10.27 -3.171 12
25.967 -9.754 -3.095 12
24.645 -9.283 -3.028 11
23.294 -8.804 -2.938 16
22.195 -8.428 -2.901 14
21.145 -8.071 -2.864 13
18.186 -6.986 -2.264 1
17.769 -6.87 -2.367 0
17.846 -6.948 -2.626 1
17.723 -6.953 -2.835 14
17.047 -6.739 -2.858 16
0.0 -0.0 3.0 0
12.357 -6.153 1.804 14
12.439 -6.042 1.716 24
68.642 -32.56 -4.517 4
51.847 -24.024 -2.99 12
12.725 -5.767 1.455 25
12.923 -5.731 1.357 26
11.996 -5.212 1.407 25
12.341 -5.26 1.291 51
11.957 -5.004 1.277 21
14.266 -5.875 0.862 2
14.178 -5.745 0.795 25
51.501 -20.588 -5.318 3
12.951 -5.112 0.83 31
43.579 -17.022 -4.579 25
0.0 -0.0 3.0 0
37.742 -14.497 -4.071 4
28.421 -10.85 -2.528 255
28.361 -10.776 -2.73 34
28.918 -10.958 -3.074 14
28.639 -10.834 -3.255 25
27.208 -10.293 -3.185 11
25.83 -9.781 -3.112 13
24.506 -9.304 -3.042 11
23.168 -8.824 -2.952 15
22.079 -8.447 -2.915 13
21.037 -8.089 -2.877 12
18.216 -7.046 -2.31 0
17.799 -6.929 -2.413 0
17.733 -6.95 -2.628 0
17.66 -6.973 -2.851 15
16.985 -6.756 -2.873 17
0.0 -0.0 3.0 0
12.298 -6.164 1.802 7
12.286 -6.009 1.723 19
12.56 -5.999 1.615 5
51.882 -24.214 -3.037 8
12.852 -5.868 1.428 24
12.884 -5.758 1.349 24
12.035 -5.269 1.389 22
12.128 -5.21 1.307 27
11.908 -5.024 1.27 27
14.467 -6.007 0.814 7
14.184 -5.797 0.775 29
12.857 -5.183 0.906 14
12.923 -5.145 0.816 16
43.172 -17.01 -4.573 24
0.0 -0.0 3.0 0
37.456 -14.513 -4.078 4
28.383 -10.929 -2.568 76
28.342 -10.861 -2.775 29
27.534 -10.523 -2.833 20
28.439 -10.848 -3.263 25
27.043 -10.316 -3.198 12
25.693 -9.808 -3.129 12
24.368 -9.324 -3.055 12
23.05 -8.846 -2.967 12
21.955 -8.463 -2.926 16
20.937 -8.109 -2.891 13
19.953 -7.773 -2.857 17
17.822 -6.984 -2.457 1
17.745 -7.0 -2.669 0
17.608 -6.997 -2.871 15
16.924 -6.773 -2.888 16
12.541 -6.484 1.857 0
12.292 -6.201 1.795 27
12.269 -6.042 1.716 23
12.589 -6.056 1.602 26
13.906 -6.537 1.37 13
12.867 -5.919 1.414 23
12.91 -5.813 1.333 25
12.029 -5.308 1.377 26
12.086 -5.234 1.299 28
11.918 -5.069 1.255 30
14.41 -6.034 0.804 16
14.169 -5.839 0.758 29
12.759 -5.188 0.904 23
12.909 -5.184 0.8 25
42.823 -17.018 -4.577 24
39.729 -15.641 -4.294 5
37.178 -14.529 -4.086 5
28.356 -11.012 -2.611 3
33.023 -12.763 -3.786 6
27.512 -10.603 -2.877 28
28.415 -10.93 -3.31 28
26.868 -10.333 -3.209 11
25.545 -9.83 -3.143 12
24.226 -9.342 -3.067 11
22.943 -8.872 -2.984 15
21.828 -8.476 -2.935 15
20.829 -8.125 -2.903 13
19.858 -7.79 -2.87 15
17.908 -7.066 -2.521 0
18.205 -7.229 -2.854 4
17.549 -7.018 -2.889 14
16.858 -6.789 -2.901 16
12.456 -6.48 1.857 25
12.2 -6.196 1.796 24
12.32 -6.107 1.702 22
12.568 -6.088 1.594 25
13.743 -6.507 1.378 26
12.861 -5.96 1.403 31
12.903 -5.855 1.321 31
12.038 -5.353 1.363 19
12.12 -5.29 1.281 23
11.919 -5.111 1.24 28
14.372 -6.067 0.792 25
14.171 -5.889 0.739 21
12.654 -5.189 0.904 30
13.041 -5.282 0.758 50
42.494 -17.033 -4.583 17
39.437 -15.66 -4.302 6
36.911 -14.549 -4.096 4
34.754 -13.612 -3.936 4
32.809 -12.788 -3.799 5
27.207 -10.573 -2.861 28
27.347 -10.606 -3.123 1
26.707 -10.355 -3.222 12
25.398 -9.851 -3.156 13
24.091 -9.363 -3.08 10
22.828 -8.896 -3.0 14
21.7 -8.489 -2.944 16
20.721 -8.141 -2.915 12
19.777 -7.812 -2.887 15
17.955 -7.133 -2.573 0
18.195 -7.272 -2.889 13
17.497 -7.041 -2.908 14
16.797 -6.806 -2.916 16
12.467 -6.528 1.849 25
12.183 -6.227 1.79 13
12.228 -6.102 1.703 27
12.558 -6.126 1.586 27
12.187 -5.812 1.551 1
12.173 -5.682 1.477 27
12.874 -5.885 1.312 29
12.166 -5.452 1.333 21
12.147 -5.345 1.263 30
11.998 -5.186 1.214 28
14.229 -6.056 0.796 20
12.63 -5.292 0.968 13
12.662 -5.236 0.885 28
13.806 -5.639 0.606 26
42.183 -17.053 -4.592 13
39.137 -15.674 -4.309 7
36.644 -14.567 -4.105 4
34.516 -13.634 -3.947 4
32.592 -12.811 -3.812 6
26.98 -10.573 -2.86 24
27.309 -10.679 -3.165 8
26.554 -10.378 -3.236 12
25.264 -9.877 -3.172 15
23.942 -9.378 -3.09 10
22.692 -8.91 -3.01 16
21.602 -8.514 -2.961 14
20.61 -8.157 -2.926 14
19.692 -7.834 -2.903 15
18.876 -7.549 -2.898 11
18.127 -7.293 -2.906 12
17.441 -7.064 -2.927 14
16.724 -6.818 -2.926 16
12.436 -6.552 1.845 23
12.379 -6.368 1.762 36
12.339 -6.2 1.682 20
12.598 -6.188 1.571 19
12.167 -5.843 1.543 14
12.149 -5.713 1.469 31
12.957 -5.969 1.289 64
12.138 -5.482 1.324 23
12.141 -5.385 1.25 12
12.05 -5.251 1.192 32
14.099 -6.05 0.798 21
12.627 -5.335 0.952 19
12.754 -5.318 0.851 21
12.129 -4.996 0.879 0
41.777 -17.031 -4.583 8
38.838 -15.686 -4.315 6
36.384 -14.587 -4.115 4
34.278 -13.655 -3.957 4
32.365 -12.828 -3.821 5
26.64 -10.526 -2.835 26
27.002 -10.644 -3.146 24
26.375 -10.391 -3.244 13
25.12 -9.899 -3.186 12
23.796 -9.393 -3.1 11
22.566 -8.927 -3.022 12
21.482 -8.529 -2.972 14
20.496 -8.169 -2.935 13
19.604 -7.853 -2.918 14
18.803 -7.571 -2.915 14
18.063 -7.314 -2.923 12
17.385 -7.085 -2.945 14
16.659 -6.833 -2.94 16
11.415 -6.052 1.933 1
12.269 -6.354 1.765 17
12.635 -6.391 1.641 47
12.537 -6.201 1.568 20
12.132 -5.869 1.537 18
11.905 -5.639 1.489 28
13.382 -6.211 1.219 29
12.154 -5.531 1.309 13
12.113 -5.414 1.241 24
12.091 -5.311 1.171 27
14.098 -6.099 0.78 32
12.533 -5.339 0.95 17
12.765 -5.367 0.832 32
12.152 -5.048 0.857 19
41.331 -16.993 -4.566 14
38.539 -15.697 -4.32 7
36.111 -14.6 -4.121 4
34.03 -13.669 -3.965 4
32.159 -12.853 -3.834 6
26.409 -10.521 -2.832 29
26.975 -10.721 -3.19 27
26.193 -10.403 -3.251 11
24.984 -9.923 -3.2 18
23.643 -9.405 -3.108 11
22.43 -8.94 -3.03 14
21.369 -8.546 -2.984 17
20.402 -8.191 -2.951 13
19.523 -7.875 -2.934 15
18.731 -7.593 -2.932 14
18.002 -7.338 -2.942 12
17.304 -7.097 -2.955 14
16.6 -6.85 -2.955 16
11.402 -6.084 1.927 6
12.227 -6.373 1.761 30
12.606 -6.42 1.635 24
12.487 -6.219 1.564 37
12.132 -5.911 1.526 21
11.702 -5.584 1.504 27
11.928 -5.577 1.401 16
12.382 -5.678 1.264 41
12.522 -5.641 1.167 71
12.034 -5.328 1.165 28
14.078 -6.14 0.765 27
12.577 -5.402 0.926 31
12.761 -5.41 0.814 72
11.844 -4.961 0.894 34
41.011 -17.003 -4.57 9
38.24 -15.706 -4.324 7
35.859 -14.619 -4.13 4
33.796 -13.689 -3.975 4
31.924 -12.866 -3.841 5
26.23 -10.535 -2.84 24
26.476 -10.608 -3.124 13
26.094 -10.446 -3.277 12
24.84 -9.943 -3.213 19
23.495 -9.417 -3.116 11
22.301 -8.956 -3.041 9
21.263 -8.566 -2.998 15
20.306 -8.21 -2.965 14
