# .PCD v0.7 - Point Cloud Data file format
VERSION 0.7
FIELDS x y z intensity
SIZE 4 4 4 4
TYPE F F F F
COUNT 1 1 1 1
WIDTH 2242
HEIGHT 1
VIEWPOINT 0 0 0 1 0 0 0
POINTS 2242
DATA ascii
6.368 -1.62 1.734 0
0.0 -0.0 3.0 0
0.0 -0.0 3.0 0
0.0 -0.0 3.0 0
4.711 -1.613 2.716 9
4.949 -1.617 2.686 22
5.217 -1.627 2.654 5
5.509 -1.638 2.622 20
5.836 -1.655 2.587 20
4.221 -1.142 2.694 17
4.191 -1.083 2.689 22
4.214 -1.042 2.682 28
4.313 -1.02 2.668 16
4.372 -0.994 2.658 5
7.359 -1.609 2.414 27
7.268 -1.538 2.41 30
6.526 -1.342 2.458 52
5.51 -1.107 2.53 4
5.306 -1.047 2.534 10
5.169 -1.01 2.529 19
5.157 -1.002 2.511 21
4.701 -0.916 2.533 0
4.529 -0.89 2.527 14
4.517 -0.898 2.502 124
4.487 -0.909 2.475 3
4.227 -0.874 2.475 0
7.35 -1.558 2.026 1
5.974 -1.301 2.155 1
5.838 -1.308 2.118 1
5.968 -1.377 2.036 0
3.542 -0.842 2.388 0
6.386 -1.565 1.82 0
6.373 -1.61 1.742 0
7.366 -1.917 1.448 1
0.0 -0.0 3.0 0
0.0 -0.0 3.0 0
4.718 -1.605 2.717 20
4.967 -1.613 2.687 14
5.259 -1.628 2.654 5
5.543 -1.635 2.622 7
5.859 -1.648 2.589 7
4.224 -1.133 2.697 16
4.206 -1.076 2.691 21
4.22 -1.031 2.685 20
4.28 -1.001 2.675 16
4.398 -0.987 2.66 9
7.36 -1.588 2.422 23
7.358 -1.536 2.41 30
6.526 -1.322 2.466 51
6.566 -1.299 2.448 55
5.384 -1.046 2.534 9
5.2 -1.0 2.534 18
5.168 -0.989 2.517 63
4.771 -0.915 2.534 0
4.618 -0.894 2.525 14
4.52 -0.887 2.508 17
4.513 -0.902 2.479 71
4.327 -0.884 2.469 0
4.143 -0.868 2.457 0
3.963 -0.854 2.446 0
5.842 -1.296 2.126 1
3.706 -0.847 2.407 0
3.594 -0.848 2.384 0
6.287 -1.529 1.848 1
6.419 -1.61 1.742 0
6.376 -1.648 1.665 0
0.0 -0.0 3.0 0
0.0 -0.0 3.0 0
4.729 -1.599 2.718 19
4.997 -1.612 2.687 5
5.289 -1.625 2.655 16
5.574 -1.631 2.623 5
5.893 -1.644 2.59 4
4.227 -1.122 2.699 18
4.212 -1.067 2.694 21
4.231 -1.023 2.687 21
4.279 -0.989 2.679 16
4.416 -0.979 2.663 11
7.358 -1.567 2.43 30
7.355 -1.514 2.419 24
6.542 -1.306 2.472 22
6.574 -1.281 2.456 59
5.454 -1.043 2.535 9
5.235 -0.992 2.538 10
5.168 -0.974 2.525 13
4.86 -0.918 2.532 0
4.774 -0.911 2.516 8
4.523 -0.874 2.515 16
4.516 -0.891 2.486 240
4.47 -0.902 2.458 2
7.344 -1.522 2.049 1
4.055 -0.864 2.439 0
3.87 -0.85 2.427 0
3.743 -0.848 2.407 0
6.406 -1.498 1.912 0
6.421 -1.55 1.832 0
6.454 -1.606 1.745 0
6.366 -1.635 1.676 0
0.0 -0.0 3.0 0
0.0 -0.0 3.0 0
4.755 -1.598 2.718 8
5.031 -1.611 2.687 6
5.293 -1.615 2.657 14
5.62 -1.632 2.623 14
5.94 -1.642 2.591 15
4.238 -1.116 2.701 21
4.223 -1.059 2.696 23
4.249 -1.017 2.689 20
4.329 -0.989 2.679 17
4.396 -0.963 2.669 14
7.362 -1.547 2.437 24
7.36 -1.493 2.427 31
7.262 -1.429 2.423 33
6.524 -1.252 2.469 60
5.512 -1.038 2.538 2
5.313 -0.991 2.538 10
5.175 -0.96 2.532 31
4.945 -0.921 2.531 0
4.847 -0.911 2.515 8
4.541 -0.866 2.52 10
4.519 -0.88 2.492 255
4.512 -0.899 2.46 10
4.219 -0.864 2.46 0
4.058 -0.855 2.445 0
3.923 -0.853 2.425 0
3.777 -0.848 2.406 0
3.668 -0.85 2.382 0
6.127 -1.467 1.895 2
6.496 -1.605 1.746 0
6.362 -1.623 1.686 0
7.351 -1.933 1.378 1
0.0 -0.0 3.0 0
4.784 -1.598 2.718 8
5.061 -1.61 2.687 13
5.326 -1.613 2.657 5
5.627 -1.622 2.626 16
5.963 -1.634 2.593 8
4.252 -1.109 2.703 14
4.222 -1.048 2.7 21
4.26 -1.008 2.692 18
4.324 -0.976 2.683 14
4.387 -0.947 2.674 10
7.359 -1.525 2.445 29
7.357 -1.471 2.435 24
7.345 -1.423 2.425 29
6.528 -1.234 2.476 61
6.57 -1.218 2.458 63
5.387 -0.988 2.539 10
5.206 -0.95 2.537 16
5.101 -0.935 2.524 0
4.929 -0.912 2.515 8
4.591 -0.863 2.521 7
4.522 -0.869 2.499 37
4.511 -0.887 2.467 166
4.342 -0.879 2.451 0
4.138 -0.862 2.44 0
3.984 -0.858 2.421 0
3.833 -0.852 2.403 0
6.31 -1.451 1.946 1
6.138 -1.458 1.902 2
6.519 -1.6 1.75 0
6.427 -1.628 1.682 0
7.356 -1.922 1.387 0
0.0 -0.0 3.0 0
4.825 -1.602 2.717 10
5.06 -1.599 2.689 20
5.368 -1.614 2.657 4
5.654 -1.616 2.627 6
6.005 -1.632 2.593 4
4.27 -1.103 2.704 14
4.232 -1.04 2.702 26
4.282 -1.001 2.694 31
4.362 -0.973 2.684 13
4.351 -0.928 2.68 26
4.35 -0.889 2.676 4
7.366 -1.452 2.443 30
7.358 -1.404 2.433 26
6.559 -1.22 2.482 23
6.566 -1.198 2.467 64
5.473 -0.988 2.539 9
5.244 -0.942 2.541 11
5.171 -0.932 2.525 1
5.018 -0.915 2.514 10
4.817 -0.892 2.505 2
4.525 -0.857 2.505 23
4.51 -0.876 2.474 255
4.45 -0.89 2.444 1
5.931 -1.223 2.206 0
3.983 -0.849 2.427 0
3.863 -0.852 2.404 0
5.725 -1.305 2.052 1
6.265 -1.476 1.888 2
6.508 -1.585 1.761 0
6.462 -1.626 1.683 0
6.372 -1.654 1.612 0
0.0 -0.0 3.0 0
4.836 -1.596 2.719 23
5.094 -1.599 2.689 6
5.398 -1.612 2.657 16
5.696 -1.615 2.627 5
6.051 -1.63 2.594 14
4.276 -1.094 2.707 14
4.246 -1.033 2.704 17
4.3 -0.995 2.696 21
4.357 -0.96 2.688 10
4.346 -0.915 2.685 22
4.349 -0.877 2.681 4
7.362 -1.43 2.451 27
7.358 -1.382 2.442 32
7.313 -1.339 2.432 32
6.527 -1.171 2.478 66
5.515 -0.979 2.544 1
5.318 -0.94 2.542 10
5.206 -0.924 2.529 12
5.123 -0.92 2.511 24
4.985 -0.91 2.496 3
4.551 -0.85 2.509 5
4.516 -0.866 2.48 255
4.499 -0.889 2.445 5
5.919 -1.207 2.216 1
4.055 -0.856 2.423 0
3.927 -0.858 2.4 0
5.729 -1.295 2.059 2
6.1 -1.426 1.926 1
6.378 -1.543 1.795 0
6.519 -1.63 1.68 0
6.376 -1.645 1.619 0
7.352 -1.957 1.298 1
4.842 -1.588 2.72 17
5.131 -1.601 2.689 6
5.401 -1.601 2.66 15
5.73 -1.613 2.628 27
6.066 -1.621 2.596 17
4.302 -1.091 2.708 14
4.26 -1.026 2.706 17
4.326 -0.99 2.697 27
4.363 -0.95 2.691 10
4.348 -0.904 2.689 3
4.348 -0.864 2.686 23
7.359 -1.408 2.46 22
7.355 -1.361 2.45 27
7.349 -1.324 2.438 32
6.527 -1.152 2.487 66
6.571 -1.146 2.465 70
5.404 -0.94 2.542 10
5.209 -0.91 2.537 19
5.162 -0.912 2.515 132
5.05 -0.908 2.497 7
4.64 -0.854 2.507 5
4.515 -0.854 2.487 47
4.51 -0.881 2.45 44
4.332 -0.874 2.433 0
4.112 -0.858 2.421 0
3.984 -0.861 2.397 0
6.079 -1.362 2.01 2
5.973 -1.386 1.956 1
6.176 -1.483 1.841 2
6.538 -1.624 1.685 0
6.429 -1.649 1.616 0
7.353 -1.947 1.308 0
4.872 -1.588 2.72 7
5.161 -1.599 2.689 8
5.439 -1.601 2.66 5
5.741 -1.604 2.63 10
6.097 -1.616 2.597 7
4.316 -1.084 2.71 20
4.286 -1.022 2.707 14
4.352 -0.985 2.699 16
4.424 -0.952 2.691 6
4.355 -0.893 2.692 2
4.346 -0.852 2.69 19
7.367 -1.389 2.467 29
7.356 -1.339 2.459 33
7.361 -1.304 2.447 28
6.586 -1.143 2.491 25
6.556 -1.125 2.476 68
5.474 -0.935 2.544 9
5.255 -0.903 2.54 10
5.157 -0.897 2.523 41
5.081 -0.901 2.501 43
3.148 -0.572 2.67 1
4.514 -0.843 2.493 27
4.513 -0.871 2.456 189
4.428 -0.884 2.426 0
4.196 -0.867 2.415 0
4.005 -0.858 2.399 0
3.884 -0.863 2.373 0
5.973 -1.374 1.964 1
6.16 -1.469 1.852 3
6.538 -1.614 1.693 0
6.463 -1.648 1.617 0
6.36 -1.674 1.544 0
4.913 -1.593 2.719 8
5.164 -1.589 2.691 30
5.465 -1.597 2.661 4
5.783 -1.603 2.63 4
6.124 -1.608 2.599 6
4.365 -1.087 2.709 3
4.308 -1.017 2.708 17
4.385 -0.982 2.7 18
4.411 -0.938 2.695 1
7.365 -1.491 2.487 25
4.353 -0.841 2.694 4
7.372 -1.368 2.475 31
7.356 -1.318 2.468 26
7.357 -1.282 2.456 33
7.325 -1.25 2.444 30
6.524 -1.1 2.487 81
5.568 -0.935 2.544 1
5.329 -0.9 2.542 10
5.18 -0.887 2.528 31
5.088 -0.888 2.508 60
3.161 -0.566 2.673 1
4.568 -0.842 2.494 4
4.519 -0.861 2.462 66
4.493 -0.886 2.425 4
4.217 -0.864 2.418 0
4.097 -0.87 2.391 0
3.944 -0.869 2.369 0
6.011 -1.373 1.965 1
6.122 -1.449 1.868 2
6.535 -1.602 1.703 0
6.524 -1.654 1.612 0
6.375 -1.669 1.549 1
4.942 -1.592 2.719 11
5.194 -1.589 2.691 11
5.503 -1.597 2.661 19
5.825 -1.601 2.63 9
6.154 -1.603 2.6 6
4.337 -1.069 2.714 0
4.322 -1.009 2.711 18
4.392 -0.972 2.703 1
4.429 -0.93 2.698 0
7.354 -1.469 2.494 32
4.355 -0.829 2.698 0
4.365 -0.797 2.694 2
7.356 -1.296 2.476 33
7.362 -1.26 2.465 29
7.349 -1.232 2.452 33
6.52 -1.08 2.496 78
6.574 -1.085 2.471 68
5.407 -0.898 2.543 10
5.214 -0.878 2.533 16
5.153 -0.886 2.509 91
3.155 -0.557 2.678 3
4.668 -0.849 2.49 4
4.518 -0.85 2.469 20
4.512 -0.88 2.428 15
5.953 -1.206 2.186 1
4.103 -0.863 2.396 0
3.978 -0.868 2.369 0
6.28 -1.423 1.928 1
6.114 -1.437 1.877 3
6.489 -1.581 1.72 0
6.536 -1.647 1.618 1
6.368 -1.658 1.559 2
4.937 -1.582 2.721 29
5.223 -1.587 2.691 5
5.514 -1.589 2.662 12
5.839 -1.593 2.632 16
6.2 -1.601 2.601 5
6.589 -1.609 2.569 22
4.368 -1.009 2.711 8
4.433 -0.97 2.703 0
7.363 -1.527 2.504 32
7.362 -1.451 2.5 27
7.359 -1.381 2.497 32
7.36 -1.325 2.492 25
7.357 -1.275 2.485 27
7.358 -1.239 2.474 35
7.369 -1.214 2.46 29
6.591 -1.072 2.5 21
6.55 -1.062 2.482 70
5.481 -0.895 2.544 9
5.26 -0.871 2.537 11
5.156 -0.872 2.516 44
3.153 -0.548 2.683 9
4.8 -0.862 2.482 2
4.509 -0.839 2.476 25
4.522 -0.872 2.434 63
4.413 -0.884 2.404 0
5.865 -1.222 2.144 2
4.022 -0.872 2.367 0
6.214 -1.398 1.947 2
6.136 -1.433 1.881 3
6.504 -1.574 1.726 0
6.543 -1.639 1.625 0
6.262 -1.622 1.59 1
4.959 -1.579 2.722 10
5.261 -1.589 2.691 6
5.551 -1.589 2.662 4
5.866 -1.588 2.633 6
6.231 -1.596 2.602 4
6.592 -1.595 2.573 13
4.362 -0.997 2.714 1
7.362 -1.593 2.513 28
7.367 -1.509 2.51 26
7.358 -1.43 2.508 35
7.363 -1.362 2.504 28
7.361 -1.304 2.499 33
7.357 -1.254 2.493 34
7.362 -1.218 2.483 31
7.362 -1.191 2.47 34
7.335 -1.172 2.454 30
6.526 -1.04 2.493 91
5.492 -0.881 2.551 0
5.346 -0.871 2.537 9
3.206 -0.535 2.704 3
3.151 -0.54 2.688 15
3.369 -0.597 2.641 0
4.582 -0.841 2.474 3
4.524 -0.863 2.44 34
4.501 -0.893 2.397 3
5.869 -1.211 2.152 3
4.083 -0.877 2.363 0
6.133 -1.369 1.969 2
6.539 -1.515 1.816 0
6.141 -1.477 1.804 2
6.535 -1.628 1.634 0
6.254 -1.611 1.6 0
4.981 -1.577 2.722 7
5.279 -1.584 2.692 23
5.593 -1.589 2.662 5
5.908 -1.587 2.634 6
6.273 -1.593 2.603 4
6.608 -1.584 2.576 7
7.37 -1.669 2.521 24
7.362 -1.575 2.518 30
7.359 -1.489 2.516 32
7.362 -1.412 2.514 27
7.363 -1.342 2.512 35
7.365 -1.284 2.507 33
7.357 -1.233 2.502 32
7.354 -1.195 2.493 35
7.362 -1.169 2.48 31
7.359 -1.155 2.462 32
6.526 -1.021 2.502 89
6.566 -1.035 2.473 78
5.423 -0.869 2.538 9
3.2 -0.524 2.709 13
3.168 -0.535 2.691 25
3.386 -0.591 2.645 0
4.674 -0.848 2.47 3
4.523 -0.853 2.446 12
4.511 -0.886 2.402 7
6.019 -1.23 2.138 0
4.143 -0.882 2.359 0
6.002 -1.329 1.999 2
6.52 -1.501 1.827 0
6.133 -1.465 1.814 4
6.528 -1.616 1.644 0
6.265 -1.606 1.604 1
5.033 -1.585 2.721 8
5.285 -1.576 2.694 15
5.615 -1.585 2.663 27
5.942 -1.585 2.634 30
6.326 -1.593 2.603 5
6.654 -1.58 2.577 3
7.366 -1.651 2.527 18
7.366 -1.558 2.524 27
7.367 -1.471 2.522 30
7.358 -1.392 2.521 37
7.359 -1.321 2.519 25
7.361 -1.263 2.515 35
7.361 -1.213 2.51 35
7.362 -1.175 2.501 34
7.358 -1.146 2.49 35
7.366 -1.134 2.471 16
6.691 -1.027 2.499 65
6.534 -1.011 2.485 80
5.493 -0.865 2.54 8
3.206 -0.517 2.713 16
3.17 -0.527 2.696 30
5.075 -0.875 2.475 33
3.287 -0.589 2.632 0
4.526 -0.844 2.452 19
4.517 -0.878 2.408 38
4.392 -0.89 2.377 0
4.176 -0.882 2.359 0
5.989 -1.317 2.008 3
6.538 -1.494 1.832 0
6.197 -1.472 1.808 1
6.451 -1.588 1.667 0
6.306 -1.607 1.603 1
5.051 -1.581 2.721 20
5.33 -1.58 2.693 5
5.626 -1.576 2.665 12
5.96 -1.577 2.636 8
6.338 -1.583 2.605 5
6.735 -1.585 2.575 3
7.37 -1.634 2.531 24
7.362 -1.539 2.529 31
7.359 -1.452 2.528 33
7.362 -1.374 2.527 29
7.359 -1.301 2.526 33
7.365 -1.242 2.523 32
7.361 -1.191 2.519 35
7.354 -1.152 2.511 35
7.358 -1.125 2.499 34
7.359 -1.111 2.482 26
7.334 -1.105 2.461 35
3.174 -0.482 2.755 0
3.191 -0.494 2.737 0
3.216 -0.51 2.717 19
3.172 -0.52 2.7 35
5.093 -0.865 2.48 92
3.246 -0.574 2.641 4
4.633 -0.854 2.446 3
4.516 -0.869 2.414 28
4.495 -0.902 2.368 2
4.244 -0.889 2.354 0
5.973 -1.303 2.018 3
6.519 -1.48 1.844 0
6.53 -1.54 1.753 0
6.131 -1.5 1.741 2
6.23 -1.579 1.627 2
5.054 -1.573 2.723 22
5.36 -1.579 2.693 6
5.667 -1.577 2.665 4
6.013 -1.579 2.635 4
6.368 -1.577 2.607 4
7.139 -1.664 2.554 23
7.374 -1.618 2.536 28
7.366 -1.523 2.534 26
7.359 -1.433 2.534 33
7.362 -1.355 2.534 37
7.363 -1.282 2.533 31
7.365 -1.223 2.531 38
7.361 -1.17 2.527 33
7.358 -1.131 2.52 36
7.358 -1.104 2.509 34
7.362 -1.09 2.492 34
7.349 -1.086 2.47 35
3.152 -0.47 2.76 1
3.169 -0.482 2.744 5
3.213 -0.501 2.722 27
3.169 -0.512 2.704 40
5.154 -0.864 2.481 176
3.244 -0.567 2.646 11
4.741 -0.864 2.439 4
4.518 -0.86 2.42 12
4.513 -0.897 2.372 5
4.308 -0.895 2.35 0
5.922 -1.282 2.034 3
6.526 -1.472 1.85 0
6.529 -1.531 1.76 0
6.13 -1.492 1.748 3
6.176 -1.558 1.646 2
5.075 -1.571 2.723 7
5.386 -1.577 2.693 22
5.708 -1.578 2.665 6
6.055 -1.578 2.636 27
6.406 -1.573 2.608 4
7.36 -1.7 2.544 23
7.378 -1.603 2.54 16
7.362 -1.505 2.54 34
7.367 -1.417 2.54 31
7.362 -1.336 2.54 32
7.366 -1.263 2.54 25
7.368 -1.203 2.538 31
7.356 -1.149 2.536 38
7.362 -1.11 2.529 34
7.361 -1.083 2.518 35
7.358 -1.069 2.502 35
7.357 -1.065 2.48 35
3.15 -0.461 2.765 3
3.171 -0.473 2.748 16
3.215 -0.493 2.727 39
3.179 -0.505 2.708 40
5.161 -0.852 2.488 166
3.257 -0.562 2.649 15
4.806 -0.866 2.438 12
4.513 -0.851 2.426 53
4.515 -0.889 2.377 33
4.485 -0.923 2.329 0
5.922 -1.272 2.041 3
6.526 -1.461 1.859 1
6.544 -1.525 1.765 0
6.168 -1.493 1.748 1
6.179 -1.551 1.652 3
5.112 -1.574 2.723 5
5.396 -1.57 2.695 16
5.719 -1.57 2.666 32
6.062 -1.569 2.638 13
6.44 -1.569 2.609 4
7.36 -1.684 2.549 31
7.366 -1.585 2.546 19
7.365 -1.489 2.545 27
7.363 -1.398 2.546 35
7.358 -1.316 2.547 35
7.37 -1.244 2.547 33
7.368 -1.182 2.546 41
7.36 -1.129 2.544 33
7.354 -1.088 2.538 40
7.361 -1.061 2.528 34
7.358 -1.047 2.512 37
7.357 -1.045 2.49 35
3.155 -0.453 2.769 9
3.173 -0.465 2.753 20
3.216 -0.485 2.731 43
3.188 -0.499 2.712 39
5.187 -0.845 2.492 33
3.251 -0.554 2.654 11
4.84 -0.862 2.44 8
4.613 -0.861 2.42 9
4.514 -0.881 2.383 26
4.507 -0.92 2.331 1
5.924 -1.263 2.048 3
6.514 -1.448 1.869 1
6.532 -1.513 1.775 0
6.392 -1.538 1.709 0
6.137 -1.532 1.668 4
5.13 -1.57 2.723 6
5.425 -1.569 2.695 5
5.745 -1.568 2.667 8
6.107 -1.568 2.638 4
6.486 -1.566 2.609 4
7.36 -1.67 2.553 24
7.362 -1.567 2.551 27
7.369 -1.472 2.55 36
7.37 -1.381 2.551 29
7.361 -1.298 2.553 37
7.37 -1.224 2.554 40
7.368 -1.162 2.554 32
7.36 -1.107 2.553 41
7.361 -1.067 2.547 35
7.361 -1.039 2.537 39
7.354 -1.025 2.522 35
7.356 -1.023 2.501 38
3.169 -0.446 2.773 10
3.178 -0.458 2.757 23
3.226 -0.478 2.735 40
3.19 -0.491 2.716 31
5.213 -0.837 2.497 12
3.253 -0.546 2.659 11
4.889 -0.861 2.441 4
4.697 -0.867 2.415 12
4.528 -0.876 2.387 8
4.513 -0.914 2.336 3
5.916 -1.252 2.057 2
6.528 -1.442 1.873 1
6.531 -1.503 1.783 0
6.521 -1.561 1.691 0
6.125 -1.521 1.678 5
5.136 -1.564 2.724 3
5.47 -1.573 2.694 6
5.786 -1.569 2.667 4
6.161 -1.571 2.637 14
6.578 -1.576 2.607 11
7.359 -1.654 2.557 30
7.365 -1.552 2.555 28
7.369 -1.455 2.555 29
7.362 -1.362 2.557 39
7.361 -1.279 2.56 34
7.369 -1.205 2.561 18
7.359 -1.14 2.562 43
7.359 -1.086 2.561 33
7.365 -1.047 2.556 41
7.36 -1.018 2.547 32
7.357 -1.003 2.532 39
3.409 -0.464 2.774 1
3.19 -0.44 2.776 15
3.184 -0.449 2.761 27
3.231 -0.471 2.739 40
3.203 -0.486 2.72 20
5.287 -0.837 2.497 10
3.239 -0.537 2.664 16
4.97 -0.865 2.438 2
4.703 -0.859 2.42 6
4.514 -0.865 2.394 18
4.519 -0.907 2.341 28
4.476 -0.94 2.292 0
6.528 -1.433 1.881 0
6.535 -1.495 1.789 0
6.532 -1.555 1.695 1
6.116 -1.512 1.686 2
5.154 -1.562 2.725 3
5.492 -1.57 2.695 23
5.823 -1.568 2.667 12
6.16 -1.559 2.64 21
6.589 -1.566 2.61 8
7.363 -1.64 2.561 23
7.365 -1.536 2.56 31
7.368 -1.438 2.56 36
7.369 -1.346 2.563 29
7.364 -1.262 2.566 39
7.361 -1.184 2.569 30
7.367 -1.122 2.569 35
7.355 -1.066 2.57 41
7.356 -1.024 2.565 37
7.372 -0.998 2.556 17
7.361 -0.982 2.542 36
3.403 -0.454 2.779 10
3.195 -0.432 2.78 18
3.177 -0.44 2.766 37
3.241 -0.464 2.743 40
3.217 -0.48 2.723 19
3.498 -0.546 2.672 5
3.264 -0.535 2.666 22
5.07 -0.873 2.433 2
4.756 -0.861 2.419 5
4.551 -0.864 2.395 1
4.517 -0.9 2.346 33
4.501 -0.939 2.293 1
6.527 -1.423 1.888 1
6.538 -1.487 1.796 1
6.527 -1.545 1.703 1
6.013 -1.479 1.715 3
5.175 -1.559 2.725 3
5.502 -1.564 2.696 13
5.83 -1.56 2.668 14
6.193 -1.557 2.641 5
6.6 -1.556 2.612 22
7.355 -1.623 2.565 30
7.364 -1.52 2.564 27
7.367 -1.421 2.565 30
7.361 -1.327 2.569 43
7.36 -1.243 2.572 30
7.356 -1.164 2.576 40
7.362 -1.101 2.578 41
7.358 -1.045 2.578 35
7.36 -1.004 2.574 43
7.367 -0.976 2.566 33
7.356 -0.961 2.552 41
3.396 -0.443 2.784 14
3.185 -0.422 2.785 16
3.187 -0.433 2.77 42
3.242 -0.456 2.747 40
3.23 -0.474 2.726 18
3.488 -0.537 2.678 1
3.277 -0.53 2.669 12
5.128 -0.872 2.433 9
6.526 -1.168 2.212 7
4.569 -0.859 2.398 2
4.531 -0.895 2.349 5
4.522 -0.936 2.294 3
6.538 -1.416 1.894 0
6.537 -1.478 1.803 1
6.316 -1.487 1.752 1
6.008 -1.471 1.722 3
5.212 -1.562 2.725 3
5.508 -1.556 2.697 3
5.867 -1.56 2.669 5
6.25 -1.559 2.64 7
6.603 -1.544 2.615 11
7.362 -1.61 2.569 25
7.363 -1.505 2.569 33
7.363 -1.405 2.571 34
7.364 -1.31 2.574 30
7.363 -1.224 2.578 41
7.364 -1.147 2.583 39
7.362 -1.081 2.585 39
7.357 -1.024 2.586 42
7.355 -0.982 2.583 39
7.37 -0.955 2.575 40
3.311 -0.423 2.803 8
3.255 -0.416 2.797 16
3.186 -0.413 2.789 17
3.196 -0.425 2.774 40
3.248 -0.449 2.751 38
3.255 -0.47 2.729 16
3.47 -0.526 2.684 4
3.286 -0.525 2.672 5
5.181 -0.871 2.434 23
6.525 -1.156 2.22 10
4.91 -0.915 2.359 0
4.517 -0.885 2.357 11
4.521 -0.93 2.299 27
6.533 -1.406 1.902 0
6.544 -1.471 1.809 0
6.331 -1.483 1.756 1
6.018 -1.466 1.725 3
5.237 -1.562 2.725 3
5.538 -1.555 2.698 3
5.916 -1.562 2.668 6
6.272 -1.554 2.641 22
6.625 -1.537 2.617 4
7.361 -1.595 2.573 21
7.367 -1.49 2.573 26
7.37 -1.39 2.575 32
7.367 -1.294 2.58 44
7.362 -1.207 2.584 28
7.363 -1.128 2.589 43
7.361 -1.061 2.593 41
7.361 -1.004 2.594 40
7.362 -0.962 2.592 44
7.37 -0.933 2.585 21
3.317 -0.414 2.807 1
3.253 -0.406 2.802 21
3.168 -0.402 2.795 20
3.201 -0.418 2.778 41
3.233 -0.438 2.757 36
3.292 -0.468 2.73 13
3.109 -0.465 2.721 8
3.288 -0.518 2.676 14
5.211 -0.866 2.438 18
5.154 -0.904 2.39 0
5.123 -0.947 2.337 1
4.648 -0.904 2.343 1
4.519 -0.922 2.305 31
4.501 -0.962 2.248 1
6.531 -1.46 1.818 0
6.249 -1.456 1.778 3
6.036 -1.464 1.727 4
5.274 -1.565 2.724 3
5.571 -1.556 2.698 3
5.934 -1.558 2.669 26
6.298 -1.55 2.642 5
6.694 -1.541 2.616 3
7.372 -1.583 2.576 25
7.366 -1.475 2.577 34
7.365 -1.373 2.58 33
7.367 -1.278 2.585 32
7.357 -1.189 2.591 37
7.366 -1.109 2.596 36
7.36 -1.041 2.6 44
7.356 -0.984 2.603 41
7.357 -0.94 2.601 44
7.357 -0.91 2.595 27
3.318 -0.404 2.812 3
3.258 -0.397 2.806 38
3.181 -0.394 2.799 32
3.21 -0.411 2.782 37
3.219 -0.428 2.763 34
3.293 -0.46 2.734 15
3.146 -0.463 2.722 15
3.277 -0.51 2.682 22
3.242 -0.533 2.654 9
5.18 -0.899 2.393 1
5.137 -0.941 2.341 3
4.564 -0.88 2.36 3
4.532 -0.918 2.308 5
4.507 -0.958 2.252 3
6.526 -1.45 1.826 0
6.256 -1.451 1.783 3
6.05 -1.46 1.731 3
5.295 -1.564 2.724 2
5.604 -1.557 2.697 3
5.94 -1.55 2.671 3
6.367 -1.556 2.641 9
6.876 -1.57 2.609 8
7.367 -1.568 2.58 30
7.365 -1.459 2.582 26
7.368 -1.358 2.585 36
7.366 -1.261 2.59 41
7.357 -1.171 2.597 32
7.357 -1.09 2.603 47
7.363 -1.022 2.608 39
7.359 -0.964 2.611 43
7.36 -0.92 2.61 43
7.36 -0.89 2.604 41
3.316 -0.394 2.816 2
3.311 -0.394 2.808 34
3.183 -0.386 2.804 27
3.212 -0.403 2.786 35
3.228 -0.422 2.766 28
3.291 -0.452 2.739 18
3.112 -0.451 2.729 9
3.271 -0.502 2.686 30
3.259 -0.529 2.656 4
5.17 -0.889 2.401 13
5.155 -0.936 2.345 6
4.905 -0.939 2.318 0
4.523 -0.91 2.314 9
4.513 -0.953 2.256 27
6.541 -1.445 1.829 0
6.369 -1.469 1.767 1
6.079 -1.461 1.73 2
5.316 -1.562 2.725 2
5.633 -1.557 2.697 3
5.97 -1.547 2.671 2
6.377 -1.547 2.643 17
7.315 -1.657 2.587 22
7.374 -1.557 2.583 21
7.368 -1.445 2.586 36
7.367 -1.343 2.589 32
7.365 -1.244 2.596 37
7.363 -1.154 2.603 28
7.364 -1.072 2.61 35
7.362 -1.002 2.615 48
7.354 -0.942 2.619 40
7.36 -0.898 2.619 45
7.363 -0.869 2.613 41
3.321 -0.385 2.82 10
3.281 -0.381 2.814 39
3.168 -0.375 2.809 23
3.217 -0.394 2.79 36
3.249 -0.416 2.769 26
3.241 -0.438 2.747 24
3.2 -0.457 2.725 12
3.264 -0.494 2.691 31
3.241 -0.52 2.662 4
5.215 -0.888 2.401 21
5.157 -0.928 2.35 43
5.121 -0.972 2.293 1
4.622 -0.923 2.304 1
4.511 -0.946 2.261 31
4.492 -0.987 2.201 2
6.479 -1.487 1.752 1
6.116 -1.462 1.729 1
5.361 -1.567 2.724 2
5.674 -1.559 2.697 3
6.007 -1.548 2.671 2
6.422 -1.548 2.643 4
7.365 -1.656 2.587 35
7.369 -1.542 2.587 17
7.367 -1.432 2.589 27
7.366 -1.327 2.594 38
7.368 -1.229 2.601 39
7.37 -1.139 2.608 38
7.363 -1.054 2.616 53
7.369 -0.985 2.622 37
7.353 -0.922 2.627 46
7.362 -0.878 2.627 41
7.362 -0.847 2.623 46
3.326 -0.376 2.825 5
3.222 -0.366 2.822 29
3.173 -0.368 2.813 31
3.218 -0.386 2.795 34
3.239 -0.407 2.774 22
3.242 -0.431 2.751 31
3.162 -0.445 2.732 15
3.262 -0.488 2.695 43
3.235 -0.513 2.667 4
5.225 -0.88 2.406 11
5.163 -0.921 2.355 10
5.146 -0.969 2.296 3
4.623 -0.917 2.309 1
4.516 -0.942 2.264 5
4.513 -0.986 2.201 6
0.0 -0.0 3.0 0
6.458 -1.538 1.663 0
5.378 -1.565 2.724 3
5.707 -1.56 2.697 2
6.056 -1.551 2.67 2
6.433 -1.54 2.645 3
7.364 -1.644 2.59 26
7.364 -1.528 2.591 29
7.37 -1.418 2.593 37
7.369 -1.312 2.599 30
7.367 -1.212 2.606 41
7.369 -1.121 2.614 47
7.366 -1.036 2.623 35
7.368 -0.965 2.63 52
7.356 -0.903 2.635 39
7.361 -0.858 2.636 47
7.357 -0.825 2.633 43
7.354 -0.811 2.622 45
3.252 -0.36 2.825 38
3.198 -0.362 2.816 34
3.224 -0.379 2.799 33
3.204 -0.395 2.781 27
3.235 -0.423 2.756 26
3.139 -0.435 2.739 24
3.267 -0.482 2.699 33
3.181 -0.499 2.676 21
5.298 -0.884 2.404 10
5.165 -0.913 2.36 20
5.16 -0.965 2.299 5
4.893 -0.965 2.273 0
4.514 -0.936 2.269 7
4.515 -0.982 2.205 26
6.538 -1.486 1.753 0
6.533 -1.549 1.653 1
6.635 -1.922 2.661 62
5.748 -1.563 2.696 2
6.089 -1.55 2.67 2
6.474 -1.54 2.645 3
7.363 -1.631 2.593 30
7.363 -1.514 2.594 27
7.369 -1.404 2.598 30
7.372 -1.298 2.603 41
7.365 -1.197 2.611 37
7.364 -1.103 2.62 22
7.361 -1.017 2.63 53
7.367 -0.947 2.637 39
7.359 -0.883 2.643 50
7.36 -0.836 2.645 39
7.356 -0.804 2.642 49
7.356 -0.79 2.631 43
3.316 -0.357 2.826 35
3.211 -0.354 2.82 41
3.241 -0.372 2.802 32
3.225 -0.389 2.784 28
3.225 -0.414 2.761 19
3.129 -0.427 2.743 19
3.221 -0.469 2.707 42
3.174 -0.492 2.68 8
5.378 -0.888 2.401 9
5.206 -0.913 2.361 21
5.162 -0.958 2.304 39
5.081 -0.995 2.25 1
4.528 -0.933 2.271 2
4.52 -0.977 2.208 34
4.496 -1.017 2.147 1
6.536 -1.543 1.659 0
6.653 -1.918 2.662 14
5.773 -1.562 2.696 2
6.122 -1.551 2.67 2
6.523 -1.541 2.644 3
7.365 -1.619 2.596 26
7.366 -1.502 2.598 33
7.367 -1.39 2.601 34
7.367 -1.283 2.608 31
7.364 -1.18 2.616 44
7.359 -1.087 2.626 33
7.363 -1.0 2.636 42
7.365 -0.927 2.644 52
7.357 -0.863 2.651 41
7.355 -0.815 2.654 21
7.358 -0.783 2.652 45
7.359 -0.769 2.641 48
3.302 -0.346 2.831 31
3.173 -0.342 2.826 37
3.206 -0.36 2.809 31
3.246 -0.385 2.787 30
3.21 -0.405 2.766 23
3.153 -0.424 2.745 20
3.21 -0.462 2.711 35
3.14 -0.482 2.687 12
5.459 -0.892 2.398 8
5.224 -0.908 2.364 11
5.172 -0.953 2.308 12
5.149 -1.002 2.245 3
4.746 -0.972 2.24 0
4.526 -0.974 2.212 6
4.517 -1.017 2.146 13
0.0 -0.0 3.0 0
6.663 -1.912 2.663 13
6.577 -1.77 2.656 39
6.175 -1.554 2.67 2
6.572 -1.542 2.644 3
7.364 -1.607 2.599 31
7.364 -1.489 2.601 27
7.37 -1.377 2.605 33
7.369 -1.269 2.612 44
7.363 -1.166 2.621 33
7.361 -1.071 2.631 49
7.362 -0.983 2.642 48
7.364 -0.908 2.652 45
7.36 -0.844 2.659 51
7.373 -0.797 2.662 42
7.353 -0.761 2.661 52
3.323 -0.338 2.842 5
3.315 -0.338 2.835 25
3.194 -0.335 2.829 39
3.199 -0.351 2.813 38
3.271 -0.38 2.79 36
3.195 -0.396 2.772 22
3.162 -0.418 2.749 20
3.2 -0.454 2.716 34
3.157 -0.479 2.689 11
5.575 -0.903 2.391 1
5.3 -0.913 2.361 9
5.17 -0.945 2.313 25
5.159 -0.997 2.248 5
4.899 -0.998 2.22 0
4.531 -0.97 2.214 5
4.519 -1.013 2.15 25
6.544 -1.532 1.668 0
6.688 -1.911 2.663 8
6.641 -1.778 2.654 74
6.231 -1.56 2.668 2
6.601 -1.54 2.645 3
7.367 -1.596 2.602 30
7.359 -1.476 2.605 36
7.369 -1.364 2.609 32
7.368 -1.255 2.616 33
7.357 -1.15 2.626 49
7.364 -1.055 2.637 41
7.365 -0.965 2.649 49
7.367 -0.89 2.658 51
7.359 -0.824 2.667 47
7.368 -0.776 2.671 51
7.359 -0.741 2.67 48
3.332 -0.329 2.847 11
3.292 -0.327 2.841 22
3.203 -0.328 2.833 32
3.197 -0.343 2.818 36
3.237 -0.368 2.796 27
3.212 -0.391 2.774 20
3.183 -0.416 2.75 25
3.177 -0.445 2.722 24
3.146 -0.472 2.693 17
6.476 -1.039 2.299 12
5.384 -0.92 2.356 9
5.214 -0.947 2.312 22
5.165 -0.992 2.253 45
5.118 -1.037 2.19 1
4.502 -0.959 2.224 3
4.524 -1.01 2.153 46
4.502 -1.05 2.087 1
7.374 -2.099 2.63 22
6.655 -1.774 2.655 18
6.373 -1.587 2.663 7
6.635 -1.538 2.645 3
7.365 -1.584 2.605 25
7.365 -1.465 2.607 28
7.363 -1.35 2.613 39
7.371 -1.242 2.62 43
7.368 -1.136 2.631 31
7.363 -1.038 2.642 53
7.367 -0.949 2.655 46
7.365 -0.872 2.665 52
7.361 -0.804 2.675 49
7.366 -0.755 2.68 29
7.358 -0.72 2.68 52
3.329 -0.319 2.851 17
3.353 -0.323 2.842 26
3.272 -0.326 2.834 33
3.198 -0.334 2.822 38
3.222 -0.359 2.801 29
3.225 -0.386 2.777 21
3.161 -0.406 2.756 26
3.162 -0.437 2.727 30
3.143 -0.466 2.697 6
6.521 -1.037 2.301 14
3.486 -0.591 2.586 9
5.224 -0.941 2.316 10
5.178 -0.988 2.255 8
5.146 -1.037 2.19 3
4.685 -0.993 2.196 0
4.522 -1.005 2.157 8
4.523 -1.05 2.087 14
7.377 -2.091 2.631 15
6.661 -1.767 2.657 13
6.642 -1.645 2.65 76
6.684 -1.54 2.644 3
7.375 -1.576 2.607 22
7.36 -1.452 2.611 37
7.366 -1.338 2.616 31
7.369 -1.228 2.625 39
7.362 -1.121 2.636 42
7.365 -1.023 2.648 37
7.362 -0.931 2.661 58
7.364 -0.853 2.672 48
7.352 -0.784 2.683 53
7.365 -0.735 2.688 29
7.36 -0.699 2.689 52
3.299 -0.307 2.857 18
3.318 -0.311 2.848 23
3.257 -0.315 2.839 37
3.211 -0.328 2.826 34
3.207 -0.349 2.806 26
3.25 -0.381 2.78 22
3.158 -0.4 2.76 24
3.151 -0.43 2.731 31
3.14 -0.461 2.7 8
6.527 -1.028 2.307 13
3.483 -0.586 2.59 10
5.3 -0.949 2.311 9
5.168 -0.98 2.261 22
5.148 -1.032 2.194 4
4.922 -1.038 2.159 0
4.523 -1.001 2.16 5
4.524 -1.047 2.09 12
7.375 -2.081 2.633 10
6.675 -1.762 2.657 10
6.656 -1.64 2.651 74
6.736 -1.543 2.644 4
7.374 -1.565 2.61 34
7.366 -1.442 2.614 28
7.364 -1.325 2.62 42
7.367 -1.214 2.629 39
7.365 -1.107 2.64 35
7.359 -1.007 2.653 57
7.364 -0.915 2.667 44
7.362 -0.835 2.679 60
7.366 -0.767 2.69 48
7.363 -0.714 2.697 49
7.359 -0.678 2.698 44
3.216 -0.29 2.865 27
3.283 -0.298 2.854 21
3.218 -0.303 2.846 34
3.196 -0.318 2.831 37
3.24 -0.346 2.808 36
3.255 -0.375 2.784 21
3.167 -0.395 2.763 21
3.16 -0.426 2.734 20
3.161 -0.459 2.702 3
6.529 -1.018 2.313 14
3.481 -0.581 2.593 14
5.384 -0.957 2.305 9
5.213 -0.983 2.259 23
5.158 -1.028 2.197 45
5.155 -1.082 2.124 1
4.494 -0.99 2.17 2
4.526 -1.043 2.093 61
7.374 -2.073 2.635 12
7.337 -1.929 2.625 22
6.65 -1.63 2.654 30
6.988 -1.591 2.633 29
7.372 -1.554 2.613 27
7.361 -1.43 2.617 37
7.374 -1.315 2.623 31
7.366 -1.201 2.633 44
7.363 -1.093 2.645 33
7.37 -0.993 2.658 37
7.362 -0.898 2.673 60
7.364 -0.817 2.686 46
7.36 -0.746 2.698 59
7.362 -0.694 2.706 48
7.357 -0.657 2.708 48
3.209 -0.28 2.869 38
3.3 -0.291 2.858 25
3.227 -0.295 2.85 42
3.201 -0.311 2.835 38
3.213 -0.336 2.814 30
3.256 -0.368 2.787 28
3.203 -0.393 2.764 26
3.153 -0.42 2.738 16
6.533 -0.938 2.391 14
3.358 -0.519 2.65 0
3.482 -0.576 2.596 17
5.463 -0.965 2.299 9
5.226 -0.98 2.262 11
5.163 -1.024 2.2 7
5.153 -1.077 2.128 4
6.541 -1.435 1.796 1
4.531 -1.04 2.096 10
7.368 -2.063 2.636 20
7.367 -1.928 2.625 31
6.672 -1.628 2.654 13
7.368 -1.669 2.615 30
7.378 -1.545 2.615 14
7.363 -1.42 2.62 33
7.372 -1.303 2.626 44
7.368 -1.189 2.637 37
7.369 -1.08 2.649 37
7.36 -0.977 2.664 61
7.36 -0.882 2.679 41
7.366 -0.8 2.693 63
7.358 -0.728 2.706 46
7.36 -0.673 2.714 59
7.359 -0.636 2.717 46
3.246 -0.274 2.872 27
3.289 -0.28 2.863 35
3.256 -0.289 2.853 35
3.19 -0.302 2.839 38
3.158 -0.323 2.821 25
3.237 -0.36 2.792 34
3.216 -0.389 2.766 32
3.198 -0.42 2.738 30
3.317 -0.471 2.694 0
3.359 -0.514 2.653 6
3.483 -0.572 2.599 20
5.532 -0.97 2.295 1
5.298 -0.987 2.256 8
5.165 -1.019 2.204 9
5.155 -1.072 2.132 4
4.985 -1.09 2.086 0
4.574 -1.047 2.09 7
7.37 -2.056 2.637 22
7.361 -1.918 2.627 21
6.677 -1.621 2.655 11
7.37 -1.66 2.617 31
7.365 -1.532 2.618 29
7.361 -1.408 2.623 34
7.367 -1.29 2.63 32
7.362 -1.176 2.641 50
7.371 -1.067 2.653 49
7.37 -0.964 2.668 43
7.363 -0.866 2.685 63
7.364 -0.783 2.7 46
7.356 -0.709 2.714 62
7.362 -0.653 2.723 52
7.361 -0.615 2.726 57
3.239 -0.264 2.877 23
3.258 -0.268 2.869 33
3.265 -0.281 2.857 37
3.195 -0.294 2.843 31
3.163 -0.317 2.824 27
3.215 -0.351 2.797 28
3.225 -0.384 2.769 29
3.175 -0.412 2.743 19
3.357 -0.472 2.693 7
3.356 -0.51 2.656 12
3.484 -0.568 2.602 17
3.449 -0.601 2.563 1
5.381 -0.998 2.248 9
5.209 -1.023 2.201 22
5.164 -1.07 2.134 51
5.067 -1.103 2.075 2
4.625 -1.055 2.083 4
7.361 -2.045 2.639 28
7.367 -1.912 2.628 34
7.106 -1.717 2.635 30
7.368 -1.65 2.619 27
7.367 -1.523 2.62 26
7.363 -1.398 2.625 37
7.365 -1.28 2.633 44
7.368 -1.164 2.644 35
7.373 -1.055 2.657 29
7.36 -0.948 2.674 54
7.365 -0.851 2.69 45
7.37 -0.766 2.706 65
7.358 -0.69 2.721 47
7.36 -0.633 2.731 65
7.355 -0.594 2.736 51
3.156 -0.248 2.884 12
3.255 -0.259 2.873 32
3.266 -0.273 2.861 35
3.195 -0.287 2.848 26
3.168 -0.31 2.828 31
3.184 -0.342 2.803 25
3.238 -0.381 2.771 24
3.212 -0.412 2.743 8
3.153 -0.439 2.715 11
3.357 -0.505 2.659 17
3.477 -0.562 2.606 11
6.532 -1.131 2.178 12
3.352 -0.617 2.535 4
5.21 -1.018 2.204 12
5.165 -1.066 2.137 11
5.057 -1.096 2.08 7
4.696 -1.067 2.072 8
7.37 -2.041 2.64 21
7.369 -1.904 2.63 20
7.369 -1.772 2.623 23
7.366 -1.641 2.621 30
7.361 -1.513 2.623 34
7.365 -1.389 2.628 31
7.367 -1.269 2.636 36
7.366 -1.153 2.648 49
7.363 -1.04 2.662 25
7.362 -0.934 2.678 52
7.366 -0.836 2.696 60
7.364 -0.749 2.713 53
7.364 -0.672 2.728 25
7.358 -0.613 2.74 55
7.361 -0.573 2.745 59
3.169 -0.24 2.888 21
3.24 -0.249 2.879 26
3.227 -0.261 2.867 32
3.212 -0.281 2.85 28
3.185 -0.304 2.831 35
3.189 -0.336 2.806 22
3.243 -0.375 2.775 26
3.161 -0.4 2.75 14
3.173 -0.438 2.716 12
3.362 -0.501 2.662 24
3.478 -0.558 2.609 4
3.435 -0.591 2.571 0
3.357 -0.615 2.536 11
5.278 -1.026 2.198 8
5.182 -1.065 2.138 11
5.055 -1.092 2.084 17
4.697 -1.064 2.075 7
7.361 -2.031 2.642 33
7.367 -1.896 2.631 32
7.37 -1.765 2.625 29
7.368 -1.633 2.623 23
7.363 -1.505 2.625 28
7.359 -1.378 2.631 39
7.369 -1.259 2.639 40
7.368 -1.142 2.651 34
7.365 -1.028 2.666 51
7.364 -0.921 2.683 45
7.36 -0.82 2.701 56
7.37 -0.732 2.719 60
7.37 -0.654 2.736 46
7.364 -0.594 2.748 63
7.359 -0.553 2.754 58
3.202 -0.234 2.891 11
3.229 -0.239 2.883 29
3.247 -0.255 2.87 39
3.201 -0.273 2.855 26
3.13 -0.293 2.837 29
3.185 -0.33 2.81 22
3.239 -0.369 2.778 31
3.189 -0.399 2.751 31
3.233 -0.441 2.714 5
3.363 -0.498 2.664 32
3.428 -0.546 2.617 8
6.536 -1.118 2.188 11
3.358 -0.612 2.539 16
5.368 -1.04 2.188 8
5.211 -1.066 2.137 21
5.041 -1.085 2.089 12
4.775 -1.078 2.063 4
7.378 -2.029 2.642 21
7.369 -1.89 2.633 20
7.368 -1.756 2.627 26
7.37 -1.625 2.625 31
7.36 -1.495 2.627 33
7.361 -1.369 2.633 31
7.366 -1.248 2.642 41
7.362 -1.13 2.655 47
7.367 -1.016 2.67 39
7.366 -0.908 2.687 58
7.362 -0.806 2.707 55
7.364 -0.716 2.725 59
7.372 -0.636 2.743 63
7.362 -0.574 2.756 59
7.361 -0.532 2.763 61
3.25 -0.227 2.894 12
3.238 -0.23 2.888 26
3.224 -0.244 2.875 32
3.178 -0.263 2.86 20
3.147 -0.288 2.84 29
3.162 -0.321 2.814 17
3.252 -0.365 2.78 33
3.23 -0.399 2.75 21
3.301 -0.446 2.71 12
3.364 -0.493 2.667 38
3.421 -0.542 2.621 12
3.453 -0.587 2.574 0
3.358 -0.609 2.541 25
5.444 -1.049 2.18 8
5.22 -1.063 2.139 13
5.077 -1.089 2.086 4
4.811 -1.083 2.059 8
7.36 -2.017 2.644 29
7.366 -1.883 2.634 29
7.37 -1.749 2.628 27
7.371 -1.618 2.627 26
7.362 -1.487 2.629 32
7.362 -1.361 2.635 41
7.368 -1.239 2.645 35
7.368 -1.119 2.658 37
7.361 -1.004 2.674 60
7.363 -0.895 2.692 45
7.36 -0.791 2.712 66
7.366 -0.7 2.731 56
7.37 -0.619 2.75 42
7.363 -0.555 2.764 58
7.355 -0.511 2.773 62
3.231 -0.218 2.899 12
3.219 -0.221 2.892 32
3.225 -0.236 2.88 43
3.171 -0.255 2.864 21
3.156 -0.282 2.844 28
3.155 -0.315 2.818 21
3.257 -0.36 2.784 30
3.258 -0.398 2.751 29
3.219 -0.431 2.72 20
3.368 -0.491 2.669 41
3.355 -0.528 2.63 11
6.535 -1.105 2.197 13
3.34 -0.603 2.546 41
5.507 -1.057 2.174 3
5.275 -1.071 2.133 8
5.124 -1.096 2.081 14
4.839 -1.086 2.056 9
7.373 -2.014 2.645 20
7.368 -1.877 2.635 22
7.364 -1.741 2.63 29
7.373 -1.611 2.628 19
7.364 -1.479 2.631 32
7.364 -1.352 2.638 31
7.366 -1.229 2.648 44
7.369 -1.109 2.661 37
7.37 -0.993 2.677 38
7.361 -0.883 2.696 69
7.366 -0.778 2.717 50
7.372 -0.685 2.737 70
7.364 -0.601 2.757 28
7.361 -0.535 2.773 64
3.475 -0.232 2.897 0
3.252 -0.209 2.902 22
3.223 -0.212 2.897 29
3.23 -0.228 2.884 33
3.168 -0.248 2.868 21
3.14 -0.275 2.848 28
3.172 -0.311 2.821 22
3.226 -0.352 2.788 23
3.216 -0.388 2.757 34
3.212 -0.426 2.723 23
3.377 -0.488 2.671 43
3.355 -0.524 2.633 18
3.399 -0.571 2.585 1
3.337 -0.599 2.548 40
3.331 -0.637 2.503 7
5.358 -1.083 2.123 9
5.164 -1.1 2.077 13
4.87 -1.09 2.053 8
7.363 -2.006 2.646 28
7.366 -1.87 2.637 28
7.373 -1.736 2.631 24
7.378 -1.605 2.63 28
7.362 -1.471 2.633 35
7.362 -1.344 2.64 40
7.367 -1.22 2.65 32
7.367 -1.099 2.664 40
7.36 -0.981 2.681 58
7.363 -0.87 2.7 45
7.363 -0.764 2.722 68
7.369 -0.669 2.743 52
7.365 -0.584 2.764 57
7.363 -0.516 2.781 56
7.358 -0.47 2.791 62
3.217 -0.198 2.908 15
3.232 -0.203 2.901 24
3.239 -0.22 2.888 37
3.172 -0.241 2.872 20
3.129 -0.267 2.852 26
3.2 -0.309 2.822 21
3.239 -0.348 2.791 21
3.204 -0.383 2.761 38
3.268 -0.429 2.721 17
3.378 -0.484 2.673 32
3.348 -0.52 2.636 25
3.377 -0.565 2.59 6
3.326 -0.595 2.552 45
3.332 -0.634 2.505 1
5.44 -1.097 2.112 9
5.2 -1.105 2.073 11
4.948 -1.104 2.04 8
7.369 -2.001 2.647 22
7.367 -1.864 2.638 27
7.371 -1.729 2.632 31
7.38 -1.598 2.631 30
7.363 -1.464 2.635 29
7.359 -1.335 2.642 33
7.361 -1.21 2.653 45
7.368 -1.09 2.667 35
7.366 -0.971 2.684 44
7.364 -0.859 2.704 67
7.365 -0.751 2.727 48
7.363 -0.654 2.749 75
7.367 -0.567 2.771 53
7.364 -0.498 2.789 70
7.364 -0.45 2.8 51
3.217 -0.189 2.912 10
3.285 -0.197 2.904 29
3.231 -0.212 2.892 35
3.137 -0.232 2.877 17
3.146 -0.263 2.854 29
3.213 -0.304 2.824 21
3.243 -0.344 2.793 23
3.272 -0.387 2.758 35
3.277 -0.426 2.723 27
3.382 -0.482 2.675 28
3.353 -0.517 2.638 33
3.373 -0.561 2.592 10
3.322 -0.592 2.554 32
3.345 -0.634 2.505 3
5.511 -1.107 2.104 6
5.262 -1.115 2.065 9
5.011 -1.115 2.03 8
7.37 -1.996 2.648 37
7.365 -1.858 2.639 24
7.372 -1.723 2.634 23
7.377 -1.591 2.633 18
7.364 -1.457 2.637 38
7.365 -1.328 2.644 37
7.366 -1.203 2.655 32
7.374 -1.081 2.669 27
7.363 -0.961 2.688 57
7.366 -0.848 2.708 47
7.366 -0.739 2.731 75
7.368 -0.64 2.754 53
7.36 -0.55 2.778 69
7.358 -0.478 2.797 59
7.361 -0.429 2.809 58
3.23 -0.18 2.916 9
3.273 -0.188 2.908 27
3.22 -0.204 2.896 37
3.118 -0.224 2.881 16
3.134 -0.257 2.858 24
3.225 -0.3 2.827 19
3.311 -0.347 2.792 27
3.297 -0.386 2.759 38
3.281 -0.424 2.725 33
3.391 -0.479 2.677 39
3.326 -0.511 2.642 30
3.382 -0.56 2.593 10
3.311 -0.587 2.558 31
3.33 -0.629 2.509 1
6.535 -1.308 1.941 11
5.345 -1.129 2.053 10
5.085 -1.129 2.019 8
7.348 -1.985 2.65 44
7.366 -1.853 2.64 29
7.37 -1.717 2.635 33
7.367 -1.582 2.635 20
7.358 -1.449 2.639 28
7.362 -1.32 2.646 38
7.364 -1.194 2.658 47
7.379 -1.074 2.672 34
7.364 -0.952 2.691 52
7.363 -0.836 2.712 60
7.364 -0.726 2.736 54
7.366 -0.625 2.76 70
7.365 -0.534 2.784 55
7.363 -0.46 2.805 70
7.362 -0.408 2.818 60
3.211 -0.169 2.921 6
3.242 -0.177 2.913 38
3.225 -0.196 2.9 36
3.122 -0.217 2.885 21
3.115 -0.249 2.862 19
3.198 -0.292 2.831 22
3.221 -0.333 2.8 20
3.333 -0.386 2.759 31
3.298 -0.422 2.726 39
3.396 -0.477 2.678 36
3.327 -0.508 2.644 31
3.371 -0.555 2.597 14
3.308 -0.584 2.56 26
3.326 -0.626 2.511 5
6.532 -1.304 1.944 12
5.43 -1.144 2.04 8
5.174 -1.146 2.004 8
7.342 -1.979 2.651 55
7.364 -1.847 2.641 21
7.371 -1.712 2.636 24
7.368 -1.576 2.636 29
7.359 -1.443 2.64 38
7.36 -1.314 2.648 32
7.365 -1.187 2.66 37
7.372 -1.064 2.675 31
7.366 -0.942 2.694 47
7.364 -0.826 2.716 55
7.365 -0.714 2.74 69
7.367 -0.612 2.765 59
7.363 -0.518 2.791 66
7.368 -0.443 2.812 63
7.364 -0.388 2.827 64
3.255 -0.163 2.924 4
3.243 -0.169 2.918 37
3.245 -0.189 2.904 38
3.167 -0.214 2.886 24
3.163 -0.248 2.863 30
3.243 -0.292 2.832 23
3.237 -0.331 2.801 22
3.286 -0.376 2.765 40
3.275 -0.416 2.73 37
3.329 -0.464 2.687 27
3.327 -0.505 2.646 30
3.371 -0.553 2.599 24
3.32 -0.584 2.56 23
3.343 -0.627 2.51 0
6.533 -1.3 1.947 12
5.497 -1.155 2.031 6
5.232 -1.156 1.995 8
7.343 -1.974 2.652 55
7.365 -1.842 2.642 32
7.365 -1.705 2.638 30
7.374 -1.572 2.637 26
7.364 -1.438 2.642 30
7.365 -1.307 2.65 41
7.37 -1.181 2.661 42
7.382 -1.058 2.677 13
7.363 -0.933 2.697 59
7.366 -0.816 2.719 51
7.366 -0.703 2.744 63
7.364 -0.599 2.77 35
7.36 -0.503 2.797 65
7.362 -0.424 2.82 67
7.361 -0.368 2.836 66
3.407 -0.16 2.925 5
3.255 -0.16 2.922 38
3.25 -0.182 2.907 32
3.163 -0.207 2.89 20
3.18 -0.244 2.865 21
3.263 -0.289 2.833 27
3.277 -0.33 2.801 22
3.314 -0.376 2.765 32
3.275 -0.413 2.732 45
3.298 -0.457 2.692 33
3.328 -0.503 2.648 32
3.364 -0.549 2.601 23
3.329 -0.584 2.56 22
6.523 -1.22 2.047 11
6.534 -1.297 1.95 12
6.54 -1.371 1.85 12
5.314 -1.172 1.982 8
7.34 -1.969 2.653 55
7.362 -1.837 2.643 56
7.37 -1.701 2.638 24
7.367 -1.566 2.639 32
7.366 -1.432 2.643 36
7.362 -1.301 2.651 31
7.368 -1.173 2.664 40
7.367 -1.048 2.68 37
7.368 -0.925 2.699 40
7.363 -0.806 2.722 63
7.363 -0.692 2.748 59
7.377 -0.586 2.775 44
7.357 -0.487 2.803 64
7.359 -0.406 2.827 70
7.362 -0.348 2.845 65
3.432 -0.152 2.929 8
3.268 -0.153 2.926 35
3.242 -0.174 2.911 25
3.216 -0.204 2.891 23
3.188 -0.239 2.868 20
3.279 -0.285 2.835 23
3.298 -0.329 2.803 31
3.291 -0.37 2.769 33
3.276 -0.41 2.734 55
3.326 -0.458 2.691 32
3.344 -0.502 2.648 37
3.377 -0.549 2.601 22
3.353 -0.586 2.559 23
6.532 -1.217 2.049 12
6.532 -1.293 1.953 11
6.541 -1.368 1.852 11
5.399 -1.188 1.967 8
7.338 -1.965 2.654 53
7.344 -1.828 2.645 58
7.371 -1.696 2.639 26
7.372 -1.561 2.64 27
7.359 -1.426 2.645 33
7.359 -1.294 2.653 46
7.369 -1.167 2.665 36
7.368 -1.041 2.682 32
7.361 -0.917 2.702 58
7.36 -0.797 2.726 47
7.368 -0.682 2.752 70
7.378 -0.574 2.78 70
7.358 -0.473 2.809 73
7.356 -0.389 2.835 67
7.359 -0.328 2.854 72
3.424 -0.142 2.934 12
3.216 -0.141 2.931 21
3.259 -0.168 2.914 18
3.188 -0.196 2.896 17
3.169 -0.232 2.871 24
3.276 -0.281 2.838 25
3.263 -0.321 2.807 27
3.315 -0.37 2.769 31
3.276 -0.407 2.736 39
3.315 -0.455 2.693 35
3.353 -0.501 2.649 35
3.373 -0.546 2.603 24
3.389 -0.59 2.556 19
6.529 -1.213 2.052 14
6.529 -1.289 1.956 11
6.546 -1.366 1.854 12
5.481 -1.203 1.954 6
7.339 -1.961 2.654 56
7.341 -1.823 2.646 57
7.372 -1.692 2.64 28
7.369 -1.556 2.641 34
7.368 -1.422 2.646 32
7.364 -1.29 2.654 33
7.362 -1.16 2.667 45
7.369 -1.035 2.684 50
7.37 -0.91 2.704 42
7.361 -0.788 2.729 69
7.361 -0.672 2.755 55
7.375 -0.563 2.784 53
7.367 -0.46 2.814 60
7.361 -0.372 2.842 76
3.436 -0.144 2.936 3
3.433 -0.132 2.938 8
3.221 -0.133 2.935 21
3.335 -0.165 2.916 20
3.261 -0.195 2.896 26
3.185 -0.229 2.873 31
3.264 -0.276 2.841 28
3.259 -0.318 2.809 28
3.324 -0.368 2.77 33
3.281 -0.405 2.737 33
3.276 -0.446 2.699 34
3.306 -0.492 2.656 36
3.378 -0.545 2.604 26
3.409 -0.591 2.555 22
6.53 -1.21 2.054 13
6.53 -1.286 1.958 11
6.539 -1.362 1.857 11
6.538 -1.433 1.754 11
7.34 -1.957 2.655 54
7.338 -1.818 2.647 57
7.365 -1.688 2.641 57
7.366 -1.551 2.642 26
7.365 -1.417 2.647 36
7.365 -1.285 2.656 41
7.371 -1.155 2.669 29
7.366 -1.028 2.686 44
7.363 -0.902 2.707 62
7.362 -0.781 2.731 47
7.366 -0.663 2.759 79
7.372 -0.552 2.788 24
7.36 -0.447 2.82 75
7.358 -0.356 2.849 65
3.449 -0.136 2.94 4
3.425 -0.122 2.943 11
3.217 -0.125 2.939 15
3.359 -0.158 2.92 21
3.289 -0.191 2.898 26
3.21 -0.226 2.875 30
3.313 -0.276 2.841 36
3.327 -0.321 2.807 33
3.304 -0.362 2.774 38
3.285 -0.403 2.738 35
3.273 -0.444 2.701 58
3.302 -0.49 2.657 39
3.374 -0.542 2.606 27
3.401 -0.589 2.556 31
6.523 -1.206 2.058 13
6.534 -1.284 1.96 10
6.544 -1.36 1.859 11
6.543 -1.432 1.755 11
7.34 -1.954 2.655 54
7.339 -1.815 2.647 57
7.346 -1.679 2.643 58
7.367 -1.548 2.643 33
7.365 -1.413 2.648 30
7.362 -1.28 2.657 34
7.367 -1.15 2.67 38
7.367 -1.022 2.688 42
7.364 -0.896 2.709 47
7.363 -0.773 2.734 68
7.367 -0.654 2.762 54
7.369 -0.542 2.792 63
7.361 -0.434 2.825 57
7.355 -0.34 2.855 79
3.437 -0.126 2.944 13
3.43 -0.113 2.947 10
3.325 -0.121 2.941 8
3.5 -0.158 2.92 15
3.321 -0.188 2.9 20
3.146 -0.217 2.88 26
3.325 -0.274 2.842 28
3.232 -0.309 2.814 32
3.293 -0.359 2.776 38
3.285 -0.401 2.74 39
3.281 -0.443 2.701 35
3.33 -0.492 2.655 33
3.378 -0.541 2.607 20
3.405 -0.587 2.558 38
6.524 -1.203 2.06 13
6.531 -1.281 1.963 10
6.537 -1.356 1.862 11
6.547 -1.43 1.757 12
7.333 -1.95 2.656 55
7.339 -1.812 2.648 57
7.347 -1.676 2.644 58
7.371 -1.545 2.643 28
7.362 -1.408 2.649 40
7.359 -1.274 2.659 38
7.368 -1.146 2.671 31
7.368 -1.017 2.689 48
7.365 -0.89 2.711 53
7.363 -0.766 2.736 52
7.364 -0.646 2.765 73
7.37 -0.532 2.796 53
7.362 -0.422 2.829 74
7.36 -0.326 2.862 68
3.434 -0.117 2.948 15
3.402 -0.102 2.952 12
3.362 -0.114 2.945 1
3.356 -0.144 2.926 14
3.246 -0.178 2.905 18
3.147 -0.213 2.882 26
3.329 -0.27 2.844 33
3.22 -0.305 2.817 24
3.281 -0.354 2.778 38
3.294 -0.4 2.741 34
3.305 -0.444 2.7 35
3.295 -0.485 2.661 39
3.375 -0.539 2.609 27
3.425 -0.59 2.556 36
6.528 -1.201 2.061 13
6.532 -1.279 1.964 11
6.537 -1.354 1.864 11
6.544 -1.428 1.759 11
7.338 -1.948 2.656 32
7.34 -1.809 2.648 58
7.344 -1.672 2.645 59
7.364 -1.54 2.645 61
7.367 -1.406 2.65 29
7.359 -1.271 2.66 39
7.369 -1.142 2.673 27
7.364 -1.011 2.691 39
7.365 -0.885 2.712 52
7.368 -0.761 2.738 57
7.361 -0.638 2.768 58
7.367 -0.522 2.799 71
7.359 -0.411 2.834 64
7.36 -0.311 2.868 73
3.446 -0.109 2.952 23
3.366 -0.092 2.957 9
7.368 -0.23 2.888 63
3.308 -0.136 2.93 25
3.21 -0.172 2.909 19
3.175 -0.212 2.883 26
3.298 -0.265 2.847 24
3.209 -0.301 2.819 27
3.298 -0.354 2.779 35
3.314 -0.4 2.74 40
3.305 -0.443 2.701 35
3.28 -0.481 2.663 55
3.32 -0.529 2.615 28
3.414 -0.586 2.558 22
6.525 -1.198 2.064 12
6.533 -1.277 1.966 11
6.538 -1.352 1.866 11
6.537 -1.424 1.762 11
8.246 -2.186 2.615 2
7.337 -1.806 2.649 58
7.34 -1.668 2.645 58
7.345 -1.533 2.646 60
7.36 -1.401 2.651 39
7.36 -1.267 2.66 34
7.385 -1.14 2.673 19
7.365 -1.007 2.692 53
7.37 -0.88 2.714 44
7.361 -0.754 2.74 58
7.365 -0.633 2.77 61
7.367 -0.514 2.803 64
7.359 -0.401 2.838 69
7.357 -0.298 2.873 73
3.442 -0.1 2.955 17
3.363 -0.082 2.962 8
3.378 -0.097 2.952 0
3.337 -0.132 2.933 23
3.206 -0.167 2.911 22
3.159 -0.207 2.885 24
3.306 -0.262 2.849 23
3.205 -0.299 2.821 35
3.29 -0.351 2.781 37
3.318 -0.399 2.741 48
3.306 -0.441 2.703 47
3.28 -0.48 2.664 42
3.309 -0.525 2.618 26
3.418 -0.586 2.559 12
6.526 -1.196 2.065 13
6.533 -1.275 1.968 11
6.539 -1.35 1.867 11
6.545 -1.424 1.762 12
8.247 -2.184 2.615 2
7.337 -1.804 2.649 58
7.341 -1.666 2.646 59
7.338 -1.528 2.647 62
7.364 -1.399 2.651 30
7.361 -1.264 2.661 42
7.39 -1.137 2.674 20
7.374 -1.005 2.693 36
7.363 -0.875 2.716 55
7.365 -0.749 2.742 50
7.362 -0.626 2.772 62
7.368 -0.507 2.805 64
7.36 -0.392 2.842 69
7.353 -0.285 2.879 74
3.439 -0.092 2.959 23
3.367 -0.073 2.966 12
3.383 -0.089 2.956 10
3.337 -0.126 2.936 20
3.291 -0.167 2.911 20
3.139 -0.204 2.887 26
3.306 -0.26 2.85 13
3.17 -0.293 2.824 31
3.294 -0.35 2.781 43
3.334 -0.399 2.741 29
3.322 -0.441 2.702 42
3.316 -0.484 2.661 34
3.305 -0.524 2.619 30
3.356 -0.574 2.567 9
6.526 -1.194 2.067 14
6.538 -1.274 1.968 11
6.543 -1.35 1.868 10
6.542 -1.422 1.764 11
8.228 -2.177 2.616 1
7.334 -1.801 2.65 54
7.341 -1.664 2.646 59
7.343 -1.527 2.647 63
7.361 -1.396 2.652 58
7.361 -1.261 2.662 32
7.379 -1.132 2.675 14
7.366 -1.0 2.694 52
7.367 -0.872 2.717 41
7.362 -0.745 2.743 64
7.362 -0.621 2.774 43
7.361 -0.501 2.808 70
7.36 -0.384 2.845 66
7.358 -0.274 2.884 80
3.439 -0.084 2.963 19
3.359 -0.063 2.971 18
3.355 -0.082 2.96 9
3.269 -0.118 2.94 16
3.251 -0.162 2.914 25
3.156 -0.202 2.888 29
3.366 -0.263 2.848 5
3.198 -0.294 2.823 31
3.298 -0.349 2.782 37
3.323 -0.396 2.743 27
3.334 -0.442 2.702 51
3.3 -0.48 2.664 35
3.29 -0.521 2.622 48
3.317 -0.566 2.574 12
6.531 -1.194 2.067 13
6.542 -1.273 1.969 11
6.54 -1.347 1.869 11
6.52 -1.416 1.769 7
8.217 -2.172 2.617 2
7.323 -1.796 2.651 0
7.346 -1.663 2.647 58
7.343 -1.525 2.648 62
7.342 -1.389 2.654 54
7.361 -1.259 2.663 42
7.375 -1.129 2.676 19
7.371 -0.998 2.695 38
7.364 -0.868 2.718 60
7.366 -0.741 2.745 47
7.379 -0.618 2.775 26
7.369 -0.495 2.81 61
7.361 -0.376 2.848 77
7.358 -0.264 2.888 71
3.447 -0.078 2.965 13
3.359 -0.053 2.975 25
3.287 -0.072 2.965 12
3.242 -0.113 2.943 16
3.235 -0.159 2.916 18
3.212 -0.203 2.887 22
3.323 -0.257 2.851 5
3.222 -0.295 2.823 33
3.315 -0.349 2.782 36
3.279 -0.39 2.747 35
3.33 -0.44 2.703 41
3.312 -0.481 2.663 50
3.294 -0.52 2.622 58
3.298 -0.562 2.577 23
6.523 -1.191 2.07 12
6.535 -1.27 1.971 11
6.548 -1.348 1.869 12
6.512 -1.413 1.772 7
8.206 -2.168 2.618 1
8.74 -2.142 2.584 1
7.342 -1.661 2.647 59
7.339 -1.523 2.648 63
7.338 -1.387 2.654 62
7.362 -1.257 2.663 30
7.364 -1.125 2.677 35
7.371 -0.995 2.696 46
7.368 -0.866 2.719 43
7.363 -0.738 2.746 63
7.375 -0.613 2.777 61
7.369 -0.49 2.812 74
7.361 -0.37 2.85 62
7.359 -0.255 2.892 80
3.443 -0.071 2.968 4
3.364 -0.044 2.98 20
3.307 -0.067 2.967 18
3.234 -0.109 2.944 21
3.231 -0.155 2.918 21
3.216 -0.201 2.889 26
3.446 -0.265 2.847 1
3.23 -0.294 2.823 38
3.335 -0.349 2.782 36
3.283 -0.389 2.748 40
3.314 -0.437 2.705 44
3.32 -0.482 2.663 42
3.306 -0.522 2.621 48
3.302 -0.562 2.576 28
3.32 -0.606 2.527 1
6.539 -1.27 1.972 12
6.544 -1.346 1.871 12
6.49 -1.407 1.777 6
0.0 -0.0 3.0 0
0.0 -0.0 3.0 0
7.346 -1.66 2.647 56
7.344 -1.523 2.648 63
7.338 -1.386 2.655 64
7.358 -1.255 2.664 58
7.376 -1.125 2.677 32
7.371 -0.993 2.696 45
7.36 -0.863 2.72 53
7.367 -0.736 2.747 47
7.375 -0.61 2.778 61
7.37 -0.487 2.813 57
7.361 -0.365 2.852 76
7.363 -0.248 2.895 70
7.358 -0.138 2.938 78
3.368 -0.034 2.984 15
3.343 -0.062 2.97 20
3.226 -0.106 2.946 13
3.319 -0.157 2.916 28
3.216 -0.199 2.889 30
3.351 -0.256 2.852 4
3.25 -0.295 2.823 42
3.355 -0.351 2.781 28
3.291 -0.39 2.747 24
3.31 -0.436 2.706 38
3.336 -0.483 2.662 51
3.302 -0.52 2.622 27
3.294 -0.56 2.578 42
3.305 -0.602 2.53 13
6.539 -1.269 1.972 11
6.545 -1.345 1.871 12
6.475 -1.403 1.781 6
0.0 -0.0 3.0 0
0.0 -0.0 3.0 0
7.343 -1.659 2.647 0
7.34 -1.521 2.649 64
7.342 -1.385 2.655 63
7.343 -1.252 2.665 58
7.368 -1.123 2.678 47
7.367 -0.991 2.697 42
7.364 -0.861 2.72 46
7.359 -0.734 2.747 61
7.376 -0.608 2.779 24
7.362 -0.484 2.814 73
7.358 -0.362 2.854 64
7.363 -0.243 2.897 79
7.359 -0.128 2.943 83
3.364 -0.024 2.989 13
3.363 -0.058 2.972 27
3.222 -0.103 2.947 17
3.387 -0.159 2.915 26
3.216 -0.198 2.89 29
3.363 -0.256 2.852 12
3.381 -0.305 2.817 37
3.386 -0.354 2.779 35
3.331 -0.393 2.745 27
3.303 -0.434 2.707 48
3.329 -0.481 2.663 38
3.31 -0.521 2.622 36
3.294 -0.56 2.578 51
3.301 -0.601 2.53 14
6.536 -1.268 1.973 12
6.541 -1.344 1.872 11
6.452 -1.397 1.786 6
0.0 -0.0 3.0 0
0.0 -0.0 3.0 0
0.0 -0.0 3.0 0
7.336 -1.519 2.649 62
7.335 -1.384 2.655 63
7.339 -1.25 2.665 64
7.368 -1.122 2.678 33
7.364 -0.99 2.697 49
7.365 -0.86 2.72 47
7.363 -0.732 2.748 55
7.368 -0.607 2.779 44
7.366 -0.482 2.815 60
7.358 -0.359 2.855 71
7.359 -0.239 2.899 72
7.367 -0.122 2.946 54
3.368 -0.015 2.993 12
3.331 -0.054 2.974 21
3.23 -0.102 2.948 11
3.387 -0.158 2.916 16
3.212 -0.197 2.891 28
3.343 -0.253 2.854 11
3.401 -0.306 2.816 33
3.406 -0.355 2.778 19
3.307 -0.39 2.747 21
3.303 -0.434 2.707 34
3.329 -0.481 2.663 41
3.302 -0.52 2.622 25
3.287 -0.558 2.579 41
3.297 -0.6 2.531 27
6.54 -1.268 1.973 11
6.545 -1.344 1.872 11
6.433 -1.393 1.789 8
0.0 -0.0 3.0 0
0.0 -0.0 3.0 0
0.0 -0.0 3.0 0
7.34 -1.52 2.649 60
7.339 -1.384 2.655 62
7.335 -1.249 2.665 66
7.368 -1.122 2.678 56
7.372 -0.991 2.697 38
7.365 -0.86 2.721 52
7.363 -0.732 2.748 53
7.36 -0.605 2.78 54
7.366 -0.481 2.815 65
7.362 -0.358 2.855 65
7.36 -0.237 2.899 78
7.375 -0.118 2.947 68
3.356 -0.005 2.997 9
3.363 -0.053 2.974 26
3.238 -0.101 2.949 13
3.399 -0.157 2.916 9
3.208 -0.196 2.891 26
3.339 -0.253 2.854 12
3.409 -0.307 2.816 28
3.442 -0.359 2.776 19
3.339 -0.393 2.745 22
3.303 -0.434 2.707 35
3.329 -0.481 2.663 41
3.345 -0.526 2.618 30
3.298 -0.56 2.578 35
3.297 -0.6 2.531 28
3.318 -0.643 2.48 11
6.541 -1.343 1.873 11
6.433 -1.393 1.789 10
0.0 -0.0 3.0 0
0.0 -0.0 3.0 0
0.0 -0.0 3.0 0
7.34 -1.52 2.649 1
7.343 -1.385 2.655 63
7.343 -1.251 2.665 65
7.348 -1.119 2.679 57
7.364 -0.99 2.697 52
7.365 -0.86 2.721 43
7.363 -0.732 2.748 56
7.364 -0.605 2.78 55
7.366 -0.481 2.815 65
7.354 -0.357 2.856 68
7.36 -0.237 2.899 79
7.375 -0.118 2.947 99
3.364 -0.005 2.998 0
3.451 -0.054 2.974 35
3.238 -0.101 2.949 14
3.391 -0.157 2.916 10
3.212 -0.197 2.891 27
3.327 -0.252 2.854 11
3.405 -0.307 2.816 20
3.414 -0.355 2.778 17
3.339 -0.393 2.745 22
3.319 -0.436 2.706 26
3.329 -0.481 2.663 42
3.33 -0.523 2.62 23
3.294 -0.559 2.579 35
3.293 -0.599 2.532 52
3.315 -0.642 2.48 13
6.541 -1.343 1.873 11
6.417 -1.389 1.793 13
0.0 -0.0 3.0 0
0.0 -0.0 3.0 0
0.0 -0.0 3.0 0
0.0 -0.0 3.0 0
7.335 -1.384 2.655 62
7.343 -1.252 2.665 66
7.348 -1.12 2.679 67
7.371 -0.991 2.697 37
7.361 -0.861 2.72 53
7.359 -0.733 2.748 45
7.364 -0.606 2.779 60
7.37 -0.482 2.815 61
7.362 -0.359 2.855 71
7.359 -0.239 2.899 77
7.367 -0.122 2.946 53
7.364 -0.03 2.986 64
3.515 -0.057 2.972 33
3.242 -0.101 2.948 11
3.391 -0.158 2.916 11
3.208 -0.196 2.891 26
3.355 -0.255 2.853 21
3.401 -0.306 2.816 26
3.426 -0.357 2.777 33
3.375 -0.398 2.742 33
3.323 -0.436 2.706 23
3.348 -0.483 2.662 37
3.338 -0.525 2.618 27
3.298 -0.56 2.578 39
3.286 -0.598 2.533 53
3.303 -0.64 2.481 23
