# .PCD v0.7 - Point Cloud Data file format
VERSION 0.7
FIELDS x y z intensity
SIZE 4 4 4 4
TYPE F F F F
COUNT 1 1 1 1
WIDTH 1990
HEIGHT 1
VIEWPOINT 0 0 0 1 0 0 0
POINTS 1990
DATA ascii
-17.348 -38.815 -4.545 5
-16.033 -35.584 -4.564 6
-14.868 -32.719 -4.554 7
0.0 -0.0 3.0 0
-12.307 -26.643 -4.139 1
-12.255 -26.322 -4.548 5
-11.62 -24.764 -4.571 5
-11.079 -23.417 -4.609 4
-10.571 -22.17 -4.634 7
-10.136 -21.075 -4.671 15
-9.704 -20.031 -4.689 8
-9.317 -19.075 -4.707 6
-8.96 -18.204 -4.727 6
-8.638 -17.406 -4.75 5
-8.338 -16.675 -4.776 7
-8.058 -15.983 -4.796 8
-7.807 -15.368 -4.83 8
-7.553 -14.753 -4.844 8
-7.336 -14.211 -4.878 8
-7.137 -13.72 -4.921 8
-6.935 -13.222 -4.944 8
-6.735 -12.741 -4.961 34
-6.56 -12.305 -4.991 8
-6.385 -11.883 -5.015 9
-6.222 -11.482 -5.04 8
-6.069 -11.108 -5.07 9
-5.92 -10.742 -5.095 11
-4.72 -8.495 -3.637 4
-4.713 -8.411 -3.811 4
-4.759 -8.416 -4.062 5
-4.764 -8.352 -4.26 6
-17.784 -39.806 -4.019 39
-17.521 -38.882 -4.558 5
-16.198 -35.655 -4.579 9
-15.01 -32.76 -4.563 7
0.0 -0.0 3.0 0
-12.418 -26.662 -4.144 2
-12.372 -26.356 -4.557 6
-11.725 -24.783 -4.577 6
-11.179 -23.433 -4.614 5
-10.667 -22.187 -4.64 8
-10.226 -21.086 -4.675 11
-9.79 -20.039 -4.692 8
-9.4 -19.084 -4.711 7
-9.036 -18.205 -4.728 6
-8.707 -17.402 -4.748 4
-8.408 -16.674 -4.775 8
-8.124 -15.981 -4.794 9
-7.871 -15.365 -4.829 8
-7.617 -14.754 -4.845 8
-7.395 -14.207 -4.875 8
-7.196 -13.719 -4.921 8
-6.989 -13.216 -4.941 8
-6.79 -12.738 -4.96 32
-6.615 -12.307 -4.992 9
-6.438 -11.882 -5.015 9
-6.274 -11.481 -5.039 8
-6.116 -11.102 -5.066 8
-4.76 -8.567 -3.456 2
-4.714 -8.414 -3.574 5
-4.733 -8.377 -3.783 4
-4.766 -8.359 -4.014 4
-4.797 -8.341 -4.251 17
-17.922 -39.79 -4.016 10
-17.691 -38.941 -4.569 5
-16.351 -35.7 -4.588 9
-15.155 -32.808 -4.574 7
0.0 -0.0 3.0 0
-12.526 -26.675 -4.147 1
-12.484 -26.374 -4.563 6
-11.829 -24.796 -4.581 6
-11.279 -23.448 -4.619 5
-10.764 -22.203 -4.645 18
-10.317 -21.097 -4.679 11
-9.872 -20.041 -4.693 9
-9.477 -19.084 -4.711 6
-9.116 -18.216 -4.732 6
-8.782 -17.406 -4.75 4
-8.479 -16.676 -4.776 7
-8.193 -15.984 -4.796 9
-7.939 -15.369 -4.831 8
-7.677 -14.749 -4.842 7
-7.454 -14.203 -4.873 8
-7.253 -13.713 -4.917 8
-7.044 -13.209 -4.937 8
-6.847 -12.739 -4.96 35
-6.667 -12.301 -4.988 8
-6.489 -11.877 -5.011 9
-6.322 -11.474 -5.034 8
-6.166 -11.102 -5.066 9
-4.805 -8.576 -3.462 7
-4.716 -8.348 -3.522 4
-4.772 -8.377 -3.784 4
-4.777 -8.309 -3.972 9
-4.83 -8.33 -4.241 6
-18.095 -39.852 -4.027 14
-17.862 -38.999 -4.581 6
-16.502 -35.736 -4.596 9
-15.291 -32.833 -4.58 7
-12.483 -26.589 -3.629 1
-12.635 -26.687 -4.151 1
-12.603 -26.411 -4.573 6
-11.936 -24.816 -4.587 6
-11.374 -23.452 -4.62 5
-10.847 -22.192 -4.641 24
-10.405 -21.104 -4.681 9
-9.957 -20.049 -4.696 7
-9.557 -19.086 -4.711 6
-9.195 -18.223 -4.735 6
-8.855 -17.407 -4.75 4
-8.55 -16.679 -4.777 7
-8.259 -15.98 -4.794 9
-7.999 -15.36 -4.826 8
-7.741 -14.75 -4.843 7
-7.517 -14.205 -4.874 5
-7.312 -13.712 -4.917 8
-7.101 -13.206 -4.935 8
-6.898 -12.73 -4.954 41
-6.721 -12.299 -4.987 8
-6.545 -11.882 -5.015 9
-6.372 -11.47 -5.031 9
-6.215 -11.098 -5.063 10
-4.844 -8.576 -3.462 7
-4.753 -8.345 -3.52 5
-4.756 -8.28 -3.705 5
-4.796 -8.276 -3.944 9
-4.868 -8.327 -4.239 6
-18.216 -39.794 -4.017 20
-18.034 -39.057 -4.592 6
-16.643 -35.75 -4.599 6
-15.436 -32.876 -4.59 6
-12.667 -26.763 -3.673 1
-12.735 -26.681 -4.149 2
-12.719 -26.436 -4.58 6
-12.042 -24.833 -4.592 5
-11.473 -23.463 -4.624 5
-10.937 -22.194 -4.642 20
-10.496 -21.114 -4.685 9
-10.043 -20.058 -4.699 7
-9.639 -19.092 -4.714 6
-9.267 -18.217 -4.732 6
-8.929 -17.408 -4.751 4
-8.618 -16.674 -4.775 8
-8.33 -15.986 -4.797 9
-8.067 -15.363 -4.828 9
-7.802 -14.744 -4.84 7
-7.574 -14.197 -4.869 7
-7.372 -13.711 -4.916 8
-7.16 -13.209 -4.937 8
-6.957 -12.734 -4.957 41
-6.773 -12.294 -4.984 8
-6.594 -11.874 -5.009 9
-6.425 -11.472 -5.033 8
-6.264 -11.094 -5.06 9
-4.884 -8.576 -3.462 8
-4.787 -8.337 -3.513 5
-4.787 -8.266 -3.694 5
-4.829 -8.265 -3.935 8
-4.906 -8.324 -4.236 5
-18.359 -39.786 -4.015 21
-18.206 -39.114 -4.603 5
-16.81 -35.822 -4.614 6
-15.587 -32.932 -4.603 6
-12.81 -26.849 -3.694 1
-12.844 -26.692 -4.152 2
-12.832 -26.457 -4.586 4
-12.151 -24.856 -4.599 5
-11.577 -23.484 -4.63 5
-11.038 -22.216 -4.65 8
-10.583 -21.117 -4.686 9
-10.128 -20.062 -4.701 8
-9.72 -19.098 -4.716 6
-9.348 -18.226 -4.736 6
-9.004 -17.413 -4.753 5
-8.691 -16.679 -4.777 6
-8.398 -15.985 -4.797 9
-8.131 -15.36 -4.826 8
-7.867 -14.745 -4.84 7
-7.637 -14.198 -4.87 9
-7.431 -13.71 -4.915 7
-7.212 -13.196 -4.929 8
-7.012 -12.73 -4.955 39
-6.832 -12.301 -4.988 9
-6.647 -11.872 -5.008 10
-6.473 -11.465 -5.028 8
-6.311 -11.087 -5.055 9
-4.921 -8.572 -3.46 8
-4.773 -8.245 -3.442 7
-4.824 -8.264 -3.692 5
-4.881 -8.287 -3.954 5
-4.946 -8.325 -4.237 5
-18.507 -39.789 -4.016 20
-18.385 -39.185 -4.617 5
-16.965 -35.864 -4.623 6
-15.745 -32.999 -4.618 6
0.0 -0.0 3.0 0
-12.958 -26.713 -4.158 3
-12.943 -26.471 -4.59 5
-12.254 -24.864 -4.602 5
-11.676 -23.494 -4.634 5
-11.133 -22.228 -4.654 7
-10.679 -21.137 -4.693 9
-10.214 -20.069 -4.704 8
-9.798 -19.096 -4.715 6
-9.422 -18.222 -4.735 6
-9.078 -17.413 -4.753 5
-8.761 -16.677 -4.777 6
-8.466 -15.984 -4.796 9
-8.198 -15.359 -4.826 8
-7.929 -14.743 -4.839 6
-7.698 -14.196 -4.869 9
-7.489 -13.705 -4.912 8
-7.274 -13.201 -4.932 8
-7.067 -12.727 -4.952 41
-6.883 -12.292 -4.982 8
-6.698 -11.867 -5.004 9
-6.526 -11.466 -5.029 8
-6.361 -11.087 -5.055 9
-4.959 -8.569 -3.457 8
-4.818 -8.256 -3.45 7
-4.858 -8.255 -3.685 5
-4.92 -8.287 -3.953 5
-4.984 -8.322 -4.234 5
-18.654 -39.788 -4.016 22
-18.571 -39.268 -4.633 5
-17.134 -35.934 -4.638 14
-15.892 -33.044 -4.629 6
0.0 -0.0 3.0 0
-13.067 -26.723 -4.16 7
-13.064 -26.505 -4.6 5
-12.367 -24.894 -4.611 5
-11.778 -23.511 -4.639 5
-11.224 -22.229 -4.654 8
-10.763 -21.133 -4.692 9
-10.298 -20.073 -4.705 7
-9.882 -19.104 -4.719 6
-9.504 -18.231 -4.739 6
-9.153 -17.416 -4.754 6
-8.831 -16.674 -4.775 6
-8.534 -15.983 -4.795 11
-8.265 -15.362 -4.827 8
-7.994 -14.743 -4.839 7
-7.757 -14.19 -4.866 9
-7.551 -13.707 -4.913 7
-7.329 -13.194 -4.928 9
-7.124 -12.727 -4.953 39
-6.939 -12.292 -4.983 9
-6.751 -11.865 -5.003 9
-6.576 -11.462 -5.026 9
-6.41 -11.082 -5.052 10
-4.995 -8.563 -3.453 8
-4.858 -8.259 -3.453 7
-4.891 -8.246 -3.677 5
-4.959 -8.287 -3.954 6
-5.028 -8.329 -4.241 5
-18.799 -39.782 -4.015 21
-18.753 -39.341 -4.647 5
-17.275 -35.943 -4.64 14
-16.044 -33.095 -4.64 5
0.0 -0.0 3.0 0
-13.178 -26.736 -4.164 8
-13.174 -26.515 -4.603 5
-12.474 -24.909 -4.615 5
-11.879 -23.524 -4.644 5
-11.321 -22.244 -4.659 7
-10.854 -21.142 -4.695 9
-10.386 -20.083 -4.709 7
-9.962 -19.105 -4.719 7
-9.583 -18.237 -4.741 6
-9.23 -17.423 -4.757 6
-8.901 -16.672 -4.774 8
-8.605 -15.988 -4.798 9
-8.327 -15.352 -4.822 7
-8.06 -14.746 -4.841 7
-7.82 -14.191 -4.866 9
-7.609 -13.702 -4.911 8
-7.385 -13.19 -4.925 9
-7.176 -12.717 -4.946 42
-6.991 -12.286 -4.979 8
-6.805 -11.865 -5.003 9
-6.626 -11.456 -5.022 10
-6.459 -11.078 -5.049 10
-5.03 -8.553 -3.445 8
-4.897 -8.258 -3.452 7
-4.932 -8.248 -3.679 4
-4.999 -8.286 -3.953 6
-5.066 -8.326 -4.238 5
-18.949 -39.787 -4.016 21
-18.941 -39.423 -4.663 5
-17.44 -36.001 -4.652 6
-16.199 -33.152 -4.654 16
0.0 -0.0 3.0 0
-13.282 -26.735 -4.164 4
-13.294 -26.546 -4.612 5
-12.593 -24.948 -4.627 2
-11.979 -23.534 -4.647 4
-11.415 -22.251 -4.662 7
-10.949 -21.157 -4.701 12
-10.47 -20.083 -4.709 8
-10.048 -19.117 -4.724 6
-9.665 -18.245 -4.745 6
-9.304 -17.423 -4.757 6
-8.976 -16.68 -4.778 7
-8.673 -15.986 -4.797 8
-8.396 -15.357 -4.825 8
-8.121 -14.739 -4.837 8
-7.882 -14.189 -4.865 9
-7.667 -13.697 -4.908 8
-7.444 -13.188 -4.924 9
-7.233 -12.716 -4.946 41
-7.047 -12.286 -4.979 8
-6.855 -11.857 -4.997 9
-6.678 -11.455 -5.021 8
-6.51 -11.076 -5.047 10
-5.061 -8.538 -3.434 8
-4.937 -8.261 -3.454 10
-4.971 -8.248 -3.679 5
-5.04 -8.289 -3.955 5
-5.113 -8.336 -4.247 5
-19.102 -39.794 -4.017 22
-19.128 -39.502 -4.678 5
-17.614 -36.075 -4.668 7
-16.336 -33.171 -4.658 14
0.0 -0.0 3.0 0
-13.451 -26.863 -4.198 3
-13.417 -26.582 -4.622 4
-12.714 -24.989 -4.64 1
-12.084 -23.553 -4.653 4
-11.512 -22.262 -4.665 8
-11.039 -21.162 -4.702 12
-10.558 -20.093 -4.713 8
-10.128 -19.118 -4.724 6
-9.737 -18.238 -4.742 6
-9.378 -17.422 -4.757 6
-9.05 -16.683 -4.78 8
-8.741 -15.984 -4.796 9
-8.461 -15.353 -4.823 8
-8.186 -14.739 -4.837 7
-7.943 -14.186 -4.864 8
-7.725 -13.692 -4.905 8
-7.5 -13.184 -4.921 9
-7.289 -12.712 -4.944 39
-7.101 -12.283 -4.976 8
-6.911 -11.861 -5.0 9
-6.731 -11.455 -5.021 9
-6.56 -11.075 -5.046 10
-5.092 -8.522 -3.422 8
-4.967 -8.246 -3.443 7
-5.01 -8.248 -3.679 4
-5.084 -8.296 -3.962 6
-5.159 -8.347 -4.256 5
-19.246 -39.784 -4.015 21
-19.312 -39.573 -4.692 5
-17.785 -36.144 -4.683 5
-16.483 -33.21 -4.667 9
-15.357 -30.689 -4.652 6
-13.508 -26.767 -4.172 2
-13.533 -26.6 -4.627 5
-12.818 -24.996 -4.642 2
-12.188 -23.569 -4.658 5
-11.608 -22.272 -4.669 8
-11.127 -21.163 -4.703 11
-10.647 -20.101 -4.716 7
-10.214 -19.128 -4.728 7
-9.821 -18.249 -4.746 6
-9.454 -17.425 -4.758 5
-9.122 -16.683 -4.78 6
-8.811 -15.985 -4.797 8
-8.531 -15.357 -4.825 8
-8.25 -14.739 -4.837 8
-8.002 -14.179 -4.86 9
-7.787 -13.692 -4.905 8
-7.561 -13.186 -4.923 8
-7.346 -12.711 -4.943 39
-7.155 -12.279 -4.974 8
-6.962 -11.855 -4.996 9
-6.78 -11.447 -5.016 6
-6.609 -11.07 -5.043 9
-5.124 -8.51 -3.413 8
-5.003 -8.241 -3.438 7
-5.05 -8.25 -3.681 4
-5.125 -8.298 -3.963 5
-5.209 -8.363 -4.269 5
-19.397 -39.787 -4.016 5
-19.491 -39.631 -4.704 5
-17.951 -36.2 -4.694 6
-16.635 -33.255 -4.677 7
-15.505 -30.745 -4.666 6
-13.634 -26.806 -4.183 0
-13.652 -26.626 -4.635 5
-12.921 -24.999 -4.643 4
-12.291 -23.583 -4.663 5
-11.71 -22.292 -4.676 7
-11.22 -21.174 -4.707 12
-10.73 -20.1 -4.716 7
-10.293 -19.124 -4.727 7
-9.899 -18.25 -4.747 6
-9.533 -17.434 -4.762 5
-9.197 -16.69 -4.783 6
-8.881 -15.985 -4.797 10
-8.596 -15.353 -4.823 8
-8.313 -14.734 -4.834 8
-8.067 -14.183 -4.862 8
-7.851 -13.695 -4.907 8
-7.619 -13.183 -4.921 8
-7.403 -12.71 -4.942 38
-7.208 -12.272 -4.97 8
-7.017 -11.854 -4.996 9
-6.833 -11.447 -5.015 9
-6.66 -11.068 -5.041 9
-5.155 -8.495 -3.401 8
-5.034 -8.228 -3.429 7
-5.095 -8.258 -3.687 4
-5.175 -8.314 -3.977 5
-5.261 -8.381 -4.286 3
-19.546 -39.786 -4.015 18
-19.692 -39.733 -4.723 5
-18.12 -36.258 -4.707 6
-16.785 -33.297 -4.687 6
-15.639 -30.771 -4.672 6
0.0 -0.0 3.0 0
-13.771 -26.65 -4.642 5
-13.027 -25.008 -4.646 5
-12.397 -23.601 -4.668 5
-11.805 -22.298 -4.678 8
-11.31 -21.178 -4.708 12
-10.819 -20.109 -4.719 8
-10.383 -19.14 -4.733 6
-9.981 -18.257 -4.75 6
-9.608 -17.432 -4.761 6
-9.266 -16.682 -4.779 6
-8.948 -15.98 -4.794 9
-8.664 -15.354 -4.823 8
-8.38 -14.737 -4.836 7
-8.129 -14.18 -4.86 9
-7.909 -13.69 -4.904 8
-7.676 -13.178 -4.918 9
-7.46 -12.708 -4.941 34
-7.265 -12.275 -4.971 9
-7.07 -11.851 -4.994 9
-6.885 -11.445 -5.014 9
-6.709 -11.064 -5.038 9
-5.189 -8.485 -3.394 8
-5.071 -8.224 -3.425 6
-5.139 -8.265 -3.693 5
-5.22 -8.322 -3.983 5
-5.315 -8.401 -4.303 7
-19.704 -39.803 -4.018 17
-19.883 -39.811 -4.738 5
-18.288 -36.313 -4.719 6
-16.955 -33.375 -4.705 6
-15.786 -30.822 -4.685 5
-14.771 -28.595 -4.662 4
-13.898 -26.689 -4.653 5
-13.142 -25.035 -4.654 5
-12.501 -23.615 -4.673 4
-11.902 -22.307 -4.681 7
-11.404 -21.188 -4.712 9
-10.91 -20.12 -4.724 9
-10.462 -19.137 -4.732 7
-10.059 -18.258 -4.75 6
-9.682 -17.43 -4.76 6
-9.34 -16.685 -4.78 6
-9.022 -15.986 -4.797 9
-8.729 -15.349 -4.821 8
-8.445 -14.735 -4.835 7
-8.191 -14.175 -4.858 9
-7.971 -13.69 -4.904 8
-7.735 -13.176 -4.917 8
-7.516 -12.704 -4.938 36
-7.318 -12.267 -4.967 8
-7.121 -11.845 -4.99 9
-6.935 -11.44 -5.01 9
-6.762 -11.064 -5.038 10
-5.225 -8.478 -3.389 8
-5.11 -8.223 -3.425 5
-5.183 -8.272 -3.699 4
-5.277 -8.348 -4.005 4
-5.787 -9.078 -4.891 10
-19.847 -39.786 -4.015 15
-20.087 -39.914 -4.759 5
-18.461 -36.377 -4.732 5
-17.113 -33.429 -4.718 5
-15.923 -30.851 -4.692 5
-14.897 -28.616 -4.668 5
-14.011 -26.698 -4.655 5
-13.254 -25.054 -4.66 5
-12.604 -23.626 -4.677 4
-11.997 -22.312 -4.683 7
-11.495 -21.191 -4.713 9
-10.996 -20.122 -4.724 8
-10.547 -19.142 -4.734 7
-10.142 -18.265 -4.753 6
-9.76 -17.435 -4.762 6
-9.412 -16.684 -4.78 8
-9.091 -15.984 -4.796 9
-8.799 -15.353 -4.823 8
-8.51 -14.734 -4.834 7
-8.252 -14.172 -4.856 8
-8.028 -13.681 -4.899 8
-7.792 -13.17 -4.914 8
-7.572 -12.699 -4.935 36
-7.374 -12.267 -4.966 9
-7.175 -11.842 -4.987 10
-6.987 -11.436 -5.008 9
-6.811 -11.059 -5.035 10
-5.268 -8.482 -3.392 8
-5.154 -8.231 -3.431 5
-5.233 -8.289 -3.712 4
-5.325 -8.361 -4.016 0
-5.828 -9.073 -4.887 9
-20.011 -39.812 -4.02 13
-20.29 -40.013 -4.778 5
-18.642 -36.456 -4.749 5
-17.279 -33.497 -4.733 6
-16.069 -30.897 -4.703 5
-15.037 -28.665 -4.681 4
-14.137 -26.732 -4.665 5
-13.362 -25.065 -4.663 5
-12.71 -23.642 -4.682 4
-12.098 -22.327 -4.688 8
-11.589 -21.201 -4.717 12
-11.089 -20.136 -4.729 13
-10.63 -19.145 -4.735 7
-10.22 -18.265 -4.753 6
-9.838 -17.439 -4.764 6
-9.489 -16.69 -4.783 6
-9.163 -15.986 -4.797 9
-8.866 -15.35 -4.821 8
-8.575 -14.733 -4.834 7
-8.316 -14.171 -4.855 8
-8.088 -13.678 -4.897 8
-7.849 -13.165 -4.911 8
-7.629 -12.698 -4.934 31
-7.428 -12.262 -4.963 9
-7.228 -11.838 -4.985 9
-7.041 -11.436 -5.007 8
-6.862 -11.056 -5.033 10
-5.306 -8.478 -3.389 8
-5.199 -8.239 -3.437 5
-5.29 -8.316 -3.734 3
-6.198 -9.657 -5.103 17
-5.87 -9.068 -4.883 9
-20.157 -39.802 -4.018 11
-20.444 -40.011 -4.777 4
-18.822 -36.529 -4.765 6
-17.445 -33.564 -4.749 11
-16.203 -30.918 -4.709 5
-15.17 -28.699 -4.69 5
-14.255 -26.751 -4.671 5
-13.476 -25.087 -4.67 5
-12.818 -23.662 -4.688 4
-12.197 -22.338 -4.692 7
-11.678 -21.2 -4.716 10
-11.171 -20.13 -4.727 24
-10.715 -19.15 -4.737 7
-10.303 -18.271 -4.756 6
-9.921 -17.45 -4.769 6
-9.567 -16.698 -4.786 6
-9.235 -15.989 -4.798 9
-8.933 -15.348 -4.82 8
-8.638 -14.728 -4.831 8
-8.381 -14.173 -4.856 8
-8.148 -13.674 -4.895 8
-7.91 -13.165 -4.91 8
-7.683 -12.689 -4.929 32
-7.483 -12.258 -4.96 9
-7.281 -11.834 -4.982 8
-7.093 -11.433 -5.006 8
-6.911 -11.05 -5.029 9
-5.342 -8.471 -3.383 8
-5.25 -8.257 -3.451 4
-6.4 -9.983 -5.084 39
-6.243 -9.654 -5.1 17
-5.909 -9.06 -4.876 11
-20.316 -39.816 -4.021 9
-20.513 -39.846 -4.745 5
-19.004 -36.606 -4.781 6
-17.603 -33.612 -4.76 17
-16.352 -30.967 -4.721 6
-15.305 -28.736 -4.7 4
-14.384 -26.788 -4.681 5
-13.589 -25.104 -4.675 4
-12.923 -23.674 -4.692 5
-12.299 -22.352 -4.696 8
-11.78 -21.222 -4.724 10
-11.259 -20.133 -4.729 23
-10.802 -19.158 -4.741 7
-10.382 -18.271 -4.755 6
-9.99 -17.437 -4.764 6
-9.639 -16.697 -4.786 7
-9.308 -15.992 -4.8 9
-9.004 -15.351 -4.822 9
-8.707 -14.731 -4.833 4
-8.441 -14.166 -4.852 8
-8.211 -13.673 -4.894 8
-7.97 -13.165 -4.91 9
-7.746 -12.696 -4.933 25
-7.537 -12.253 -4.957 8
-7.334 -11.83 -4.979 8
-7.143 -11.426 -5.001 8
-6.962 -11.048 -5.027 10
-5.376 -8.461 -3.376 1
-5.303 -8.278 -3.467 3
-6.444 -9.976 -5.079 39
-6.287 -9.648 -5.096 22
-5.955 -9.063 -4.878 9
-20.474 -39.826 -4.022 8
-20.667 -39.844 -4.745 16
-19.176 -36.66 -4.792 6
-17.752 -33.643 -4.767 23
-16.496 -31.004 -4.73 6
-15.432 -28.756 -4.705 4
-14.505 -26.81 -4.688 5
-13.709 -25.135 -4.685 6
-13.031 -23.691 -4.698 4
-12.397 -22.359 -4.699 7
-11.874 -21.231 -4.728 15
-11.341 -20.127 -4.726 15
-10.885 -19.159 -4.741 7
-10.467 -18.28 -4.759 6
-10.07 -17.445 -4.767 6
-9.714 -16.698 -4.786 7
-9.377 -15.987 -4.798 9
-9.073 -15.352 -4.822 8
-8.773 -14.729 -4.832 7
-8.507 -14.167 -4.853 7
-8.273 -13.672 -4.894 8
-8.027 -13.159 -4.907 8
-7.802 -12.69 -4.93 24
-7.596 -12.255 -4.958 8
-7.389 -11.829 -4.979 7
-7.197 -11.426 -5.001 8
-7.013 -11.045 -5.024 10
-6.84 -10.683 -5.05 10
-6.661 -10.319 -5.062 10
-6.492 -9.975 -5.078 32
-6.33 -9.641 -5.09 20
-5.997 -9.057 -4.873 9
-20.634 -39.839 -4.025 8
-20.86 -39.919 -4.759 3
-19.358 -36.732 -4.808 5
-17.902 -33.673 -4.774 26
-16.633 -31.028 -4.736 5
-15.566 -28.788 -4.714 4
-14.63 -26.837 -4.695 5
-13.82 -25.149 -4.689 5
-13.136 -23.702 -4.701 4
-12.495 -22.366 -4.701 7
-11.969 -21.239 -4.73 22
-11.442 -20.154 -4.736 10
-10.972 -19.167 -4.744 7
-10.546 -18.279 -4.759 6
-10.149 -17.448 -4.768 6
-9.785 -16.692 -4.784 6
-9.451 -15.993 -4.8 9
-9.144 -15.354 -4.823 8
-8.836 -14.723 -4.829 5
-8.567 -14.16 -4.849 8
-8.335 -13.672 -4.893 8
-8.086 -13.156 -4.905 9
-7.861 -12.691 -4.93 21
-7.65 -12.249 -4.955 9
-7.441 -11.822 -4.974 8
-7.249 -11.422 -4.998 8
-7.064 -11.042 -5.022 9
-6.89 -10.68 -5.048 10
-6.712 -10.32 -5.063 11
-6.538 -9.971 -5.074 38
-6.377 -9.64 -5.089 21
-6.04 -9.055 -4.871 9
-20.805 -39.872 -4.03 7
-21.297 -40.453 -4.863 6
-19.52 -36.764 -4.814 5
-18.063 -33.723 -4.786 34
-16.784 -31.078 -4.749 6
-15.699 -28.817 -4.722 5
-14.757 -26.869 -4.705 5
-13.939 -25.175 -4.697 5
-13.243 -23.717 -4.706 4
-12.595 -22.376 -4.705 7
-12.055 -21.231 -4.727 24
-11.53 -20.156 -4.737 8
-11.058 -19.171 -4.746 7
-10.633 -18.291 -4.764 6
-10.224 -17.444 -4.767 6
-9.863 -16.7 -4.787 6
-9.524 -15.994 -4.801 9
-9.211 -15.351 -4.822 8
-8.902 -14.721 -4.827 7
-8.63 -14.157 -4.847 8
-8.396 -13.667 -4.891 8
-8.146 -13.152 -4.903 9
-7.917 -12.685 -4.927 16
-7.71 -12.253 -4.957 9
-7.498 -11.823 -4.975 9
-7.3 -11.416 -4.994 8
-7.117 -11.041 -5.022 10
-6.937 -10.672 -5.042 12
-6.755 -10.31 -5.055 11
-6.584 -9.966 -5.071 38
-6.424 -9.639 -5.088 19
-6.083 -9.051 -4.868 9
-20.97 -39.894 -4.034 5
-21.475 -40.491 -4.871 6
-19.713 -36.855 -4.834 5
-18.221 -33.765 -4.795 25
-16.931 -31.116 -4.758 5
-15.826 -28.835 -4.726 4
-14.891 -26.909 -4.716 5
-14.053 -25.191 -4.702 5
-13.355 -23.738 -4.713 4
-12.699 -22.392 -4.71 7
-12.15 -21.238 -4.73 14
-11.621 -20.161 -4.739 8
-11.146 -19.178 -4.749 8
-10.712 -18.289 -4.763 6
-10.305 -17.45 -4.769 6
-9.94 -16.703 -4.789 7
-9.595 -15.993 -4.8 9
-9.282 -15.353 -4.823 8
-8.969 -14.721 -4.827 7
-8.698 -14.162 -4.85 7
-8.459 -13.666 -4.89 8
-8.201 -13.142 -4.897 9
-7.977 -12.685 -4.927 14
-7.761 -12.242 -4.95 8
-7.553 -11.821 -4.974 9
-7.356 -11.418 -4.995 8
-7.166 -11.035 -5.018 8
-6.987 -10.669 -5.04 12
-6.802 -10.304 -5.051 11
-6.628 -9.959 -5.065 40
-6.469 -9.636 -5.085 20
-6.122 -9.043 -4.861 9
-21.166 -39.972 -4.048 4
-21.674 -40.566 -4.885 6
-19.899 -36.928 -4.849 6
-18.386 -33.822 -4.808 22
-17.08 -31.158 -4.769 5
-15.961 -28.866 -4.735 5
-15.021 -26.943 -4.726 4
-14.172 -25.216 -4.709 5
-13.457 -23.742 -4.714 4
-12.807 -22.414 -4.718 16
-12.251 -21.255 -4.736 9
-11.715 -20.174 -4.744 8
-11.233 -19.185 -4.751 7
-10.795 -18.294 -4.765 6
-10.382 -17.449 -4.769 6
-10.013 -16.701 -4.788 8
-9.67 -15.997 -4.802 9
-9.353 -15.355 -4.824 8
-9.04 -14.727 -4.831 7
-8.764 -14.162 -4.85 8
-8.521 -13.664 -4.889 8
-8.266 -13.148 -4.9 8
-8.037 -12.685 -4.926 10
-7.82 -12.242 -4.95 9
-7.607 -11.816 -4.97 9
-7.404 -11.408 -4.988 8
-7.219 -11.035 -5.017 9
-7.039 -10.669 -5.04 10
-6.853 -10.305 -5.051 10
-6.678 -9.96 -5.065 33
-6.512 -9.628 -5.079 20
-6.169 -9.046 -4.863 9
-21.351 -40.028 -4.058 2
-21.87 -40.633 -4.898 5
-20.086 -37.003 -4.865 6
-18.534 -33.842 -4.813 9
-17.228 -31.196 -4.778 6
-16.101 -28.904 -4.745 5
-15.16 -26.993 -4.74 4
-14.287 -25.232 -4.714 5
-13.569 -23.763 -4.721 4
-12.9 -22.409 -4.716 20
-12.349 -21.265 -4.74 9
-11.804 -20.175 -4.744 8
-11.321 -19.191 -4.754 7
-10.879 -18.298 -4.767 6
-10.463 -17.455 -4.771 6
-10.089 -16.701 -4.788 7
-9.739 -15.992 -4.8 9
-9.421 -15.351 -4.822 5
-9.106 -14.724 -4.829 7
-8.828 -14.159 -4.849 8
-8.584 -13.662 -4.888 8
-8.325 -13.144 -4.898 8
-8.091 -12.676 -4.921 9
-7.876 -12.24 -4.949 9
-7.658 -11.808 -4.965 9
-7.462 -11.412 -4.99 9
-7.268 -11.028 -5.012 10
-7.091 -10.668 -5.039 12
-6.904 -10.305 -5.051 10
-6.724 -9.956 -5.062 25
-6.561 -9.63 -5.08 17
-6.21 -9.04 -4.858 9
0.0 -0.0 3.0 0
-22.074 -40.714 -4.914 6
-20.273 -37.075 -4.88 6
-18.727 -33.945 -4.837 6
-17.385 -31.251 -4.792 5
-16.241 -28.94 -4.755 5
-15.289 -27.022 -4.749 3
-14.405 -25.253 -4.721 5
-13.68 -23.779 -4.726 4
-12.993 -22.405 -4.715 20
-12.448 -21.279 -4.745 8
-11.896 -20.183 -4.747 8
-11.405 -19.191 -4.754 7
-10.958 -18.295 -4.766 6
-10.544 -17.46 -4.774 6
-10.166 -16.703 -4.789 7
-9.815 -15.996 -4.802 9
-9.492 -15.353 -4.823 5
-9.174 -14.723 -4.828 8
-8.89 -14.153 -4.845 8
-8.647 -13.66 -4.887 8
-8.386 -13.142 -4.897 9
-8.147 -12.669 -4.916 9
-7.931 -12.234 -4.945 8
-7.718 -11.812 -4.968 9
-7.515 -11.407 -4.988 8
-7.319 -11.024 -5.009 10
-7.137 -10.66 -5.033 10
-6.949 -10.297 -5.045 10
-6.774 -9.956 -5.062 15
-6.606 -9.625 -5.077 18
-6.255 -9.039 -4.857 11
0.0 -0.0 3.0 0
-22.294 -40.821 -4.935 5
-20.453 -37.132 -4.893 6
-18.9 -34.009 -4.852 6
-17.533 -31.288 -4.801 7
-16.381 -28.977 -4.764 5
-15.42 -27.054 -4.758 4
-14.531 -25.287 -4.731 5
-13.788 -23.791 -4.73 4
-13.103 -22.429 -4.723 8
-12.54 -21.278 -4.745 9
-11.987 -20.188 -4.749 8
-11.491 -19.193 -4.754 7
-11.04 -18.296 -4.766 6
-10.62 -17.455 -4.771 6
-10.241 -16.703 -4.789 8
-9.888 -15.996 -4.802 9
-9.564 -15.354 -4.823 8
-9.239 -14.72 -4.827 8
-8.955 -14.151 -4.844 7
-8.707 -13.655 -4.884 7
-8.448 -13.141 -4.896 8
-8.207 -12.668 -4.916 9
-7.986 -12.228 -4.941 8
-7.767 -11.801 -4.96 8
-7.563 -11.397 -4.98 8
-7.373 -11.023 -5.009 10
-7.189 -10.659 -5.032 11
-6.999 -10.294 -5.043 11
-6.819 -9.948 -5.056 13
-6.647 -9.616 -5.068 17
-6.3 -9.038 -4.857 11
0.0 -0.0 3.0 0
-22.497 -40.896 -4.949 5
-20.65 -37.218 -4.911 5
-19.075 -34.075 -4.867 5
-17.696 -31.347 -4.816 6
-16.517 -29.006 -4.772 5
-15.528 -27.045 -4.755 4
-14.642 -25.294 -4.733 5
-13.903 -23.814 -4.738 4
-13.214 -22.453 -4.731 7
-12.636 -21.283 -4.746 9
-12.076 -20.188 -4.749 8
-11.578 -19.195 -4.755 7
-11.13 -18.309 -4.772 6
-10.703 -17.463 -4.775 6
-10.316 -16.702 -4.788 7
-9.959 -15.994 -4.801 9
-9.632 -15.348 -4.82 8
-9.311 -14.725 -4.829 8
-9.025 -14.156 -4.847 8
-8.768 -13.65 -4.881 8
-8.505 -13.133 -4.891 9
-8.265 -12.664 -4.914 9
-8.041 -12.222 -4.937 8
-7.827 -11.804 -4.962 9
-7.618 -11.395 -4.979 8
-7.424 -11.019 -5.006 9
-7.237 -10.653 -5.028 12
-7.048 -10.291 -5.04 11
-6.865 -9.943 -5.052 12
-6.694 -9.614 -5.067 17
-6.349 -9.043 -4.861 13
0.0 -0.0 3.0 0
-22.69 -40.951 -4.96 8
-20.83 -37.274 -4.923 6
-19.257 -34.152 -4.885 6
-17.839 -31.373 -4.822 6
-16.658 -29.041 -4.782 5
-15.658 -27.073 -4.763 4
-14.765 -25.32 -4.741 5
-14.006 -23.816 -4.738 4
-13.314 -22.457 -4.733 7
-12.737 -21.296 -4.751 8
-12.175 -20.205 -4.756 8
-11.664 -19.197 -4.756 7
-11.21 -18.305 -4.77 6
-10.781 -17.46 -4.774 5
-10.394 -16.704 -4.789 6
-10.033 -15.994 -4.801 9
-9.705 -15.353 -4.823 8
-9.375 -14.717 -4.825 7
-9.089 -14.153 -4.845 7
-8.833 -13.65 -4.881 8
-8.565 -13.129 -4.888 9
-8.323 -12.661 -4.911 9
-8.104 -12.227 -4.94 8
-7.882 -11.802 -4.96 9
-7.674 -11.396 -4.98 9
-7.477 -11.018 -5.005 10
-7.288 -10.649 -5.025 10
-7.095 -10.285 -5.036 11
-6.913 -9.941 -5.05 11
-6.74 -9.609 -5.063 16
-6.394 -9.042 -4.86 29
0.0 -0.0 3.0 0
-22.919 -41.069 -4.983 5
-21.023 -37.349 -4.939 5
-19.418 -34.191 -4.894 6
-18.002 -31.432 -4.837 5
-16.799 -29.076 -4.791 5
-15.78 -27.087 -4.767 4
-14.884 -25.34 -4.747 5
-14.117 -23.83 -4.743 4
-13.421 -22.474 -4.738 7
-12.835 -21.304 -4.754 9
-12.267 -20.208 -4.757 8
-11.753 -19.202 -4.758 7
-11.296 -18.311 -4.772 6
-10.861 -17.461 -4.774 6
-10.474 -16.71 -4.792 7
-10.11 -16.0 -4.804 9
-9.777 -15.354 -4.823 9
-9.443 -14.716 -4.825 7
-9.157 -14.156 -4.847 7
-8.898 -13.65 -4.881 8
-8.624 -13.124 -4.886 9
-8.381 -12.656 -4.908 9
-8.16 -12.223 -4.938 8
-7.938 -11.799 -4.959 9
-7.726 -11.391 -4.976 8
-7.527 -11.01 -4.999 10
-7.338 -10.646 -5.022 11
-7.142 -10.279 -5.031 11
-6.957 -9.933 -5.044 15
-6.785 -9.605 -5.059 17
-6.441 -9.044 -4.861 21
0.0 -0.0 3.0 0
-23.152 -41.19 -5.006 5
-21.217 -37.423 -4.955 6
-19.577 -34.224 -4.901 6
-18.156 -31.473 -4.847 6
-16.941 -29.11 -4.8 5
-15.91 -27.113 -4.775 4
-15.006 -25.362 -4.754 5
-14.235 -23.855 -4.751 3
-13.523 -22.48 -4.741 7
-12.932 -21.308 -4.755 9
-12.356 -20.208 -4.757 8
-11.842 -19.206 -4.76 7
-11.38 -18.314 -4.774 6
-10.938 -17.459 -4.773 12
-10.551 -16.711 -4.792 6
-10.184 -15.999 -4.803 9
-9.851 -15.357 -4.825 8
-9.513 -14.717 -4.825 8
-9.222 -14.152 -4.844 7
-8.959 -13.644 -4.877 8
-8.688 -13.124 -4.886 9
-8.439 -12.651 -4.905 9
-8.213 -12.214 -4.932 8
-7.992 -11.793 -4.954 8
-7.781 -11.389 -4.975 8
-7.584 -11.014 -5.002 10
-7.388 -10.642 -5.019 12
-7.19 -10.273 -5.026 10
-7.005 -9.93 -5.041 31
-6.832 -9.602 -5.057 21
-6.489 -9.044 -4.862 17
0.0 -0.0 3.0 0
-23.374 -41.289 -5.026 4
-21.403 -37.483 -4.967 6
-19.749 -34.278 -4.914 6
-18.309 -31.51 -4.856 6
-17.085 -29.147 -4.81 5
-16.043 -27.143 -4.783 4
-15.135 -25.397 -4.765 5
-14.342 -23.862 -4.753 4
-13.627 -22.489 -4.744 7
-13.03 -21.316 -4.758 9
-12.456 -20.223 -4.763 8
-11.932 -19.213 -4.763 7
-11.461 -18.309 -4.772 6
-11.026 -17.471 -4.779 5
-10.629 -16.712 -4.793 6
-10.262 -16.004 -4.806 9
-9.921 -15.354 -4.823 8
-9.587 -14.724 -4.829 8
-9.288 -14.151 -4.844 7
-9.024 -13.644 -4.877 8
-8.749 -13.122 -4.884 9
-8.499 -12.65 -4.905 9
-8.274 -12.216 -4.933 9
-8.045 -11.787 -4.95 9
-7.831 -11.38 -4.969 8
-7.635 -11.01 -4.999 9
-7.441 -10.64 -5.018 11
-7.239 -10.27 -5.024 11
-7.052 -9.924 -5.037 33
-6.877 -9.597 -5.053 17
-6.53 -9.038 -4.857 15
-25.87 -45.794 -5.075 5
-23.586 -41.371 -5.042 5
-21.601 -37.562 -4.984 6
-19.917 -34.325 -4.924 6
-18.479 -31.576 -4.873 6
-17.231 -29.186 -4.82 6
-16.17 -27.162 -4.789 4
-15.253 -25.412 -4.769 5
-14.45 -23.869 -4.756 4
-13.735 -22.504 -4.749 7
-13.129 -21.323 -4.761 10
-12.548 -20.226 -4.764 9
-12.019 -19.214 -4.763 8
-11.549 -18.317 -4.775 6
-11.11 -17.478 -4.782 6
-10.709 -16.716 -4.795 6
-10.334 -16.0 -4.804 9
-9.991 -15.351 -4.822 8
-9.652 -14.717 -4.825 8
-9.355 -14.149 -4.843 8
-9.086 -13.637 -4.873 8
-8.809 -13.116 -4.881 9
-8.558 -12.645 -4.902 9
-8.327 -12.206 -4.927 9
-8.103 -11.786 -4.95 9
-7.89 -11.383 -4.97 8
-7.683 -10.999 -4.991 10
-7.489 -10.633 -5.013 11
-7.288 -10.266 -5.021 11
-7.102 -9.924 -5.036 38
-6.925 -9.595 -5.051 16
-6.575 -9.036 -4.855 16
-26.115 -45.902 -5.094 11
-23.821 -41.489 -5.065 5
-21.783 -37.61 -4.994 6
-20.102 -34.397 -4.941 8
-18.64 -31.626 -4.885 7
-17.378 -29.226 -4.831 6
-16.305 -27.194 -4.798 4
-15.37 -25.423 -4.773 6
-14.578 -23.908 -4.768 3
-13.839 -22.513 -4.752 7
-13.228 -21.33 -4.763 9
-12.646 -20.237 -4.768 7
-12.113 -19.223 -4.767 7
-11.636 -18.322 -4.777 6
-11.187 -17.471 -4.779 6
-10.787 -16.717 -4.795 8
-10.408 -15.999 -4.803 9
-10.067 -15.357 -4.825 8
-9.724 -14.72 -4.827 8
-9.422 -14.148 -4.842 5
-9.153 -13.639 -4.875 8
-8.873 -13.116 -4.881 9
-8.62 -12.646 -4.902 9
-8.387 -12.204 -4.926 9
-8.159 -11.782 -4.947 9
-7.945 -11.38 -4.969 7
-7.737 -10.997 -4.99 10
-7.538 -10.626 -5.007 12
-7.335 -10.26 -5.016 12
-7.15 -9.921 -5.034 35
-6.974 -9.595 -5.051 17
-6.615 -9.027 -4.847 16
-26.347 -45.986 -5.109 18
-24.042 -41.579 -5.082 4
-21.985 -37.692 -5.012 6
-20.267 -34.435 -4.95 6
-18.808 -31.684 -4.9 6
-17.513 -29.244 -4.836 4
-16.439 -27.221 -4.806 4
-15.494 -25.447 -4.78 5
-14.697 -23.93 -4.775 3
-13.946 -22.524 -4.756 7
-13.325 -21.333 -4.765 8
-12.74 -20.242 -4.77 8
-12.206 -19.233 -4.771 10
-11.72 -18.323 -4.778 6
-11.273 -17.48 -4.782 5
-10.865 -16.718 -4.796 6
-10.486 -16.004 -4.805 9
-10.138 -15.353 -4.823 9
-9.788 -14.711 -4.822 8
-9.489 -14.146 -4.841 8
-9.216 -13.636 -4.873 8
-8.934 -13.113 -4.879 9
-8.682 -12.647 -4.903 9
-8.448 -12.206 -4.926 9
-8.215 -11.779 -4.945 9
-7.995 -11.372 -4.963 8
-7.792 -10.997 -4.99 10
-7.59 -10.624 -5.006 11
-7.387 -10.258 -5.015 10
-7.196 -9.915 -5.029 34
-7.017 -9.587 -5.044 17
-6.658 -9.022 -4.843 15
-26.584 -46.076 -5.125 15
-24.273 -41.684 -5.103 4
-22.183 -37.765 -5.027 6
-20.451 -34.503 -4.966 7
-18.998 -31.78 -4.924 2
0.0 -0.0 3.0 0
-16.566 -27.239 -4.811 4
-15.617 -25.467 -4.786 5
-14.801 -23.93 -4.775 4
-14.05 -22.532 -4.758 7
-13.429 -21.346 -4.769 9
-12.834 -20.246 -4.772 8
-12.293 -19.232 -4.77 10
-11.807 -18.328 -4.78 5
-11.351 -17.476 -4.781 6
-10.944 -16.718 -4.796 7
-10.558 -15.998 -4.803 9
-10.21 -15.352 -4.822 8
-9.861 -14.714 -4.824 8
-9.557 -14.147 -4.842 7
-9.284 -13.637 -4.873 8
-8.998 -13.113 -4.879 9
-8.741 -12.641 -4.899 9
-8.503 -12.199 -4.922 8
-8.271 -11.775 -4.943 9
-8.052 -11.371 -4.962 8
-7.842 -10.989 -4.984 10
-7.641 -10.62 -5.002 12
-7.438 -10.257 -5.014 11
-7.247 -9.915 -5.029 35
-7.065 -9.584 -5.042 17
-6.702 -9.018 -4.839 17
-26.849 -46.213 -5.149 12
-24.53 -41.833 -5.132 4
-22.383 -37.838 -5.043 6
-20.635 -34.57 -4.981 7
-16.996 -28.231 -4.039 1
0.0 -0.0 3.0 0
-16.698 -27.263 -4.817 4
-15.753 -25.506 -4.798 6
-14.918 -23.948 -4.781 4
-14.161 -22.549 -4.764 7
-13.526 -21.348 -4.77 8
-12.931 -20.254 -4.775 8
-12.387 -19.241 -4.774 12
-11.894 -18.331 -4.781 6
-11.43 -17.472 -4.779 6
-11.024 -16.72 -4.797 7
-10.639 -16.005 -4.806 9
-10.284 -15.354 -4.823 8
-9.93 -14.712 -4.822 8
-9.62 -14.139 -4.838 8
-9.349 -13.637 -4.873 8
-9.058 -13.106 -4.875 9
-8.802 -12.638 -4.897 9
-8.558 -12.191 -4.917 9
-8.323 -11.765 -4.936 9
-8.105 -11.365 -4.958 8
-7.897 -10.989 -4.984 9
-7.693 -10.617 -5.001 10
-7.486 -10.25 -5.008 11
-7.291 -9.905 -5.021 34
-7.108 -9.576 -5.035 16
-6.741 -9.008 -4.831 35
-27.136 -46.383 -5.178 12
-24.781 -41.968 -5.158 4
-22.594 -37.93 -5.062 5
-20.812 -34.623 -4.993 6
0.0 -0.0 3.0 0
0.0 -0.0 3.0 0
-16.835 -27.293 -4.826 4
-15.876 -25.525 -4.804 5
-15.04 -23.972 -4.789 4
-14.273 -22.565 -4.77 7
-13.632 -21.363 -4.775 8
-13.032 -20.267 -4.78 15
-12.481 -19.25 -4.777 12
-11.984 -18.338 -4.784 6
-11.521 -17.485 -4.785 6
-11.103 -16.72 -4.797 7
-10.713 -16.004 -4.806 8
-10.359 -15.356 -4.824 9
-10.0 -14.711 -4.822 8
-9.691 -14.143 -4.84 8
-9.411 -13.629 -4.869 8
-9.118 -13.1 -4.871 9
-8.86 -12.633 -4.894 9
-8.624 -12.197 -4.921 8
-8.383 -11.767 -4.937 9
-8.16 -11.361 -4.955 8
-7.951 -10.986 -4.982 9
-7.744 -10.613 -4.997 11
-7.537 -10.249 -5.007 12
-7.34 -9.902 -5.019 35
-7.159 -9.578 -5.037 19
-6.783 -9.001 -4.825 15
-27.413 -46.534 -5.205 14
-25.017 -42.073 -5.178 4
-22.787 -37.987 -5.074 5
-21.016 -34.718 -5.015 6
0.0 -0.0 3.0 0
0.0 -0.0 3.0 0
-16.978 -27.331 -4.837 4
-16.008 -25.556 -4.813 5
-15.157 -23.99 -4.795 4
-14.38 -22.576 -4.773 7
-13.734 -21.371 -4.778 9
-13.118 -20.258 -4.776 26
-12.573 -19.255 -4.779 13
-12.069 -18.338 -4.784 5
-11.598 -17.477 -4.781 6
-11.183 -16.722 -4.798 7
-10.788 -16.001 -4.804 9
-10.43 -15.351 -4.822 9
-10.073 -14.714 -4.823 7
-9.759 -14.14 -4.838 8
-9.476 -13.627 -4.867 8
-9.184 -13.102 -4.872 9
-8.921 -12.63 -4.892 9
-8.677 -12.186 -4.914 9
-8.439 -11.762 -4.934 10
-8.217 -11.36 -4.955 8
-8.003 -10.98 -4.977 9
-7.798 -10.613 -4.998 10
-7.585 -10.241 -5.001 11
-7.39 -9.9 -5.017 36
-7.205 -9.572 -5.032 18
-6.826 -8.996 -4.82 15
-27.662 -46.633 -5.223 19
0.0 -0.0 3.0 0
-23.0 -38.078 -5.094 6
-21.186 -34.756 -5.024 7
0.0 -0.0 3.0 0
0.0 -0.0 3.0 0
-17.113 -27.357 -4.844 4
-16.134 -25.578 -4.82 5
-15.273 -24.003 -4.799 5
-14.49 -22.588 -4.778 7
-13.839 -21.382 -4.783 10
-13.211 -20.257 -4.776 21
-12.663 -19.256 -4.78 16
-12.156 -18.341 -4.785 6
-11.685 -17.484 -4.785 5
-11.264 -16.725 -4.799 6
-10.865 -16.001 -4.804 8
-10.507 -15.355 -4.824 9
-10.144 -14.713 -4.823 8
-9.824 -14.134 -4.834 8
-9.542 -13.625 -4.866 8
-9.246 -13.098 -4.87 9
-8.982 -12.626 -4.89 9
-8.736 -12.184 -4.912 8
-8.495 -11.758 -4.931 9
-8.269 -11.354 -4.95 9
-8.055 -10.974 -4.973 10
-7.849 -10.608 -4.993 11
-7.636 -10.239 -5.0 11
-7.435 -9.891 -5.01 36
-7.248 -9.563 -5.025 19
-6.868 -8.988 -4.814 13
-27.874 -46.67 -5.229 17
0.0 -0.0 3.0 0
-23.2 -38.144 -5.108 6
-21.38 -34.835 -5.042 7
0.0 -0.0 3.0 0
0.0 -0.0 3.0 0
-17.259 -27.397 -4.856 5
-16.257 -25.592 -4.824 5
-15.382 -24.007 -4.8 5
-14.6 -22.6 -4.782 7
-13.943 -21.392 -4.786 20
-13.319 -20.279 -4.784 11
-12.759 -19.266 -4.784 17
-12.244 -18.343 -4.786 5
-11.77 -17.488 -4.786 6
-11.347 -16.73 -4.801 7
-10.948 -16.01 -4.809 8
-10.577 -15.351 -4.822 8
-10.217 -14.715 -4.824 8
-9.897 -14.14 -4.838 8
-9.61 -13.625 -4.867 8
-9.308 -13.093 -4.867 9
-9.04 -12.62 -4.886 9
-8.796 -12.181 -4.911 8
-8.555 -11.759 -4.931 9
-8.322 -11.347 -4.945 9
-8.11 -10.974 -4.973 9
-7.898 -10.6 -4.987 11
-7.686 -10.235 -4.997 11
-7.485 -9.89 -5.008 35
-7.294 -9.557 -5.019 17
-6.909 -8.981 -4.807 15
-28.075 -46.686 -5.232 15
0.0 -0.0 3.0 0
-23.415 -38.234 -5.127 5
-21.576 -34.911 -5.06 8
0.0 -0.0 3.0 0
0.0 -0.0 3.0 0
-17.405 -27.438 -4.868 5
-16.385 -25.615 -4.831 5
-15.5 -24.023 -4.806 5
-14.72 -22.627 -4.791 8
-14.037 -21.387 -4.784 29
-13.424 -20.297 -4.791 8
-12.85 -19.267 -4.784 18
-12.338 -18.355 -4.791 5
-11.851 -17.485 -4.785 6
-11.428 -16.731 -4.802 7
-11.027 -16.013 -4.81 9
-10.652 -15.351 -4.822 8
-10.282 -14.704 -4.818 8
-9.963 -14.134 -4.835 8
-9.678 -13.626 -4.867 8
-9.375 -13.094 -4.868 9
-9.105 -12.622 -4.887 9
-8.855 -12.179 -4.909 8
-8.61 -11.751 -4.926 9
-8.379 -11.345 -4.944 9
-8.162 -10.967 -4.968 10
-7.95 -10.597 -4.985 11
-7.737 -10.233 -4.995 10
-7.532 -9.883 -5.003 35
-7.337 -9.548 -5.012 17
-6.951 -8.973 -4.8 13
-28.271 -46.691 -5.233 13
-26.003 -42.545 -5.27 2
-23.622 -38.308 -5.143 5
-21.768 -34.98 -5.076 10
0.0 -0.0 3.0 0
0.0 -0.0 3.0 0
-17.552 -27.478 -4.879 6
-16.508 -25.629 -4.835 5
-15.615 -24.032 -4.808 4
-14.82 -22.622 -4.789 20
-14.14 -21.393 -4.786 17
-13.52 -20.299 -4.792 8
-12.94 -19.267 -4.785 18
-12.426 -18.356 -4.792 6
-11.936 -17.488 -4.786 6
-11.51 -16.732 -4.802 6
-11.102 -16.009 -4.808 9
-10.721 -15.342 -4.817 8
-10.357 -14.709 -4.821 8
-10.038 -14.142 -4.839 8
-9.737 -13.615 -4.86 9
-9.437 -13.09 -4.865 9
-9.166 -12.618 -4.885 9
-8.919 -12.181 -4.91 8
-8.67 -11.751 -4.926 9
-8.435 -11.341 -4.941 8
-8.214 -10.961 -4.964 10
-8.003 -10.594 -4.983 11
-7.787 -10.228 -4.991 10
-7.582 -9.881 -5.002 33
-7.322 -9.463 -4.941 13
-6.988 -8.96 -4.788 12
-28.454 -46.675 -5.23 15
0.0 -0.0 3.0 0
-23.84 -38.398 -5.162 4
-21.942 -35.019 -5.085 10
0.0 -0.0 3.0 0
-17.228 -27.014 -4.238 218
-17.709 -27.534 -4.895 7
-16.644 -25.661 -4.845 5
-15.735 -24.05 -4.814 4
-14.92 -22.617 -4.788 22
-14.253 -21.415 -4.795 10
-13.622 -20.31 -4.796 7
-13.033 -19.27 -4.786 19
-12.512 -18.355 -4.791 6
-12.024 -17.494 -4.789 6
-11.589 -16.73 -4.802 7
-11.179 -16.008 -4.808 9
-10.801 -15.348 -4.82 8
-10.427 -14.704 -4.818 6
-10.104 -14.135 -4.835 8
-9.81 -13.62 -4.864 8
-9.502 -13.088 -4.864 8
-9.227 -12.614 -4.882 9
-8.975 -12.172 -4.905 8
-8.722 -11.74 -4.919 9
-8.494 -11.342 -4.942 9
-8.27 -10.96 -4.963 9
-8.052 -10.585 -4.977 8
-7.837 -10.223 -4.987 11
-7.631 -9.877 -4.998 33
-7.272 -9.336 -4.833 11
-7.033 -8.957 -4.787 12
-28.647 -46.675 -5.23 11
-26.553 -42.858 -5.331 4
-24.049 -38.471 -5.177 5
-22.129 -35.076 -5.098 9
0.0 -0.0 3.0 0
-17.327 -26.983 -4.23 3
-17.849 -27.559 -4.903 9
-16.782 -25.696 -4.856 5
-15.861 -24.074 -4.822 4
-15.028 -22.624 -4.79 11
-14.359 -21.424 -4.798 9
-13.724 -20.321 -4.801 8
-13.128 -19.276 -4.788 20
-12.607 -18.365 -4.795 6
-12.108 -17.494 -4.789 6
-11.672 -16.734 -4.803 7
-11.258 -16.01 -4.809 10
-10.876 -15.348 -4.82 8
-10.5 -14.705 -4.819 3
-10.176 -14.137 -4.836 8
-9.874 -13.614 -4.86 9
-9.568 -13.089 -4.864 8
-9.288 -12.61 -4.88 9
-9.034 -12.169 -4.902 8
-8.781 -11.737 -4.917 9
-8.543 -11.329 -4.933 8
-8.322 -10.953 -4.958 11
-8.109 -10.587 -4.978 10
-7.888 -10.22 -4.985 12
-7.677 -9.87 -4.992 29
-7.28 -9.283 -4.789 9
-7.073 -8.947 -4.777 12
-28.841 -46.674 -5.23 12
-26.762 -42.902 -5.339 2
-24.273 -38.566 -5.197 5
-22.316 -35.132 -5.111 7
0.0 -0.0 3.0 0
0.0 -0.0 3.0 0
-17.988 -27.585 -4.91 7
-16.906 -25.707 -4.859 4
-15.976 -24.082 -4.825 4
-15.158 -22.663 -4.804 7
-14.466 -21.436 -4.802 9
-13.822 -20.324 -4.802 8
-13.223 -19.282 -4.79 20
-12.691 -18.36 -4.793 5
-12.189 -17.49 -4.787 5
-11.756 -16.738 -4.805 7
-11.329 -15.999 -4.803 43
-10.952 -15.348 -4.82 8
-10.578 -14.712 -4.822 7
-10.248 -14.138 -4.837 8
-9.942 -13.614 -4.86 8
-9.631 -13.084 -4.862 8
-9.349 -12.605 -4.877 9
-9.092 -12.162 -4.898 7
-8.841 -11.737 -4.917 9
-8.604 -11.332 -4.935 8
-8.378 -10.952 -4.957 10
-8.158 -10.579 -4.972 11
-7.938 -10.214 -4.98 11
-7.728 -9.867 -4.99 32
-7.323 -9.274 -4.782 10
-7.118 -8.943 -4.774 13
-29.033 -46.67 -5.229 13
0.0 -0.0 3.0 0
-9.255 -14.606 -0.105 9
-9.255 -14.472 -0.341 1
0.0 -0.0 3.0 0
0.0 -0.0 3.0 0
-16.418 -25.004 -4.17 3
-16.373 -24.726 -4.56 1
-16.106 -24.112 -4.834 4
-15.274 -22.679 -4.809 7
-14.578 -21.454 -4.808 9
-13.927 -20.338 -4.807 8
-13.318 -19.287 -4.792 25
-12.783 -18.366 -4.796 6
-12.28 -17.498 -4.791 6
-11.838 -16.738 -4.805 7
-11.407 -15.997 -4.802 44
-11.027 -15.347 -4.82 8
-10.65 -14.709 -4.821 8
-10.315 -14.134 -4.835 8
-10.006 -13.607 -4.856 8
-9.696 -13.081 -4.86 9
-9.415 -12.607 -4.877 8
-9.154 -12.161 -4.898 6
-8.9 -11.735 -4.915 10
-8.657 -11.325 -4.93 8
-8.434 -10.95 -4.956 10
-8.215 -10.58 -4.973 10
-7.99 -10.212 -4.978 10
-7.779 -9.866 -4.989 34
-7.367 -9.267 -4.776 10
-7.162 -8.938 -4.77 14
-29.221 -46.658 -5.227 13
-9.256 -14.639 0.154 0
-9.303 -14.582 -0.099 26
-9.317 -14.471 -0.341 24
0.0 -0.0 3.0 0
0.0 -0.0 3.0 0
-16.416 -24.833 -4.121 4
-16.377 -24.565 -4.51 6
-16.225 -24.125 -4.839 4
-15.385 -22.687 -4.812 7
-14.691 -21.471 -4.815 9
-14.025 -20.341 -4.808 8
-13.412 -19.289 -4.793 26
-12.878 -18.375 -4.8 6
-12.368 -17.503 -4.793 6
-11.922 -16.74 -4.806 7
-11.486 -15.998 -4.803 43
-11.105 -15.349 -4.821 8
-10.721 -14.706 -4.819 8
-10.388 -14.135 -4.835 8
-10.077 -13.609 -4.857 9
-9.758 -13.075 -4.856 9
-9.476 -12.602 -4.875 8
-9.214 -12.157 -4.895 8
-8.958 -11.731 -4.913 9
-8.715 -11.323 -4.928 9
-8.486 -10.943 -4.951 10
-8.264 -10.571 -4.965 12
-8.042 -10.209 -4.976 11
-7.827 -9.86 -4.985 32
-7.418 -9.268 -4.777 10
-7.203 -8.93 -4.762 13
-29.422 -46.665 -5.228 11
-9.271 -14.565 0.169 2
-9.343 -14.547 -0.092 255
-9.339 -14.407 -0.326 255
0.0 -0.0 3.0 0
0.0 -0.0 3.0 0
-16.425 -24.677 -4.076 1
-16.403 -24.435 -4.471 29
-16.347 -24.141 -4.844 4
-15.501 -22.702 -4.817 7
-14.799 -21.481 -4.818 9
-14.128 -20.35 -4.812 9
-13.507 -19.293 -4.795 27
-12.969 -18.378 -4.801 6
-12.452 -17.501 -4.792 6
-12.002 -16.737 -4.804 7
-11.57 -16.005 -4.806 43
-11.181 -15.348 -4.82 8
-10.795 -14.706 -4.819 8
-10.451 -14.124 -4.829 8
-10.143 -13.605 -4.855 8
-9.825 -13.075 -4.856 9
-9.537 -12.597 -4.871 9
-9.278 -12.158 -4.896 7
-9.013 -11.722 -4.907 9
-8.772 -11.319 -4.926 9
-8.543 -10.941 -4.949 10
-8.317 -10.567 -4.963 11
-8.089 -10.2 -4.969 11
-7.878 -9.857 -4.982 16
-7.463 -9.262 -4.772 10
-7.247 -8.924 -4.757 13
-9.257 -14.584 0.429 0
-9.335 -14.567 0.168 70
-9.35 -14.46 -0.074 255
-9.343 -14.316 -0.305 255
0.0 -0.0 3.0 0
0.0 -0.0 3.0 0
-16.439 -24.531 -4.034 4
-16.434 -24.317 -4.434 9
-16.474 -24.163 -4.851 4
-15.615 -22.714 -4.821 7
-14.914 -21.5 -4.825 10
-14.227 -20.353 -4.813 8
-13.608 -19.304 -4.799 28
-13.06 -18.381 -4.802 6
-12.538 -17.501 -4.792 6
-12.086 -16.739 -4.805 6
-11.65 -16.006 -4.806 45
-11.257 -15.347 -4.82 9
-10.867 -14.702 -4.817 8
-10.524 -14.125 -4.83 8
-10.212 -13.604 -4.854 8
-9.89 -13.072 -4.854 9
-9.599 -12.591 -4.868 9
-9.334 -12.148 -4.889 8
-9.069 -11.716 -4.903 9
-8.83 -11.317 -4.924 9
-8.599 -10.939 -4.948 11
-8.37 -10.563 -4.96 12
-8.141 -10.197 -4.967 11
-7.927 -9.853 -4.978 13
-7.509 -9.257 -4.768 9
-7.297 -8.925 -4.759 15
-9.275 -14.517 0.44 2
-9.343 -14.484 0.185 255
-9.354 -14.37 -0.054 255
-9.351 -14.233 -0.286 255
0.0 -0.0 3.0 0
0.0 -0.0 3.0 0
-16.483 -24.43 -4.005 7
-16.447 -24.171 -4.39 10
-16.603 -24.187 -4.859 4
-15.738 -22.737 -4.829 7
-15.021 -21.507 -4.828 9
-14.33 -20.361 -4.816 8
-13.706 -19.31 -4.802 21
-13.16 -18.395 -4.808 6
-12.627 -17.505 -4.794 6
-12.172 -16.743 -4.807 6
-11.726 -15.999 -4.803 43
-11.337 -15.35 -4.821 9
-10.941 -14.702 -4.817 8
-10.596 -14.125 -4.83 8
-10.278 -13.6 -4.852 9
-9.955 -13.068 -4.852 9
-9.662 -12.589 -4.867 9
-9.396 -12.146 -4.888 8
-9.132 -11.718 -4.904 9
-8.885 -11.311 -4.92 8
-8.653 -10.934 -4.944 10
-8.423 -10.559 -4.957 11
-8.193 -10.193 -4.964 11
-7.976 -9.847 -4.974 12
-7.554 -9.251 -4.763 9
-7.338 -8.916 -4.751 13
-9.345 -14.529 0.438 255
-9.351 -14.4 0.201 255
-9.359 -14.283 -0.036 255
-9.355 -14.143 -0.265 255
0.0 -0.0 3.0 0
0.0 -0.0 3.0 0
-16.568 -24.391 -3.994 3
-16.491 -24.071 -4.359 12
-16.742 -24.224 -4.871 3
-15.857 -22.754 -4.835 7
-15.129 -21.516 -4.831 10
-14.436 -20.372 -4.82 8
-13.804 -19.317 -4.805 22
-13.243 -18.385 -4.804 5
-12.716 -17.508 -4.795 6
-12.257 -16.745 -4.808 6
-11.808 -16.002 -4.805 44
-11.411 -15.346 -4.819 8
-11.011 -14.696 -4.814 7
-10.666 -14.123 -4.828 6
-10.347 -13.597 -4.85 8
-10.02 -13.065 -4.85 9
-9.726 -12.586 -4.865 9
-9.454 -12.139 -4.883 8
-9.191 -11.714 -4.901 9
-8.941 -11.306 -4.916 9
-8.708 -10.929 -4.94 11
-8.474 -10.552 -4.951 11
-8.241 -10.185 -4.957 12
-8.027 -9.844 -4.971 12
-7.601 -9.247 -4.759 9
-7.382 -8.91 -4.746 12
-9.35 -14.442 0.453 255
-9.358 -14.316 0.217 255
-9.36 -14.19 -0.016 255
-9.364 -14.062 -0.247 255
0.0 -0.0 3.0 0
0.0 -0.0 3.0 0
-16.664 -24.367 -3.987 3
-16.555 -24.004 -4.339 12
-16.874 -24.251 -4.88 4
-15.979 -22.774 -4.842 8
-15.23 -21.512 -4.83 8
-14.542 -20.382 -4.824 9
-13.912 -19.335 -4.812 16
-13.343 -18.399 -4.81 3
-12.803 -17.508 -4.795 6
-12.339 -16.743 -4.807 6
-11.891 -16.005 -4.806 43
-11.492 -15.35 -4.821 7
-11.092 -14.703 -4.818 8
-10.737 -14.12 -4.827 8
-10.416 -13.596 -4.85 8
-10.087 -13.063 -4.849 9
-9.787 -12.58 -4.861 9
-9.516 -12.136 -4.882 8
-9.25 -11.709 -4.898 9
-8.996 -11.299 -4.912 8
-8.762 -10.923 -4.936 10
-8.529 -10.55 -4.95 11
-8.295 -10.183 -4.956 10
-8.078 -9.841 -4.969 10
-7.649 -9.244 -4.757 10
-7.427 -8.907 -4.742 11
-9.355 -14.355 0.469 255
-9.361 -14.226 0.235 255
-9.365 -14.102 0.002 255
-9.362 -13.966 -0.224 255
0.0 -0.0 3.0 0
0.0 -0.0 3.0 0
-16.757 -24.341 -3.98 4
-16.624 -23.941 -4.319 37
-16.997 -24.263 -4.884 4
-16.094 -22.783 -4.845 8
-15.335 -21.515 -4.831 9
-14.646 -20.39 -4.827 9
-14.001 -19.328 -4.809 24
-13.437 -18.402 -4.811 5
-12.894 -17.514 -4.798 5
-12.424 -16.744 -4.808 6
-11.971 -16.004 -4.806 42
-11.573 -15.352 -4.822 8
-11.166 -14.701 -4.817 8
-10.807 -14.116 -4.825 6
-10.485 -13.594 -4.848 9
-10.153 -13.059 -4.846 9
-9.855 -12.582 -4.862 8
-9.581 -12.137 -4.882 8
-9.311 -11.709 -4.898 8
-9.054 -11.296 -4.91 9
-8.814 -10.915 -4.93 10
-8.583 -10.545 -4.946 12
-8.347 -10.18 -4.953 12
-8.124 -9.833 -4.962 17
-7.694 -9.237 -4.751 11
-7.471 -8.9 -4.737 11
-9.362 -14.271 0.484 255
-9.367 -14.142 0.251 255
-9.367 -14.012 0.022 255
-9.368 -13.883 -0.205 255
-9.284 -13.637 -0.4 1
0.0 -0.0 3.0 0
-16.849 -24.31 -3.971 4
-16.695 -23.882 -4.302 112
-17.143 -24.308 -4.898 5
-16.215 -22.801 -4.851 8
-15.442 -21.519 -4.832 9
-14.752 -20.399 -4.831 9
-14.096 -19.328 -4.809 28
-13.536 -18.413 -4.816 5
-12.984 -17.516 -4.798 6
-12.513 -16.75 -4.811 6
-12.054 -16.006 -4.806 42
-11.647 -15.347 -4.82 8
-11.241 -14.699 -4.816 4
-10.878 -14.113 -4.823 6
-10.554 -13.59 -4.846 8
-10.22 -13.057 -4.846 9
-9.917 -12.576 -4.858 8
-9.637 -12.126 -4.875 8
-9.364 -11.695 -4.889 9
-9.114 -11.294 -4.908 8
-8.873 -10.915 -4.93 10
-8.634 -10.538 -4.941 11
-8.397 -10.173 -4.948 14
-8.173 -9.826 -4.957 16
-7.739 -9.23 -4.745 10
-7.514 -8.893 -4.731 11
-9.364 -14.18 0.5 255
-9.369 -14.051 0.269 255
-9.377 -13.936 0.038 255
-9.372 -13.796 -0.185 255
-9.296 -13.564 -0.382 3
0.0 -0.0 3.0 0
-16.911 -24.238 -3.95 1
-16.779 -23.842 -4.289 26
-17.263 -24.315 -4.9 5
-16.331 -22.81 -4.854 7
-15.549 -21.523 -4.834 8
-14.854 -20.402 -4.832 9
-14.193 -19.33 -4.81 25
-13.626 -18.41 -4.815 5
-13.073 -17.517 -4.799 6
-12.594 -16.745 -4.808 6
-12.135 -16.004 -4.806 41
-11.728 -15.35 -4.821 8
-11.32 -14.703 -4.818 5
-10.955 -14.118 -4.826 6
-10.619 -13.582 -4.842 9
-10.283 -13.05 -4.841 9
-9.981 -12.572 -4.856 9
-9.699 -12.123 -4.873 8
-9.425 -11.694 -4.887 9
-9.169 -11.288 -4.904 9
-8.925 -10.906 -4.924 10
-8.689 -10.535 -4.939 11
-8.452 -10.171 -4.947 22
-8.229 -9.828 -4.959 18
-7.786 -9.225 -4.74 11
-7.558 -8.887 -4.725 11
-9.369 -14.097 0.514 255
-9.377 -13.972 0.284 255
-9.378 -13.846 0.057 255
-9.372 -13.708 -0.165 255
-9.366 -13.575 -0.385 255
0.0 -0.0 3.0 0
0.0 -0.0 3.0 0
-16.865 -23.806 -4.278 13
-17.389 -24.329 -4.905 4
-16.456 -22.83 -4.861 7
-15.664 -21.537 -4.839 9
-14.97 -20.423 -4.84 14
-14.296 -19.34 -4.814 30
-13.724 -18.419 -4.819 6
-13.165 -17.522 -4.801 5
-12.686 -16.754 -4.813 6
-12.22 -16.008 -4.808 43
-11.804 -15.346 -4.819 8
-11.39 -14.695 -4.814 8
-11.028 -14.116 -4.825 7
-10.695 -13.588 -4.845 8
-10.355 -13.054 -4.844 9
-10.045 -12.569 -4.854 9
-9.76 -12.117 -4.869 8
-9.482 -11.686 -4.882 8
-9.229 -11.287 -4.903 9
-8.984 -10.906 -4.923 10
-8.742 -10.53 -4.935 10
-8.5 -10.161 -4.939 29
-8.278 -9.822 -4.953 18
-7.832 -9.22 -4.737 10
-7.599 -8.877 -4.717 12
-9.375 -14.013 0.529 255
-9.377 -13.881 0.302 255
-9.381 -13.759 0.075 255
-9.375 -13.621 -0.145 255
-9.373 -13.496 -0.365 255
0.0 -0.0 3.0 0
0.0 -0.0 3.0 0
-16.971 -23.796 -4.275 10
-17.482 -24.297 -4.895 3
-16.576 -22.845 -4.866 7
-15.778 -21.55 -4.843 9
-15.068 -20.419 -4.838 24
-14.4 -19.351 -4.818 28
-13.819 -18.421 -4.819 5
-13.255 -17.524 -4.802 6
-12.769 -16.75 -4.811 6
-12.303 -16.009 -4.808 42
-11.888 -15.351 -4.822 9
-11.47 -14.699 -4.816 8
-11.099 -14.112 -4.822 6
-10.767 -13.587 -4.844 9
-10.421 -13.048 -4.84 9
-10.107 -12.561 -4.849 9
-9.825 -12.117 -4.869 9
-9.546 -11.686 -4.882 9
-9.285 -11.28 -4.898 9
-9.041 -10.903 -4.921 10
-8.798 -10.527 -4.933 10
-8.552 -10.156 -4.935 33
-8.327 -9.815 -4.948 17
-7.884 -9.22 -4.736 10
-7.645 -8.873 -4.713 11
-9.377 -13.926 0.544 255
-9.38 -13.796 0.318 255
-9.383 -13.673 0.094 255
-9.382 -13.541 -0.126 255
-9.379 -13.417 -0.345 255
-17.805 -25.235 -3.762 0
0.0 -0.0 3.0 0
-17.078 -23.787 -4.272 13
-17.269 -23.84 -4.746 1
-16.699 -22.861 -4.872 8
-15.902 -21.574 -4.852 16
-15.161 -20.409 -4.834 26
-14.495 -19.348 -4.817 28
-13.916 -18.427 -4.822 5
-13.344 -17.525 -4.803 5
-12.857 -16.753 -4.812 6
-12.387 -16.01 -4.809 41
-11.972 -15.355 -4.824 9
-11.547 -14.699 -4.816 8
-11.17 -14.108 -4.82 7
-10.831 -13.578 -4.839 9
-10.484 -13.04 -4.835 9
-10.175 -12.563 -4.85 9
-9.888 -12.114 -4.867 8
-9.607 -11.684 -4.881 9
-9.343 -11.275 -4.895 8
-9.096 -10.896 -4.916 10
-8.849 -10.519 -4.926 11
-8.604 -10.152 -4.932 31
-8.376 -9.809 -4.943 16
-7.928 -9.212 -4.73 19
-7.687 -8.864 -4.705 13
-9.38 -13.84 0.56 255
-9.384 -13.712 0.335 255
-9.388 -13.59 0.111 255
-9.381 -13.452 -0.106 255
-9.385 -13.338 -0.325 255
-17.926 -25.24 -3.763 1
0.0 -0.0 3.0 0
-17.177 -23.767 -4.266 12
-17.347 -23.789 -4.73 1
-16.836 -22.895 -4.883 7
-16.01 -21.576 -4.853 41
-15.278 -20.429 -4.842 14
-14.595 -19.351 -4.818 24
-14.009 -18.426 -4.821 6
-13.441 -17.534 -4.807 6
-12.94 -16.749 -4.81 6
-12.468 -16.008 -4.807 44
-12.046 -15.348 -4.82 8
-11.617 -14.69 -4.811 8
-11.248 -14.111 -4.822 6
-10.903 -13.577 -4.839 8
-10.557 -13.043 -4.837 9
-10.239 -12.558 -4.847 9
-9.946 -12.104 -4.861 8
-9.666 -11.679 -4.877 9
-9.403 -11.273 -4.893 8
-9.15 -10.89 -4.912 10
-8.905 -10.516 -4.924 11
-8.654 -10.145 -4.926 35
-8.429 -9.807 -4.942 18
-7.982 -9.214 -4.731 10
-7.732 -8.859 -4.701 13
-9.381 -13.753 0.575 255
-9.388 -13.629 0.351 255
-9.389 -13.504 0.13 255
-9.385 -13.37 -0.087 255
-9.386 -13.251 -0.304 255
-18.043 -25.237 -3.762 1
-17.337 -24.038 -3.893 1
-17.295 -23.774 -4.268 11
-17.523 -23.872 -4.757 1
-16.962 -22.914 -4.89 7
-16.11 -21.566 -4.85 30
-15.39 -20.442 -4.847 10
-14.702 -19.363 -4.823 24
-14.113 -18.44 -4.827 6
-13.527 -17.529 -4.804 6
-13.032 -16.756 -4.813 6
-12.551 -16.008 -4.807 42
-12.13 -15.353 -4.823 7
-11.702 -14.699 -4.815 8
-11.319 -14.106 -4.819 6
-10.973 -13.573 -4.836 9
-10.627 -13.043 -4.837 9
-10.304 -12.554 -4.844 9
-10.013 -12.106 -4.862 8
-9.726 -11.673 -4.873 9
-9.457 -11.263 -4.887 9
-9.207 -10.886 -4.909 10
-8.958 -10.51 -4.92 11
-8.709 -10.142 -4.924 36
-8.476 -9.798 -4.934 17
-8.029 -9.209 -4.727 8
-7.778 -8.854 -4.697 13
-9.387 -13.673 0.589 255
-9.389 -13.542 0.368 255
-9.386 -13.412 0.149 255
-9.386 -13.284 -0.067 255
-9.389 -13.169 -0.283 255
-18.175 -25.257 -3.767 1
-17.437 -24.018 -3.887 7
-17.402 -23.763 -4.265 10
-17.633 -23.864 -4.754 1
-17.095 -22.94 -4.899 8
-16.246 -21.605 -4.864 9
-15.498 -20.449 -4.85 9
-14.802 -19.366 -4.824 23
-14.21 -18.444 -4.829 6
-13.626 -17.54 -4.81 5
-13.123 -16.76 -4.815 6
-12.639 -16.013 -4.81 42
-12.205 -15.345 -4.819 8
-11.779 -14.698 -4.815 6
-11.397 -14.109 -4.821 6
-11.045 -13.572 -4.836 8
-10.695 -13.04 -4.835 9
-10.37 -12.552 -4.843 9
-10.074 -12.099 -4.857 8
-9.79 -11.672 -4.873 9
-9.52 -11.263 -4.887 8
-9.264 -10.881 -4.906 9
-9.01 -10.502 -4.914 12
-8.761 -10.137 -4.92 35
-8.527 -9.793 -4.93 16
-8.076 -9.203 -4.723 9
-7.826 -8.852 -4.695 13
-9.386 -13.584 0.605 255
-9.39 -13.457 0.384 255
-9.393 -13.336 0.165 255
-9.388 -13.202 -0.048 255
-9.392 -13.088 -0.263 255
-18.304 -25.269 -3.771 1
-17.543 -24.006 -3.884 9
