# .PCD v0.7 - Point Cloud Data file format
VERSION 0.7
FIELDS x y z intensity
SIZE 4 4 4 4
TYPE F F F F
COUNT 1 1 1 1
WIDTH 2075
HEIGHT 1
VIEWPOINT 0 0 0 1 0 0 0
POINTS 2075
DATA ascii
11.288 -6.1 1.924 21
10.543 -5.567 1.918 28
11.37 -5.868 1.753 4
12.483 -6.303 1.545 49
12.09 -5.975 1.51 20
11.633 -5.632 1.491 27
11.797 -5.598 1.395 22
12.037 -5.605 1.286 20
12.245 -5.602 1.18 10
11.58 -5.209 1.206 30
11.624 -5.151 1.125 20
12.472 -5.444 0.91 6
12.202 -5.259 0.875 22
11.929 -5.08 0.844 37
40.421 -17.038 -4.586 4
37.647 -15.723 -4.332 6
31.794 -13.179 -3.428 1
31.085 -12.801 -3.522 17
31.506 -12.906 -3.862 5
25.967 -10.6 -2.876 23
25.636 -10.438 -3.026 12
25.897 -10.533 -3.329 26
24.56 -9.984 -3.239 18
23.204 -9.444 -3.133 11
22.058 -8.991 -3.065 5
21.038 -8.6 -3.022 13
20.123 -8.252 -2.995 15
19.28 -7.94 -2.983 13
18.513 -7.657 -2.982 13
17.805 -7.401 -2.993 13
17.097 -7.146 -2.996 15
16.428 -6.905 -3.002 15
11.321 -6.156 1.915 15
10.535 -5.599 1.912 21
11.343 -5.893 1.747 29
13.182 -6.701 1.453 25
12.35 -6.146 1.468 26
11.594 -5.654 1.485 35
11.668 -5.579 1.4 29
12.109 -5.681 1.263 24
11.968 -5.518 1.207 24
11.527 -5.226 1.201 25
11.582 -5.174 1.117 28
12.598 -5.545 0.872 1
12.163 -5.285 0.865 23
11.669 -5.01 0.873 20
11.555 -4.911 0.814 7
37.379 -15.739 -4.339 7
31.624 -13.217 -3.447 2
30.909 -12.833 -3.539 166
31.301 -12.927 -3.874 5
25.686 -10.571 -2.86 23
25.451 -10.445 -3.03 10
25.783 -10.569 -3.351 21
24.43 -10.009 -3.255 19
23.084 -9.466 -3.148 11
21.926 -9.004 -3.073 6
20.925 -8.616 -3.033 14
20.022 -8.269 -3.007 15
19.206 -7.964 -3.001 13
18.44 -7.678 -2.999 13
17.744 -7.423 -3.011 17
17.026 -7.161 -3.009 14
16.359 -6.917 -3.013 15
11.259 -6.16 1.914 30
10.449 -5.59 1.913 23
11.281 -5.9 1.746 21
13.191 -6.752 1.441 29
12.201 -6.114 1.476 26
11.588 -5.692 1.475 22
11.712 -5.641 1.382 1
11.977 -5.662 1.269 0
11.929 -5.542 1.199 20
11.464 -5.237 1.197 30
11.612 -5.228 1.097 22
12.226 -5.423 0.918 23
12.141 -5.319 0.851 22
11.525 -4.988 0.883 25
11.465 -4.913 0.813 33
37.088 -15.746 -4.343 6
31.484 -13.267 -3.471 2
30.838 -12.909 -3.577 61
31.067 -12.936 -3.878 5
25.559 -10.604 -2.878 26
24.926 -10.311 -2.953 12
25.638 -10.592 -3.364 24
24.301 -10.033 -3.269 17
22.961 -9.487 -3.161 11
21.822 -9.028 -3.089 11
20.813 -8.631 -3.044 14
19.936 -8.291 -3.024 16
19.124 -7.984 -3.017 13
18.378 -7.703 -3.019 14
17.69 -7.449 -3.032 12
16.963 -7.18 -3.024 14
16.308 -6.938 -3.031 15
11.27 -6.206 1.906 25
10.423 -5.611 1.909 28
11.229 -5.912 1.743 21
13.203 -6.804 1.429 16
12.293 -6.203 1.453 29
11.606 -5.742 1.462 21
12.895 -6.257 1.206 27
11.748 -5.595 1.289 29
11.922 -5.581 1.186 22
11.486 -5.289 1.179 25
11.595 -5.262 1.085 24
12.179 -5.446 0.909 21
12.084 -5.336 0.844 27
11.906 -5.195 0.795 34
11.434 -4.939 0.801 29
36.842 -15.769 -4.353 5
31.336 -13.312 -3.493 2
30.786 -12.992 -3.62 60
30.873 -12.959 -3.89 5
25.423 -10.632 -2.893 24
24.544 -10.234 -2.908 11
24.855 -10.348 -3.218 6
24.154 -10.049 -3.279 17
22.827 -9.503 -3.171 11
21.708 -9.047 -3.102 14
20.725 -8.657 -3.062 15
19.853 -8.315 -3.041 17
19.057 -8.011 -3.037 12
18.319 -7.73 -3.039 13
17.64 -7.476 -3.054 12
16.893 -7.195 -3.037 14
16.238 -6.951 -3.042 17
11.145 -6.175 1.911 29
10.474 -5.675 1.897 24
11.282 -5.98 1.729 26
13.543 -7.028 1.377 34
11.895 -6.045 1.493 29
11.553 -5.757 1.457 23
12.779 -6.246 1.209 29
11.669 -5.599 1.288 17
11.754 -5.544 1.199 24
11.505 -5.339 1.162 29
11.682 -5.343 1.055 21
12.179 -5.49 0.893 25
12.113 -5.391 0.822 22
11.632 -5.117 0.828 50
11.644 -5.072 0.742 36
36.538 -15.766 -4.352 7
31.203 -13.363 -3.518 3
30.758 -13.086 -3.667 34
30.654 -12.971 -3.897 5
25.191 -10.619 -2.886 13
23.87 -10.031 -2.792 21
24.915 -10.455 -3.282 31
23.986 -10.055 -3.283 11
22.685 -9.515 -3.179 11
21.604 -9.069 -3.117 14
20.634 -8.681 -3.078 13
19.757 -8.332 -3.054 15
18.98 -8.033 -3.053 13
18.249 -7.752 -3.057 13
17.565 -7.492 -3.067 13
16.84 -7.217 -3.056 14
16.179 -6.967 -3.057 16
11.087 -6.18 1.91 29
10.511 -5.732 1.886 25
11.314 -6.036 1.717 24
13.209 -6.901 1.407 24
11.899 -6.089 1.482 32
11.54 -5.791 1.448 22
12.667 -6.237 1.212 13
11.631 -5.622 1.281 15
11.704 -5.563 1.192 23
11.538 -5.395 1.142 31
11.919 -5.494 1.0 29
12.182 -5.534 0.876 31
12.13 -5.443 0.801 31
11.384 -5.048 0.857 19
11.436 -5.02 0.765 20
36.267 -15.776 -4.357 7
31.084 -13.42 -3.545 3
30.744 -13.185 -3.718 39
30.453 -12.989 -3.906 5
28.798 -12.235 -3.782 13
23.651 -10.017 -2.783 23
24.623 -10.412 -3.256 26
23.842 -10.071 -3.293 16
22.559 -9.532 -3.19 8
21.49 -9.088 -3.13 13
20.539 -8.703 -3.094 13
19.674 -8.356 -3.071 15
18.912 -8.059 -3.073 13
18.18 -7.774 -3.074 14
17.5 -7.512 -3.083 13
16.776 -7.235 -3.071 13
16.114 -6.981 -3.068 16
11.101 -6.228 1.902 17
10.54 -5.785 1.876 9
11.185 -6.007 1.723 30
13.453 -7.077 1.366 22
11.902 -6.133 1.471 25
11.515 -5.819 1.441 21
12.666 -6.281 1.199 16
11.602 -5.651 1.272 6
11.722 -5.614 1.176 27
11.51 -5.423 1.133 29
11.514 -5.349 1.053 28
12.142 -5.56 0.866 27
12.069 -5.458 0.795 30
11.334 -5.067 0.849 25
11.372 -5.033 0.759 30
36.01 -15.792 -4.364 7
31.004 -13.494 -3.581 3
30.752 -13.295 -3.774 15
30.256 -13.007 -3.916 5
28.604 -12.249 -3.789 11
23.483 -10.024 -2.787 24
24.22 -10.32 -3.201 25
23.713 -10.092 -3.306 13
22.435 -9.551 -3.202 7
21.372 -9.104 -3.141 19
20.455 -8.729 -3.112 13
19.602 -8.383 -3.091 16
18.835 -8.08 -3.089 15
18.11 -7.795 -3.09 13
17.424 -7.528 -3.096 13
16.723 -7.258 -3.09 8
16.055 -6.998 -3.083 15
11.067 -6.247 1.898 28
10.556 -5.831 1.867 1
11.147 -6.026 1.719 33
13.106 -6.94 1.398 25
11.704 -6.072 1.486 29
11.572 -5.89 1.422 32
11.788 -5.888 1.312 38
11.67 -5.725 1.25 16
11.74 -5.665 1.159 30
11.599 -5.508 1.103 40
11.536 -5.4 1.034 22
12.106 -5.587 0.855 18
12.022 -5.48 0.786 22
11.288 -5.086 0.841 32
11.322 -5.051 0.751 27
35.74 -15.798 -4.367 7
30.946 -13.576 -3.622 5
30.809 -13.425 -3.841 4
30.063 -13.027 -3.927 5
28.431 -12.27 -3.802 14
23.228 -9.992 -2.769 22
24.098 -10.347 -3.217 24
23.602 -10.121 -3.324 15
22.312 -9.569 -3.214 8
21.268 -9.125 -3.155 14
20.367 -8.754 -3.129 14
19.526 -8.409 -3.109 13
18.75 -8.098 -3.102 18
18.055 -7.823 -3.112 13
17.353 -7.545 -3.11 13
16.659 -7.275 -3.105 7
15.996 -7.015 -3.098 15
11.133 -6.324 1.885 24
11.469 -6.375 1.761 25
11.088 -6.033 1.718 25
12.061 -6.43 1.516 16
11.738 -6.133 1.471 32
11.543 -5.917 1.415 31
11.652 -5.862 1.319 27
11.616 -5.741 1.245 1
11.729 -5.701 1.147 0
11.903 -5.695 1.039 23
11.543 -5.446 1.018 23
12.08 -5.618 0.843 22
11.939 -5.485 0.784 24
11.292 -5.128 0.823 22
11.262 -5.064 0.745 20
35.48 -15.809 -4.372 7
31.128 -13.766 -3.714 255
31.519 -13.844 -4.054 4
29.848 -13.036 -3.931 5
28.247 -12.287 -3.811 14
23.032 -9.984 -2.764 24
23.789 -10.292 -3.184 23
23.488 -10.148 -3.341 31
22.196 -9.589 -3.227 9
21.158 -9.144 -3.168 14
20.283 -8.779 -3.147 15
19.461 -8.439 -3.131 14
18.693 -8.129 -3.125 19
17.992 -7.847 -3.131 13
17.263 -7.554 -3.117 12
16.592 -7.291 -3.118 7
15.93 -7.028 -3.11 15
10.69 -6.11 1.923 24
11.135 -6.229 1.789 24
11.119 -6.09 1.705 33
12.028 -6.456 1.51 21
12.023 -6.325 1.423 21
11.497 -5.935 1.41 1
11.652 -5.905 1.307 25
13.784 -6.862 0.902 21
12.183 -5.967 1.061 5
11.924 -5.748 1.021 23
11.871 -5.644 0.946 22
12.058 -5.652 0.831 19
11.999 -5.556 0.755 27
11.239 -5.145 0.816 23
11.201 -5.077 0.74 27
35.228 -15.821 -4.378 6
31.084 -13.855 -3.757 27
31.301 -13.857 -4.06 5
29.641 -13.047 -3.937 5
28.068 -12.304 -3.82 9
22.885 -9.998 -2.772 23
23.182 -10.106 -3.072 22
23.38 -10.177 -3.359 31
22.066 -9.603 -3.236 6
21.051 -9.163 -3.18 14
20.195 -8.803 -3.164 14
19.378 -8.461 -3.147 14
18.618 -8.151 -3.142 15
17.936 -7.874 -3.152 13
17.191 -7.571 -3.131 12
16.528 -7.308 -3.132 9
15.864 -7.041 -3.121 15
10.822 -6.224 1.903 27
10.888 -6.13 1.808 27
0.0 -0.0 3.0 0
11.523 -6.226 1.563 36
12.032 -6.373 1.411 21
11.497 -5.976 1.399 19
11.62 -5.93 1.299 29
13.858 -6.95 0.875 23
11.745 -5.795 1.117 1
12.311 -5.98 0.941 6
11.821 -5.663 0.939 22
12.221 -5.773 0.784 2
11.955 -5.579 0.746 10
11.189 -5.162 0.809 29
11.173 -5.104 0.727 32
34.962 -15.826 -4.38 7
32.935 -14.796 -4.216 2
31.113 -13.882 -4.073 4
29.451 -13.066 -3.947 5
27.903 -12.327 -3.833 7
22.757 -10.017 -2.784 24
22.975 -10.092 -3.064 26
23.255 -10.198 -3.372 24
21.95 -9.623 -3.249 16
20.947 -9.184 -3.195 14
20.11 -8.828 -3.181 14
19.306 -8.487 -3.166 14
18.544 -8.173 -3.158 16
17.874 -7.898 -3.171 13
17.133 -7.594 -3.149 12
16.468 -7.326 -3.148 13
15.801 -7.056 -3.134 15
10.908 -6.312 1.887 25
10.895 -6.174 1.8 16
12.17 -6.754 1.564 22
11.599 -6.31 1.543 27
12.027 -6.415 1.401 7
11.443 -5.99 1.395 18
11.58 -5.953 1.293 29
13.794 -6.969 0.87 23
12.386 -6.157 0.999 0
13.392 -6.554 0.743 22
11.834 -5.712 0.921 25
12.127 -5.773 0.784 6
11.947 -5.618 0.73 2
11.14 -5.18 0.801 26
11.177 -5.146 0.709 28
34.717 -15.839 -4.386 7
32.701 -14.806 -4.221 4
30.889 -13.89 -4.077 5
29.248 -13.076 -3.953 5
27.716 -12.339 -3.84 7
22.625 -10.035 -2.794 23
21.88 -9.684 -2.818 18
23.069 -10.192 -3.369 32
21.87 -9.658 -3.272 14
20.854 -9.209 -3.211 15
20.037 -8.857 -3.202 14
19.226 -8.511 -3.183 14
18.487 -8.203 -3.181 18
17.814 -7.923 -3.19 13
17.058 -7.609 -3.162 12
16.404 -7.344 -3.162 14
15.739 -7.071 -3.147 15
10.812 -6.295 1.89 26
10.805 -6.162 1.802 31
10.56 -5.898 1.746 2
11.221 -6.144 1.581 29
11.574 -6.215 1.45 0
11.481 -6.053 1.378 0
11.597 -6.004 1.278 27
13.998 -7.123 0.822 0
12.349 -6.184 0.991 4
12.289 -6.06 0.913 6
12.025 -5.849 0.871 19
12.043 -5.777 0.783 7
9.624 -4.561 1.157 0
11.118 -5.21 0.789 29
11.191 -5.193 0.688 24
34.463 -15.846 -4.389 6
32.474 -14.819 -4.228 4
30.68 -13.904 -4.084 5
29.052 -13.089 -3.96 5
27.537 -12.353 -3.847 6
22.518 -10.064 -2.81 23
21.98 -9.801 -2.889 24
22.916 -10.199 -3.373 25
21.757 -9.678 -3.285 14
20.775 -9.24 -3.232 14
19.952 -8.882 -3.219 14
19.154 -8.537 -3.202 15
18.419 -8.227 -3.199 16
17.737 -7.94 -3.204 13
17.003 -7.632 -3.181 12
16.334 -7.357 -3.174 14
15.676 -7.085 -3.159 15
10.756 -6.302 1.889 16
10.557 -6.058 1.822 13
11.379 -6.396 1.64 26
11.172 -6.158 1.578 32
11.492 -6.213 1.451 23
11.512 -6.111 1.363 7
11.54 -6.017 1.275 0
10.947 -5.611 1.285 27
12.308 -6.209 0.983 13
12.433 -6.176 0.873 6
12.271 -6.014 0.811 4
12.102 -5.849 0.755 7
9.59 -4.581 1.149 18
11.076 -5.23 0.78 32
11.138 -5.208 0.681 24
34.205 -15.85 -4.391 7
32.241 -14.827 -4.231 4
30.478 -13.919 -4.092 5
28.871 -13.108 -3.97 5
27.365 -12.37 -3.857 7
22.415 -10.094 -2.828 21
22.019 -9.892 -2.944 24
22.784 -10.215 -3.383 24
21.627 -9.69 -3.293 12
20.693 -9.268 -3.252 15
19.878 -8.911 -3.24 14
19.088 -8.566 -3.223 15
18.365 -8.258 -3.223 14
17.681 -7.967 -3.225 21
16.942 -7.654 -3.198 12
16.263 -7.371 -3.185 14
15.62 -7.103 -3.174 15
10.739 -6.33 1.884 28
10.477 -6.051 1.824 30
10.533 -5.959 1.733 14
11.144 -6.183 1.572 30
11.481 -6.25 1.442 0
11.672 -6.239 1.328 15
11.068 -5.812 1.334 3
10.75 -5.549 1.303 30
12.26 -6.23 0.976 14
12.37 -6.191 0.868 2
12.22 -6.033 0.804 9
13.062 -6.361 0.558 21
9.547 -4.594 1.144 19
11.072 -5.269 0.764 26
11.166 -5.262 0.657 0
33.954 -15.856 -4.394 7
32.004 -14.832 -4.234 4
30.283 -13.937 -4.101 5
28.671 -13.117 -3.975 5
27.197 -12.388 -3.867 6
22.248 -10.094 -2.828 22
21.673 -9.809 -2.894 27
22.5 -10.162 -3.35 27
21.49 -9.698 -3.298 19
20.618 -9.301 -3.274 14
19.801 -8.938 -3.259 13
19.023 -8.594 -3.244 14
18.301 -8.284 -3.242 13
17.608 -7.986 -3.239 20
16.869 -7.669 -3.21 12
16.209 -7.392 -3.202 13
15.568 -7.121 -3.191 15
10.718 -6.357 1.879 34
10.45 -6.073 1.819 29
10.709 -6.099 1.704 27
11.08 -6.19 1.571 29
11.42 -6.259 1.439 16
11.45 -6.163 1.349 16
10.942 -5.786 1.341 23
10.518 -5.469 1.328 36
12.254 -6.273 0.962 12
10.779 -5.435 1.129 11
12.161 -6.049 0.798 8
11.978 -5.878 0.744 4
9.896 -4.799 1.061 5
11.05 -5.299 0.751 27
11.89 -5.646 0.486 30
33.718 -15.867 -4.399 7
31.785 -14.844 -4.24 4
30.07 -13.946 -4.106 5
28.479 -13.13 -3.981 5
27.022 -12.402 -3.874 7
22.176 -10.138 -2.853 22
21.337 -9.729 -2.846 21
22.446 -10.212 -3.381 25
21.339 -9.699 -3.299 15
20.539 -9.331 -3.294 14
19.727 -8.967 -3.278 14
18.964 -8.627 -3.268 14
18.233 -8.308 -3.26 14
17.527 -8.001 -3.251 20
16.797 -7.685 -3.223 12
16.145 -7.409 -3.217 13
15.509 -7.137 -3.204 15
10.694 -6.381 1.875 27
10.392 -6.077 1.819 38
10.45 -5.99 1.727 28
11.01 -6.191 1.571 20
11.388 -6.284 1.433 5
11.358 -6.156 1.351 21
10.896 -5.802 1.336 23
10.68 -5.592 1.29 21
12.237 -6.31 0.95 6
10.758 -5.464 1.119 13
11.033 -5.53 0.987 0
9.572 -4.733 1.183 11
9.498 -4.641 1.125 21
11.004 -5.317 0.743 29
11.098 -5.311 0.636 31
33.478 -15.876 -4.403 7
31.57 -14.858 -4.247 4
29.872 -13.961 -4.113 5
28.295 -13.144 -3.989 4
26.861 -12.42 -3.885 7
22.143 -10.198 -2.888 16
21.084 -9.684 -2.819 20
21.579 -9.889 -3.179 69
21.199 -9.705 -3.302 16
20.47 -9.365 -3.317 15
19.659 -8.998 -3.301 13
18.905 -8.658 -3.291 14
18.176 -8.337 -3.282 14
17.457 -8.021 -3.267 21
16.736 -7.705 -3.24 12
16.081 -7.425 -3.23 14
15.442 -7.149 -3.214 15
10.662 -6.403 1.871 28
10.193 -5.998 1.834 21
10.691 -6.167 1.689 27
11.058 -6.259 1.555 34
11.303 -6.278 1.435 21
11.054 -6.032 1.384 30
10.857 -5.822 1.331 26
10.473 -5.524 1.311 26
12.217 -6.345 0.938 1
10.705 -5.477 1.114 13
11.029 -5.569 0.973 27
9.507 -4.736 1.182 23
9.479 -4.667 1.114 22
10.88 -5.298 0.751 38
11.005 -5.307 0.637 29
33.243 -15.885 -4.407 6
31.348 -14.866 -4.25 4
29.664 -13.968 -4.117 5
28.107 -13.156 -3.995 4
26.682 -12.431 -3.891 6
22.022 -10.218 -2.899 1
21.077 -9.753 -2.86 18
21.645 -9.992 -3.244 21
21.126 -9.74 -3.326 17
20.401 -9.4 -3.34 14
19.596 -9.031 -3.323 14
18.846 -8.689 -3.313 14
18.118 -8.365 -3.304 14
17.384 -8.038 -3.28 23
16.67 -7.723 -3.254 12
16.017 -7.44 -3.243 13
15.383 -7.164 -3.228 15
10.692 -6.46 1.861 19
10.169 -6.022 1.83 21
10.694 -6.209 1.68 23
11.067 -6.305 1.544 21
11.326 -6.333 1.421 25
11.088 -6.092 1.368 26
10.846 -5.857 1.321 29
10.525 -5.591 1.291 29
13.998 -7.322 0.621 25
10.673 -5.501 1.106 33
11.0 -5.596 0.963 28
9.502 -4.769 1.17 17
9.59 -4.757 1.078 21
10.823 -5.309 0.746 29
10.997 -5.343 0.621 28
10.294 -4.957 0.689 6
31.13 -14.875 -4.255 5
29.463 -13.979 -4.123 5
27.923 -13.169 -4.002 4
26.522 -12.449 -3.901 7
25.256 -11.806 -3.816 19
20.912 -9.747 -2.857 19
21.279 -9.894 -3.183 25
21.178 -9.835 -3.387 21
20.326 -9.43 -3.361 15
19.522 -9.058 -3.343 14
18.798 -8.725 -3.339 13
18.064 -8.395 -3.326 14
17.307 -8.055 -3.293 13
16.608 -7.744 -3.271 12
15.96 -7.459 -3.259 13
15.324 -7.179 -3.241 15
10.732 -6.523 1.85 2
10.182 -6.068 1.82 20
10.487 -6.128 1.697 26
11.09 -6.36 1.532 21
11.22 -6.316 1.425 27
11.038 -6.106 1.364 31
10.831 -5.89 1.311 28
10.675 -5.711 1.254 18
13.947 -7.348 0.612 8
10.648 -5.528 1.097 24
10.992 -5.633 0.95 21
9.486 -4.796 1.159 30
9.679 -4.838 1.045 20
10.819 -5.348 0.73 28
10.341 -5.063 0.746 45
10.262 -4.978 0.679 23
30.909 -14.881 -4.258 4
29.273 -13.994 -4.13 5
27.732 -13.176 -4.006 5
26.365 -12.468 -3.911 7
25.105 -11.822 -3.826 18
20.821 -9.775 -2.874 20
21.139 -9.9 -3.186 19
21.108 -9.872 -3.411 32
20.257 -9.464 -3.384 14
19.458 -9.091 -3.366 14
18.745 -8.76 -3.365 14
17.989 -8.416 -3.342 14
17.24 -8.075 -3.309 13
16.54 -7.76 -3.284 12
15.896 -7.475 -3.272 13
15.271 -7.198 -3.257 15
10.673 -6.528 1.849 3
10.152 -6.088 1.817 20
10.288 -6.05 1.714 21
11.04 -6.373 1.529 17
11.191 -6.343 1.419 28
11.075 -6.169 1.347 28
11.115 -6.086 1.255 34
10.682 -5.755 1.241 17
10.584 -5.617 1.175 0
10.69 -5.59 1.075 25
11.005 -5.68 0.933 30
9.505 -4.842 1.141 28
9.603 -4.836 1.046 34
10.808 -5.382 0.715 26
10.249 -5.055 0.749 20
10.206 -4.989 0.673 16
30.712 -14.899 -4.267 4
29.076 -14.004 -4.136 5
27.555 -13.191 -4.014 5
26.212 -12.487 -3.922 9
24.961 -11.841 -3.836 8
20.748 -9.812 -2.896 19
20.792 -9.807 -3.128 21
20.849 -9.82 -3.377 27
20.184 -9.496 -3.405 13
19.394 -9.123 -3.388 13
18.686 -8.791 -3.387 14
17.917 -8.437 -3.358 16
17.177 -8.098 -3.327 13
16.478 -7.779 -3.299 12
15.835 -7.492 -3.287 13
15.205 -7.209 -3.267 15
10.913 -6.715 1.816 4
10.216 -6.165 1.802 20
10.332 -6.116 1.7 28
11.021 -6.403 1.522 25
11.168 -6.372 1.411 21
11.032 -6.187 1.342 28
11.207 -6.18 1.228 31
10.562 -5.73 1.248 6
10.566 -5.647 1.165 1
10.78 -5.678 1.045 32
10.983 -5.711 0.921 31
9.524 -4.887 1.124 3
9.647 -4.893 1.023 26
10.017 -5.026 0.867 38
10.207 -5.073 0.742 31
10.185 -5.016 0.661 29
30.502 -14.907 -4.271 4
28.886 -14.017 -4.142 4
27.385 -13.207 -4.023 4
26.055 -12.505 -3.932 15
24.813 -11.857 -3.846 7
20.758 -9.888 -2.942 21
20.506 -9.741 -3.087 27
20.713 -9.825 -3.38 26
20.105 -9.525 -3.424 21
19.323 -9.152 -3.408 13
18.61 -8.813 -3.403 14
17.852 -8.462 -3.377 13
17.107 -8.117 -3.341 14
16.412 -7.798 -3.314 12
15.764 -7.505 -3.297 13
15.145 -7.223 -3.279 15
10.796 -6.683 1.822 23
10.26 -6.23 1.789 34
10.311 -6.142 1.695 22
11.119 -6.503 1.499 1
11.108 -6.379 1.409 26
11.033 -6.23 1.331 27
11.15 -6.191 1.225 16
10.28 -5.617 1.283 23
10.614 -5.714 1.144 19
10.96 -5.815 0.998 23
11.002 -5.763 0.902 33
10.915 -5.642 0.834 30
9.592 -4.902 1.019 25
9.905 -5.007 0.875 20
10.165 -5.09 0.734 31
10.175 -5.049 0.646 10
30.292 -14.915 -4.275 4
28.7 -14.031 -4.149 4
27.212 -13.222 -4.03 4
25.888 -12.516 -3.938 24
24.666 -11.873 -3.855 7
20.604 -9.886 -2.94 19
20.547 -9.832 -3.143 22
20.563 -9.822 -3.379 21
20.001 -9.541 -3.436 17
19.262 -9.185 -3.432 14
18.54 -8.839 -3.422 13
17.77 -8.479 -3.389 13
17.036 -8.135 -3.356 14
16.35 -7.817 -3.33 12
15.707 -7.523 -3.313 13
15.096 -7.243 -3.297 15
10.696 -6.662 1.825 21
10.643 -6.503 1.736 21
10.402 -6.235 1.675 23
10.966 -6.455 1.51 7
11.023 -6.373 1.411 10
10.949 -6.224 1.332 30
12.348 -6.903 1.02 35
10.238 -5.634 1.278 32
10.578 -5.734 1.137 26
10.865 -5.806 1.001 21
11.154 -5.885 0.858 41
9.816 -5.112 1.038 8
9.561 -4.922 1.011 30
9.888 -5.035 0.863 27
10.158 -5.124 0.719 31
31.838 -15.916 -4.422 7
10.485 -5.201 0.463 1
28.506 -14.041 -4.154 4
27.043 -13.237 -4.038 4
25.724 -12.529 -3.945 28
24.522 -11.89 -3.865 7
20.537 -9.925 -2.964 21
20.383 -9.822 -3.137 21
20.593 -9.906 -3.433 29
19.925 -9.571 -3.456 18
19.181 -9.209 -3.448 14
18.46 -8.86 -3.437 13
17.699 -8.5 -3.405 14
16.973 -8.157 -3.373 18
16.284 -7.833 -3.343 11
15.642 -7.538 -3.325 13
15.029 -7.254 -3.306 14
10.721 -6.719 1.815 25
10.566 -6.497 1.737 28
10.527 -6.35 1.65 21
10.762 -6.377 1.528 23
10.898 -6.343 1.418 8
10.916 -6.247 1.326 36
12.727 -7.163 0.946 11
10.165 -5.632 1.278 24
10.636 -5.807 1.113 27
10.832 -5.83 0.992 22
11.368 -6.041 0.801 31
9.782 -5.131 1.03 26
9.485 -4.919 1.012 33
9.87 -5.064 0.851 35
10.148 -5.157 0.704 33
31.608 -15.918 -4.423 6
10.477 -5.236 0.446 33
28.321 -14.053 -4.16 4
26.88 -13.255 -4.048 4
25.568 -12.544 -3.953 28
24.386 -11.91 -3.876 7
20.498 -9.977 -2.995 22
20.23 -9.818 -3.135 22
20.35 -9.857 -3.401 26
19.877 -9.613 -3.484 18
19.116 -9.24 -3.47 14
18.39 -8.885 -3.456 13
17.62 -8.517 -3.418 14
16.903 -8.174 -3.386 13
16.219 -7.851 -3.358 12
15.581 -7.555 -3.339 13
14.969 -7.268 -3.318 15
10.669 -6.727 1.814 25
10.49 -6.49 1.738 27
10.417 -6.324 1.656 26
10.621 -6.333 1.538 27
10.814 -6.335 1.42 8
10.897 -6.278 1.318 21
10.995 -6.232 1.213 2
10.213 -5.698 1.258 23
10.171 -5.592 1.183 16
9.744 -5.282 1.181 61
11.407 -6.106 0.778 24
9.747 -5.15 1.023 21
9.451 -4.938 1.005 30
9.864 -5.098 0.836 32
10.102 -5.171 0.698 28
31.385 -15.923 -4.425 7
10.452 -5.262 0.433 22
28.125 -14.058 -4.163 4
26.704 -13.264 -4.053 5
25.412 -12.559 -3.961 28
24.242 -11.925 -3.885 7
20.424 -10.012 -3.016 8
20.094 -9.82 -3.137 22
20.093 -9.8 -3.364 38
19.863 -9.673 -3.524 19
19.052 -9.271 -3.491 14
18.32 -8.91 -3.473 14
17.541 -8.535 -3.431 13
16.832 -8.193 -3.401 15
16.157 -7.87 -3.373 12
15.521 -7.571 -3.353 13
14.913 -7.284 -3.332 15
10.751 -6.82 1.797 17
10.479 -6.523 1.732 17
10.507 -6.42 1.635 19
10.547 -6.331 1.538 22
10.771 -6.352 1.416 18
10.871 -6.305 1.311 27
11.22 -6.402 1.164 16
10.381 -5.832 1.217 29
10.695 -5.922 1.076 36
9.637 -5.261 1.189 30
10.787 -5.815 0.883 16
9.73 -5.179 1.012 17
9.479 -4.989 0.985 33
9.829 -5.117 0.828 24
10.067 -5.191 0.689 28
31.176 -15.934 -4.43 7
10.458 -5.304 0.413 24
27.95 -14.073 -4.171 4
26.539 -13.279 -4.06 5
25.256 -12.572 -3.969 29
24.095 -11.938 -3.892 7
23.008 -11.36 -3.826 19
19.989 -9.838 -3.148 24
20.006 -9.826 -3.381 30
19.794 -9.704 -3.546 25
18.981 -9.298 -3.511 15
18.247 -8.934 -3.491 14
17.476 -8.557 -3.449 13
16.765 -8.212 -3.416 13
16.088 -7.885 -3.385 12
15.456 -7.586 -3.365 14
14.847 -7.295 -3.342 15
11.057 -7.057 1.756 12
10.467 -6.556 1.726 26
10.403 -6.397 1.64 28
10.586 -6.395 1.524 29
10.796 -6.409 1.402 1
10.858 -6.34 1.301 18
11.296 -6.49 1.139 9
10.445 -5.908 1.194 22
10.597 -5.909 1.08 19
9.62 -5.289 1.179 17
11.235 -6.101 0.78 25
9.706 -5.203 1.003 21
9.522 -5.047 0.961 23
9.669 -5.071 0.848 32
10.077 -5.235 0.669 22
30.957 -15.938 -4.432 8
10.491 -5.36 0.386 1
10.456 -5.304 0.297 6
26.377 -13.294 -4.068 4
25.11 -12.59 -3.979 29
23.969 -11.962 -3.906 7
22.877 -11.376 -3.835 18
19.926 -9.876 -3.171 24
19.884 -9.834 -3.386 23
19.724 -9.737 -3.567 23
18.909 -9.326 -3.53 14
18.157 -8.948 -3.501 14
17.401 -8.576 -3.462 14
16.691 -8.228 -3.428 13
16.029 -7.905 -3.401 12
15.395 -7.601 -3.378 13
14.794 -7.312 -3.356 14
10.676 -6.854 1.791 24
10.714 -6.753 1.687 22
10.503 -6.499 1.619 10
10.533 -6.404 1.521 29
11.148 -6.662 1.339 14
10.893 -6.404 1.284 21
10.745 -6.215 1.218 34
10.475 -5.967 1.176 18
10.657 -5.983 1.056 31
9.582 -5.306 1.173 27
11.111 -6.077 0.788 25
9.785 -5.283 0.972 27
9.491 -5.067 0.953 28
9.461 -4.998 0.879 24
10.093 -5.282 0.648 35
30.742 -15.944 -4.435 7
10.462 -5.384 0.374 12
10.41 -5.319 0.29 5
26.209 -13.305 -4.075 5
24.958 -12.604 -3.987 27
23.83 -11.977 -3.915 7
22.753 -11.395 -3.847 11
19.763 -9.864 -3.164 18
19.952 -9.936 -3.453 23
19.644 -9.764 -3.586 24
18.807 -9.337 -3.538 15
18.087 -8.972 -3.519 14
17.336 -8.599 -3.48 13
16.621 -8.245 -3.441 12
15.97 -7.925 -3.417 12
15.334 -7.617 -3.391 15
14.737 -7.328 -3.37 14
11.412 -7.371 1.7 24
10.752 -6.818 1.675 20
10.724 -6.678 1.581 13
10.663 -6.525 1.494 9
10.825 -6.511 1.377 1
10.853 -6.422 1.279 21
10.407 -6.061 1.262 25
10.452 -5.995 1.167 30
10.397 -5.879 1.09 26
9.63 -5.37 1.151 27
10.964 -6.039 0.802 26
9.854 -5.359 0.943 20
9.598 -5.162 0.914 31
9.34 -4.97 0.89 25
10.664 -5.621 0.497 24
30.528 -15.948 -4.437 7
10.409 -5.396 0.368 23
10.429 -5.367 0.265 9
26.04 -13.315 -4.08 5
24.823 -12.627 -3.999 6
23.69 -11.992 -3.924 7
22.626 -11.411 -3.856 18
19.734 -9.919 -3.198 14
19.871 -9.964 -3.471 28
19.564 -9.79 -3.604 31
18.729 -9.361 -3.555 14
18.013 -8.994 -3.535 15
17.258 -8.616 -3.493 13
16.551 -8.262 -3.455 13
15.911 -7.945 -3.433 12
15.28 -7.636 -3.408 13
14.681 -7.343 -3.383 14
11.224 -7.294 1.714 28
10.749 -6.858 1.667 17
10.717 -6.715 1.573 9
10.607 -6.533 1.492 19
10.792 -6.534 1.371 20
10.82 -6.445 1.273 20
10.368 -6.079 1.257 24
10.457 -6.038 1.154 28
10.022 -5.706 1.146 27
9.647 -5.417 1.135 28
9.828 -5.451 1.016 7
9.943 -5.446 0.909 24
9.591 -5.195 0.901 29
9.292 -4.98 0.886 29
32.211 -17.103 -4.615 6
10.602 -5.579 0.398 5
10.393 -5.427 0.353 27
10.379 -5.38 0.259 35
25.89 -13.334 -4.09 5
24.685 -12.647 -4.01 6
23.554 -12.008 -3.933 7
22.492 -11.424 -3.864 18
19.702 -9.972 -3.231 17
19.65 -9.921 -3.443 21
19.488 -9.817 -3.622 30
18.685 -9.402 -3.583 14
17.937 -9.015 -3.55 14
17.189 -8.637 -3.508 13
16.487 -8.282 -3.471 13
15.842 -7.959 -3.445 11
15.215 -7.65 -3.419 13
14.624 -7.358 -3.396 14
10.974 -7.174 1.735 20
10.756 -6.905 1.658 23
10.721 -6.761 1.563 4
10.581 -6.558 1.486 29
11.002 -6.705 1.328 12
10.803 -6.478 1.264 9
10.424 -6.153 1.236 25
10.445 -6.073 1.143 28
9.965 -5.713 1.144 23
9.708 -5.489 1.11 27
9.823 -5.487 1.003 2
9.939 -5.482 0.896 17
9.574 -5.223 0.89 26
9.309 -5.025 0.867 35
31.986 -17.106 -4.616 6
10.5 -5.566 0.405 23
10.398 -5.469 0.333 24
10.333 -5.395 0.251 19
25.728 -13.346 -4.096 5
24.53 -12.657 -4.016 6
23.418 -12.023 -3.942 7
22.359 -11.435 -3.871 11
21.398 -10.905 -3.814 18
19.665 -9.997 -3.492 8
19.415 -9.847 -3.642 29
18.685 -9.464 -3.627 21
17.856 -9.033 -3.563 14
17.114 -8.654 -3.521 13
16.42 -8.3 -3.485 12
15.776 -7.975 -3.458 11
15.154 -7.665 -3.432 13
14.568 -7.373 -3.409 14
10.86 -7.143 1.74 23
10.702 -6.914 1.656 26
10.715 -6.799 1.555 17
10.551 -6.581 1.481 25
11.151 -6.839 1.295 28
41.061 -24.787 -3.642 8
10.381 -6.169 1.231 24
10.491 -6.141 1.123 27
9.903 -5.716 1.143 23
9.684 -5.514 1.101 31
9.785 -5.505 0.996 18
9.958 -5.533 0.876 25
9.683 -5.32 0.85 30
9.351 -5.084 0.842 27
31.762 -17.109 -4.617 5
10.415 -5.56 0.407 28
10.369 -5.493 0.321 33
26.873 -14.132 -4.2 5
25.574 -13.361 -4.104 5
24.385 -12.671 -4.024 6
23.286 -12.04 -3.951 7
22.242 -11.455 -3.883 8
21.297 -10.929 -3.829 15
19.52 -9.991 -3.488 18
19.359 -9.885 -3.667 31
18.613 -9.49 -3.645 21
17.779 -9.054 -3.578 14
17.038 -8.671 -3.534 13
16.353 -8.319 -3.499 12
15.72 -7.996 -3.475 11
15.093 -7.681 -3.445 13
14.514 -7.389 -3.423 14
10.661 -7.054 1.756 23
10.706 -6.958 1.647 22
10.732 -6.853 1.543 15
10.521 -6.605 1.475 36
11.147 -6.882 1.284 18
11.21 -6.812 1.175 3
10.572 -6.325 1.186 23
10.43 -6.147 1.121 26
9.894 -5.751 1.131 26
9.696 -5.56 1.085 26
10.047 -5.692 0.928 17
9.967 -5.577 0.859 20
9.669 -5.351 0.838 25
9.46 -5.181 0.801 36
10.531 -5.713 0.456 8
10.386 -5.585 0.396 25
10.343 -5.518 0.309 34
26.709 -14.147 -4.208 4
25.417 -13.374 -4.111 5
24.24 -12.686 -4.032 6
23.146 -12.052 -3.958 7
22.119 -11.471 -3.893 7
21.182 -10.945 -3.839 16
19.903 -10.256 -3.66 9
19.292 -9.917 -3.689 35
18.484 -9.487 -3.643 15
17.696 -9.07 -3.59 13
16.973 -8.694 -3.551 13
16.286 -8.337 -3.513 12
15.648 -8.008 -3.485 17
15.029 -7.694 -3.456 13
14.461 -7.406 -3.438 14
10.727 -7.141 1.741 18
10.639 -6.958 1.647 27
10.916 -7.014 1.509 2
10.246 -6.474 1.505 26
10.516 -6.535 1.371 22
10.753 -6.578 1.238 32
10.549 -6.353 1.178 25
10.489 -6.223 1.097 21
9.74 -5.7 1.148 18
9.695 -5.598 1.073 22
10.117 -5.772 0.899 30
10.068 -5.673 0.822 32
9.729 -5.422 0.809 27
9.865 -5.441 0.691 28
10.474 -5.723 0.452 30
10.329 -5.594 0.392 29
10.324 -5.548 0.294 33
26.532 -14.153 -4.211 5
25.27 -13.391 -4.12 5
10.336 -5.447 -0.019 0
23.021 -12.071 -3.969 7
22.002 -11.491 -3.904 8
21.054 -10.954 -3.845 12
19.822 -10.284 -3.678 7
19.216 -9.944 -3.707 31
18.398 -9.505 -3.656 14
17.626 -9.092 -3.606 14
16.908 -8.715 -3.568 16
16.222 -8.356 -3.528 13
15.592 -8.028 -3.501 12
14.977 -7.714 -3.473 13
14.408 -7.422 -3.452 14
10.74 -7.193 1.732 3
10.603 -6.976 1.644 25
10.445 -6.753 1.565 0
10.147 -6.451 1.511 23
10.856 -6.789 1.307 16
10.672 -6.571 1.239 31
10.576 -6.412 1.161 23
10.544 -6.298 1.074 14
9.993 -5.889 1.087 39
9.714 -5.648 1.055 22
10.112 -5.809 0.886 26
10.227 -5.803 0.772 43
9.783 -5.491 0.781 28
9.634 -5.351 0.729 33
10.454 -5.753 0.439 34
10.265 -5.598 0.389 29
10.301 -5.575 0.281 30
10.273 -5.519 0.188 0
10.307 -5.501 0.075 6
10.303 -5.469 -0.031 15
22.886 -12.084 -3.977 7
21.869 -11.5 -3.91 7
20.95 -10.974 -3.858 15
20.049 -10.473 -3.801 16
19.139 -9.97 -3.725 23
18.31 -9.522 -3.667 13
17.542 -9.108 -3.617 14
16.833 -8.732 -3.58 13
16.161 -8.377 -3.545 13
15.529 -8.045 -3.515 12
14.913 -7.727 -3.484 13
14.351 -7.436 -3.464 15
11.386 -7.671 1.647 27
10.642 -7.045 1.631 18
10.321 -6.715 1.573 19
10.148 -6.493 1.501 18
10.728 -6.753 1.316 18
10.602 -6.57 1.239 32
10.542 -6.434 1.155 26
10.47 -6.297 1.075 17
10.409 -6.176 0.993 25
9.638 -5.643 1.057 23
10.1 -5.843 0.873 26
10.3 -5.886 0.741 32
9.805 -5.543 0.76 21
9.482 -5.304 0.749 24
10.431 -5.781 0.426 33
10.225 -5.616 0.381 29
10.274 -5.6 0.269 0
10.124 -5.478 0.209 26
10.216 -5.491 0.081 27
10.25 -5.478 -0.037 13
22.75 -12.097 -3.984 7
21.746 -11.514 -3.918 7
20.825 -10.984 -3.863 18
19.964 -10.499 -3.818 17
19.059 -9.995 -3.742 21
18.214 -9.535 -3.676 13
17.475 -9.132 -3.635 14
16.767 -8.754 -3.597 13
16.091 -8.393 -3.557 12
15.464 -8.061 -3.528 11
14.852 -7.742 -3.496 12
14.298 -7.452 -3.478 14
10.791 -7.314 1.71 29
10.635 -7.084 1.623 25
10.295 -6.739 1.568 7
10.091 -6.498 1.5 25
10.44 -6.614 1.351 31
10.477 -6.536 1.249 28
10.553 -6.483 1.141 26
10.629 -6.436 1.032 23
10.365 -6.192 0.988 24
9.684 -5.708 1.035 22
10.128 -5.9 0.853 33
10.233 -5.888 0.74 22
9.725 -5.536 0.763 22
9.444 -5.32 0.742 31
10.428 -5.821 0.408 21
10.191 -5.638 0.371 34
10.227 -5.614 0.262 16
10.026 -5.463 0.217 30
10.023 -5.425 0.116 31
23.673 -12.741 -4.063 5
22.618 -12.11 -3.992 7
21.619 -11.526 -3.926 7
20.707 -10.996 -3.871 18
19.855 -10.512 -3.826 17
18.962 -10.011 -3.753 24
18.126 -9.55 -3.687 13
17.405 -9.154 -3.651 14
16.695 -8.772 -3.61 14
16.027 -8.412 -3.572 13
15.404 -8.079 -3.542 12
14.794 -7.758 -3.51 13
14.244 -7.468 -3.492 15
10.672 -7.276 1.717 22
10.601 -7.104 1.619 18
10.259 -6.758 1.564 23
10.085 -6.536 1.491 20
10.289 -6.56 1.364 15
10.383 -6.52 1.253 27
10.704 -6.62 1.102 18
10.645 -6.489 1.016 27
10.369 -6.236 0.974 22
9.591 -5.693 1.04 27
10.102 -5.925 0.844 29
10.23 -5.927 0.725 25
9.645 -5.529 0.766 28
9.501 -5.389 0.712 43
10.752 -6.044 0.309 2
10.165 -5.664 0.359 26
10.14 -5.605 0.266 27
9.986 -5.479 0.208 28
9.952 -5.424 0.116 27
23.528 -12.752 -4.069 6
22.483 -12.121 -3.998 8
21.507 -11.545 -3.937 7
20.6 -11.013 -3.882 18
19.746 -10.524 -3.835 18
18.865 -10.026 -3.762 18
18.047 -9.572 -3.702 13
17.332 -9.174 -3.665 13
16.63 -8.793 -3.626 13
15.966 -8.432 -3.588 13
15.335 -8.092 -3.552 11
14.736 -7.774 -3.523 12
14.184 -7.481 -3.503 14
10.796 -7.405 1.694 19
10.577 -7.131 1.614 15
10.106 -6.698 1.576 19
10.096 -6.584 1.48 28
10.303 -6.611 1.352 37
10.39 -6.566 1.241 21
10.67 -6.643 1.095 32
10.668 -6.547 0.998 27
10.315 -6.246 0.971 29
10.1 -6.036 0.922 14
10.15 -5.994 0.818 18
10.183 -5.942 0.719 33
9.616 -5.551 0.757 29
9.747 -5.568 0.636 37
10.394 -5.884 0.38 4
10.139 -5.688 0.348 28
10.072 -5.607 0.265 25
9.977 -5.513 0.191 27
9.92 -5.445 0.105 27
23.391 -12.766 -4.076 6
22.359 -12.137 -4.008 7
21.387 -11.559 -3.946 7
20.486 -11.027 -3.89 15
19.64 -10.539 -3.844 19
18.785 -10.049 -3.778 9
17.966 -9.591 -3.715 12
17.255 -9.193 -3.679 13
16.554 -8.808 -3.637 13
15.902 -8.45 -3.602 13
15.279 -8.112 -3.569 13
14.681 -7.792 -3.538 13
14.127 -7.494 -3.515 14
10.666 -7.36 1.702 28
10.613 -7.199 1.601 11
10.229 -6.822 1.55 20
10.106 -6.631 1.469 28
10.269 -6.632 1.346 22
10.179 -6.475 1.265 23
10.656 -6.678 1.085 13
10.594 -6.545 0.999 21
10.312 -6.285 0.958 25
10.094 -6.073 0.909 21
10.211 -6.073 0.79 6
10.163 -5.971 0.708 30
9.577 -5.567 0.751 28
9.782 -5.628 0.611 33
10.408 -5.933 0.358 3
10.098 -5.705 0.34 28
10.056 -5.638 0.25 30
9.893 -5.505 0.195 34
9.927 -5.487 0.083 29
23.248 -12.777 -4.082 5
22.237 -12.155 -4.018 7
21.264 -11.572 -3.953 7
20.378 -11.043 -3.901 24
19.548 -10.56 -3.858 18
18.694 -10.067 -3.791 7
17.894 -9.615 -3.732 14
17.181 -9.212 -3.693 13
16.486 -8.827 -3.652 13
15.841 -8.47 -3.618 13
15.21 -8.125 -3.579 11
14.623 -7.807 -3.551 14
14.067 -7.506 -3.525 14
10.747 -7.46 1.685 14
10.569 -7.213 1.598 9
10.169 -6.824 1.55 27
10.102 -6.671 1.46 19
10.375 -6.744 1.319 37
10.079 -6.453 1.271 32
11.748 -7.411 0.875 1
10.674 -6.638 0.971 5
10.207 -6.264 0.965 23
10.054 -6.09 0.903 14
11.098 -6.645 0.581 12
10.214 -6.042 0.681 25
9.701 -5.679 0.706 30
9.794 -5.674 0.591 27
10.387 -5.963 0.345 5
10.055 -5.721 0.332 27
10.053 -5.675 0.232 30
9.857 -5.524 0.186 30
9.874 -5.496 0.078 32
23.114 -12.79 -4.09 5
22.109 -12.168 -4.025 7
21.152 -11.589 -3.963 7
20.261 -11.054 -3.907 19
19.433 -10.567 -3.863 19
18.597 -10.081 -3.8 6
17.815 -9.635 -3.747 14
17.101 -9.228 -3.705 13
16.41 -8.842 -3.663 13
15.777 -8.489 -3.632 13
15.141 -8.137 -3.589 11
14.565 -7.823 -3.564 14
14.014 -7.522 -3.539 17
10.644 -7.433 1.689 13
10.594 -7.274 1.586 8
10.119 -6.832 1.548 19
10.056 -6.682 1.457 28
10.172 -6.654 1.341 29
10.049 -6.475 1.265 24
11.742 -7.455 0.862 0
10.78 -6.748 0.937 0
10.244 -6.329 0.944 25
10.0 -6.099 0.9 28
11.063 -6.67 0.572 8
10.16 -6.052 0.677 27
10.053 -5.925 0.606 22
10.055 -5.866 0.51 23
29.603 -17.113 -4.619 6
10.059 -5.763 0.313 30
10.037 -5.706 0.217 32
9.861 -5.564 0.165 28
9.855 -5.523 0.063 16
22.984 -12.807 -4.099 6
21.971 -12.175 -4.029 7
21.029 -11.601 -3.97 7
20.154 -11.07 -3.917 18
19.337 -10.586 -3.874 17
18.504 -10.096 -3.81 6
17.74 -9.656 -3.762 13
17.031 -9.249 -3.72 13
16.345 -8.863 -3.679 13
15.71 -8.505 -3.645 14
15.078 -8.152 -3.601 11
14.503 -7.836 -3.575 12
13.966 -7.54 -3.555 24
10.837 -7.613 1.658 14
10.563 -7.297 1.582 22
10.115 -6.873 1.539 23
10.042 -6.715 1.45 0
9.954 -6.552 1.366 31
10.016 -6.496 1.259 30
10.266 -6.562 1.118 6
10.768 -6.786 0.925 4
10.21 -6.351 0.936 20
9.994 -6.136 0.887 23
11.004 -6.68 0.569 27
10.096 -6.055 0.676 6
10.225 -6.068 0.548 17
9.977 -5.861 0.512 31
29.406 -17.117 -4.621 6
10.16 -5.862 0.267 14
10.01 -5.73 0.205 25
9.835 -5.588 0.153 30
9.848 -5.557 0.045 32
22.841 -12.815 -4.103 6
21.857 -12.195 -4.041 7
20.921 -11.619 -3.981 7
20.057 -11.091 -3.93 8
19.232 -10.598 -3.882 18
18.46 -10.139 -3.839 12
17.669 -9.68 -3.778 13
16.957 -9.268 -3.734 14
16.269 -8.877 -3.69 12
15.639 -8.519 -3.656 12
15.012 -8.166 -3.613 11
14.445 -7.851 -3.588 12
13.913 -7.555 -3.568 25
10.679 -7.546 1.669 17
10.577 -7.351 1.571 23
10.128 -6.923 1.529 25
10.723 -7.216 1.334 46
9.904 -6.561 1.364 28
9.999 -6.527 1.251 28
10.212 -6.57 1.116 22
10.693 -6.784 0.926 4
10.547 -6.604 0.854 4
9.98 -6.17 0.876 32
10.975 -6.707 0.559 24
10.086 -6.091 0.662 2
10.184 -6.086 0.541 30
9.904 -5.858 0.513 29
29.216 -17.124 -4.624 6
10.153 -5.898 0.25 9
10.0 -5.764 0.189 30
9.825 -5.621 0.136 27
9.825 -5.583 0.032 2
22.711 -12.83 -4.112 6
21.733 -12.208 -4.049 6
20.805 -11.633 -3.99 7
19.95 -11.105 -3.939 8
19.134 -10.614 -3.893 15
18.377 -10.159 -3.852 19
17.6 -9.705 -3.795 13
16.887 -9.289 -3.749 13
16.201 -8.895 -3.703 13
15.569 -8.533 -3.667 12
14.946 -8.179 -3.624 12
14.39 -7.869 -3.602 13
13.862 -7.572 -3.582 22
10.434 -7.417 1.692 26
10.579 -7.397 1.562 16
10.091 -6.941 1.525 33
10.652 -7.213 1.335 33
9.897 -6.599 1.355 25
9.959 -6.543 1.247 30
10.155 -6.576 1.114 20
10.632 -6.789 0.924 1
10.739 -6.769 0.801 47
10.094 -6.281 0.837 23
10.883 -6.696 0.563 18
11.031 -6.707 0.426 13
10.1 -6.077 0.545 22
9.87 -5.879 0.505 27
29.016 -17.124 -4.624 5
10.082 -5.898 0.25 29
9.983 -5.795 0.174 28
9.845 -5.671 0.11 25
23.623 -13.514 -4.186 5
22.575 -12.839 -4.117 5
21.605 -12.219 -4.055 7
20.686 -11.644 -3.997 7
19.836 -11.117 -3.946 8
19.038 -10.63 -3.903 11
18.293 -10.18 -3.866 18
17.518 -9.722 -3.807 14
16.81 -9.305 -3.76 13
16.122 -8.908 -3.712 13
15.498 -8.546 -3.677 13
14.89 -8.198 -3.639 11
14.332 -7.883 -3.615 16
13.805 -7.585 -3.594 15
10.315 -7.376 1.699 25
10.557 -7.426 1.556 25
10.518 -7.279 1.453 1
10.46 -7.127 1.355 9
9.952 -6.677 1.335 21
9.958 -6.585 1.236 15
10.045 -6.547 1.123 22
12.018 -7.724 0.638 21
11.443 -7.261 0.641 20
10.407 -6.52 0.755 23
11.041 -6.839 0.511 31
10.988 -6.727 0.418 25
10.119 -6.131 0.523 27
9.796 -5.875 0.506 30
10.123 -6.015 0.322 5
10.085 -5.94 0.23 21
9.98 -5.833 0.155 22
9.852 -5.715 0.088 10
23.474 -13.522 -4.19 4
22.438 -12.85 -4.123 6
21.484 -12.233 -4.063 6
20.577 -11.661 -4.007 7
19.733 -11.132 -3.956 11
18.943 -10.647 -3.914 11
18.213 -10.201 -3.88 18
17.44 -9.74 -3.82 13
16.73 -9.32 -3.771 13
16.06 -8.928 -3.728 13
15.43 -8.562 -3.689 13
14.824 -8.212 -3.65 12
14.267 -7.894 -3.624 14
13.758 -7.603 -3.609 18
10.362 -7.454 1.686 27
10.694 -7.569 1.529 28
10.486 -7.302 1.448 25
10.403 -7.133 1.353 4
9.889 -6.677 1.335 26
9.865 -6.565 1.241 28
9.945 -6.524 1.129 19
12.178 -7.88 0.591 20
10.878 -6.948 0.742 19
10.349 -6.527 0.752 26
11.491 -7.166 0.392 1
10.992 -6.775 0.399 30
10.012 -6.106 0.533 27
9.763 -5.895 0.498 30
9.788 -5.856 0.393 1
10.078 -5.977 0.213 38
9.943 -5.851 0.147 34
24.441 -14.274 -4.273 24
23.346 -13.54 -4.199 5
22.309 -12.862 -4.129 5
21.357 -12.243 -4.069 6
20.459 -11.672 -4.013 7
19.629 -11.148 -3.966 7
18.841 -10.66 -3.923 8
18.12 -10.215 -3.89 18
17.351 -9.754 -3.83 13
16.646 -9.332 -3.78 13
15.988 -8.944 -3.74 13
15.363 -8.577 -3.701 12
14.771 -8.231 -3.666 12
14.209 -7.909 -3.637 14
13.701 -7.616 -3.62 15
10.299 -7.452 1.686 25
10.426 -7.424 1.557 21
10.455 -7.325 1.443 16
10.639 -7.34 1.305 1
9.882 -6.715 1.326 26
9.73 -6.516 1.254 24
9.941 -6.563 1.118 2
12.057 -7.852 0.599 14
11.34 -7.291 0.631 23
10.311 -6.547 0.746 26
11.035 -6.929 0.478 0
11.12 -6.9 0.351 48
9.961 -6.117 0.528 25
9.726 -5.913 0.49 25
9.734 -5.864 0.389 18
10.067 -6.012 0.197 37
9.919 -5.877 0.134 8
24.298 -14.287 -4.28 27
23.194 -13.545 -4.202 5
22.173 -12.87 -4.134 6
21.236 -12.256 -4.076 6
20.353 -11.69 -4.024 7
19.526 -11.163 -3.975 7
18.743 -10.674 -3.932 10
18.033 -10.232 -3.901 18
17.279 -9.776 -3.845 11
16.579 -9.353 -3.796 14
15.919 -8.961 -3.753 14
15.302 -8.595 -3.715 13
14.708 -8.246 -3.677 13
14.151 -7.923 -3.648 13
13.644 -7.628 -3.631 14
10.303 -7.5 1.678 23
10.379 -7.434 1.555 28
10.41 -7.339 1.44 14
10.402 -7.221 1.333 14
9.839 -6.728 1.323 30
9.752 -6.573 1.239 22
9.999 -6.645 1.095 0
12.095 -7.929 0.576 10
11.342 -7.341 0.615 29
10.279 -6.571 0.738 20
10.996 -6.951 0.47 5
11.004 -6.874 0.361 16
9.944 -6.149 0.516 20
9.699 -5.937 0.48 29
9.677 -5.87 0.387 22
10.05 -6.042 0.182 30
25.395 -15.15 -4.389 5
24.144 -14.294 -4.283 28
23.06 -13.557 -4.209 21
22.044 -12.883 -4.141 6
21.116 -12.268 -4.083 7
20.235 -11.699 -4.03 7
19.416 -11.173 -3.982 7
18.638 -10.684 -3.938 17
17.946 -10.249 -3.913 18
17.207 -9.798 -3.861 7
16.499 -9.366 -3.805 14
15.85 -8.978 -3.766 13
15.228 -8.607 -3.725 12
14.652 -8.264 -3.692 13
14.099 -7.941 -3.664 12
13.584 -7.639 -3.641 14
10.355 -7.582 1.663 16
10.831 -7.805 1.483 10
10.382 -7.363 1.435 24
10.305 -7.198 1.338 19
9.818 -6.756 1.316 27
9.716 -6.591 1.234 22
12.625 -8.444 0.579 15
10.41 -6.869 0.9 0
11.299 -7.361 0.608 23
10.218 -6.575 0.736 21
36.264 -23.076 -5.399 14
10.045 -6.318 0.575 2
10.076 -6.272 0.466 21
9.672 -5.961 0.47 33
9.547 -5.83 0.404 29
10.032 -6.073 0.168 30
25.233 -15.155 -4.392 5
23.994 -14.302 -4.287 28
22.909 -13.56 -4.21 27
21.928 -12.901 -4.151 5
20.989 -12.277 -4.088 6
20.123 -11.713 -4.038 7
19.313 -11.187 -3.99 7
18.537 -10.696 -3.946 15
17.856 -10.263 -3.923 17
17.126 -9.813 -3.871 5
16.429 -9.386 -3.819 13
15.781 -8.995 -3.778 13
15.164 -8.623 -3.737 12
14.589 -8.279 -3.704 11
14.054 -7.962 -3.681 17
13.523 -7.65 -3.65 14
10.116 -7.451 1.686 31
11.085 -8.036 1.438 44
9.966 -7.112 1.488 20
9.94 -6.986 1.387 21
9.801 -6.786 1.308 29
9.734 -6.645 1.219 20
12.5 -8.415 0.587 30
10.32 -6.854 0.905 1
11.456 -7.514 0.559 4
10.233 -6.628 0.718 19
11.68 -7.483 0.277 17
10.034 -6.354 0.561 34
10.137 -6.353 0.433 27
9.639 -5.98 0.462 31
9.494 -5.838 0.401 23
10.008 -6.099 0.156 22
25.077 -15.164 -4.396 5
23.85 -14.313 -4.293 29
22.764 -13.566 -4.213 28
21.789 -12.906 -4.154 6
20.876 -12.292 -4.097 6
20.012 -11.725 -4.045 7
19.206 -11.199 -3.998 14
18.445 -10.712 -3.956 14
17.766 -10.278 -3.932 16
17.041 -9.827 -3.881 5
16.365 -9.408 -3.835 14
15.719 -9.015 -3.794 13
15.106 -8.643 -3.752 13
14.526 -8.292 -3.715 11
13.992 -7.975 -3.692 14
13.466 -7.661 -3.66 13
10.014 -7.421 1.692 22
10.833 -7.901 1.464 30
10.009 -7.186 1.473 22
9.812 -6.94 1.398 24
9.815 -6.839 1.295 29
9.678 -6.649 1.219 19
9.455 -6.406 1.163 2
10.353 -6.921 0.884 3
40.414 -26.679 -5.669 13
10.165 -6.628 0.718 26
11.731 -7.566 0.246 9
9.973 -6.357 0.56 24
9.957 -6.283 0.462 21
9.612 -6.004 0.451 28
9.48 -5.869 0.387 29
9.986 -6.128 0.143 22
24.921 -15.173 -4.4 5
23.701 -14.32 -4.297 29
22.64 -13.583 -4.222 28
21.661 -12.916 -4.16 6
20.759 -12.305 -4.105 6
19.903 -11.739 -4.053 7
19.103 -11.212 -4.006 8
18.341 -10.721 -3.962 20
17.676 -10.291 -3.942 19
16.952 -9.839 -3.889 5
16.294 -9.426 -3.849 12
15.64 -9.025 -3.801 12
15.036 -8.655 -3.762 11
14.466 -8.308 -3.728 14
13.937 -7.991 -3.705 15
13.387 -7.661 -3.66 14
9.97 -7.431 1.69 15
10.086 -7.4 1.562 12
9.956 -7.191 1.472 22
9.733 -6.926 1.401 19
9.726 -6.82 1.3 27
9.53 -6.589 1.234 26
9.377 -6.393 1.167 8
12.013 -8.083 0.529 7
40.194 -26.708 -5.678 14
10.157 -6.666 0.705 13
11.581 -7.518 0.264 17
9.8 -6.289 0.586 24
9.857 -6.261 0.47 28
9.647 -6.068 0.424 28
9.454 -5.892 0.377 30
9.972 -6.16 0.127 16
9.947 -6.097 0.026 0
23.564 -14.333 -4.303 28
22.499 -13.59 -4.226 27
21.532 -12.926 -4.165 5
20.645 -12.32 -4.113 6
19.802 -11.757 -4.064 7
19.003 -11.227 -4.015 7
18.246 -10.735 -3.972 24
17.59 -10.307 -3.952 17
16.92 -9.882 -3.92 9
16.231 -9.449 -3.865 13
15.575 -9.043 -3.815 12
14.972 -8.67 -3.774 11
14.397 -8.318 -3.736 12
13.875 -8.003 -3.715 13
13.314 -7.664 -3.662 13
10.108 -7.578 1.664 34
10.78 -7.957 1.453 34
9.864 -7.168 1.476 26
9.68 -6.93 1.4 15
9.401 -6.633 1.346 18
9.377 -6.524 1.252 22
11.964 -8.211 0.646 17
42.349 -28.678 -5.768 19
10.208 -6.828 0.782 3
10.082 -6.662 0.706 26
11.546 -7.546 0.254 11
9.713 -6.275 0.591 30
9.78 -6.254 0.473 27
9.643 -6.105 0.408 30
9.397 -5.896 0.375 23
10.046 -6.248 0.086 29
9.916 -6.119 0.015 4
23.425 -14.345 -4.309 26
22.372 -13.603 -4.233 27
21.41 -12.939 -4.172 6
20.526 -12.33 -4.119 6
19.694 -11.77 -4.072 7
18.894 -11.236 -4.021 8
18.151 -10.749 -3.98 18
17.503 -10.322 -3.962 17
16.861 -9.91 -3.939 20
16.16 -9.467 -3.878 12
15.499 -9.056 -3.824 17
14.904 -8.684 -3.785 12
14.341 -8.335 -3.75 13
13.817 -8.016 -3.726 19
13.238 -7.664 -3.662 12
9.953 -7.506 1.676 25
10.033 -7.449 1.552 12
9.775 -7.147 1.481 22
9.646 -6.949 1.396 25
9.607 -6.82 1.3 8
9.279 -6.497 1.259 26
9.398 -6.491 1.139 6
41.906 -28.561 -5.732 18
10.183 -6.855 0.773 2
10.048 -6.682 0.699 25
11.515 -7.575 0.243 13
9.702 -6.31 0.578 25
9.903 -6.375 0.424 31
9.612 -6.127 0.399 27
9.321 -5.888 0.379 32
9.991 -6.256 0.083 34
9.858 -6.125 0.013 0
23.292 -14.36 -4.317 22
22.245 -13.617 -4.24 24
21.285 -12.95 -4.178 6
20.412 -12.344 -4.127 6
19.586 -11.782 -4.079 8
18.794 -11.249 -4.029 8
18.063 -10.766 -3.992 8
17.407 -10.332 -3.969 11
16.785 -9.928 -3.952 19
16.096 -9.489 -3.894 14
15.443 -9.079 -3.841 13
14.843 -8.702 -3.798 16
14.281 -8.351 -3.762 11
13.765 -8.033 -3.741 20
13.168 -7.668 -3.665 12
9.922 -7.526 1.673 23
10.094 -7.541 1.534 1
9.664 -7.108 1.489 24
9.589 -6.951 1.395 28
9.586 -6.848 1.293 19
9.203 -6.485 1.262 27
9.322 -6.48 1.142 28
41.519 -28.481 -5.708 25
39.161 -26.536 -5.622 26
10.026 -6.711 0.689 26
9.904 -6.558 0.613 0
9.55 -6.252 0.6 26
9.954 -6.451 0.394 28
9.582 -6.148 0.39 30
9.33 -5.933 0.358 22
9.513 -5.997 0.204 51
9.84 -6.154 -0.002 1
23.162 -14.376 -4.325 16
22.124 -13.634 -4.249 17
21.154 -12.955 -4.181 5
20.289 -12.35 -4.13 6
19.478 -11.794 -4.087 13
18.695 -11.263 -4.038 8
17.972 -10.78 -4.001 7
17.311 -10.341 -3.975 10
16.72 -9.953 -3.969 16
16.032 -9.51 -3.909 13
15.374 -9.094 -3.853 12
14.776 -8.715 -3.809 12
14.228 -8.369 -3.777 14
13.706 -8.046 -3.751 14
13.095 -7.67 -3.668 12
9.852 -7.518 1.674 18
12.038 -9.046 1.242 11
9.509 -7.037 1.504 28
9.556 -6.969 1.391 21
9.539 -6.857 1.29 28
9.232 -6.546 1.246 22
9.237 -6.461 1.147 30
41.272 -28.494 -5.712 34
38.884 -26.519 -5.616 14
9.991 -6.732 0.682 21
9.869 -6.579 0.606 7
9.552 -6.295 0.584 24
9.932 -6.479 0.382 27
9.659 -6.24 0.351 22
9.277 -5.939 0.356 31
9.342 -5.928 0.236 24
9.936 -6.257 -0.052 20
23.02 -14.383 -4.329 7
22.004 -13.651 -4.258 10
21.032 -12.966 -4.187 6
20.186 -12.369 -4.141 6
19.37 -11.806 -4.094 7
18.592 -11.274 -4.045 7
17.877 -10.793 -4.009 7
17.227 -10.356 -3.985 10
16.641 -9.969 -3.98 18
15.965 -9.529 -3.924 13
15.305 -9.109 -3.864 11
14.718 -8.733 -3.823 13
14.165 -8.382 -3.788 13
13.651 -8.061 -3.764 15
13.026 -7.673 -3.67 13
9.862 -7.57 1.665 8
9.273 -7.01 1.637 7
9.443 -7.031 1.505 26
9.499 -6.97 1.391 21
9.611 -6.952 1.267 22
9.195 -6.561 1.242 21
9.201 -6.477 1.143 24
40.874 -28.402 -5.683 20
38.555 -26.465 -5.599 18
9.972 -6.763 0.671 28
9.815 -6.586 0.603 18
9.485 -6.292 0.585 30
9.694 -6.367 0.427 41
9.696 -6.306 0.323 26
9.266 -5.972 0.341 31
9.229 -5.896 0.25 25
9.915 -6.285 -0.065 27
22.858 -14.378 -4.326 5
21.864 -13.654 -4.26 7
20.908 -12.975 -4.192 5
20.067 -12.377 -4.146 6
19.262 -11.818 -4.101 7
18.496 -11.288 -4.054 7
17.789 -10.809 -4.02 7
17.138 -10.368 -3.994 10
16.556 -9.98 -3.988 20
15.895 -9.546 -3.936 11
15.24 -9.126 -3.877 12
14.657 -8.75 -3.836 15
14.108 -8.399 -3.801 14
13.593 -8.074 -3.775 19
12.95 -7.673 -3.67 12
9.837 -7.595 1.661 12
9.214 -7.007 1.638 20
9.476 -7.098 1.491 25
9.434 -6.965 1.392 25
9.532 -6.938 1.27 27
9.29 -6.671 1.213 14
9.261 -6.561 1.119 27
40.55 -28.358 -5.67 24
11.236 -7.763 0.478 15
9.953 -6.795 0.66 25
9.796 -6.616 0.592 20
9.506 -6.348 0.563 30
9.849 -6.511 0.369 26
9.704 -6.353 0.303 23
9.223 -5.984 0.336 30
9.163 -5.893 0.252 28
9.886 -6.308 -0.077 26
22.723 -14.387 -4.331 5
21.724 -13.657 -4.261 5
20.786 -12.985 -4.198 5
19.957 -12.39 -4.153 6
19.151 -11.827 -4.106 7
18.387 -11.295 -4.058 7
17.698 -10.823 -4.029 7
17.058 -10.386 -4.005 10
16.478 -9.995 -3.999 17
15.831 -9.567 -3.951 6
15.161 -9.135 -3.884 12
14.589 -8.763 -3.846 14
14.042 -8.41 -3.81 13
13.512 -8.073 -3.774 11
12.887 -7.68 -3.676 14
10.528 -8.177 1.558 17
9.238 -7.068 1.626 19
9.424 -7.102 1.491 24
9.584 -7.12 1.356 23
9.591 -7.024 1.249 29
9.651 -6.973 1.132 30
9.201 -6.56 1.119 21
11.101 -7.813 0.611 13
11.192 -7.782 0.471 36
9.921 -6.817 0.653 2
9.833 -6.684 0.567 9
9.628 -6.472 0.516 19
9.843 -6.55 0.354 25
9.653 -6.361 0.3 29
9.205 -6.012 0.323 24
9.097 -5.89 0.253 32
9.857 -6.332 -0.088 20
22.587 -14.397 -4.336 5
21.604 -13.671 -4.269 5
20.672 -12.999 -4.205 6
19.845 -12.401 -4.16 6
19.05 -11.842 -4.115 7
18.294 -11.311 -4.068 7
17.607 -10.837 -4.038 7
16.959 -10.391 -4.009 16
16.396 -10.009 -4.008 18
15.754 -9.58 -3.96 8
15.102 -9.155 -3.899 12
14.528 -8.778 -3.859 11
13.986 -8.426 -3.823 12
13.419 -8.065 -3.767 12
12.817 -7.683 -3.679 12
10.495 -8.199 1.554 4
9.204 -7.084 1.623 23
9.507 -7.208 1.468 20
9.601 -7.176 1.343 16
9.595 -7.071 1.237 30
9.654 -7.02 1.119 20
10.908 -7.827 0.756 20
11.07 -7.841 0.603 14
11.202 -7.84 0.453 28
35.872 -24.809 -5.542 4
33.273 -22.768 -5.287 5
9.567 -6.474 0.515 20
9.801 -6.566 0.347 19
9.638 -6.393 0.286 20
9.172 -6.03 0.315 31
9.08 -5.917 0.241 30
9.861 -6.376 -0.11 19
11.835 -7.593 -0.869 15
21.471 -13.678 -4.273 5
20.554 -13.011 -4.212 5
19.732 -12.412 -4.166 6
18.943 -11.851 -4.121 6
18.195 -11.323 -4.075 6
17.513 -10.848 -4.045 7
16.876 -10.406 -4.019 21
16.311 -10.019 -4.016 16
15.674 -9.591 -3.968 7
15.027 -9.165 -3.907 12
14.461 -8.791 -3.868 12
13.929 -8.442 -3.836 11
13.342 -8.066 -3.768 11
12.751 -7.687 -3.683 14
10.468 -8.226 1.55 14
9.249 -7.161 1.608 18
9.425 -7.189 1.472 25
9.443 -7.101 1.361 30
9.662 -7.164 1.214 24
9.617 -7.037 1.115 16
10.887 -7.861 0.746 21
11.048 -7.876 0.592 21
11.25 -7.925 0.425 5
35.585 -24.77 -5.529 5
33.014 -22.738 -5.276 4
9.562 -6.513 0.5 20
9.837 -6.633 0.32 23
9.607 -6.415 0.277 19
9.264 -6.132 0.27 42
9.034 -5.926 0.236 30
10.198 -6.638 -0.237 1
11.782 -7.61 -0.878 29
21.345 -13.687 -4.278 5
20.44 -13.023 -4.219 6
19.62 -12.422 -4.172 6
18.832 -11.858 -4.125 6
18.099 -11.335 -4.083 6
17.428 -10.865 -4.056 8
16.796 -10.423 -4.03 11
16.236 -10.036 -4.027 17
15.603 -9.607 -3.98 5
14.971 -9.187 -3.923 13
14.403 -8.809 -3.882 12
13.866 -8.454 -3.846 11
13.262 -8.064 -3.767 15
12.685 -7.692 -3.686 12
11.898 -9.405 1.342 22
9.213 -7.175 1.605 12
9.422 -7.231 1.463 19
9.355 -7.078 1.366 18
9.424 -7.031 1.247 25
9.604 -7.071 1.105 5
10.846 -7.881 0.74 15
10.927 -7.839 0.603 12
37.144 -26.333 -5.556 17
35.278 -24.717 -5.511 4
9.875 -6.847 0.508 0
9.498 -6.511 0.501 30
10.038 -6.814 0.247 32
9.61 -6.459 0.258 32
9.589 -6.388 0.156 34
8.994 -5.939 0.231 33
10.195 -6.68 -0.258 25
11.742 -7.634 -0.89 22
11.887 -7.672 -1.079 1
20.322 -13.033 -4.224 6
19.514 -12.436 -4.18 6
18.735 -11.874 -4.135 6
18.007 -11.35 -4.093 7
17.334 -10.876 -4.063 7
16.713 -10.437 -4.04 18
16.151 -10.047 -4.035 19
15.53 -9.621 -3.99 5
14.908 -9.205 -3.936 12
14.335 -8.821 -3.891 11
13.819 -8.476 -3.863 17
13.188 -8.066 -3.768 11
12.622 -7.698 -3.692 12
11.904 -9.465 1.331 22
10.539 -8.257 1.395 13
9.442 -7.289 1.451 22
9.595 -7.304 1.314 31
9.387 -7.047 1.243 25
9.776 -7.242 1.059 7
10.767 -7.873 0.743 22
10.848 -7.832 0.606 21
10.805 -7.709 0.495 1
34.995 -24.677 -5.497 4
32.493 -22.673 -5.252 5
9.486 -6.546 0.487 26
10.208 -6.975 0.182 27
9.582 -6.483 0.248 22
9.564 -6.414 0.144 38
8.957 -5.954 0.223 18
10.178 -6.712 -0.274 35
11.751 -7.69 -0.918 16
11.798 -7.666 -1.076 20
20.208 -13.045 -4.231 5
19.402 -12.445 -4.185 6
18.634 -11.887 -4.142 7
17.914 -11.365 -4.102 7
17.253 -10.894 -4.075 7
16.627 -10.449 -4.048 22
16.076 -10.062 -4.045 19
15.5 -9.663 -4.02 12
