# .PCD v0.7 - Point Cloud Data file format
VERSION 0.7
FIELDS x y z intensity
SIZE 4 4 4 4
TYPE F F F F
COUNT 1 1 1 1
WIDTH 2320
HEIGHT 1
VIEWPOINT 0 0 0 1 0 0 0
POINTS 2320
DATA ascii
0.0 -0.0 3.0 0
-1.469 -0.87 2.497 0
-1.45 -0.856 2.486 0
-1.414 -0.83 2.481 0
-1.431 -0.836 2.457 5
-1.401 -0.816 2.45 5
-1.381 -0.801 2.439 5
-1.389 -0.804 2.416 1
-1.345 -0.776 2.415 3
-1.311 -0.755 2.41 3
-1.303 -0.748 2.394 6
-1.294 -0.741 2.378 5
-1.275 -0.729 2.366 3
-2.016 -1.502 2.735 8
-1.974 -1.448 2.719 8
-1.937 -1.399 2.703 9
-1.909 -1.359 2.686 9
-1.893 -1.328 2.669 14
-1.884 -1.301 2.651 10
-1.863 -1.27 2.636 14
-1.852 -1.246 2.619 8
-1.836 -1.221 2.603 11
-1.827 -1.199 2.587 2
-1.82 -1.181 2.57 0
-1.737 -1.115 2.572 0
0.0 -0.0 3.0 0
0.0 -0.0 3.0 0
0.0 -0.0 3.0 0
0.0 -0.0 3.0 0
0.0 -0.0 3.0 0
0.0 -0.0 3.0 0
0.0 -0.0 3.0 0
0.0 -0.0 3.0 0
-1.453 -0.867 2.5 1
-1.414 -0.84 2.495 0
-1.408 -0.832 2.48 0
-1.421 -0.836 2.457 6
-1.398 -0.819 2.447 6
-1.374 -0.803 2.438 5
-1.373 -0.8 2.419 3
-1.33 -0.772 2.418 5
-1.312 -0.76 2.406 5
-1.3 -0.752 2.391 5
-1.285 -0.741 2.378 4
-1.266 -0.729 2.367 2
-2.002 -1.501 2.735 8
-1.963 -1.449 2.718 8
-1.927 -1.4 2.702 10
-1.899 -1.359 2.686 11
-1.889 -1.333 2.668 15
-1.892 -1.316 2.647 4
-1.865 -1.281 2.633 16
-1.844 -1.249 2.618 15
-1.832 -1.225 2.602 3
-1.81 -1.195 2.588 1
-1.777 -1.161 2.577 0
0.0 -0.0 3.0 0
0.0 -0.0 3.0 0
0.0 -0.0 3.0 0
0.0 -0.0 3.0 0
0.0 -0.0 3.0 0
0.0 -0.0 3.0 0
0.0 -0.0 3.0 0
0.0 -0.0 3.0 0
-1.563 -0.945 2.476 0
-1.443 -0.867 2.5 1
-1.414 -0.845 2.492 0
-1.385 -0.824 2.485 0
-1.405 -0.832 2.46 7
-1.385 -0.817 2.449 6
-1.371 -0.806 2.436 5
-1.351 -0.791 2.425 4
-1.327 -0.776 2.416 3
-1.296 -0.755 2.41 7
-1.294 -0.752 2.391 4
-1.276 -0.74 2.379 3
-1.244 -0.72 2.374 3
-1.988 -1.5 2.736 9
-1.946 -1.444 2.719 9
-1.916 -1.401 2.702 9
-1.894 -1.365 2.685 11
-1.895 -1.345 2.665 10
-1.875 -1.313 2.648 4
-1.858 -1.283 2.632 17
-1.831 -1.248 2.618 15
-1.825 -1.229 2.601 2
-1.842 -1.225 2.578 0
-1.878 -1.235 2.55 0
0.0 -0.0 3.0 0
0.0 -0.0 3.0 0
-1.72 -1.097 2.535 0
0.0 -0.0 3.0 0
0.0 -0.0 3.0 0
-1.599 -0.994 2.515 0
0.0 -0.0 3.0 0
-1.555 -0.951 2.494 0
-1.537 -0.935 2.482 0
-1.453 -0.879 2.493 1
-1.398 -0.841 2.495 0
-1.386 -0.83 2.482 0
-1.399 -0.834 2.459 7
-1.379 -0.818 2.448 6
-1.356 -0.802 2.439 5
-1.335 -0.787 2.428 5
-1.318 -0.774 2.416 4
-1.293 -0.758 2.408 5
-1.294 -0.757 2.387 5
-1.266 -0.739 2.38 2
-1.222 -0.712 2.381 6
-1.971 -1.495 2.736 9
-1.932 -1.443 2.719 8
-1.912 -1.406 2.701 9
-1.89 -1.37 2.684 16
-1.891 -1.351 2.663 8
-1.855 -1.307 2.65 6
-1.854 -1.289 2.63 30
-1.836 -1.26 2.615 8
-1.824 -1.236 2.598 2
-1.828 -1.224 2.579 0
-1.884 -1.247 2.546 0
0.0 -0.0 3.0 0
0.0 -0.0 3.0 0
0.0 -0.0 3.0 0
0.0 -0.0 3.0 0
0.0 -0.0 3.0 0
0.0 -0.0 3.0 0
-1.579 -0.98 2.501 0
0.0 -0.0 3.0 0
-1.501 -0.919 2.491 0
-1.44 -0.876 2.494 1
-1.402 -0.849 2.49 0
-1.383 -0.833 2.48 0
-1.386 -0.832 2.46 8
-1.373 -0.82 2.447 6
-1.346 -0.802 2.439 5
-1.329 -0.788 2.427 3
-1.315 -0.777 2.414 7
-1.291 -0.761 2.405 4
-1.279 -0.752 2.391 4
-1.26 -0.74 2.379 2
-1.223 -0.717 2.377 1
-1.954 -1.491 2.737 8
-1.925 -1.446 2.719 9
-1.904 -1.409 2.7 10
-1.893 -1.381 2.681 12
-1.912 -1.375 2.657 4
-1.851 -1.313 2.648 7
-1.847 -1.292 2.629 58
-1.832 -1.265 2.613 2
-1.801 -1.228 2.601 0
-1.844 -1.242 2.572 0
0.0 -0.0 3.0 0
-1.761 -1.161 2.555 0
0.0 -0.0 3.0 0
0.0 -0.0 3.0 0
0.0 -0.0 3.0 0
0.0 -0.0 3.0 0
-1.609 -1.013 2.506 0
0.0 -0.0 3.0 0
0.0 -0.0 3.0 0
-1.527 -0.941 2.478 0
-1.427 -0.874 2.495 1
-24.726 -15.071 -6.056 6
-1.383 -0.839 2.476 0
-1.38 -0.833 2.459 9
-1.363 -0.82 2.447 6
-1.346 -0.807 2.435 5
-1.326 -0.791 2.425 5
-1.305 -0.777 2.415 6
-1.288 -0.764 2.403 6
-1.27 -0.751 2.392 2
-1.223 -0.722 2.394 10
-1.217 -0.717 2.377 1
-1.94 -1.49 2.737 8
-1.914 -1.447 2.719 9
-1.897 -1.413 2.7 11
-1.879 -1.379 2.682 7
-1.908 -1.38 2.656 3
-1.837 -1.311 2.649 4
-1.846 -1.3 2.627 29
-1.822 -1.266 2.613 2
-1.797 -1.233 2.599 0
-1.866 -1.266 2.564 0
0.0 -0.0 3.0 0
0.0 -0.0 3.0 0
0.0 -0.0 3.0 0
0.0 -0.0 3.0 0
0.0 -0.0 3.0 0
-1.605 -1.026 2.522 0
-1.589 -1.007 2.509 0
-1.546 -0.972 2.505 0
0.0 -0.0 3.0 0
-1.494 -0.927 2.486 0
-1.43 -0.882 2.491 1
-24.506 -15.035 -6.034 4
-1.364 -0.832 2.48 0
-1.367 -0.831 2.461 10
-1.357 -0.821 2.446 6
-1.337 -0.806 2.436 6
-1.32 -0.793 2.424 6
-1.303 -0.78 2.412 5
-1.275 -0.762 2.405 4
-1.257 -0.749 2.394 2
-1.23 -0.73 2.387 1
-1.205 -0.714 2.379 9
-1.923 -1.485 2.738 9
-1.907 -1.45 2.718 10
-1.896 -1.42 2.698 14
-1.871 -1.381 2.681 5
-1.939 -1.411 2.648 2
-1.836 -1.318 2.647 3
-1.832 -1.298 2.628 11
-1.815 -1.269 2.612 1
-1.812 -1.252 2.593 0
0.0 -0.0 3.0 0
0.0 -0.0 3.0 0
-1.705 -1.139 2.563 0
0.0 -0.0 3.0 0
0.0 -0.0 3.0 0
-1.598 -1.036 2.539 0
-1.585 -1.02 2.525 0
-1.562 -0.997 2.514 0
-1.594 -1.01 2.486 0
-1.561 -0.981 2.478 0
-1.494 -0.933 2.483 0
-1.424 -0.884 2.49 0
-24.312 -15.014 -6.021 6
-1.367 -0.84 2.475 0
-1.361 -0.832 2.46 12
-1.348 -0.821 2.446 6
-1.318 -0.8 2.44 6
-1.307 -0.79 2.426 8
-1.296 -0.781 2.411 5
-1.269 -0.762 2.405 3
-1.245 -0.746 2.396 3
-1.217 -0.727 2.39 1
-1.215 -0.724 2.371 4
-1.913 -1.485 2.738 9
-1.902 -1.456 2.717 10
-1.892 -1.426 2.697 10
-1.874 -1.392 2.679 3
-1.948 -1.426 2.644 1
-1.836 -1.326 2.645 4
-1.828 -1.303 2.626 3
-1.814 -1.277 2.61 0
0.0 -0.0 3.0 0
-1.864 -1.281 2.559 0
0.0 -0.0 3.0 0
-1.776 -1.193 2.542 0
0.0 -0.0 3.0 0
0.0 -0.0 3.0 0
0.0 -0.0 3.0 0
-1.595 -1.032 2.519 0
0.0 -0.0 3.0 0
-1.529 -0.975 2.503 0
0.0 -0.0 3.0 0
-1.478 -0.929 2.485 0
-1.421 -0.888 2.487 0
-1.354 -0.842 2.494 0
-1.351 -0.836 2.478 0
-1.354 -0.834 2.459 15
-1.335 -0.818 2.448 6
-1.318 -0.805 2.437 6
-1.305 -0.793 2.424 8
-1.287 -0.78 2.412 5
-1.254 -0.757 2.408 2
-1.22 -0.735 2.405 3
-1.218 -0.732 2.386 3
-1.212 -0.727 2.368 13
-1.908 -1.49 2.737 9
-1.895 -1.459 2.716 11
-1.884 -1.428 2.696 8
-1.866 -1.394 2.678 8
-1.943 -1.432 2.643 1
-1.828 -1.329 2.644 4
-1.824 -1.309 2.625 2
0.0 -0.0 3.0 0
-1.817 -1.272 2.587 0
-1.989 -1.376 2.526 0
-1.882 -1.287 2.531 0
0.0 -0.0 3.0 0
0.0 -0.0 3.0 0
-1.61 -1.068 2.547 0
0.0 -0.0 3.0 0
0.0 -0.0 3.0 0
-1.562 -1.01 2.507 0
-1.552 -0.995 2.493 0
0.0 -0.0 3.0 0
-1.468 -0.929 2.485 0
-1.408 -0.885 2.489 0
-1.341 -0.839 2.496 0
-1.348 -0.839 2.476 0
-1.351 -0.837 2.457 17
-1.326 -0.817 2.449 6
-1.309 -0.804 2.437 6
-1.305 -0.798 2.42 6
-1.281 -0.781 2.411 4
-1.245 -0.757 2.409 2
-1.221 -0.74 2.401 0
-1.199 -0.725 2.392 4
-1.209 -0.729 2.366 28
-1.904 -1.496 2.736 10
-1.891 -1.464 2.715 14
-1.88 -1.434 2.695 4
-1.856 -1.396 2.678 13
-1.916 -1.421 2.646 1
-1.821 -1.332 2.643 2
-1.813 -1.309 2.625 1
-1.796 -1.28 2.609 0
-1.823 -1.283 2.583 0
-2.078 -1.447 2.502 0
0.0 -0.0 3.0 0
0.0 -0.0 3.0 0
0.0 -0.0 3.0 0
-1.625 -1.085 2.539 0
-1.571 -1.04 2.537 0
0.0 -0.0 3.0 0
0.0 -0.0 3.0 0
-1.509 -0.975 2.503 0
-1.502 -0.963 2.488 0
-1.474 -0.939 2.48 0
-1.421 -0.899 2.481 0
-1.357 -0.854 2.487 0
-1.345 -0.842 2.474 0
-1.342 -0.837 2.457 19
-1.323 -0.821 2.446 6
-1.306 -0.808 2.435 6
-1.295 -0.798 2.42 6
-1.272 -0.781 2.412 2
-1.217 -0.744 2.419 6
-1.212 -0.738 2.402 1
-1.219 -0.741 2.378 5
-1.204 -0.73 2.366 55
-1.894 -1.497 2.736 10
-1.893 -1.474 2.714 9
-1.882 -1.444 2.693 3
-1.851 -1.401 2.677 12
-1.887 -1.408 2.649 0
-1.791 -1.319 2.647 1
-1.79 -1.301 2.627 0
-1.795 -1.288 2.606 0
0.0 -0.0 3.0 0
-2.124 -1.489 2.487 0
0.0 -0.0 3.0 0
0.0 -0.0 3.0 0
0.0 -0.0 3.0 0
0.0 -0.0 3.0 0
0.0 -0.0 3.0 0
-1.536 -1.014 2.527 0
-1.497 -0.981 2.522 0
0.0 -0.0 3.0 0
-1.492 -0.963 2.488 0
-1.448 -0.929 2.485 0
-1.405 -0.895 2.483 0
-1.335 -0.846 2.491 0
-1.326 -0.836 2.478 0
-1.336 -0.838 2.456 19
-1.313 -0.82 2.447 6
-1.297 -0.806 2.435 4
-1.283 -0.795 2.422 4
-1.256 -0.775 2.416 2
-1.211 -0.745 2.418 1
-1.203 -0.738 2.402 5
-1.21 -0.74 2.379 17
-1.204 -0.734 2.362 88
-1.895 -1.507 2.734 11
-1.879 -1.472 2.714 6
-1.859 -1.435 2.695 11
-1.844 -1.404 2.676 8
-1.772 -1.33 2.669 0
-1.774 -1.314 2.648 1
0.0 -0.0 3.0 0
-1.804 -1.302 2.602 0
0.0 -0.0 3.0 0
-2.139 -1.508 2.481 1
0.0 -0.0 3.0 0
0.0 -0.0 3.0 0
0.0 -0.0 3.0 0
-1.618 -1.095 2.535 0
0.0 -0.0 3.0 0
0.0 -0.0 3.0 0
-1.503 -0.991 2.517 0
0.0 -0.0 3.0 0
-1.453 -0.944 2.498 0
-1.439 -0.928 2.485 0
-1.398 -0.897 2.482 0
-1.338 -0.853 2.487 0
-1.313 -0.833 2.479 0
-1.326 -0.837 2.456 19
-1.304 -0.82 2.447 6
-1.29 -0.808 2.434 4
-1.271 -0.792 2.425 3
-1.225 -0.761 2.426 6
-1.214 -0.751 2.413 1
-1.216 -0.75 2.393 4
-1.207 -0.743 2.377 28
-1.201 -0.737 2.359 80
-1.894 -1.515 2.733 14
-1.875 -1.477 2.713 3
-1.858 -1.443 2.693 13
-1.84 -1.409 2.675 11
-1.745 -1.319 2.671 0
-1.745 -1.301 2.651 2
0.0 -0.0 3.0 0
-1.8 -1.308 2.6 0
-1.836 -1.318 2.572 0
-2.15 -1.526 2.475 1
0.0 -0.0 3.0 0
0.0 -0.0 3.0 0
0.0 -0.0 3.0 0
0.0 -0.0 3.0 0
0.0 -0.0 3.0 0
-1.545 -1.033 2.518 0
-1.503 -0.997 2.514 0
-1.496 -0.985 2.498 0
-1.44 -0.941 2.499 0
-1.426 -0.926 2.486 0
-1.389 -0.896 2.482 0
-1.325 -0.851 2.488 0
-1.297 -0.829 2.482 0
-1.317 -0.837 2.457 18
-1.298 -0.82 2.447 5
-1.284 -0.809 2.433 5
-1.268 -0.795 2.422 2
-1.229 -0.768 2.422 1
-1.199 -0.747 2.417 4
-1.21 -0.75 2.392 12
-1.207 -0.747 2.373 42
-1.198 -0.74 2.357 37
-1.89 -1.521 2.732 7
-1.867 -1.481 2.712 6
-1.856 -1.45 2.692 10
-1.835 -1.415 2.673 13
-1.745 -1.326 2.67 0
-1.731 -1.298 2.652 3
0.0 -0.0 3.0 0
0.0 -0.0 3.0 0
-1.815 -1.312 2.574 0
-2.145 -1.532 2.472 1
0.0 -0.0 3.0 0
0.0 -0.0 3.0 0
0.0 -0.0 3.0 0
0.0 -0.0 3.0 0
-1.541 -1.046 2.534 0
-1.493 -1.005 2.531 0
0.0 -0.0 3.0 0
-1.45 -0.962 2.51 0
-1.433 -0.944 2.498 0
-1.419 -0.928 2.485 0
-1.382 -0.898 2.481 0
-1.306 -0.844 2.493 0
-1.291 -0.829 2.482 0
-1.307 -0.836 2.457 15
-1.291 -0.822 2.446 4
-1.272 -0.806 2.436 3
-1.246 -0.786 2.429 4
-1.213 -0.763 2.425 1
-1.202 -0.753 2.412 3
-1.21 -0.756 2.388 21
-1.204 -0.75 2.371 46
-1.186 -0.736 2.36 18
-1.879 -1.52 2.732 5
-1.853 -1.479 2.713 14
-1.852 -1.456 2.691 9
-1.825 -1.415 2.673 6
-1.709 -1.307 2.674 0
-1.727 -1.304 2.651 5
0.0 -0.0 3.0 0
-1.794 -1.32 2.596 0
0.0 -0.0 3.0 0
-2.133 -1.534 2.472 1
0.0 -0.0 3.0 0
0.0 -0.0 3.0 0
-1.634 -1.138 2.54 0
0.0 -0.0 3.0 0
-1.524 -1.043 2.536 0
-1.473 -0.999 2.534 0
0.0 -0.0 3.0 0
-1.45 -0.968 2.507 0
-1.446 -0.958 2.491 0
-1.416 -0.932 2.484 0
-1.389 -0.909 2.475 0
-1.313 -0.854 2.487 0
-1.288 -0.833 2.48 0
-1.304 -0.839 2.455 12
-1.292 -0.827 2.442 4
-1.266 -0.807 2.435 2
-1.233 -0.783 2.431 2
-1.201 -0.76 2.428 2
-1.206 -0.76 2.406 8
-1.207 -0.758 2.386 25
-1.195 -0.749 2.372 33
-1.184 -0.739 2.358 14
-1.881 -1.531 2.73 3
-1.852 -1.486 2.711 15
-1.841 -1.456 2.69 12
-1.821 -1.42 2.672 1
-1.702 -1.309 2.674 0
-1.711 -1.299 2.652 8
0.0 -0.0 3.0 0
-1.784 -1.321 2.596 0
0.0 -0.0 3.0 0
-2.128 -1.54 2.47 1
0.0 -0.0 3.0 0
0.0 -0.0 3.0 0
0.0 -0.0 3.0 0
0.0 -0.0 3.0 0
0.0 -0.0 3.0 0
-1.483 -1.011 2.528 0
-1.492 -1.01 2.507 0
-1.424 -0.957 2.513 0
-1.408 -0.939 2.501 0
-1.39 -0.921 2.489 0
-1.373 -0.903 2.479 0
-1.303 -0.853 2.488 0
-1.288 -0.839 2.476 0
-1.292 -0.836 2.457 10
-1.276 -0.822 2.445 3
-1.253 -0.804 2.437 3
-1.224 -0.782 2.432 1
-1.201 -0.765 2.424 4
-1.2 -0.761 2.406 17
-1.201 -0.759 2.385 33
-1.196 -0.753 2.368 17
-1.187 -0.745 2.352 12
-1.861 -1.524 2.731 7
-1.854 -1.496 2.709 10
-1.834 -1.459 2.69 11
-1.801 -1.413 2.674 1
-1.695 -1.312 2.673 0
-1.704 -1.302 2.651 11
0.0 -0.0 3.0 0
-1.811 -1.35 2.587 0
-1.736 -1.279 2.584 0
-2.123 -1.546 2.468 2
0.0 -0.0 3.0 0
0.0 -0.0 3.0 0
0.0 -0.0 3.0 0
0.0 -0.0 3.0 0
-1.539 -1.067 2.525 0
-1.466 -1.007 2.53 0
-1.447 -0.986 2.519 0
-1.443 -0.976 2.503 0
-1.411 -0.947 2.497 0
-1.374 -0.917 2.492 0
-1.36 -0.9 2.48 0
-1.272 -0.838 2.497 0
-1.266 -0.829 2.482 0
-1.285 -0.838 2.456 9
-1.27 -0.824 2.444 2
-1.228 -0.793 2.445 5
-1.218 -0.783 2.431 1
-1.214 -0.777 2.414 3
-1.203 -0.768 2.4 20
-1.195 -0.76 2.385 27
-1.19 -0.754 2.368 14
-1.181 -0.745 2.352 11
-1.86 -1.531 2.73 14
-1.849 -1.502 2.708 12
-1.827 -1.462 2.689 3
-1.778 -1.404 2.676 0
-1.684 -1.312 2.673 0
-1.693 -1.302 2.651 14
0.0 -0.0 3.0 0
-1.766 -1.324 2.595 0
-1.697 -1.258 2.591 0
-2.106 -1.543 2.469 1
0.0 -0.0 3.0 0
0.0 -0.0 3.0 0
0.0 -0.0 3.0 0
-1.557 -1.095 2.535 0
-1.504 -1.049 2.533 0
-1.447 -1.001 2.533 0
0.0 -0.0 3.0 0
-1.415 -0.963 2.509 0
-1.379 -0.931 2.505 0
-1.374 -0.922 2.489 0
-1.363 -0.909 2.475 0
-1.288 -0.853 2.487 0
-1.27 -0.837 2.477 0
-1.276 -0.837 2.457 8
-1.264 -0.824 2.444 2
-1.219 -0.792 2.446 1
-1.203 -0.778 2.435 5
-1.211 -0.78 2.412 14
-1.197 -0.768 2.4 23
-1.195 -0.764 2.381 17
-1.193 -0.761 2.362 11
-1.181 -0.75 2.348 4
-1.855 -1.537 2.729 13
-1.839 -1.502 2.708 13
-1.831 -1.475 2.687 1
-1.733 -1.377 2.682 0
-1.665 -1.304 2.675 0
-1.683 -1.302 2.651 17
0.0 -0.0 3.0 0
-1.752 -1.322 2.596 0
0.0 -0.0 3.0 0
-2.113 -1.558 2.463 2
0.0 -0.0 3.0 0
0.0 -0.0 3.0 0
-1.641 -1.173 2.526 0
0.0 -0.0 3.0 0
-1.494 -1.049 2.533 0
-1.45 -1.009 2.53 0
0.0 -0.0 3.0 0
-1.402 -0.96 2.511 0
-1.391 -0.946 2.497 0
-1.364 -0.922 2.489 0
-1.341 -0.899 2.481 0
-1.269 -0.846 2.491 1
-1.254 -0.831 2.48 0
-1.27 -0.838 2.456 5
-1.232 -0.81 2.454 4
-1.207 -0.789 2.448 1
-1.212 -0.789 2.427 3
-1.205 -0.781 2.411 21
-1.194 -0.771 2.398 24
-1.19 -0.765 2.38 16
-1.184 -0.759 2.363 10
-1.188 -0.759 2.341 1
-1.851 -1.541 2.728 8
-1.837 -1.509 2.707 10
-1.815 -1.47 2.688 1
-1.698 -1.357 2.687 0
-1.642 -1.295 2.677 0
-1.673 -1.302 2.651 17
0.0 -0.0 3.0 0
-1.723 -1.308 2.6 0
0.0 -0.0 3.0 0
-2.108 -1.565 2.461 1
0.0 -0.0 3.0 0
0.0 -0.0 3.0 0
0.0 -0.0 3.0 0
0.0 -0.0 3.0 0
-1.484 -1.048 2.533 0
0.0 -0.0 3.0 0
-1.414 -0.983 2.521 0
-1.395 -0.962 2.51 0
-1.369 -0.937 2.502 0
-1.371 -0.932 2.483 0
-1.331 -0.899 2.481 0
-1.26 -0.845 2.492 1
-1.248 -0.833 2.479 0
-1.257 -0.835 2.458 4
-1.214 -0.802 2.459 1
-1.201 -0.789 2.447 3
-1.216 -0.796 2.422 12
-1.208 -0.788 2.406 21
-1.188 -0.772 2.397 18
-1.187 -0.767 2.379 13
-1.184 -0.764 2.359 7
-1.173 -0.753 2.346 0
-1.84 -1.541 2.728 12
-1.821 -1.504 2.708 3
-1.813 -1.477 2.686 0
-1.691 -1.36 2.686 0
-1.644 -1.305 2.675 0
-1.659 -1.299 2.652 18
0.0 -0.0 3.0 0
-1.691 -1.292 2.605 0
0.0 -0.0 3.0 0
-2.09 -1.562 2.462 1
0.0 -0.0 3.0 0
0.0 -0.0 3.0 0
0.0 -0.0 3.0 0
-1.517 -1.089 2.538 0
-1.455 -1.035 2.539 0
-1.449 -1.021 2.524 0
0.0 -0.0 3.0 0
-1.392 -0.966 2.508 0
-1.378 -0.949 2.495 0
-1.345 -0.921 2.49 0
-1.318 -0.896 2.483 0
-1.26 -0.851 2.488 0
-1.242 -0.834 2.479 0
-1.236 -0.826 2.464 5
-1.201 -0.799 2.461 1
-1.201 -0.795 2.443 2
-1.203 -0.793 2.424 21
-1.205 -0.791 2.404 18
-1.189 -0.776 2.393 12
-1.187 -0.773 2.374 10
-1.181 -0.766 2.357 1
-1.167 -0.754 2.345 0
-1.832 -1.545 2.728 13
-1.828 -1.52 2.704 1
0.0 -0.0 3.0 0
-1.677 -1.357 2.687 0
-1.625 -1.297 2.677 0
-1.655 -1.304 2.651 20
0.0 -0.0 3.0 0
-1.708 -1.313 2.598 0
-1.687 -1.283 2.583 0
-2.054 -1.544 2.468 0
0.0 -0.0 3.0 0
0.0 -0.0 3.0 0
0.0 -0.0 3.0 0
0.0 -0.0 3.0 0
-1.451 -1.039 2.537 0
-1.427 -1.012 2.528 0
0.0 -0.0 3.0 0
-1.398 -0.976 2.503 0
-1.362 -0.945 2.498 0
-1.358 -0.935 2.482 0
-1.287 -0.881 2.491 0
-1.25 -0.85 2.489 0
-1.226 -0.829 2.482 0
-1.226 -0.825 2.464 1
-1.198 -0.802 2.459 2
-1.21 -0.806 2.436 7
-1.207 -0.8 2.419 20
-1.199 -0.792 2.403 19
-1.183 -0.777 2.393 11
-1.181 -0.773 2.374 8
-1.176 -0.767 2.356 0
-1.143 -0.743 2.354 0
-1.831 -1.552 2.726 7
-1.818 -1.52 2.704 1
0.0 -0.0 3.0 0
-1.679 -1.367 2.684 0
-1.615 -1.297 2.677 0
-1.645 -1.305 2.65 19
0.0 -0.0 3.0 0
-1.66 -1.285 2.607 0
0.0 -0.0 3.0 0
-2.068 -1.564 2.461 0
0.0 -0.0 3.0 0
0.0 -0.0 3.0 0
0.0 -0.0 3.0 0
-1.479 -1.075 2.544 0
-1.438 -1.036 2.539 0
-1.407 -1.005 2.531 0
-1.392 -0.986 2.519 0
-1.369 -0.963 2.509 0
-1.346 -0.939 2.501 0
-1.332 -0.923 2.488 0
-1.287 -0.886 2.488 0
-1.238 -0.847 2.491 1
-1.22 -0.83 2.481 1
-1.23 -0.833 2.459 0
-1.205 -0.811 2.453 2
-1.201 -0.805 2.436 17
-1.204 -0.803 2.416 18
-1.193 -0.792 2.403 14
-1.183 -0.782 2.389 9
-1.181 -0.778 2.37 3
-1.17 -0.767 2.356 0
0.0 -0.0 3.0 0
-1.82 -1.552 2.726 1
-1.835 -1.543 2.7 0
0.0 -0.0 3.0 0
-1.641 -1.344 2.69 0
-1.617 -1.306 2.674 0
-1.635 -1.304 2.651 18
0.0 -0.0 3.0 0
-1.653 -1.287 2.606 0
0.0 -0.0 3.0 0
-2.044 -1.556 2.464 0
0.0 -0.0 3.0 0
0.0 -0.0 3.0 0
0.0 -0.0 3.0 0
-1.459 -1.068 2.547 0
-1.429 -1.036 2.539 0
-1.404 -1.01 2.529 0
-1.407 -1.003 2.511 0
-1.366 -0.966 2.508 0
-1.355 -0.952 2.494 0
-1.298 -0.906 2.498 0
-1.277 -0.885 2.489 0
-1.229 -0.846 2.492 0
-1.226 -0.839 2.475 1
-1.205 -0.82 2.467 2
-1.205 -0.816 2.449 5
-1.204 -0.812 2.431 17
-1.201 -0.805 2.415 21
-1.19 -0.795 2.401 11
-1.174 -0.781 2.39 8
-1.16 -0.768 2.378 0
-1.161 -0.766 2.357 0
0.0 -0.0 3.0 0
-1.819 -1.56 2.725 1
0.0 -0.0 3.0 0
0.0 -0.0 3.0 0
-1.643 -1.353 2.688 0
-1.61 -1.309 2.674 0
-1.618 -1.299 2.652 16
0.0 -0.0 3.0 0
-1.646 -1.29 2.606 0
0.0 -0.0 3.0 0
0.0 -0.0 3.0 0
0.0 -0.0 3.0 0
0.0 -0.0 3.0 0
0.0 -0.0 3.0 0
-1.437 -1.057 2.551 0
-1.444 -1.054 2.531 0
-1.41 -1.02 2.525 0
-1.391 -0.998 2.513 0
-1.369 -0.974 2.503 0
-1.321 -0.934 2.503 0
-1.298 -0.911 2.495 0
-1.268 -0.884 2.49 0
-1.216 -0.843 2.493 1
-1.22 -0.841 2.474 1
-1.208 -0.828 2.462 2
-1.205 -0.821 2.446 14
-1.195 -0.811 2.432 15
-1.195 -0.807 2.414 16
-1.187 -0.798 2.398 11
-1.171 -0.783 2.388 2
-1.148 -0.765 2.38 0
0.0 -0.0 3.0 0
0.0 -0.0 3.0 0
-1.808 -1.56 2.725 1
0.0 -0.0 3.0 0
0.0 -0.0 3.0 0
-1.618 -1.341 2.69 0
-1.603 -1.31 2.673 0
-1.614 -1.303 2.651 15
0.0 -0.0 3.0 0
-1.633 -1.288 2.606 0
0.0 -0.0 3.0 0
-1.807 -1.394 2.52 0
-2.046 -1.562 2.432 0
0.0 -0.0 3.0 0
0.0 -0.0 3.0 0
-1.44 -1.067 2.547 0
-1.415 -1.039 2.537 0
-1.4 -1.02 2.525 0
-1.359 -0.982 2.521 0
-1.34 -0.96 2.511 0
-1.311 -0.933 2.504 0
-1.279 -0.904 2.499 0
-1.234 -0.866 2.5 0
-1.225 -0.855 2.486 3
-1.211 -0.839 2.476 1
-1.217 -0.84 2.455 5
-1.199 -0.823 2.445 16
-1.195 -0.816 2.429 16
-1.189 -0.807 2.413 11
-1.184 -0.801 2.396 10
-1.156 -0.778 2.392 0
-1.16 -0.777 2.37 0
-1.161 -0.775 2.35 0
0.0 -0.0 3.0 0
0.0 -0.0 3.0 0
0.0 -0.0 3.0 0
0.0 -0.0 3.0 0
-1.596 -1.331 2.693 0
-1.577 -1.298 2.676 0
-1.601 -1.301 2.651 12
-1.636 -1.314 2.623 0
-1.585 -1.258 2.615 0
-1.648 -1.293 2.58 0
0.0 -0.0 3.0 0
-2.069 -1.589 2.422 0
-1.517 -1.153 2.558 0
-1.444 -1.087 2.561 0
-1.42 -1.059 2.55 0
-1.402 -1.036 2.539 0
-1.393 -1.021 2.524 0
-1.347 -0.979 2.522 0
-1.321 -0.953 2.514 0
-1.286 -0.921 2.511 0
-1.276 -0.907 2.497 0
-1.24 -0.876 2.494 0
-1.219 -0.856 2.486 1
-1.205 -0.841 2.475 2
-1.208 -0.838 2.456 13
-1.199 -0.828 2.442 13
-1.192 -0.818 2.427 13
-1.186 -0.81 2.411 12
-1.181 -0.804 2.394 5
-1.165 -0.789 2.383 0
-1.13 -0.762 2.383 0
0.0 -0.0 3.0 0
0.0 -0.0 3.0 0
0.0 -0.0 3.0 0
0.0 -0.0 3.0 0
0.0 -0.0 3.0 0
-1.582 -1.327 2.694 0
-1.585 -1.313 2.673 0
-1.597 -1.306 2.65 8
-1.626 -1.314 2.623 0
-1.597 -1.274 2.61 0
-1.613 -1.273 2.586 0
0.0 -0.0 3.0 0
-1.514 -1.17 2.574 0
-1.569 -1.2 2.539 0
-1.45 -1.099 2.556 0
-1.42 -1.066 2.548 0
-1.408 -1.047 2.534 0
-1.371 -1.011 2.528 0
-1.346 -0.985 2.519 0
-1.324 -0.961 2.51 0
-1.289 -0.929 2.506 0
-1.254 -0.898 2.502 0
-1.227 -0.873 2.496 1
-1.21 -0.855 2.486 1
-1.214 -0.853 2.467 3
-1.205 -0.841 2.454 15
-1.196 -0.831 2.44 14
-1.183 -0.817 2.428 10
-1.183 -0.813 2.41 12
-1.172 -0.802 2.395 0
-1.156 -0.787 2.385 0
-1.118 -0.758 2.386 0
0.0 -0.0 3.0 0
0.0 -0.0 3.0 0
0.0 -0.0 3.0 0
0.0 -0.0 3.0 0
0.0 -0.0 3.0 0
-1.578 -1.332 2.693 0
-1.554 -1.295 2.677 0
-1.587 -1.305 2.65 5
-1.607 -1.306 2.626 0
-1.562 -1.255 2.616 0
-1.587 -1.261 2.59 0
0.0 -0.0 3.0 0
-2.065 -1.606 2.415 0
-1.5 -1.154 2.557 0
0.0 -0.0 3.0 0
-1.429 -1.08 2.542 0
-1.395 -1.045 2.535 0
-1.38 -1.024 2.522 0
-1.346 -0.991 2.517 0
-1.305 -0.954 2.514 0
-1.264 -0.917 2.512 0
-1.223 -0.881 2.512 1
-1.221 -0.873 2.496 1
-1.207 -0.858 2.485 2
-1.211 -0.855 2.466 10
-1.205 -0.847 2.45 14
-1.19 -0.831 2.439 13
-1.183 -0.822 2.424 13
-1.18 -0.816 2.407 8
-1.188 -0.818 2.384 0
-1.126 -0.772 2.397 0
-1.136 -0.775 2.372 0
0.0 -0.0 3.0 0
0.0 -0.0 3.0 0
0.0 -0.0 3.0 0
0.0 -0.0 3.0 0
0.0 -0.0 3.0 0
-1.562 -1.326 2.694 0
-1.568 -1.314 2.672 0
-1.582 -1.31 2.649 3
-1.59 -1.301 2.627 0
-1.549 -1.252 2.617 0
0.0 -0.0 3.0 0
0.0 -0.0 3.0 0
-2.05 -1.605 2.416 0
0.0 -0.0 3.0 0
0.0 -0.0 3.0 0
-1.406 -1.069 2.546 0
-1.389 -1.046 2.534 0
-1.364 -1.02 2.525 0
-1.339 -0.993 2.516 0
-1.277 -0.939 2.522 0
-1.243 -0.907 2.518 0
-1.217 -0.882 2.511 1
-1.218 -0.877 2.494 1
-1.21 -0.865 2.48 2
-1.208 -0.859 2.464 16
-1.196 -0.845 2.451 14
-1.184 -0.832 2.439 10
-1.18 -0.826 2.422 12
-1.183 -0.823 2.402 1
-1.178 -0.816 2.385 0
-1.135 -0.782 2.389 0
-1.133 -0.778 2.37 0
-1.119 -0.765 2.358 0
-1.108 -0.754 2.344 0
0.0 -0.0 3.0 0
0.0 -0.0 3.0 0
0.0 -0.0 3.0 0
-2.512 -2.145 2.505 4
-1.579 -1.332 2.668 0
-1.575 -1.312 2.649 2
-1.589 -1.308 2.625 0
-1.56 -1.269 2.612 0
-1.579 -1.271 2.587 0
-1.61 -1.281 2.559 0
-2.048 -1.613 2.413 0
0.0 -0.0 3.0 0
0.0 -0.0 3.0 0
-1.409 -1.078 2.543 0
-1.36 -1.032 2.541 0
-1.348 -1.014 2.527 0
-1.296 -0.967 2.529 0
-1.283 -0.949 2.516 0
-1.239 -0.91 2.516 0
-1.213 -0.885 2.509 1
-1.209 -0.876 2.494 1
-1.207 -0.869 2.478 9
-1.205 -0.862 2.461 13
-1.193 -0.849 2.449 13
-1.181 -0.835 2.436 12
-1.177 -0.829 2.42 9
-1.174 -0.822 2.403 0
-1.142 -0.796 2.4 0
-1.144 -0.794 2.38 0
-1.115 -0.77 2.376 0
-1.116 -0.768 2.356 0
0.0 -0.0 3.0 0
0.0 -0.0 3.0 0
0.0 -0.0 3.0 0
0.0 -0.0 3.0 0
-1.59 -1.366 2.685 0
0.0 -0.0 3.0 0
-1.562 -1.309 2.649 2
-1.582 -1.31 2.624 0
-1.538 -1.259 2.615 0
0.0 -0.0 3.0 0
-1.548 -1.239 2.573 0
-2.042 -1.619 2.411 0
-1.445 -1.134 2.565 0
-1.416 -1.101 2.555 0
-1.381 -1.063 2.549 0
-1.372 -1.047 2.534 0
-1.351 -1.022 2.523 0
-1.277 -0.958 2.533 0
-1.255 -0.935 2.524 0
-1.215 -0.897 2.523 1
-1.21 -0.889 2.507 1
-1.209 -0.881 2.491 2
-1.21 -0.877 2.473 14
-1.198 -0.863 2.461 12
-1.187 -0.849 2.449 10
-1.178 -0.838 2.435 12
-1.174 -0.832 2.418 1
-1.167 -0.823 2.402 0
-1.148 -0.805 2.393 0
0.0 -0.0 3.0 0
-1.116 -0.775 2.373 0
-1.119 -0.774 2.351 0
0.0 -0.0 3.0 0
0.0 -0.0 3.0 0
0.0 -0.0 3.0 0
0.0 -0.0 3.0 0
-1.541 -1.332 2.693 0
0.0 -0.0 3.0 0
-1.555 -1.311 2.649 1
-1.563 -1.302 2.627 0
-1.515 -1.248 2.618 0
-1.513 -1.233 2.6 0
-1.501 -1.209 2.584 0
-1.497 -1.194 2.565 0
-1.435 -1.133 2.565 0
-2.119 -1.658 2.33 0
-1.383 -1.072 2.545 0
-1.365 -1.049 2.533 0
-1.314 -1.001 2.533 0
-1.286 -0.972 2.526 0
-1.234 -0.924 2.529 0
-1.221 -0.908 2.517 0
-1.21 -0.894 2.505 2
-1.212 -0.889 2.487 7
-1.204 -0.877 2.473 13
-1.189 -0.862 2.462 13
-1.186 -0.855 2.445 12
-1.18 -0.845 2.43 11
-1.174 -0.837 2.414 0
-1.143 -0.811 2.411 0
-1.127 -0.795 2.401 0
-1.111 -0.78 2.391 0
-1.11 -0.775 2.372 0
-1.102 -0.766 2.357 0
0.0 -0.0 3.0 0
0.0 -0.0 3.0 0
0.0 -0.0 3.0 0
0.0 -0.0 3.0 0
-2.474 -2.151 2.503 3
0.0 -0.0 3.0 0
-1.542 -1.308 2.65 0
-1.561 -1.309 2.625 0
-1.502 -1.245 2.619 0
-1.527 -1.252 2.593 0
-1.488 -1.206 2.585 0
-1.469 -1.18 2.571 0
-1.48 -1.177 2.548 0
-2.125 -1.673 2.324 0
-1.37 -1.068 2.546 0
-1.353 -1.045 2.535 0
-1.298 -0.995 2.536 0
-1.27 -0.966 2.529 0
-1.224 -0.924 2.529 0
-1.217 -0.912 2.515 1
-1.207 -0.897 2.503 2
-1.208 -0.892 2.485 12
-1.203 -0.883 2.469 11
-1.189 -0.867 2.458 10
-1.183 -0.858 2.443 13
-1.177 -0.849 2.428 2
-1.162 -0.833 2.417 0
-1.143 -0.815 2.408 0
-1.133 -0.804 2.394 0
-1.135 -0.801 2.374 0
-1.11 -0.78 2.368 0
-1.096 -0.767 2.357 0
-1.1 -0.766 2.334 0
0.0 -0.0 3.0 0
0.0 -0.0 3.0 0
0.0 -0.0 3.0 0
-1.509 -1.321 2.695 0
-1.524 -1.316 2.672 0
-1.532 -1.307 2.65 0
-1.557 -1.314 2.623 0
-1.504 -1.254 2.616 0
-1.469 -1.212 2.606 0
-1.475 -1.203 2.586 0
0.0 -0.0 3.0 0
-1.425 -1.139 2.563 0
-1.381 -1.094 2.558 0
-1.364 -1.07 2.546 0
-1.319 -1.026 2.543 0
-1.301 -1.003 2.532 0
-1.24 -0.949 2.537 0
-1.227 -0.932 2.525 1
-1.211 -0.912 2.515 1
-1.204 -0.901 2.501 9
-1.211 -0.9 2.48 13
-1.197 -0.884 2.469 13
-1.183 -0.868 2.458 10
-1.183 -0.863 2.439 11
-1.168 -0.847 2.429 0
-1.165 -0.841 2.411 0
-1.146 -0.822 2.403 0
-1.13 -0.807 2.392 0
-1.099 -0.781 2.39 0
-1.11 -0.785 2.365 0
-1.108 -0.779 2.346 0
0.0 -0.0 3.0 0
0.0 -0.0 3.0 0
0.0 -0.0 3.0 0
0.0 -0.0 3.0 0
-1.505 -1.324 2.694 0
-1.52 -1.32 2.671 0
-1.519 -1.304 2.651 0
-1.526 -1.295 2.629 0
-1.476 -1.239 2.621 0
0.0 -0.0 3.0 0
-1.456 -1.195 2.588 0
-1.434 -1.165 2.576 0
-1.424 -1.146 2.56 0
-2.117 -1.687 2.318 0
-1.333 -1.053 2.553 0
-1.288 -1.008 2.551 0
-1.276 -0.991 2.538 0
-1.23 -0.948 2.538 0
-1.218 -0.931 2.526 0
-1.205 -0.913 2.514 2
-1.204 -0.906 2.498 13
-1.202 -0.898 2.481 10
-1.191 -0.885 2.468 10
-1.18 -0.871 2.456 13
-1.186 -0.87 2.435 3
-1.156 -0.843 2.431 0
-1.138 -0.826 2.422 0
-1.125 -0.812 2.41 0
-1.121 -0.805 2.393 0
-1.111 -0.794 2.38 0
-1.104 -0.785 2.364 0
-1.081 -0.765 2.358 0
0.0 -0.0 3.0 0
0.0 -0.0 3.0 0
0.0 -0.0 3.0 0
0.0 -0.0 3.0 0
-1.495 -1.324 2.694 0
-1.507 -1.317 2.672 1
0.0 -0.0 3.0 0
-1.525 -1.303 2.626 0
-1.463 -1.236 2.622 0
-1.476 -1.233 2.599 0
-1.446 -1.194 2.589 0
-1.412 -1.155 2.58 0
-1.423 -1.153 2.557 0
-2.105 -1.689 2.318 0
-1.347 -1.071 2.545 0
-1.293 -1.019 2.546 0
-1.254 -0.98 2.543 0
-1.221 -0.946 2.539 0
-1.217 -0.936 2.523 1
-1.208 -0.921 2.51 7
-1.2 -0.91 2.496 14
-1.196 -0.9 2.48 13
-1.179 -0.881 2.471 9
-1.177 -0.874 2.454 13
-1.186 -0.876 2.431 0
-1.144 -0.839 2.434 0
-1.135 -0.828 2.42 0
-1.137 -0.826 2.4 0
-1.127 -0.815 2.386 0
-1.099 -0.79 2.383 0
-1.095 -0.783 2.366 0
-1.108 -0.788 2.338 0
0.0 -0.0 3.0 0
0.0 -0.0 3.0 0
0.0 -0.0 3.0 0
-1.556 -1.403 2.702 0
-1.491 -1.328 2.693 0
-1.494 -1.314 2.672 1
0.0 -0.0 3.0 0
-1.515 -1.301 2.627 0
-1.462 -1.242 2.62 0
-1.457 -1.224 2.602 0
-1.427 -1.187 2.591 0
-1.393 -1.147 2.583 0
-1.398 -1.14 2.562 0
-1.415 -1.142 2.539 0
-1.325 -1.06 2.55 0
-1.272 -1.009 2.551 0
-1.245 -0.979 2.544 0
-1.218 -0.949 2.537 0
-1.208 -0.935 2.524 2
-1.207 -0.927 2.507 11
-1.2 -0.915 2.493 12
-1.193 -0.903 2.479 10
-1.185 -0.891 2.465 13
-1.179 -0.882 2.449 5
-1.165 -0.866 2.438 0
-1.147 -0.847 2.429 0
-1.12 -0.823 2.424 0
-1.113 -0.813 2.409 0
-1.112 -0.809 2.391 0
-1.108 -0.801 2.374 0
-1.083 -0.779 2.369 0
0.0 -0.0 3.0 0
0.0 -0.0 3.0 0
0.0 -0.0 3.0 0
0.0 -0.0 3.0 0
-1.528 -1.386 2.705 0
-1.472 -1.319 2.696 0
-1.478 -1.308 2.674 3
0.0 -0.0 3.0 0
-1.502 -1.298 2.628 0
-1.461 -1.249 2.618 0
-1.438 -1.216 2.605 0
-1.414 -1.183 2.593 0
-1.389 -1.151 2.581 0
-1.364 -1.119 2.57 0
-1.354 -1.1 2.555 0
-1.301 -1.047 2.556 0
-1.253 -1.0 2.555 0
-1.22 -0.965 2.55 0
-1.223 -0.96 2.532 1
-1.208 -0.94 2.521 6
-1.204 -0.93 2.505 13
-1.194 -0.916 2.492 15
-1.183 -0.902 2.479 8
-1.181 -0.894 2.463 13
-1.161 -0.873 2.454 0
-1.173 -0.877 2.43 0
-1.135 -0.843 2.431 0
-1.126 -0.832 2.417 0
-1.104 -0.812 2.41 0
-1.112 -0.813 2.387 0
-1.099 -0.8 2.375 0
-1.08 -0.781 2.367 0
-1.084 -0.781 2.345 0
0.0 -0.0 3.0 0
0.0 -0.0 3.0 0
0.0 -0.0 3.0 0
-1.506 -1.375 2.708 0
-1.462 -1.318 2.696 0
-1.471 -1.31 2.673 4
0.0 -0.0 3.0 0
-1.501 -1.306 2.626 0
-1.439 -1.238 2.622 0
-1.431 -1.218 2.604 0
-1.398 -1.177 2.595 0
-1.37 -1.142 2.584 0
-2.05 -1.692 2.351 0
-1.269 -1.038 2.581 0
-1.273 -1.031 2.562 0
-1.247 -1.002 2.554 0
-1.217 -0.969 2.548 0
-1.208 -0.954 2.535 1
-1.21 -0.948 2.517 10
-1.201 -0.934 2.504 10
-1.193 -0.922 2.489 13
-1.189 -0.911 2.474 12
-1.178 -0.898 2.461 7
-1.158 -0.876 2.452 0
-1.149 -0.864 2.439 0
-1.126 -0.842 2.432 0
-1.105 -0.822 2.425 0
-1.119 -0.827 2.399 0
-1.109 -0.816 2.385 0
-1.099 -0.804 2.372 0
-1.086 -0.79 2.36 0
-1.096 -0.794 2.334 0
0.0 -0.0 3.0 0
0.0 -0.0 3.0 0
0.0 -0.0 3.0 0
-1.499 -1.376 2.707 0
-1.455 -1.32 2.695 0
-1.461 -1.308 2.674 8
0.0 -0.0 3.0 0
-1.491 -1.304 2.626 0
-1.45 -1.255 2.616 0
-1.412 -1.209 2.607 0
-1.415 -1.199 2.587 0
-1.358 -1.139 2.585 0
-1.321 -1.097 2.579 0
-1.295 -1.066 2.569 0
-1.234 -1.006 2.573 0
-1.222 -0.988 2.56 0
-1.22 -0.977 2.544 1
-1.219 -0.969 2.527 5
-1.207 -0.952 2.515 12
-1.2 -0.94 2.5 13
-1.181 -0.918 2.491 10
-1.183 -0.913 2.473 12
-1.172 -0.898 2.46 0
-1.149 -0.875 2.454 0
-1.152 -0.872 2.434 0
-1.102 -0.829 2.441 0
-1.119 -0.838 2.414 0
-1.101 -0.819 2.405 0
-1.103 -0.816 2.385 0
-1.096 -0.807 2.37 0
-1.083 -0.793 2.358 0
-1.064 -0.775 2.349 0
0.0 -0.0 3.0 0
0.0 -0.0 3.0 0
0.0 -0.0 3.0 0
-1.486 -1.373 2.708 0
-1.44 -1.313 2.697 0
-1.451 -1.307 2.674 11
0.0 -0.0 3.0 0
-1.481 -1.304 2.626 0
-1.434 -1.249 2.618 0
-1.423 -1.226 2.602 0
-1.384 -1.18 2.594 0
-1.369 -1.155 2.58 0
-1.299 -1.086 2.583 0
-1.274 -1.055 2.574 0
-1.242 -1.019 2.567 0
-1.216 -0.989 2.56 0
-1.21 -0.976 2.545 1
-1.21 -0.968 2.528 9
-1.204 -0.956 2.513 10
-1.191 -0.938 2.501 12
-1.181 -0.923 2.488 16
-1.182 -0.918 2.47 8
-1.151 -0.888 2.467 0
-1.131 -0.867 2.458 0
-1.14 -0.868 2.436 0
-1.117 -0.846 2.43 0
-1.104 -0.831 2.418 0
-1.11 -0.83 2.397 0
-1.109 -0.826 2.378 0
-1.081 -0.801 2.374 0
-1.115 -0.821 2.335 0
0.0 -0.0 3.0 0
0.0 -0.0 3.0 0
0.0 -0.0 3.0 0
0.0 -0.0 3.0 0
-1.465 -1.361 2.711 0
-1.435 -1.317 2.696 0
-1.441 -1.307 2.674 13
0.0 -0.0 3.0 0
-1.473 -1.306 2.626 0
-1.43 -1.253 2.617 0
-1.41 -1.222 2.603 0
-1.386 -1.19 2.59 0
-1.341 -1.139 2.585 0
-1.284 -1.08 2.586 0
-1.264 -1.054 2.574 0
-1.227 -1.013 2.57 0
-1.218 -0.997 2.556 1
-1.213 -0.984 2.541 3
-1.207 -0.971 2.526 11
-1.191 -0.951 2.515 12
-1.188 -0.941 2.499 9
-1.184 -0.931 2.484 16
-1.179 -0.921 2.468 0
-1.159 -0.9 2.459 0
-1.137 -0.876 2.453 0
-1.101 -0.844 2.452 0
-1.111 -0.846 2.429 0
-1.107 -0.839 2.413 0
-1.107 -0.834 2.394 0
-1.103 -0.826 2.378 0
-1.096 -0.816 2.362 0
-1.06 -0.785 2.364 0
-1.058 -0.78 2.346 0
0.0 -0.0 3.0 0
0.0 -0.0 3.0 0
0.0 -0.0 3.0 0
-1.466 -1.371 2.709 0
-1.429 -1.319 2.696 0
-1.431 -1.305 2.675 16
0.0 -0.0 3.0 0
-1.452 -1.294 2.629 0
-1.423 -1.255 2.616 0
-1.4 -1.221 2.603 0
-1.38 -1.191 2.59 0
-1.317 -1.126 2.59 0
-1.274 -1.079 2.586 0
-1.249 -1.047 2.577 0
-1.22 -1.014 2.57 0
-1.2 -0.989 2.56 1
-1.209 -0.988 2.539 9
-1.203 -0.975 2.525 9
-1.194 -0.96 2.511 12
-1.181 -0.942 2.499 13
-1.177 -0.932 2.483 13
-1.158 -0.91 2.475 0
-1.132 -0.884 2.469 0
-1.13 -0.877 2.452 0
-1.125 -0.867 2.437 0
-1.104 -0.846 2.429 0
-1.095 -0.835 2.416 0
-1.098 -0.832 2.396 0
-1.085 -0.818 2.384 0
-1.067 -0.799 2.375 0
-1.109 -0.826 2.331 0
0.0 -0.0 3.0 0
0.0 -0.0 3.0 0
0.0 -0.0 3.0 0
0.0 -0.0 3.0 0
-1.451 -1.364 2.71 0
-1.407 -1.307 2.698 0
-1.427 -1.31 2.673 19
0.0 -0.0 3.0 0
-1.459 -1.309 2.625 0
-1.422 -1.261 2.614 0
-1.361 -1.195 2.612 0
-1.37 -1.19 2.59 0
-1.313 -1.13 2.589 0
-1.28 -1.09 2.582 0
-1.21 -1.021 2.587 0
-1.226 -1.025 2.565 0
-1.218 -1.009 2.551 2
-1.209 -0.993 2.537 11
-1.197 -0.976 2.524 11
-1.188 -0.961 2.51 9
-1.181 -0.948 2.496 14
-1.177 -0.937 2.48 1
-1.164 -0.92 2.469 0
-1.135 -0.892 2.464 0
-1.121 -0.875 2.453 0
-1.133 -0.879 2.429 0
-1.095 -0.845 2.43 0
-1.098 -0.842 2.411 0
-1.101 -0.839 2.39 0
-1.088 -0.824 2.379 0
-1.058 -0.797 2.377 0
-1.071 -0.803 2.35 0
0.0 -0.0 3.0 0
0.0 -0.0 3.0 0
0.0 -0.0 3.0 0
0.0 -0.0 3.0 0
-1.447 -1.368 2.709 0
-1.392 -1.3 2.7 0
-1.42 -1.311 2.673 20
0.0 -0.0 3.0 0
-1.432 -1.292 2.629 0
-1.38 -1.232 2.623 0
-1.386 -1.225 2.602 0
-1.325 -1.158 2.601 0
-1.286 -1.112 2.595 0
-1.238 -1.061 2.593 0
-1.227 -1.042 2.579 0
-1.216 -1.023 2.566 1
-1.208 -1.008 2.551 8
-1.2 -0.992 2.537 10
-1.194 -0.979 2.522 11
-1.181 -0.962 2.51 13
-1.178 -0.951 2.494 12
-1.165 -0.934 2.482 0
-1.154 -0.919 2.47 0
-1.12 -0.886 2.468 0
-1.136 -0.892 2.442 0
-1.121 -0.876 2.431 0
-1.084 -0.841 2.433 0
-1.08 -0.833 2.417 0
-1.092 -0.837 2.392 0
-1.091 -0.832 2.373 0
-1.072 -0.813 2.365 0
-1.062 -0.801 2.352 0
-1.069 -0.802 2.327 0
-1.078 -0.805 2.3 0
0.0 -0.0 3.0 0
0.0 -0.0 3.0 0
-2.306 -2.193 2.534 4
-1.385 -1.302 2.699 0
-1.41 -1.309 2.674 21
0.0 -0.0 3.0 0
-1.439 -1.307 2.625 0
-1.397 -1.254 2.617 0
-1.356 -1.205 2.608 0
-1.294 -1.139 2.608 0
-1.27 -1.107 2.597 0
-1.237 -1.067 2.59 0
-1.224 -1.045 2.578 1
-1.213 -1.027 2.564 2
-1.213 -1.019 2.546 11
-1.202 -1.001 2.533 10
-1.19 -0.983 2.521 10
-1.181 -0.967 2.507 14
-1.171 -0.952 2.494 2
-1.15 -0.928 2.486 0
-1.142 -0.915 2.472 0
-1.117 -0.889 2.466 0
-1.112 -0.879 2.451 0
-1.106 -0.869 2.435 0
-1.107 -0.863 2.418 0
-1.115 -0.865 2.394 0
-1.088 -0.839 2.39 0
-1.082 -0.83 2.375 0
-1.075 -0.82 2.359 0
-1.059 -0.804 2.349 0
0.0 -0.0 3.0 0
0.0 -0.0 3.0 0
0.0 -0.0 3.0 0
0.0 -0.0 3.0 0
-1.415 -1.354 2.712 0
-1.392 -1.317 2.696 0
-1.4 -1.309 2.674 21
0.0 -0.0 3.0 0
-1.412 -1.29 2.63 0
-1.364 -1.232 2.623 0
-1.361 -1.217 2.605 0
-1.297 -1.147 2.605 0
-1.258 -1.103 2.599 0
-1.222 -1.06 2.593 0
-1.217 -1.046 2.577 1
-1.206 -1.028 2.564 8
-1.207 -1.02 2.546 11
-1.196 -1.001 2.533 12
-1.181 -0.981 2.522 11
-1.178 -0.971 2.505 13
-1.156 -0.946 2.497 0
-1.14 -0.926 2.487 0
-1.118 -0.901 2.48 0
-1.117 -0.894 2.463 0
-1.103 -0.877 2.452 0
-1.115 -0.881 2.428 0
-1.098 -0.862 2.418 0
-1.068 -0.834 2.416 0
-1.077 -0.836 2.393 0
-1.053 -0.813 2.388 0
-1.066 -0.818 2.361 0
0.0 -0.0 3.0 0
-1.077 -0.817 2.314 0
-1.08 -0.815 2.291 0
0.0 -0.0 3.0 0
0.0 -0.0 3.0 0
-1.405 -1.353 2.712 0
-1.371 -1.304 2.699 0
-1.393 -1.31 2.673 22
0.0 -0.0 3.0 0
-1.408 -1.294 2.629 0
-1.368 -1.244 2.62 0
-1.319 -1.187 2.614 0
-1.29 -1.149 2.604 0
-1.242 -1.096 2.601 0
-1.221 -1.066 2.591 0
-1.211 -1.048 2.577 2
-1.212 -1.039 2.559 10
-1.201 -1.021 2.546 10
-1.189 -1.002 2.533 10
-1.18 -0.987 2.519 13
-1.177 -0.976 2.503 3
-1.15 -0.947 2.497 0
-1.143 -0.934 2.482 0
-1.124 -0.912 2.474 0
-1.105 -0.89 2.465 0
-1.108 -0.887 2.446 0
-1.112 -0.884 2.426 0
-1.115 -0.881 2.406 0
-1.083 -0.85 2.405 0
-1.076 -0.84 2.389 0
-1.061 -0.824 2.379 0
-1.066 -0.823 2.357 0
-1.05 -0.806 2.347 0
0.0 -0.0 3.0 0
0.0 -0.0 3.0 0
0.0 -0.0 3.0 0
0.0 -0.0 3.0 0
-1.396 -1.351 2.713 0
-1.358 -1.3 2.7 0
-1.386 -1.311 2.673 20
0.0 -0.0 3.0 0
-1.407 -1.301 2.627 0
-1.367 -1.251 2.618 0
-1.289 -1.167 2.621 0
-1.245 -1.116 2.616 0
-1.218 -1.081 2.607 0
-1.212 -1.065 2.591 1
-1.207 -1.051 2.575 6
-1.208 -1.042 2.558 10
-1.191 -1.019 2.546 12
-1.183 -1.003 2.532 10
-1.18 -0.993 2.516 13
-1.171 -0.977 2.502 0
-1.138 -0.942 2.499 0
-1.128 -0.928 2.486 0
-1.106 -0.903 2.479 0
-1.087 -0.881 2.471 0
-1.096 -0.883 2.448 0
-1.088 -0.871 2.435 0
-1.088 -0.866 2.416 0
-1.077 -0.851 2.404 0
-1.082 -0.85 2.383 0
-1.072 -0.837 2.369 0
-1.068 -0.829 2.352 0
-1.073 -0.828 2.329 0
-1.096 -0.842 2.293 0
0.0 -0.0 3.0 0
0.0 -0.0 3.0 0
0.0 -0.0 3.0 0
-1.377 -1.342 2.715 0
-1.357 -1.307 2.698 0
-1.376 -1.31 2.673 18
0.0 -0.0 3.0 0
-1.397 -1.3 2.627 0
-1.326 -1.22 2.627 0
-1.3 -1.184 2.615 0
-1.25 -1.128 2.612 0
-1.224 -1.092 2.602 0
-1.208 -1.068 2.59 1
-1.212 -1.062 2.571 9
-1.202 -1.043 2.557 9
-1.191 -1.025 2.543 10
-1.182 -1.009 2.53 14
-1.176 -0.996 2.514 5
-1.15 -0.965 2.508 0
-1.14 -0.95 2.495 0
-1.104 -0.913 2.494 0
-1.109 -0.911 2.474 0
-1.107 -0.903 2.458 0
-1.087 -0.881 2.449 0
-1.099 -0.885 2.425 0
-1.071 -0.857 2.422 0
-1.079 -0.858 2.399 0
-1.079 -0.853 2.38 0
-1.072 -0.842 2.365 0
-1.051 -0.821 2.359 0
0.0 -0.0 3.0 0
-1.045 -0.807 2.323 0
0.0 -0.0 3.0 0
0.0 -0.0 3.0 0
0.0 -0.0 3.0 0
-1.373 -1.346 2.714 0
-1.356 -1.314 2.697 0
-1.367 -1.309 2.674 16
-1.374 -1.301 2.651 0
-1.37 -1.282 2.632 0
-1.313 -1.216 2.628 0
-1.261 -1.156 2.624 0
-1.241 -1.126 2.612 0
-1.217 -1.094 2.602 0
-1.219 -1.085 2.584 5
-1.206 -1.063 2.571 10
-1.195 -1.044 2.557 11
-1.176 -1.018 2.547 9
-1.182 -1.015 2.527 13
-1.155 -0.985 2.52 0
-1.138 -0.962 2.51 0
-1.143 -0.958 2.491 0
-1.098 -0.914 2.493 0
-1.114 -0.921 2.468 0
-1.104 -0.906 2.456 0
-1.104 -0.9 2.437 0
-1.085 -0.878 2.43 0
-1.073 -0.864 2.418 0
-1.062 -0.849 2.405 0
-1.078 -0.858 2.377 0
0.0 -0.0 3.0 0
-1.076 -0.846 2.339 0
0.0 -0.0 3.0 0
-1.061 -0.825 2.308 0
0.0 -0.0 3.0 0
0.0 -0.0 3.0 0
0.0 -0.0 3.0 0
-2.237 -2.205 2.531 5
-1.355 -1.32 2.695 0
-1.365 -1.315 2.672 13
-1.379 -1.313 2.648 0
-1.346 -1.267 2.637 0
-1.278 -1.191 2.636 0
-1.243 -1.147 2.627 0
-1.229 -1.122 2.614 0
-1.208 -1.092 2.603 1
-1.207 -1.08 2.585 9
-1.202 -1.067 2.569 8
-1.189 -1.045 2.556 9
-1.181 -1.029 2.542 13
-1.178 -1.019 2.525 6
-1.164 -0.998 2.513 0
-1.14 -0.97 2.506 0
-1.139 -0.962 2.489 0
-1.109 -0.929 2.485 0
-1.108 -0.921 2.468 0
-1.083 -0.895 2.462 0
-1.101 -0.904 2.435 0
-1.076 -0.877 2.431 0
-1.093 -0.885 2.403 0
-1.081 -0.87 2.391 0
-1.05 -0.84 2.39 0
-1.052 -0.837 2.37 0
-1.067 -0.844 2.341 0
0.0 -0.0 3.0 0
-1.047 -0.819 2.313 0
0.0 -0.0 3.0 0
0.0 -0.0 3.0 0
0.0 -0.0 3.0 0
-1.343 -1.332 2.717 0
-1.334 -1.307 2.698 0
-1.353 -1.311 2.673 10
-1.386 -1.328 2.644 0
-1.31 -1.241 2.644 0
-1.268 -1.189 2.636 0
-1.234 -1.145 2.628 0
-1.214 -1.115 2.616 0
-1.216 -1.106 2.597 3
-1.206 -1.087 2.583 11
-1.196 -1.067 2.569 11
-1.182 -1.046 2.556 8
-1.18 -1.035 2.539 13
-1.178 -1.024 2.522 0
-1.16 -1.001 2.512 0
-1.134 -0.971 2.505 0
-1.096 -0.931 2.505 0
-1.1 -0.927 2.486 0
-1.096 -0.917 2.47 0
-1.103 -0.916 2.449 0
-1.098 -0.906 2.434 0
-1.087 -0.891 2.421 0
-1.067 -0.869 2.414 0
-1.055 -0.855 2.402 0
-1.063 -0.855 2.378 0
-1.06 -0.848 2.361 0
-1.053 -0.838 2.346 0
0.0 -0.0 3.0 0
-1.044 -0.821 2.311 0
0.0 -0.0 3.0 0
0.0 -0.0 3.0 0
0.0 -0.0 3.0 0
-1.347 -1.344 2.714 0
-1.335 -1.317 2.696 0
-1.349 -1.315 2.672 8
-1.367 -1.318 2.647 0
-1.303 -1.243 2.644 0
-1.247 -1.177 2.64 0
-1.224 -1.143 2.628 0
-1.213 -1.121 2.614 1
-1.215 -1.112 2.595 9
-1.202 -1.09 2.581 8
-1.186 -1.066 2.569 10
-1.182 -1.053 2.553 11
-1.174 -1.036 2.539 8
-1.162 -1.018 2.525 0
-1.154 -1.002 2.512 0
-1.119 -0.963 2.509 0
-1.112 -0.95 2.495 0
-1.094 -0.928 2.485 0
-1.104 -0.93 2.463 0
-1.088 -0.91 2.453 0
-1.072 -0.89 2.444 0
-1.081 -0.892 2.421 0
-1.067 -0.874 2.41 0
-1.092 -0.89 2.377 0
-1.077 -0.872 2.366 0
-1.062 -0.855 2.355 0
-1.039 -0.831 2.351 0
0.0 -0.0 3.0 0
0.0 -0.0 3.0 0
0.0 -0.0 3.0 0
0.0 -0.0 3.0 0
0.0 -0.0 3.0 0
-1.329 -1.334 2.716 0
-1.328 -1.318 2.696 0
-1.339 -1.313 2.673 5
-1.327 -1.286 2.655 0
-1.28 -1.228 2.648 0
-1.229 -1.167 2.643 0
-1.221 -1.147 2.627 0
-1.209 -1.124 2.613 2
-1.208 -1.113 2.595 10
-1.196 -1.091 2.581 10
-1.183 -1.069 2.568 8
-1.181 -1.058 2.551 11
-1.173 -1.042 2.536 0
-1.145 -1.008 2.53 0
-1.127 -0.984 2.52 0
-1.124 -0.974 2.504 0
-1.115 -0.959 2.49 0
-1.096 -0.936 2.481 0
-1.098 -0.93 2.463 0
-1.102 -0.927 2.443 0
-1.08 -0.902 2.436 0
-1.075 -0.892 2.421 0
-1.055 -0.87 2.413 0
-1.057 -0.867 2.393 0
-1.06 -0.863 2.373 0
-1.079 -0.873 2.342 0
-1.038 -0.835 2.347 0
0.0 -0.0 3.0 0
-1.043 -0.83 2.304 0
0.0 -0.0 3.0 0
0.0 -0.0 3.0 0
0.0 -0.0 3.0 0
-1.328 -1.34 2.715 0
-1.33 -1.328 2.693 0
-1.329 -1.312 2.673 4
-1.306 -1.274 2.659 0
-1.25 -1.207 2.654 0
-1.225 -1.17 2.642 0
-1.22 -1.153 2.625 1
-1.211 -1.133 2.61 8
-1.204 -1.116 2.594 8
-1.192 -1.095 2.58 10
-1.176 -1.07 2.568 10
-1.172 -1.056 2.552 8
-1.152 -1.03 2.541 0
-1.141 -1.011 2.528 0
-1.109 -0.975 2.524 0
-1.115 -0.972 2.505 0
-1.083 -0.937 2.502 0
-1.09 -0.936 2.481 0
-1.077 -0.919 2.469 0
-1.078 -0.914 2.451 0
-1.068 -0.898 2.439 0
-1.088 -0.909 2.409 0
-1.071 -0.889 2.4 0
-1.057 -0.872 2.39 0
-1.054 -0.863 2.373 0
-1.036 -0.844 2.364 0
-1.029 -0.833 2.349 0
0.0 -0.0 3.0 0
-1.026 -0.821 2.311 0
0.0 -0.0 3.0 0
0.0 -0.0 3.0 0
0.0 -0.0 3.0 0
-1.31 -1.33 2.717 0
-1.317 -1.323 2.694 0
-1.32 -1.31 2.673 3
-1.288 -1.264 2.661 0
-1.238 -1.202 2.655 0
-1.213 -1.166 2.643 0
-1.216 -1.157 2.624 1
-1.204 -1.134 2.61 10
-1.198 -1.117 2.593 9
-1.188 -1.098 2.579 8
-1.181 -1.081 2.563 11
-1.168 -1.06 2.55 0
-1.154 -1.038 2.538 0
-1.112 -0.992 2.538 0
-1.115 -0.986 2.519 0
-1.109 -0.973 2.504 0
-1.105 -0.962 2.488 0
-1.093 -0.944 2.477 0
-1.091 -0.936 2.459 0
-1.07 -0.911 2.453 0
-1.059 -0.896 2.44 0
-1.068 -0.897 2.417 0
-1.037 -0.866 2.416 0
-1.062 -0.881 2.383 0
-1.056 -0.871 2.367 0
-1.058 -0.867 2.347 0
-1.035 -0.843 2.341 0
0.0 -0.0 3.0 0
0.0 -0.0 3.0 0
0.0 -0.0 3.0 0
0.0 -0.0 3.0 0
0.0 -0.0 3.0 0
-1.319 -1.348 2.713 0
-1.313 -1.327 2.694 0
-1.313 -1.311 2.673 2
-1.275 -1.26 2.662 0
-1.223 -1.195 2.657 0
-1.215 -1.175 2.641 1
-1.209 -1.158 2.624 8
-1.204 -1.14 2.607 9
-1.191 -1.118 2.593 11
-1.182 -1.099 2.578 11
-1.177 -1.085 2.562 9
-1.159 -1.058 2.551 0
-1.134 -1.026 2.543 0
-1.123 -1.008 2.53 0
-1.134 -1.01 2.508 0
-1.097 -0.969 2.506 0
-1.085 -0.95 2.495 0
-1.075 -0.935 2.482 0
-1.085 -0.936 2.459 0
-1.072 -0.919 2.448 0
-1.056 -0.899 2.438 0
-1.076 -0.91 2.409 0
-1.051 -0.883 2.404 0
-1.065 -0.888 2.378 0
-1.039 -0.862 2.374 0
-1.058 -0.872 2.343 0
-1.012 -0.829 2.352 0
0.0 -0.0 3.0 0
0.0 -0.0 3.0 0
0.0 -0.0 3.0 0
0.0 -0.0 3.0 0
0.0 -0.0 3.0 0
-1.29 -1.326 2.718 0
-1.295 -1.317 2.696 0
-1.306 -1.312 2.673 1
-1.235 -1.228 2.671 0
-1.219 -1.199 2.656 0
-1.206 -1.173 2.641 1
-1.211 -1.167 2.621 9
-1.197 -1.141 2.607 8
-1.188 -1.122 2.592 8
-1.181 -1.105 2.576 12
-1.165 -1.08 2.564 1
-1.161 -1.066 2.547 0
-1.13 -1.03 2.541 0
-1.114 -1.006 2.531 0
-1.111 -0.995 2.515 0
-1.079 -0.959 2.511 0
-1.095 -0.966 2.486 0
-1.094 -0.958 2.469 0
-1.062 -0.922 2.467 0
-1.069 -0.922 2.446 0
-1.058 -0.906 2.434 0
-1.078 -0.918 2.404 0
-1.028 -0.869 2.414 0
-1.056 -0.887 2.379 0
-0.991 -0.827 2.399 0
-1.04 -0.863 2.349 0
-1.023 -0.843 2.341 0
0.0 -0.0 3.0 0
0.0 -0.0 3.0 0
0.0 -0.0 3.0 0
0.0 -0.0 3.0 0
0.0 -0.0 3.0 0
-1.286 -1.33 2.717 0
-1.283 -1.312 2.697 0
-1.271 -1.286 2.679 0
-1.212 -1.211 2.675 0
-1.218 -1.205 2.654 1
-1.216 -1.19 2.636 6
-1.205 -1.168 2.62 9
-1.193 -1.145 2.606 11
-1.178 -1.12 2.592 9
-1.175 -1.106 2.575 10
-1.153 -1.076 2.565 0
-1.135 -1.049 2.555 0
-1.118 -1.025 2.543 0
-1.116 -1.014 2.527 0
-1.11 -1.001 2.512 0
-1.107 -0.989 2.496 0
-1.081 -0.959 2.49 0
-1.08 -0.951 2.473 0
-1.061 -0.928 2.464 0
-1.054 -0.915 2.45 0
-1.052 -0.906 2.434 0
-1.058 -0.905 2.412 0
-1.05 -0.893 2.398 0
-1.022 -0.864 2.395 0
-1.019 -0.855 2.379 0
-1.034 -0.863 2.35 0
-0.989 -0.821 2.359 0
0.0 -0.0 3.0 0
0.0 -0.0 3.0 0
0.0 -0.0 3.0 0
0.0 -0.0 3.0 0
-1.32 -1.39 2.73 0
-1.28 -1.331 2.717 0
-1.276 -1.313 2.697 0
-1.251 -1.273 2.683 0
-1.219 -1.226 2.671 0
-1.217 -1.211 2.653 1
-1.212 -1.194 2.635 10
-1.204 -1.174 2.619 8
-1.184 -1.143 2.606 9
-1.18 -1.129 2.589 11
-1.179 -1.117 2.571 2
-1.155 -1.085 2.562 0
-1.159 -1.078 2.542 0
-1.131 -1.044 2.535 0
-1.126 -1.03 2.52 0
-1.112 -1.009 2.508 0
-1.084 -0.975 2.503 0
-1.08 -0.964 2.487 0
-1.076 -0.954 2.471 0
-1.066 -0.938 2.458 0
-1.076 -0.939 2.436 0
-1.074 -0.931 2.418 0
-1.066 -0.918 2.404 0
-1.03 -0.881 2.406 0
-1.052 -0.895 2.374 0
-1.035 -0.874 2.365 0
-1.067 -0.895 2.325 0
0.0 -0.0 3.0 0
0.0 -0.0 3.0 0
0.0 -0.0 3.0 0
0.0 -0.0 3.0 0
0.0 -0.0 3.0 0
-1.3 -1.377 2.732 0
-1.273 -1.332 2.717 0
-1.267 -1.311 2.697 0
-1.233 -1.262 2.685 0
-1.21 -1.224 2.672 1
-1.216 -1.218 2.651 4
-1.205 -1.195 2.635 10
-1.197 -1.175 2.618 11
-1.18 -1.147 2.605 8
-1.174 -1.129 2.589 9
-1.15 -1.097 2.579 0
-1.132 -1.069 2.568 0
0.0 -0.0 3.0 0
-1.128 -1.047 2.534 0
-1.111 -1.023 2.523 0
-1.103 -1.007 2.509 0
-1.086 -0.983 2.499 0
-1.093 -0.983 2.477 0
-1.075 -0.959 2.469 0
-1.052 -0.931 2.462 0
-1.056 -0.928 2.442 0
-1.07 -0.935 2.416 0
-1.043 -0.904 2.413 0
-1.007 -0.867 2.415 0
-1.051 -0.9 2.37 0
0.0 -0.0 3.0 0
-1.02 -0.861 2.351 0
-0.975 -0.818 2.361 0
0.0 -0.0 3.0 0
0.0 -0.0 3.0 0
0.0 -0.0 3.0 0
0.0 -0.0 3.0 0
-1.29 -1.374 2.733 0
-1.271 -1.338 2.716 0
-1.244 -1.295 2.701 0
-1.221 -1.257 2.687 0
-1.214 -1.236 2.669 1
-1.209 -1.219 2.651 9
-1.204 -1.201 2.633 8
-1.185 -1.17 2.62 9
-1.179 -1.153 2.603 10
-1.17 -1.133 2.588 2
-1.144 -1.097 2.579 0
-1.134 -1.078 2.564 0
-1.135 -1.069 2.546 0
-1.13 -1.055 2.53 0
-1.113 -1.031 2.519 0
-1.108 -1.018 2.504 0
-1.074 -0.979 2.501 0
-1.079 -0.976 2.481 0
-1.055 -0.947 2.475 0
-1.062 -0.947 2.453 0
-1.047 -0.925 2.444 0
-1.036 -0.91 2.431 0
-1.034 -0.902 2.414 0
-1.026 -0.889 2.4 0
-1.023 -0.881 2.383 0
0.0 -0.0 3.0 0
-1.008 -0.857 2.355 0
0.0 -0.0 3.0 0
0.0 -0.0 3.0 0
0.0 -0.0 3.0 0
0.0 -0.0 3.0 0
0.0 -0.0 3.0 0
-1.267 -1.358 2.736 1
-1.251 -1.325 2.718 0
-1.248 -1.307 2.698 0
-1.217 -1.261 2.686 0
-1.213 -1.242 2.667 2
-1.208 -1.225 2.649 10
-1.2 -1.204 2.632 12
-1.184 -1.176 2.618 8
-1.173 -1.153 2.603 9
-1.152 -1.123 2.591 0
-1.137 -1.097 2.579 0
-1.13 -1.081 2.563 0
0.0 -0.0 3.0 0
-1.107 -1.04 2.537 0
-1.093 -1.019 2.525 0
-1.093 -1.011 2.507 0
-1.076 -0.987 2.497 0
-1.078 -0.981 2.478 0
-1.066 -0.962 2.467 0
-1.059 -0.949 2.452 0
-1.032 -0.918 2.448 0
-1.058 -0.935 2.416 0
-1.047 -0.92 2.403 0
0.0 -0.0 3.0 0
-1.056 -0.914 2.36 0
-1.003 -0.863 2.373 0
-1.008 -0.861 2.351 0
0.0 -0.0 3.0 0
0.0 -0.0 3.0 0
0.0 -0.0 3.0 0
0.0 -0.0 3.0 0
0.0 -0.0 3.0 0
-1.26 -1.359 2.736 0
-1.247 -1.329 2.717 0
-1.236 -1.302 2.699 1
-1.216 -1.267 2.684 1
-1.212 -1.249 2.665 9
-1.204 -1.228 2.648 9
-1.188 -1.199 2.633 11
-1.18 -1.18 2.617 9
-1.171 -1.16 2.601 3
-1.162 -1.14 2.585 0
-1.139 -1.107 2.575 0
-1.124 -1.082 2.563 0
-1.128 -1.076 2.543 0
-1.098 -1.038 2.538 0
-1.101 -1.032 2.519 0
-1.087 -1.011 2.507 0
-1.075 -0.992 2.495 0
-1.066 -0.976 2.481 0
-1.051 -0.955 2.471 0
-1.061 -0.957 2.447 0
-1.034 -0.926 2.444 0
-1.035 -0.921 2.425 0
-1.03 -0.91 2.409 0
-1.017 -0.891 2.399 0
-1.036 -0.903 2.368 0
-0.981 -0.849 2.383 0
0.0 -0.0 3.0 0
0.0 -0.0 3.0 0
0.0 -0.0 3.0 0
0.0 -0.0 3.0 0
0.0 -0.0 3.0 0
0.0 -0.0 3.0 0
-1.248 -1.353 2.737 0
-1.24 -1.33 2.717 0
-1.234 -1.308 2.698 2
-1.212 -1.27 2.683 2
-1.21 -1.256 2.664 10
-1.195 -1.226 2.648 10
-1.187 -1.206 2.631 7
-1.179 -1.186 2.615 9
-1.176 -1.171 2.597 0
-1.142 -1.126 2.59 0
-1.152 -1.126 2.568 0
-1.12 -1.085 2.562 0
-1.116 -1.071 2.545 0
-1.105 -1.052 2.532 0
-1.086 -1.025 2.522 0
-1.08 -1.011 2.507 0
-1.063 -0.988 2.497 0
-1.071 -0.987 2.475 0
-1.045 -0.956 2.47 0
-1.058 -0.96 2.446 0
-1.048 -0.944 2.433 0
-1.026 -0.918 2.426 0
-1.024 -0.91 2.409 0
-1.013 -0.894 2.397 0
-1.013 -0.888 2.378 0
-0.964 -0.84 2.39 0
0.0 -0.0 3.0 0
0.0 -0.0 3.0 0
0.0 -0.0 3.0 0
0.0 -0.0 3.0 0
0.0 -0.0 3.0 0
0.0 -0.0 3.0 0
-1.255 -1.369 2.734 0
-1.215 -1.31 2.722 0
-1.222 -1.304 2.699 3
-1.21 -1.277 2.682 10
-1.201 -1.254 2.664 10
-1.194 -1.233 2.646 11
-1.178 -1.204 2.632 8
-1.172 -1.187 2.614 5
-1.161 -1.164 2.599 0
-1.127 -1.12 2.592 0
-1.113 -1.095 2.58 0
-1.116 -1.089 2.56 0
-1.106 -1.069 2.546 0
-1.09 -1.044 2.535 0
-1.08 -1.025 2.522 0
-1.069 -1.007 2.509 0
-1.068 -0.998 2.491 0
-1.079 -1.0 2.468 0
-1.039 -0.956 2.47 0
0.0 -0.0 3.0 0
-1.025 -0.929 2.442 0
-1.042 -0.938 2.414 0
-1.004 -0.898 2.417 0
-1.013 -0.899 2.394 0
-1.002 -0.884 2.381 0
0.0 -0.0 3.0 0
0.0 -0.0 3.0 0
0.0 -0.0 3.0 0
0.0 -0.0 3.0 0
0.0 -0.0 3.0 0
0.0 -0.0 3.0 0
-1.935 -2.148 2.621 0
-1.235 -1.355 2.737 0
-1.224 -1.328 2.718 0
-1.215 -1.305 2.699 10
-1.204 -1.278 2.681 11
-1.197 -1.256 2.663 11
-1.19 -1.237 2.645 8
-1.179 -1.213 2.629 8
-1.166 -1.187 2.614 0
-1.144 -1.153 2.603 0
0.0 -0.0 3.0 0
-1.112 -1.1 2.578 0
-1.113 -1.091 2.559 0
-1.095 -1.064 2.548 0
-1.095 -1.055 2.53 0
-1.076 -1.029 2.52 0
-1.057 -1.002 2.512 0
-1.054 -0.991 2.495 0
-1.064 -0.992 2.472 0
-1.027 -0.952 2.473 0
-1.032 -0.948 2.453 0
-1.024 -0.934 2.438 0
-1.025 -0.929 2.42 0
-1.023 -0.92 2.402 0
-0.993 -0.887 2.402 0
-0.99 -0.879 2.385 0
-0.971 -0.856 2.378 0
0.0 -0.0 3.0 0
0.0 -0.0 3.0 0
0.0 -0.0 3.0 0
0.0 -0.0 3.0 0
0.0 -0.0 3.0 0
-1.939 -2.166 2.618 0
-1.209 -1.335 2.74 0
-1.212 -1.323 2.719 0
-1.211 -1.308 2.698 34
-1.205 -1.286 2.679 14
-1.196 -1.263 2.662 13
-1.183 -1.237 2.645 8
-1.175 -1.216 2.628 6
-1.159 -1.188 2.614 0
0.0 -0.0 3.0 0
-1.117 -1.123 2.591 0
-1.102 -1.098 2.578 0
-1.104 -1.089 2.56 0
-1.08 -1.056 2.552 0
-1.072 -1.04 2.537 0
-1.089 -1.048 2.511 0
-1.075 -1.026 2.5 0
-1.042 -0.986 2.498 0
-1.055 -0.991 2.473 0
-1.046 -0.974 2.46 0
-1.039 -0.96 2.446 0
-1.015 -0.932 2.44 0
-1.003 -0.914 2.429 0
-0.987 -0.893 2.42 0
-0.995 -0.894 2.397 0
-0.982 -0.877 2.386 0
-0.965 -0.856 2.378 0
-0.967 -0.852 2.358 0
0.0 -0.0 3.0 0
0.0 -0.0 3.0 0
0.0 -0.0 3.0 0
0.0 -0.0 3.0 0
-1.93 -2.168 2.618 0
-1.208 -1.342 2.739 1
-1.2 -1.318 2.72 0
-1.215 -1.32 2.695 89
-1.204 -1.293 2.678 14
-1.186 -1.261 2.662 10
-1.176 -1.237 2.645 8
-1.166 -1.214 2.629 0
-1.15 -1.186 2.615 0
-1.133 -1.157 2.602 0
-1.108 -1.121 2.592 0
-1.101 -1.104 2.576 0
-1.089 -1.082 2.563 0
0.0 -0.0 3.0 0
-1.066 -1.041 2.537 0
-1.088 -1.053 2.509 0
-1.042 -1.0 2.512 0
-1.071 -1.02 2.48 0
-1.068 -1.009 2.463 0
-1.037 -0.972 2.461 0
-1.017 -0.945 2.454 0
-0.99 -0.914 2.451 0
-1.043 -0.956 2.402 0
-0.989 -0.901 2.415 0
0.0 -0.0 3.0 0
-1.0 -0.898 2.371 0
0.0 -0.0 3.0 0
0.0 -0.0 3.0 0
0.0 -0.0 3.0 0
0.0 -0.0 3.0 0
0.0 -0.0 3.0 0
0.0 -0.0 3.0 0
-1.219 -1.378 2.757 0
-1.212 -1.354 2.737 0
-1.196 -1.321 2.719 0
-1.201 -1.312 2.697 114
-1.2 -1.297 2.677 17
-1.18 -1.262 2.662 8
-1.178 -1.247 2.642 7
-1.151 -1.207 2.631 0
0.0 -0.0 3.0 0
-1.127 -1.158 2.601 0
-1.123 -1.143 2.584 0
-1.117 -1.126 2.568 0
-1.107 -1.107 2.553 0
-1.073 -1.063 2.549 0
-1.079 -1.06 2.528 0
-1.074 -1.046 2.512 0
-1.049 -1.013 2.506 0
-1.054 -1.01 2.485 0
-1.015 -0.965 2.487 0
-1.012 -0.954 2.471 0
-1.027 -0.961 2.445 0
-0.995 -0.925 2.444 0
-0.999 -0.922 2.424 0
-0.994 -0.91 2.409 0
-0.986 -0.897 2.395 0
0.0 -0.0 3.0 0
-0.953 -0.856 2.378 0
0.0 -0.0 3.0 0
0.0 -0.0 3.0 0
0.0 -0.0 3.0 0
0.0 -0.0 3.0 0
0.0 -0.0 3.0 0
-1.223 -1.39 2.755 0
-1.205 -1.355 2.737 0
-1.202 -1.336 2.716 1
