# .PCD v0.7 - Point Cloud Data file format
VERSION 0.7
FIELDS x y z intensity
SIZE 4 4 4 4
TYPE F F F F
COUNT 1 1 1 1
WIDTH 2062
HEIGHT 1
VIEWPOINT 0 0 0 1 0 0 0
POINTS 2062
DATA ascii
9.303 -6.609 0.33 34
9.915 -6.977 0.038 7
9.519 -6.64 0.044 28
9.604 -6.641 -0.097 11
11.59 -7.95 -0.878 2
11.624 -7.912 -1.031 11
11.684 -7.894 -1.197 11
11.665 -7.83 -1.34 20
11.762 -7.843 -1.528 20
11.944 -7.918 -1.758 1
17.364 -11.446 -4.152 6
16.735 -10.975 -4.127 7
16.143 -10.534 -4.105 8
15.598 -10.134 -4.096 10
15.087 -9.758 -4.09 12
14.47 -9.323 -4.025 10
13.904 -8.923 -3.972 18
13.28 -8.49 -3.875 12
12.642 -8.056 -3.76 13
12.191 -7.741 -3.729 12
10.16 -8.415 1.516 32
10.418 -8.508 1.346 3
9.633 -7.755 1.352 23
9.245 -7.344 1.305 27
9.102 -7.133 1.222 13
9.42 -7.286 1.048 27
10.161 -7.764 0.774 0
10.13 -7.645 0.663 4
35.041 -26.142 -5.494 4
33.113 -24.423 -5.409 5
30.821 -22.492 -5.187 5
9.293 -6.71 0.424 8
9.271 -6.63 0.321 36
9.79 -6.934 0.057 0
9.559 -6.711 0.012 21
9.578 -6.666 -0.108 24
11.537 -7.966 -0.885 21
11.584 -7.936 -1.044 27
11.653 -7.924 -1.213 16
11.681 -7.891 -1.374 30
11.736 -7.876 -1.547 21
11.837 -7.897 -1.745 22
17.272 -11.457 -4.159 7
16.647 -10.987 -4.135 7
16.061 -10.546 -4.113 9
15.513 -10.142 -4.101 11
15.02 -9.774 -4.101 17
14.404 -9.337 -4.036 12
13.843 -8.937 -3.983 18
13.202 -8.491 -3.875 14
12.565 -8.054 -3.758 15
12.131 -7.748 -3.735 12
10.093 -8.409 1.517 16
10.592 -8.701 1.309 23
9.899 -8.018 1.296 20
9.158 -7.319 1.31 26
9.263 -7.304 1.179 22
9.403 -7.319 1.039 32
10.165 -7.815 0.759 0
10.086 -7.66 0.658 18
34.834 -26.153 -5.498 5
32.841 -24.377 -5.394 5
30.583 -22.462 -5.176 5
9.286 -6.749 0.409 27
10.073 -7.25 0.071 17
25.585 -18.238 -4.742 5
9.612 -6.792 -0.024 12
9.501 -6.655 -0.103 32
11.518 -8.004 -0.904 21
11.565 -7.975 -1.063 13
11.659 -7.98 -1.243 1
11.678 -7.941 -1.402 0
11.727 -7.921 -1.573 20
11.799 -7.923 -1.76 20
17.176 -11.466 -4.165 7
16.563 -11.001 -4.144 7
15.978 -10.557 -4.121 7
15.429 -10.149 -4.107 21
14.946 -9.787 -4.11 19
14.336 -9.349 -4.045 11
13.791 -8.957 -3.998 14
13.108 -8.48 -3.867 10
12.498 -8.058 -3.762 16
12.074 -7.757 -3.743 13
9.666 -8.1 1.572 17
10.159 -8.395 1.368 30
10.259 -8.36 1.223 25
9.518 -7.653 1.233 36
9.225 -7.319 1.175 20
9.362 -7.332 1.035 22
9.408 -7.278 0.913 20
10.093 -7.714 0.642 6
34.643 -26.174 -5.505 4
32.582 -24.34 -5.381 5
30.361 -22.442 -5.168 5
10.239 -7.49 0.125 21
10.351 -7.498 -0.03 30
11.168 -8.013 -0.401 14
9.538 -6.784 -0.02 22
9.468 -6.676 -0.113 18
11.522 -8.059 -0.931 2
20.878 -14.49 -4.383 5
20.026 -13.795 -4.335 5
19.22 -13.152 -4.29 6
11.739 -7.98 -1.607 15
11.77 -7.954 -1.779 26
11.877 -7.979 -1.986 19
16.476 -11.012 -4.151 9
15.902 -10.573 -4.131 9
15.351 -10.161 -4.115 21
14.87 -9.796 -4.117 16
14.27 -9.363 -4.056 13
13.73 -8.971 -4.009 14
13.031 -8.481 -3.867 10
12.435 -8.064 -3.766 18
12.021 -7.767 -3.752 13
9.606 -8.098 1.572 22
9.933 -8.257 1.395 27
10.028 -8.22 1.253 33
9.372 -7.58 1.25 31
9.193 -7.337 1.171 26
9.345 -7.363 1.027 21
9.4 -7.317 0.902 0
10.087 -7.757 0.628 0
34.451 -26.195 -5.511 4
32.33 -24.306 -5.369 5
10.845 -8.067 0.064 0
10.359 -7.625 0.073 14
10.404 -7.586 -0.065 18
11.125 -8.034 -0.41 19
9.515 -6.811 -0.033 29
9.439 -6.698 -0.123 0
21.725 -15.295 -4.46 5
20.758 -14.499 -4.388 5
19.917 -13.81 -4.343 5
19.12 -13.168 -4.299 6
11.742 -8.033 -1.638 0
11.757 -7.996 -1.804 27
11.826 -7.995 -1.996 24
16.389 -11.023 -4.158 7
15.822 -10.586 -4.14 9
15.277 -10.174 -4.124 19
14.809 -9.816 -4.132 18
14.213 -9.383 -4.07 11
13.657 -8.977 -4.013 18
12.95 -8.477 -3.865 9
12.383 -8.078 -3.778 16
11.964 -7.775 -3.758 13
9.57 -8.114 1.569 26
9.784 -8.181 1.41 14
9.575 -7.896 1.322 32
9.385 -7.638 1.237 20
9.161 -7.357 1.166 25
9.334 -7.401 1.017 19
9.331 -7.308 0.904 33
10.18 -7.878 0.591 12
10.593 -8.106 0.366 0
10.697 -8.093 0.213 0
10.796 -8.083 0.058 20
10.593 -7.849 -0.013 37
10.489 -7.696 -0.109 58
11.098 -8.066 -0.424 0
9.507 -6.85 -0.05 32
22.633 -16.165 -4.538 8
21.59 -15.298 -4.461 5
20.644 -14.514 -4.395 5
19.806 -13.821 -4.349 4
19.001 -13.17 -4.3 6
18.248 -12.564 -4.254 6
11.762 -8.05 -1.837 13
11.809 -8.035 -2.021 20
11.907 -8.059 -2.233 19
15.737 -10.594 -4.146 9
15.196 -10.182 -4.129 13
14.704 -9.806 -4.125 18
14.145 -9.394 -4.079 14
13.592 -8.988 -4.022 15
12.872 -8.477 -3.864 10
12.322 -8.085 -3.784 14
11.91 -7.785 -3.767 11
9.6 -8.188 1.556 22
9.781 -8.227 1.401 18
9.384 -7.784 1.345 23
9.295 -7.61 1.243 29
9.117 -7.367 1.163 2
9.305 -7.423 1.011 26
9.289 -7.321 0.901 55
10.158 -7.91 0.582 26
10.536 -8.113 0.364 24
10.655 -8.113 0.207 22
10.748 -8.098 0.052 22
10.848 -8.09 -0.105 12
26.3 -19.424 -4.848 5
24.908 -18.221 -4.734 6
9.502 -6.891 -0.068 25
22.48 -16.159 -4.535 7
21.458 -15.303 -4.464 5
20.514 -14.515 -4.396 5
19.684 -13.825 -4.351 5
18.897 -13.183 -4.307 6
18.152 -12.578 -4.262 6
17.461 -12.027 -4.226 6
11.755 -8.048 -2.029 27
11.831 -8.057 -2.232 24
15.658 -10.607 -4.154 9
15.121 -10.195 -4.139 11
14.619 -9.809 -4.126 17
14.082 -9.408 -4.09 26
13.51 -8.987 -4.022 22
12.795 -8.475 -3.863 9
12.261 -8.092 -3.79 15
11.857 -7.794 -3.775 13
9.64 -8.269 1.542 22
9.711 -8.216 1.403 24
9.281 -7.746 1.354 26
9.311 -7.67 1.229 20
9.272 -7.538 1.121 0
9.795 -7.863 0.893 34
9.17 -7.272 0.915 30
9.192 -7.203 0.798 3
10.088 -7.816 0.46 31
10.622 -8.139 0.197 26
10.73 -8.137 0.039 4
27.672 -20.767 -4.972 5
26.113 -19.41 -4.842 6
24.743 -18.217 -4.733 7
9.46 -6.904 -0.074 26
22.339 -16.162 -4.537 7
21.32 -15.303 -4.464 5
20.394 -14.524 -4.4 5
19.576 -13.837 -4.357 4
18.791 -13.193 -4.313 6
18.048 -12.586 -4.267 6
17.368 -12.039 -4.234 6
11.794 -8.127 -2.078 19
11.823 -8.102 -2.262 35
11.889 -8.104 -2.466 15
15.043 -10.205 -4.145 19
14.545 -9.819 -4.134 15
14.007 -9.415 -4.095 19
13.431 -8.988 -4.022 23
12.711 -8.47 -3.859 13
12.188 -8.091 -3.789 24
11.794 -7.798 -3.779 14
10.35 -8.93 1.425 8
9.738 -8.288 1.389 22
9.264 -7.777 1.347 24
9.294 -7.702 1.222 28
0.0 -0.0 3.0 0
9.875 -7.975 0.863 20
9.181 -7.326 0.899 30
10.076 -7.945 0.571 17
10.047 -7.834 0.454 22
9.919 -7.649 0.366 6
29.253 -22.323 -5.125 5
27.487 -20.76 -4.969 6
25.951 -19.413 -4.843 5
24.575 -18.21 -4.73 6
9.436 -6.931 -0.086 20
22.208 -16.171 -4.541 7
21.204 -15.318 -4.471 5
20.281 -14.536 -4.407 5
19.468 -13.849 -4.363 5
18.681 -13.2 -4.317 5
17.956 -12.602 -4.276 6
17.284 -12.057 -4.245 6
11.808 -8.187 -2.116 3
11.796 -8.135 -2.283 25
11.841 -8.122 -2.478 17
14.975 -10.221 -4.157 22
14.475 -9.831 -4.143 16
11.142 -7.535 -2.678 2
13.345 -8.984 -4.019 16
12.625 -8.462 -3.852 15
12.146 -8.11 -3.805 17
11.747 -7.812 -3.79 12
10.023 -8.699 1.466 28
9.704 -8.308 1.385 27
9.304 -7.857 1.33 21
9.316 -7.766 1.207 38
9.991 -8.222 0.95 19
9.847 -8.002 0.856 22
9.778 -7.851 0.749 26
10.042 -7.967 0.564 0
9.96 -7.815 0.461 25
9.848 -7.642 0.369 30
29.033 -22.297 -5.115 5
27.287 -20.741 -4.962 6
25.767 -19.4 -4.838 5
24.41 -18.204 -4.727 6
9.431 -6.972 -0.104 18
22.068 -16.173 -4.542 7
21.063 -15.314 -4.469 5
20.164 -14.546 -4.411 5
19.356 -13.858 -4.368 5
18.585 -13.215 -4.325 6
17.855 -12.611 -4.281 6
17.184 -12.064 -4.249 6
16.566 -11.558 -4.222 7
11.809 -8.195 -2.322 18
11.814 -8.153 -2.499 28
11.896 -8.17 -2.72 15
14.402 -9.842 -4.15 16
11.056 -7.522 -2.668 2
13.263 -8.982 -4.018 17
12.557 -8.467 -3.856 15
12.088 -8.119 -3.812 21
11.69 -7.819 -3.797 14
10.043 -8.766 1.454 26
9.715 -8.367 1.374 19
9.262 -7.869 1.327 23
9.21 -7.724 1.217 22
9.585 -7.935 1.021 1
9.88 -8.078 0.836 9
9.771 -7.894 0.736 25
34.267 -27.36 -5.365 15
9.888 -7.808 0.463 17
9.832 -7.678 0.356 29
28.829 -22.282 -5.11 6
27.103 -20.733 -4.959 5
25.584 -19.385 -4.832 5
24.249 -18.2 -4.726 6
9.45 -7.032 -0.131 10
21.928 -16.174 -4.542 7
20.932 -15.317 -4.471 5
20.045 -14.552 -4.415 5
19.242 -13.865 -4.372 5
18.472 -13.22 -4.328 5
17.766 -12.628 -4.291 6
17.094 -12.076 -4.256 6
16.474 -11.567 -4.228 7
11.81 -8.247 -2.356 1
11.796 -8.191 -2.525 21
11.835 -8.178 -2.727 32
11.174 -7.682 -2.581 2
10.973 -7.511 -2.66 2
11.178 -7.615 -2.95 0
12.447 -8.442 -3.836 55
12.024 -8.123 -3.816 20
11.637 -7.828 -3.805 16
9.948 -8.735 1.46 20
9.747 -8.444 1.359 8
9.347 -7.989 1.302 35
9.093 -7.672 1.229 19
9.472 -7.89 1.033 0
9.985 -8.214 0.799 13
9.746 -7.923 0.728 27
9.705 -7.798 0.616 23
9.823 -7.805 0.464 23
9.782 -7.688 0.353 29
28.62 -22.261 -5.102 6
26.907 -20.715 -4.952 5
25.416 -19.381 -4.83 6
24.094 -18.2 -4.726 7
22.877 -17.131 -4.627 6
21.794 -16.179 -4.544 7
20.81 -15.326 -4.475 5
19.925 -14.558 -4.418 6
19.134 -13.875 -4.378 5
18.363 -13.225 -4.331 5
17.665 -12.636 -4.296 6
17.008 -12.092 -4.265 6
16.392 -11.582 -4.237 6
15.815 -11.112 -4.216 7
11.785 -8.234 -2.554 17
11.808 -8.21 -2.749 43
11.124 -7.695 -2.591 5
10.9 -7.506 -2.656 3
11.11 -7.614 -2.949 2
12.409 -8.466 -3.856 35
11.967 -8.131 -3.823 20
11.574 -7.831 -3.807 22
9.836 -8.687 1.468 24
9.889 -8.617 1.325 22
9.35 -8.038 1.291 25
9.054 -7.686 1.226 28
10.444 -8.753 0.818 7
9.787 -8.1 0.83 26
9.791 -8.009 0.704 19
9.65 -7.801 0.615 27
9.791 -7.829 0.456 24
9.779 -7.733 0.337 11
24.858 -19.457 -4.082 0
26.712 -20.695 -4.944 6
25.243 -19.372 -4.827 6
23.933 -18.194 -4.723 6
22.728 -17.129 -4.626 6
21.661 -16.183 -4.546 7
20.683 -15.329 -4.477 5
19.812 -14.568 -4.423 5
19.023 -13.883 -4.382 5
18.27 -13.242 -4.34 5
17.567 -12.646 -4.301 6
16.915 -12.101 -4.271 6
16.304 -11.592 -4.244 9
15.735 -11.125 -4.225 6
11.8 -8.296 -2.596 2
11.775 -8.237 -2.767 33
11.065 -7.701 -2.595 4
10.821 -7.496 -2.649 4
11.024 -7.601 -2.938 2
12.329 -8.461 -3.852 37
11.912 -8.142 -3.832 24
11.53 -7.846 -3.82 15
9.849 -8.749 1.457 22
9.753 -8.55 1.338 26
9.589 -8.293 1.237 31
9.043 -7.722 1.217 31
10.398 -8.768 0.814 0
9.737 -8.108 0.827 24
35.589 -29.292 -5.399 28
9.622 -7.827 0.607 28
9.735 -7.833 0.455 28
30.156 -23.999 -5.263 4
24.658 -19.424 -4.07 3
24.834 -19.364 -4.433 19
25.063 -19.358 -4.821 6
23.776 -18.191 -4.721 6
22.58 -17.126 -4.625 6
21.525 -16.185 -4.547 7
20.555 -15.333 -4.478 5
19.69 -14.572 -4.425 5
18.906 -13.886 -4.383 5
18.164 -13.25 -4.344 6
17.476 -12.66 -4.309 6
16.828 -12.115 -4.279 6
16.225 -11.609 -4.254 7
15.651 -11.135 -4.231 6
15.11 -10.69 -4.21 10
11.778 -8.29 -2.804 19
11.012 -7.711 -2.602 4
10.75 -7.492 -2.646 6
10.939 -7.586 -2.927 2
11.173 -7.713 -3.246 2
11.849 -8.145 -3.835 27
11.479 -7.856 -3.829 12
9.788 -8.745 1.458 23
9.555 -8.425 1.362 23
9.642 -8.389 1.217 28
9.055 -7.779 1.204 24
10.124 -8.588 0.859 6
9.687 -8.117 0.825 30
35.299 -29.233 -5.383 26
9.633 -7.885 0.589 24
9.786 -7.923 0.426 1
29.934 -23.972 -5.254 4
24.481 -19.406 -4.063 30
24.754 -19.424 -4.456 2
24.897 -19.352 -4.819 6
23.625 -18.19 -4.721 6
22.441 -17.13 -4.627 7
21.389 -16.185 -4.547 7
20.434 -15.34 -4.482 5
19.571 -14.576 -4.427 5
18.802 -13.897 -4.389 5
18.061 -13.259 -4.349 6
17.375 -12.667 -4.313 6
16.738 -12.127 -4.287 5
16.143 -11.623 -4.263 7
15.574 -11.149 -4.24 8
15.041 -10.706 -4.221 10
11.786 -8.346 -2.844 5
10.957 -7.718 -2.608 4
10.671 -7.482 -2.638 5
10.853 -7.572 -2.916 2
11.093 -7.703 -3.238 2
11.776 -8.143 -3.833 28
11.423 -7.863 -3.835 13
9.783 -8.793 1.45 18
9.589 -8.506 1.347 22
9.545 -8.354 1.224 20
9.121 -7.883 1.18 32
9.908 -8.457 0.891 11
9.695 -8.173 0.81 12
10.104 -8.419 0.586 4
9.605 -7.911 0.581 15
31.866 -25.962 -5.436 10
24.582 -19.81 -3.821 21
24.325 -19.405 -4.063 32
24.554 -19.389 -4.443 1
24.73 -19.345 -4.816 6
23.465 -18.183 -4.718 7
22.3 -17.131 -4.627 6
21.253 -16.186 -4.548 7
20.304 -15.34 -4.482 5
19.462 -14.588 -4.433 5
18.697 -13.908 -4.395 5
17.959 -13.267 -4.354 5
17.284 -12.68 -4.321 6
16.649 -12.138 -4.293 6
16.055 -11.631 -4.268 6
15.49 -11.159 -4.246 6
14.962 -10.716 -4.228 9
14.46 -10.303 -4.214 10
10.901 -7.725 -2.613 4
10.592 -7.471 -2.63 4
10.777 -7.564 -2.909 2
11.004 -7.686 -3.224 2
11.692 -8.132 -3.823 10
11.375 -7.875 -3.846 16
9.715 -8.782 1.451 22
9.546 -8.517 1.344 21
9.359 -8.241 1.248 24
9.123 -7.933 1.168 29
9.813 -8.426 0.899 19
9.624 -8.163 0.813 25
34.859 -29.227 -5.381 18
9.585 -7.944 0.571 29
31.627 -25.929 -5.425 12
24.372 -19.764 -3.805 5
24.188 -19.417 -4.067 38
24.416 -19.403 -4.448 4
24.552 -19.328 -4.809 6
23.314 -18.182 -4.718 6
22.155 -17.129 -4.626 6
21.123 -16.189 -4.549 7
20.183 -15.346 -4.485 5
19.349 -14.596 -4.437 6
18.587 -13.914 -4.398 5
17.854 -13.274 -4.358 5
17.186 -12.689 -4.326 6
16.559 -12.148 -4.299 6
15.973 -11.645 -4.276 6
15.413 -11.172 -4.255 7
14.883 -10.725 -4.234 9
14.382 -10.31 -4.219 9
10.842 -7.731 -2.617 3
10.519 -7.465 -2.625 4
10.692 -7.549 -2.898 2
10.916 -7.67 -3.211 2
11.171 -7.815 -3.557 4
11.318 -7.881 -3.851 13
9.872 -8.976 1.417 10
9.341 -8.383 1.371 25
9.26 -8.202 1.257 20
9.102 -7.962 1.162 30
9.981 -8.623 0.85 15
9.568 -8.166 0.812 30
9.768 -8.24 0.637 19
9.722 -8.108 0.521 18
9.766 -8.056 0.382 11
24.131 -19.693 -3.781 4
24.05 -19.429 -4.071 42
24.266 -19.406 -4.449 2
24.386 -19.32 -4.806 6
23.158 -18.175 -4.715 6
21.999 -17.116 -4.621 8
21.0 -16.198 -4.553 8
20.062 -15.352 -4.487 5
19.24 -14.606 -4.442 5
18.489 -13.929 -4.406 4
17.751 -13.281 -4.362 5
17.092 -12.699 -4.331 6
16.469 -12.159 -4.306 6
15.889 -11.655 -4.283 6
15.336 -11.185 -4.264 6
14.808 -10.737 -4.242 9
11.153 -8.044 -2.633 4
10.78 -7.733 -2.619 3
10.459 -7.466 -2.626 4
10.622 -7.545 -2.895 2
10.842 -7.664 -3.206 2
11.079 -7.796 -3.542 4
11.18 -7.83 -3.807 14
9.669 -8.843 1.441 26
9.292 -8.388 1.369 19
9.235 -8.228 1.251 25
9.369 -8.245 1.097 28
9.773 -8.493 0.882 22
9.627 -8.266 0.785 55
9.712 -8.244 0.636 29
9.675 -8.119 0.518 28
9.707 -8.057 0.382 23
23.912 -19.637 -3.762 5
23.907 -19.435 -4.074 40
24.147 -19.433 -4.459 1
24.218 -19.308 -4.801 6
23.001 -18.167 -4.712 6
21.846 -17.105 -4.616 12
20.865 -16.197 -4.553 7
19.951 -15.364 -4.494 5
19.124 -14.61 -4.444 6
18.372 -13.929 -4.406 5
17.655 -13.293 -4.368 5
17.007 -12.715 -4.341 6
16.386 -12.174 -4.315 6
15.804 -11.666 -4.29 7
15.253 -11.194 -4.27 6
14.732 -10.748 -4.25 9
11.105 -8.059 -2.643 5
10.734 -7.747 -2.629 3
10.401 -7.47 -2.629 5
10.537 -7.529 -2.883 2
10.757 -7.648 -3.194 2
10.997 -7.783 -3.531 3
11.106 -7.823 -3.8 11
9.582 -8.814 1.446 20
9.279 -8.426 1.362 23
9.177 -8.226 1.252 23
9.296 -8.229 1.1 29
9.764 -8.538 0.871 24
9.583 -8.278 0.782 16
9.688 -8.275 0.627 30
9.634 -8.135 0.513 28
9.656 -8.066 0.379 32
23.751 -19.627 -3.758 10
23.764 -19.44 -4.076 41
23.97 -19.412 -4.452 43
24.059 -19.303 -4.799 6
22.855 -18.166 -4.711 6
21.708 -17.106 -4.616 23
20.739 -16.201 -4.555 7
19.83 -15.369 -4.496 5
19.012 -14.617 -4.448 5
18.268 -13.938 -4.411 5
17.56 -13.304 -4.375 5
16.907 -12.72 -4.344 5
16.297 -12.183 -4.32 6
15.719 -11.676 -4.296 6
15.173 -11.204 -4.276 6
14.662 -10.763 -4.26 9
11.042 -8.062 -2.645 4
10.675 -7.751 -2.632 3
10.355 -7.482 -2.638 5
10.47 -7.526 -2.88 3
10.675 -7.635 -3.183 2
10.903 -7.761 -3.513 3
11.036 -7.818 -3.796 9
9.524 -8.813 1.446 28
9.236 -8.436 1.36 20
9.155 -8.255 1.245 24
9.259 -8.246 1.096 29
9.782 -8.605 0.855 25
9.485 -8.244 0.791 23
9.656 -8.298 0.621 22
9.638 -8.188 0.497 30
9.672 -8.13 0.359 27
23.594 -19.619 -3.755 21
23.618 -19.444 -4.077 42
23.832 -19.424 -4.456 47
23.888 -19.287 -4.793 8
22.705 -18.162 -4.709 6
21.571 -17.106 -4.616 33
20.61 -16.203 -4.556 7
19.713 -15.375 -4.499 5
18.906 -14.629 -4.454 5
18.171 -13.952 -4.418 5
17.458 -13.311 -4.378 6
16.816 -12.732 -4.351 6
16.21 -12.195 -4.327 6
15.641 -11.69 -4.305 6
15.096 -11.216 -4.284 6
14.584 -10.771 -4.265 9
10.986 -8.07 -2.651 4
10.622 -7.76 -2.638 3
10.304 -7.489 -2.644 5
10.392 -7.514 -2.871 3
10.594 -7.621 -3.172 2
10.821 -7.748 -3.502 3
10.98 -7.823 -3.801 9
9.503 -8.845 1.44 29
8.968 -8.24 1.398 16
9.124 -8.276 1.241 29
9.295 -8.329 1.077 25
9.72 -8.602 0.855 21
9.43 -8.246 0.791 25
9.368 -8.099 0.678 26
9.621 -8.224 0.486 21
9.607 -8.125 0.36 33
23.445 -19.618 -3.755 28
23.482 -19.453 -4.08 42
23.701 -19.439 -4.462 48
23.729 -19.281 -4.79 6
22.553 -18.155 -4.706 6
21.442 -17.112 -4.619 36
20.485 -16.207 -4.557 7
19.596 -15.381 -4.502 5
18.789 -14.63 -4.454 5
18.055 -13.951 -4.418 5
17.365 -13.323 -4.385 5
16.731 -12.747 -4.359 6
16.124 -12.206 -4.334 6
15.553 -11.697 -4.309 7
15.016 -11.227 -4.291 6
14.508 -10.782 -4.272 9
10.932 -8.079 -2.657 3
10.573 -7.771 -2.646 4
10.249 -7.494 -2.647 4
10.323 -7.508 -2.866 3
10.527 -7.618 -3.169 2
10.745 -7.738 -3.493 3
10.926 -7.83 -3.807 8
9.492 -8.886 1.433 24
8.888 -8.215 1.403 23
9.047 -8.255 1.245 21
9.287 -8.371 1.067 13
9.546 -8.5 0.881 26
9.333 -8.211 0.8 27
9.259 -8.055 0.69 28
10.031 -8.628 0.362 21
9.741 -8.29 0.306 21
23.297 -19.617 -3.755 32
23.334 -19.452 -4.08 45
23.567 -19.451 -4.467 45
23.577 -19.279 -4.789 6
22.416 -18.159 -4.708 6
21.302 -17.108 -4.617 38
20.362 -16.213 -4.56 8
19.479 -15.386 -4.504 5
18.689 -14.645 -4.462 5
17.957 -13.963 -4.425 5
17.263 -13.329 -4.388 6
16.631 -12.75 -4.361 6
16.038 -12.217 -4.341 6
15.478 -11.713 -4.319 6
14.942 -11.24 -4.299 8
14.436 -10.794 -4.281 9
10.869 -8.083 -2.659 3
10.52 -7.779 -2.652 4
10.2 -7.503 -2.654 4
10.25 -7.501 -2.86 2
10.448 -7.605 -3.159 3
10.657 -7.72 -3.478 3
10.876 -7.84 -3.815 9
9.517 -8.962 1.42 19
8.863 -8.24 1.398 18
9.007 -8.268 1.243 28
9.264 -8.401 1.06 2
9.566 -8.569 0.863 22
9.313 -8.244 0.791 25
9.234 -8.082 0.682 27
9.645 -8.347 0.448 1
9.682 -8.291 0.306 16
23.155 -19.619 -3.755 38
23.2 -19.462 -4.084 44
23.43 -19.46 -4.47 46
23.413 -19.266 -4.784 6
22.267 -18.153 -4.705 6
21.175 -17.114 -4.62 39
20.237 -16.216 -4.561 7
19.365 -15.394 -4.508 5
18.571 -14.644 -4.462 5
17.857 -13.973 -4.43 5
17.168 -13.339 -4.394 5
16.546 -12.765 -4.37 6
15.958 -12.232 -4.35 6
15.39 -11.719 -4.323 7
14.859 -11.247 -4.304 6
14.357 -10.801 -4.286 9
10.81 -8.087 -2.663 3
10.464 -7.785 -2.656 4
10.146 -7.509 -2.658 4
10.169 -7.486 -2.848 2
10.37 -7.593 -3.149 2
10.578 -7.708 -3.468 3
10.809 -7.836 -3.812 18
9.468 -8.967 1.419 1
8.897 -8.321 1.383 2
9.034 -8.343 1.227 28
9.315 -8.498 1.038 10
9.537 -8.595 0.857 20
9.287 -8.271 0.784 28
9.164 -8.07 0.686 24
30.95 -26.953 -5.24 37
29.696 -25.588 -5.314 5
23.02 -19.627 -3.758 38
23.055 -19.462 -4.084 46
23.293 -19.468 -4.473 45
23.264 -19.264 -4.783 7
22.124 -18.151 -4.704 6
21.047 -17.118 -4.622 38
20.109 -16.215 -4.561 7
19.248 -15.398 -4.51 5
18.469 -14.656 -4.468 5
17.747 -13.975 -4.431 5
17.072 -13.349 -4.4 6
16.453 -12.773 -4.375 5
15.866 -12.238 -4.353 6
15.315 -11.735 -4.333 6
14.785 -11.261 -4.313 8
14.285 -10.813 -4.293 9
10.753 -8.095 -2.668 3
10.412 -7.792 -2.662 3
10.1 -7.519 -2.666 4
10.1 -7.479 -2.843 2
10.298 -7.584 -3.142 2
10.5 -7.696 -3.458 3
10.733 -7.826 -3.803 8
8.996 -8.57 1.489 6
8.915 -8.387 1.37 18
9.0 -8.36 1.223 29
9.271 -8.508 1.036 1
9.647 -8.747 0.819 20
9.316 -8.348 0.763 26
9.229 -8.178 0.655 21
30.76 -26.953 -5.24 18
29.471 -25.552 -5.302 5
22.896 -19.643 -3.764 29
22.922 -19.472 -4.087 46
23.16 -19.479 -4.477 46
23.107 -19.256 -4.78 6
21.976 -18.143 -4.701 6
20.922 -17.126 -4.625 33
19.987 -16.219 -4.563 7
19.129 -15.399 -4.511 5
18.355 -14.657 -4.468 5
17.65 -13.986 -4.437 5
16.98 -13.36 -4.406 6
16.362 -12.783 -4.38 6
15.786 -12.252 -4.362 6
15.228 -11.74 -4.336 6
14.708 -11.272 -4.32 8
14.213 -10.825 -4.301 9
10.709 -8.11 -2.679 4
10.359 -7.8 -2.667 3
10.045 -7.524 -2.669 4
10.02 -7.464 -2.831 2
10.226 -7.576 -3.135 2
10.43 -7.69 -3.453 3
10.645 -7.807 -3.787 12
8.959 -8.585 1.486 6
8.944 -8.464 1.355 19
8.986 -8.397 1.215 28
0.0 -0.0 3.0 0
9.635 -8.788 0.809 20
9.618 -8.671 0.677 28
9.3 -8.291 0.623 26
30.559 -26.942 -5.237 20
29.238 -25.508 -5.288 6
22.84 -19.717 -3.789 1
22.796 -19.485 -4.092 46
23.026 -19.488 -4.481 47
22.947 -19.243 -4.775 6
21.837 -18.143 -4.701 6
20.801 -17.134 -4.628 23
19.868 -16.225 -4.566 7
16.541 -13.4 -3.536 1
18.25 -14.666 -4.473 5
17.547 -13.992 -4.44 5
16.882 -13.367 -4.409 5
16.269 -12.789 -4.384 6
15.703 -12.264 -4.369 6
15.143 -11.749 -4.341 7
14.629 -11.28 -4.325 8
14.138 -10.834 -4.307 9
10.658 -8.121 -2.686 4
10.307 -7.808 -2.673 4
9.991 -7.528 -2.673 4
9.942 -7.45 -2.821 2
10.142 -7.559 -3.121 2
10.352 -7.676 -3.441 3
10.573 -7.799 -3.779 9
8.899 -8.578 1.487 22
8.879 -8.451 1.357 27
8.981 -8.442 1.206 27
9.679 -8.99 0.924 1
9.593 -8.803 0.805 29
9.494 -8.612 0.692 21
9.244 -8.293 0.622 31
30.322 -26.899 -5.224 18
29.025 -25.48 -5.279 6
0.0 -0.0 3.0 0
22.657 -19.489 -4.093 50
22.893 -19.498 -4.485 47
22.796 -19.237 -4.772 6
21.698 -18.141 -4.7 6
20.68 -17.142 -4.632 10
19.744 -16.226 -4.566 7
16.42 -13.386 -3.529 23
18.147 -14.676 -4.478 5
17.45 -14.003 -4.445 5
16.787 -13.375 -4.414 5
16.181 -12.801 -4.39 6
15.615 -12.271 -4.373 6
15.071 -11.764 -4.351 6
14.552 -11.29 -4.332 6
14.068 -10.847 -4.316 9
10.601 -8.127 -2.691 4
10.257 -7.817 -2.68 4
9.945 -7.539 -2.681 4
9.877 -7.445 -2.817 2
10.076 -7.554 -3.117 2
10.268 -7.659 -3.427 3
10.491 -7.784 -3.766 6
8.879 -8.609 1.482 27
8.885 -8.508 1.346 22
9.036 -8.544 1.184 20
9.651 -9.018 0.918 3
9.617 -8.88 0.786 25
9.537 -8.703 0.668 32
9.218 -8.32 0.614 26
30.113 -26.879 -5.218 19
28.799 -25.438 -5.265 5
0.0 -0.0 3.0 0
22.528 -19.499 -4.097 49
22.766 -19.511 -4.49 47
22.648 -19.233 -4.771 7
21.553 -18.134 -4.698 6
20.541 -17.135 -4.629 7
16.257 -13.444 -3.269 6
16.305 -13.377 -3.524 29
16.465 -13.4 -3.828 15
17.344 -14.006 -4.447 5
16.697 -13.388 -4.421 6
16.091 -12.809 -4.395 6
15.532 -12.283 -4.38 6
14.987 -11.772 -4.356 6
14.472 -11.298 -4.337 8
13.993 -10.855 -4.322 9
10.554 -8.14 -2.7 4
10.211 -7.829 -2.688 4
9.894 -7.545 -2.685 4
9.808 -7.438 -2.811 1
10.001 -7.542 -3.108 2
10.199 -7.652 -3.421 3
10.416 -7.773 -3.757 5
8.876 -8.657 1.474 12
8.794 -8.47 1.354 22
9.041 -8.601 1.172 27
0.0 -0.0 3.0 0
9.546 -8.868 0.789 28
9.495 -8.718 0.664 32
9.194 -8.349 0.606 1
29.918 -26.87 -5.215 20
28.579 -25.401 -5.253 5
0.0 -0.0 3.0 0
22.398 -19.508 -4.1 48
22.636 -19.522 -4.494 48
22.501 -19.228 -4.769 7
21.421 -18.137 -4.699 6
20.4 -17.125 -4.624 6
16.16 -13.449 -3.271 35
16.19 -13.367 -3.519 32
16.321 -13.367 -3.811 23
17.244 -14.013 -4.451 5
16.597 -13.391 -4.423 5
16.001 -12.818 -4.4 5
15.443 -12.289 -4.384 6
14.909 -11.783 -4.363 6
14.402 -11.312 -4.346 8
13.921 -10.866 -4.329 9
10.497 -8.146 -2.704 4
10.153 -7.832 -2.69 4
9.848 -7.555 -2.693 4
9.737 -7.428 -2.803 2
9.927 -7.53 -3.098 2
10.119 -7.636 -3.408 3
10.338 -7.759 -3.745 4
8.771 -8.604 1.483 20
8.768 -8.495 1.349 8
9.024 -8.635 1.164 23
9.564 -9.044 0.912 5
9.568 -8.942 0.771 14
9.511 -8.786 0.646 22
9.138 -8.349 0.606 4
29.718 -26.856 -5.211 18
28.368 -25.37 -5.243 5
23.184 -20.519 -4.065 1
22.272 -19.52 -4.105 45
22.506 -19.531 -4.497 46
22.351 -19.22 -4.765 7
21.279 -18.131 -4.696 6
20.282 -17.133 -4.628 6
16.055 -13.446 -3.27 33
16.082 -13.361 -3.517 33
16.183 -13.337 -3.796 24
17.144 -14.02 -4.455 3
16.505 -13.401 -4.428 5
15.92 -12.832 -4.408 6
15.364 -12.301 -4.391 6
14.825 -11.79 -4.367 6
14.322 -11.319 -4.351 7
13.849 -10.876 -4.336 9
10.444 -8.154 -2.71 4
10.106 -7.843 -2.698 4
9.803 -7.565 -2.701 4
9.695 -7.44 -2.813 4
9.855 -7.52 -3.09 2
10.05 -7.629 -3.401 2
10.26 -7.745 -3.733 4
8.743 -8.627 1.479 24
8.765 -8.543 1.339 2
8.997 -8.661 1.159 27
9.582 -9.116 0.895 12
9.419 -8.856 0.792 18
9.495 -8.825 0.635 26
9.861 -9.064 0.401 6
29.498 -26.822 -5.2 11
28.154 -25.336 -5.232 5
23.18 -20.644 -4.108 1
22.143 -19.529 -4.108 40
22.382 -19.547 -4.503 45
22.198 -19.209 -4.761 7
21.144 -18.129 -4.695 6
20.15 -17.129 -4.626 6
15.95 -13.442 -3.268 35
15.976 -13.358 -3.515 33
16.054 -13.314 -3.784 27
16.346 -13.451 -4.152 1
16.413 -13.41 -4.433 5
15.83 -12.84 -4.413 6
15.281 -12.312 -4.398 6
14.75 -11.803 -4.376 6
14.249 -11.332 -4.359 8
13.774 -10.884 -4.341 9
10.393 -8.164 -2.717 4
10.059 -7.855 -2.707 4
9.754 -7.573 -2.707 4
9.687 -7.478 -2.842 4
9.79 -7.514 -3.085 2
9.975 -7.616 -3.391 3
10.185 -7.734 -3.723 3
8.712 -8.646 1.475 7
34.341 -33.668 -3.544 11
9.025 -8.74 1.142 4
9.628 -9.215 0.872 22
9.409 -8.9 0.781 22
9.401 -8.79 0.645 19
9.762 -9.03 0.411 6
29.23 -26.742 -5.176 8
27.93 -25.29 -5.217 5
0.0 -0.0 3.0 0
21.988 -19.514 -4.102 44
22.267 -19.568 -4.511 4
22.051 -19.203 -4.758 6
21.01 -18.127 -4.695 6
20.029 -17.135 -4.629 7
15.842 -13.435 -3.265 36
15.865 -13.349 -3.511 35
15.934 -13.298 -3.776 30
16.207 -13.421 -4.136 1
16.324 -13.421 -4.439 4
15.737 -12.844 -4.416 6
15.199 -12.322 -4.404 6
14.666 -11.809 -4.379 6
14.178 -11.344 -4.367 8
13.705 -10.895 -4.349 8
10.34 -8.172 -2.722 4
10.01 -7.863 -2.712 4
9.708 -7.583 -2.714 8
9.698 -7.531 -2.884 4
9.716 -7.502 -3.075 2
9.898 -7.602 -3.379 3
10.113 -7.724 -3.714 3
8.776 -8.761 1.455 15
51.727 -51.013 -6.916 9
47.526 -46.299 -6.841 18
9.599 -9.243 0.866 17
9.367 -8.914 0.778 25
9.479 -8.918 0.61 33
9.728 -9.053 0.404 34
28.98 -26.677 -5.156 7
27.72 -25.257 -5.206 5
0.0 -0.0 3.0 0
21.865 -19.526 -4.107 50
22.149 -19.587 -4.519 2
21.914 -19.202 -4.758 7
20.872 -18.122 -4.693 6
16.378 -14.099 -3.277 3
15.745 -13.438 -3.266 35
15.772 -13.354 -3.513 33
15.826 -13.291 -3.772 34
16.128 -13.44 -4.146 6
16.235 -13.432 -4.445 5
15.656 -12.857 -4.423 6
15.113 -12.329 -4.408 6
14.591 -11.821 -4.387 6
14.099 -11.351 -4.371 7
13.636 -10.907 -4.357 9
10.292 -8.184 -2.73 4
9.963 -7.874 -2.721 4
9.683 -7.609 -2.734 5
9.69 -7.569 -2.914 4
9.707 -7.54 -3.106 4
9.832 -7.595 -3.373 3
10.036 -7.709 -3.701 4
9.276 -9.315 1.358 1
33.789 -33.521 -3.516 18
47.218 -46.274 -6.836 25
9.534 -9.236 0.868 24
9.41 -9.009 0.754 18
9.768 -9.246 0.523 29
9.662 -9.047 0.406 29
28.787 -26.663 -5.152 6
27.523 -25.232 -5.198 6
0.0 -0.0 3.0 0
21.74 -19.535 -4.11 52
22.008 -19.584 -4.518 16
21.765 -19.192 -4.754 7
20.749 -18.13 -4.696 7
16.263 -14.089 -3.273 11
15.644 -13.435 -3.265 37
15.67 -13.351 -3.512 22
15.718 -13.284 -3.769 35
15.978 -13.399 -4.124 4
16.135 -13.433 -4.446 5
15.569 -12.866 -4.428 6
15.034 -12.341 -4.415 6
14.519 -11.837 -4.396 6
14.023 -11.359 -4.377 8
13.564 -10.916 -4.363 8
10.233 -8.187 -2.733 4
9.914 -7.882 -2.727 4
9.688 -7.659 -2.772 6
9.692 -7.617 -2.951 4
9.704 -7.582 -3.139 4
9.761 -7.585 -3.364 3
9.962 -7.696 -3.69 4
9.246 -9.338 1.353 7
33.293 -33.224 -3.458 26
46.95 -46.287 -6.839 19
9.336 -9.098 0.899 20
9.49 -9.141 0.721 18
9.77 -9.304 0.507 23
9.664 -9.105 0.389 17
28.612 -26.666 -5.152 7
27.32 -25.201 -5.188 5
0.0 -0.0 3.0 0
21.623 -19.552 -4.116 54
21.873 -19.586 -4.518 12
21.625 -19.188 -4.753 7
20.612 -18.123 -4.693 6
16.046 -13.988 -3.228 45
15.542 -13.432 -3.264 35
15.577 -13.356 -3.514 9
15.619 -13.283 -3.768 40
15.879 -13.399 -4.125 16
16.047 -13.443 -4.452 5
15.473 -12.868 -4.429 6
14.949 -12.348 -4.419 6
14.436 -11.842 -4.399 6
13.952 -11.372 -4.385 7
13.492 -10.925 -4.369 9
10.18 -8.194 -2.737 4
9.862 -7.888 -2.731 4
9.688 -7.705 -2.806 4
9.689 -7.66 -2.984 4
9.703 -7.626 -3.175 4
9.707 -7.587 -3.366 4
9.888 -7.683 -3.679 3
9.26 -9.408 1.341 2
27.834 -27.942 -2.431 11
46.576 -46.192 -6.818 18
9.319 -9.137 0.891 23
9.405 -9.114 0.728 30
9.761 -9.352 0.494 20
9.641 -9.139 0.38 0
28.441 -26.669 -5.154 6
27.098 -25.151 -5.172 5
0.0 -0.0 3.0 0
21.518 -19.579 -4.126 56
21.758 -19.606 -4.526 11
21.479 -19.179 -4.749 7
20.484 -18.124 -4.693 6
15.969 -14.009 -3.237 40
15.443 -13.431 -3.263 36
15.487 -13.362 -3.517 3
15.526 -13.288 -3.77 37
15.802 -13.418 -4.135 5
15.958 -13.452 -4.457 5
15.392 -12.881 -4.437 7
14.873 -12.361 -4.427 6
14.355 -11.849 -4.404 6
13.882 -11.385 -4.393 8
13.417 -10.931 -4.373 8
10.132 -8.206 -2.746 4
9.812 -7.896 -2.737 4
9.693 -7.755 -2.844 4
9.693 -7.709 -3.023 4
9.702 -7.671 -3.212 4
9.709 -7.633 -3.405 4
9.816 -7.672 -3.669 3
26.956 -27.549 -1.858 25
27.438 -27.707 -2.386 25
46.073 -45.967 -6.771 13
9.288 -9.161 0.885 24
9.362 -9.128 0.724 32
9.833 -9.479 0.46 23
30.003 -28.614 -5.205 12
28.284 -26.685 -5.158 6
26.907 -25.13 -5.165 5
0.0 -0.0 3.0 0
21.421 -19.613 -4.138 11
21.635 -19.617 -4.53 12
21.339 -19.175 -4.747 7
20.353 -18.122 -4.692 7
15.895 -14.032 -3.247 13
15.348 -13.432 -3.264 34
15.383 -13.356 -3.514 0
15.436 -13.294 -3.773 42
15.697 -13.413 -4.132 4
15.867 -13.46 -4.461 5
15.311 -12.893 -4.444 6
14.793 -12.372 -4.434 6
14.281 -11.86 -4.411 6
13.8 -11.387 -4.395 7
13.348 -10.942 -4.381 8
10.079 -8.212 -2.75 4
9.766 -7.907 -2.745 4
9.689 -7.799 -2.877 4
9.698 -7.759 -3.062 4
9.698 -7.712 -3.245 4
9.705 -7.674 -3.439 4
9.745 -7.661 -3.66 3
26.719 -27.467 -1.843 43
27.213 -27.643 -2.373 21
28.049 -28.152 -2.984 20
9.195 -9.124 0.893 31
9.325 -9.147 0.719 29
9.848 -9.552 0.441 0
29.806 -28.602 -5.201 16
28.129 -26.704 -5.164 5
26.706 -25.097 -5.155 6
0.0 -0.0 3.0 0
21.405 -19.72 -4.177 17
21.509 -19.626 -4.534 2
21.197 -19.166 -4.744 7
20.219 -18.116 -4.69 7
15.778 -14.016 -3.24 13
15.252 -13.433 -3.264 33
15.316 -13.382 -3.527 0
15.349 -13.302 -3.778 42
15.626 -13.437 -4.144 9
15.782 -13.471 -4.467 5
15.225 -12.9 -4.448 6
14.711 -12.38 -4.439 6
14.209 -11.874 -4.42 6
13.73 -11.4 -4.403 7
13.274 -10.948 -4.385 8
10.029 -8.221 -2.757 4
9.722 -7.919 -2.754 4
9.693 -7.849 -2.915 4
9.691 -7.799 -3.093 4
9.699 -7.759 -3.283 4
9.706 -7.72 -3.478 4
9.713 -7.681 -3.677 3
26.629 -27.535 -1.855 36
27.071 -27.662 -2.377 19
27.473 -27.739 -2.896 21
9.15 -9.134 0.891 28
9.297 -9.174 0.713 29
31.826 -31.056 -5.321 14
29.06 -28.057 -5.045 1
27.97 -26.716 -5.168 5
26.511 -25.068 -5.145 5
21.897 -20.496 -4.057 5
21.299 -19.746 -4.187 19
21.398 -19.647 -4.542 0
21.058 -19.16 -4.741 7
20.083 -18.107 -4.686 6
15.664 -14.003 -3.234 13
15.157 -13.433 -3.264 31
0.0 -0.0 3.0 0
15.259 -13.308 -3.781 39
15.536 -13.443 -4.148 3
15.685 -13.473 -4.468 5
15.139 -12.908 -4.452 6
14.627 -12.385 -4.442 6
14.128 -11.88 -4.423 6
13.66 -11.411 -4.41 7
13.202 -10.956 -4.39 8
9.973 -8.225 -2.759 4
9.684 -7.936 -2.766 5
9.686 -7.891 -2.946 6
9.689 -7.845 -3.129 4
9.703 -7.808 -3.323 3
9.704 -7.765 -3.515 4
9.711 -7.724 -3.714 4
26.53 -27.595 -1.866 26
26.835 -27.585 -2.362 21
27.083 -27.509 -2.847 25
9.133 -9.172 0.882 27
9.262 -9.196 0.707 29
31.624 -31.048 -5.319 12
29.424 -28.583 -5.196 17
27.81 -26.728 -5.171 5
26.319 -25.041 -5.136 5
21.793 -20.526 -4.068 12
21.262 -19.834 -4.219 35
21.304 -19.683 -4.555 0
20.919 -19.153 -4.738 7
19.962 -18.111 -4.688 6
15.562 -13.999 -3.233 13
15.062 -13.433 -3.264 32
0.0 -0.0 3.0 0
15.164 -13.308 -3.781 37
15.38 -13.391 -4.12 4
15.6 -13.483 -4.474 5
15.055 -12.917 -4.457 6
14.548 -12.395 -4.448 6
14.054 -11.891 -4.43 6
13.587 -11.42 -4.416 7
13.139 -10.97 -4.4 8
9.923 -8.234 -2.766 1
9.688 -7.987 -2.803 6
9.684 -7.937 -2.981 6
9.693 -7.895 -3.168 4
9.632 -7.797 -3.314 2
9.704 -7.811 -3.554 4
9.714 -7.771 -3.755 3
26.3 -27.517 -1.852 37
26.606 -27.511 -2.348 37
9.075 -9.273 1.029 0
9.113 -9.207 0.874 29
9.225 -9.215 0.702 32
31.272 -30.89 -5.277 10
28.78 -28.13 -5.066 4
27.651 -26.739 -5.175 6
26.13 -25.016 -5.128 5
21.675 -20.541 -4.073 13
21.23 -19.929 -4.254 10
21.235 -19.742 -4.578 0
20.784 -19.149 -4.737 7
19.837 -18.111 -4.688 6
15.454 -13.99 -3.229 13
14.967 -13.433 -3.264 30
0.0 -0.0 3.0 0
15.066 -13.305 -3.779 37
15.301 -13.407 -4.128 1
15.509 -13.489 -4.477 5
14.963 -12.918 -4.458 6
14.469 -12.405 -4.454 6
13.974 -11.896 -4.434 6
13.511 -11.427 -4.421 7
13.073 -10.983 -4.408 8
9.87 -8.239 -2.769 0
9.683 -8.032 -2.836 4
9.688 -7.987 -3.019 4
9.688 -7.938 -3.202 4
9.312 -7.583 -3.141 3
9.71 -7.862 -3.597 4
9.714 -7.817 -3.795 4
26.169 -27.541 -1.856 32
26.397 -27.457 -2.337 27
9.03 -9.283 1.027 0
9.074 -9.222 0.871 31
9.199 -9.244 0.695 28
30.993 -30.802 -5.253 11
28.62 -28.145 -5.07 10
27.506 -26.763 -5.182 8
25.942 -24.989 -5.119 5
21.556 -20.556 -4.078 14
21.091 -19.921 -4.251 17
21.629 -20.235 -4.767 4
20.651 -19.146 -4.735 7
19.71 -18.109 -4.687 6
15.349 -13.982 -3.225 14
14.872 -13.431 -3.263 30
0.0 -0.0 3.0 0
14.976 -13.309 -3.781 38
15.174 -13.379 -4.114 9
15.427 -13.502 -4.484 6
14.883 -12.928 -4.464 6
14.39 -12.414 -4.459 6
13.899 -11.907 -4.44 6
13.443 -11.44 -4.429 7
13.005 -10.992 -4.414 8
12.587 -10.572 -4.403 8
9.686 -8.083 -2.873 4
9.682 -8.031 -3.052 6
9.644 -7.949 -3.211 3
9.247 -7.575 -3.134 3
9.705 -7.903 -3.632 4
9.714 -7.863 -3.835 4
26.021 -27.548 -1.857 43
26.267 -27.485 -2.343 39
26.698 -27.608 -2.868 20
9.274 -9.483 0.811 30
9.215 -9.317 0.677 25
30.773 -30.77 -5.245 16
28.346 -28.047 -5.042 18
27.352 -26.779 -5.187 7
25.751 -24.96 -5.11 5
21.447 -20.579 -4.086 17
21.047 -20.005 -4.281 60
21.567 -20.303 -4.794 26
20.518 -19.143 -4.734 8
19.581 -18.103 -4.684 6
15.253 -13.982 -3.225 14
14.778 -13.431 -3.263 30
0.0 -0.0 3.0 0
14.876 -13.303 -3.778 38
15.084 -13.383 -4.116 9
15.336 -13.507 -4.487 5
14.808 -12.944 -4.473 6
14.311 -12.423 -4.465 6
13.825 -11.916 -4.446 6
13.368 -11.446 -4.433 7
12.93 -10.997 -4.417 8
12.522 -10.583 -4.41 8
9.686 -8.133 -2.909 4
9.688 -8.085 -3.092 6
9.402 -7.796 -3.091 5
9.188 -7.571 -3.131 4
9.341 -7.652 -3.421 3
9.713 -7.908 -3.874 4
25.936 -27.619 -1.87 31
26.173 -27.55 -2.355 41
9.376 -9.754 0.927 11
9.286 -9.553 0.794 31
9.23 -9.388 0.659 33
30.698 -30.883 -5.275 15
28.201 -28.075 -5.051 21
27.199 -26.793 -5.191 9
25.572 -24.94 -5.104 5
21.359 -20.623 -4.101 19
21.017 -20.101 -4.316 46
21.417 -20.289 -4.788 28
20.375 -19.129 -4.728 7
19.46 -18.104 -4.685 6
15.154 -13.98 -3.224 14
14.692 -13.437 -3.266 31
0.0 -0.0 3.0 0
14.778 -13.299 -3.776 39
14.994 -13.387 -4.118 10
15.251 -13.516 -4.492 5
14.719 -12.947 -4.475 6
14.232 -12.432 -4.47 7
13.751 -11.926 -4.452 6
13.301 -11.459 -4.442 6
12.867 -11.01 -4.427 8
12.455 -10.59 -4.415 8
9.684 -8.179 -2.943 4
9.691 -8.136 -3.131 4
9.356 -7.805 -3.098 4
9.132 -7.57 -3.13 3
9.276 -7.644 -3.414 3
9.715 -7.956 -3.916 4
25.861 -27.703 -1.885 42
26.014 -27.545 -2.354 38
9.314 -9.747 0.928 22
9.226 -9.549 0.795 24
9.239 -9.455 0.643 23
27.994 -28.335 -4.592 19
28.067 -28.114 -5.061 17
27.037 -26.798 -5.193 9
25.376 -24.903 -5.092 5
21.272 -20.667 -4.116 22
21.028 -20.238 -4.366 23
21.279 -20.285 -4.787 29
20.251 -19.132 -4.73 8
19.334 -18.1 -4.683 6
15.053 -13.973 -3.221 14
14.6 -13.437 -3.266 32
0.0 -0.0 3.0 0
14.692 -13.304 -3.779 40
14.899 -13.385 -4.117 13
15.161 -13.521 -4.495 5
14.636 -12.955 -4.479 6
14.159 -12.445 -4.478 6
13.674 -11.933 -4.456 8
13.225 -11.464 -4.445 7
12.791 -11.012 -4.428 8
12.396 -10.604 -4.425 8
9.683 -8.23 -2.979 5
9.69 -8.185 -3.168 4
9.304 -7.808 -3.1 4
9.065 -7.56 -3.122 3
9.211 -7.636 -3.407 3
9.393 -7.737 -3.725 2
25.687 -27.679 -1.881 35
25.998 -27.693 -2.383 35
9.281 -9.771 0.923 15
9.235 -9.616 0.78 3
9.253 -9.527 0.625 0
27.287 -27.789 -4.446 24
27.922 -28.141 -5.069 16
26.862 -26.79 -5.19 11
25.198 -24.882 -5.085 5
21.193 -20.718 -4.134 25
20.967 -20.305 -4.39 27
21.139 -20.277 -4.783 27
20.114 -19.122 -4.726 7
19.216 -18.103 -4.684 6
14.96 -13.974 -3.222 14
14.509 -13.437 -3.266 33
0.0 -0.0 3.0 0
14.595 -13.3 -3.777 38
14.813 -13.391 -4.12 19
15.073 -13.526 -4.498 5
14.553 -12.962 -4.483 5
14.075 -12.448 -4.48 7
13.599 -11.942 -4.462 6
13.155 -11.474 -4.451 7
12.728 -11.025 -4.436 8
12.327 -10.609 -4.429 8
9.672 -8.27 -3.008 0
9.689 -8.234 -3.205 4
9.258 -7.816 -3.106 4
9.001 -7.55 -3.114 2
9.147 -7.627 -3.4 3
9.301 -7.707 -3.699 3
25.65 -27.803 -1.902 42
25.863 -27.714 -2.387 35
9.295 -9.845 0.907 14
26.314 -27.564 -3.364 38
26.639 -27.595 -3.88 23
27.095 -27.762 -4.439 26
27.596 -27.984 -5.024 36
26.676 -26.769 -5.184 14
25.004 -24.844 -5.072 5
21.141 -20.797 -4.161 28
20.971 -20.436 -4.438 26
21.015 -20.284 -4.786 20
19.98 -19.114 -4.722 8
19.087 -18.096 -4.681 7
14.864 -13.973 -3.221 15
14.417 -13.437 -3.266 36
0.0 -0.0 3.0 0
14.503 -13.3 -3.777 39
14.715 -13.387 -4.118 22
14.986 -13.532 -4.501 6
14.476 -12.973 -4.49 6
13.994 -12.454 -4.483 7
13.528 -11.953 -4.469 6
13.08 -11.479 -4.454 7
12.659 -11.033 -4.442 8
12.265 -10.621 -4.437 7
11.896 -10.233 -4.435 9
9.688 -8.282 -3.241 4
9.207 -7.819 -3.109 4
8.939 -7.544 -3.109 4
9.091 -7.625 -3.398 3
9.239 -7.7 -3.694 3
25.494 -27.798 -1.902 27
25.766 -27.775 -2.399 37
26.011 -27.716 -2.891 33
26.174 -27.585 -3.368 26
26.496 -27.614 -3.885 26
26.923 -27.755 -4.437 21
27.383 -27.938 -5.011 20
26.491 -26.748 -5.178 13
24.823 -24.818 -5.064 5
21.283 -21.067 -4.254 5
21.166 -20.755 -4.554 5
20.883 -20.284 -4.786 9
19.851 -19.11 -4.721 8
18.967 -18.094 -4.681 6
14.772 -13.973 -3.221 15
14.326 -13.436 -3.265 39
14.396 -13.393 -3.532 1
14.412 -13.299 -3.776 40
14.617 -13.381 -4.115 25
14.907 -13.546 -4.509 5
14.396 -12.982 -4.495 6
13.921 -12.466 -4.49 6
13.457 -11.964 -4.476 6
13.015 -11.494 -4.464 7
12.594 -11.044 -4.449 8
12.201 -10.63 -4.443 8
11.836 -10.243 -4.442 9
9.706 -8.348 -3.291 3
9.161 -7.827 -3.115 4
8.892 -7.548 -3.112 3
9.026 -7.615 -3.39 3
9.169 -7.686 -3.681 3
25.478 -27.946 -1.928 40
25.657 -27.824 -2.408 39
25.799 -27.657 -2.879 27
26.018 -27.587 -3.369 23
26.339 -27.618 -3.886 22
26.712 -27.707 -4.424 20
27.138 -27.86 -4.989 20
26.311 -26.731 -5.172 11
24.646 -24.794 -5.056 5
23.133 -23.041 -4.934 13
21.072 -20.793 -4.568 1
20.732 -20.264 -4.778 5
19.717 -19.101 -4.717 7
18.844 -18.091 -4.679 6
14.685 -13.979 -3.224 15
14.241 -13.44 -3.267 40
0.0 -0.0 3.0 0
14.318 -13.295 -3.774 42
14.523 -13.378 -4.113 27
14.825 -13.556 -4.514 5
14.31 -12.986 -4.498 6
13.84 -12.471 -4.493 8
13.383 -11.972 -4.481 6
12.943 -11.5 -4.468 7
12.528 -11.054 -4.456 7
12.134 -10.637 -4.448 8
11.773 -10.251 -4.448 9
10.087 -8.728 -3.577 4
9.106 -7.828 -3.116 4
8.847 -7.555 -3.118 4
8.962 -7.607 -3.383 3
9.11 -7.682 -3.678 3
25.394 -28.02 -1.941 36
25.511 -27.831 -2.41 37
25.65 -27.663 -2.88 37
25.898 -27.626 -3.378 33
26.157 -27.596 -3.88 22
26.532 -27.689 -4.419 23
26.926 -27.813 -4.975 21
26.116 -26.697 -5.162 10
24.47 -24.77 -5.048 5
22.972 -23.024 -4.928 11
21.666 -21.513 -4.83 3
20.593 -20.254 -4.775 5
19.592 -19.099 -4.716 7
18.725 -18.09 -4.679 6
14.598 -13.984 -3.226 16
14.15 -13.439 -3.267 40
14.402 -13.569 -3.618 0
14.235 -13.302 -3.778 40
14.428 -13.375 -4.112 31
14.727 -13.551 -4.512 5
14.233 -12.997 -4.504 6
13.764 -12.48 -4.499 6
13.309 -11.98 -4.486 6
12.87 -11.507 -4.472 7
12.46 -11.062 -4.461 8
12.07 -10.646 -4.454 8
11.713 -10.261 -4.455 9
9.962 -8.672 -3.535 21
9.058 -7.833 -3.12 4
8.796 -7.557 -3.119 4
8.906 -7.604 -3.381 3
9.051 -7.677 -3.674 3
25.313 -28.096 -1.954 41
25.478 -27.961 -2.435 41
25.67 -27.851 -2.92 35
25.81 -27.698 -3.395 34
26.087 -27.689 -3.904 27
26.342 -27.659 -4.411 22
26.709 -27.76 -4.96 32
25.918 -26.659 -5.15 10
24.293 -24.744 -5.04 5
22.814 -23.008 -4.922 12
21.542 -21.524 -4.834 6
20.453 -20.244 -4.771 5
19.467 -19.097 -4.716 7
18.605 -18.087 -4.677 6
14.514 -13.991 -3.229 17
14.076 -13.452 -3.273 37
14.343 -13.598 -3.632 1
14.141 -13.298 -3.775 40
14.337 -13.374 -4.111 35
14.654 -13.569 -4.521 5
14.153 -13.005 -4.509 6
13.683 -12.484 -4.501 7
13.235 -11.988 -4.491 6
12.803 -11.518 -4.48 7
12.392 -11.069 -4.466 8
12.014 -10.661 -4.465 8
11.652 -10.271 -4.462 9
9.859 -8.635 -3.507 27
9.009 -7.838 -3.124 4
8.754 -7.565 -3.126 4
8.85 -7.601 -3.378 3
8.987 -7.668 -3.666 3
25.218 -28.157 -1.965 43
25.393 -28.035 -2.449 40
25.584 -27.926 -2.936 37
25.724 -27.774 -3.412 38
26.003 -27.769 -3.924 26
26.265 -27.748 -4.435 30
26.52 -27.733 -4.952 23
25.71 -26.609 -5.135 11
24.106 -24.707 -5.028 5
22.665 -23.0 -4.92 22
21.392 -21.507 -4.828 6
20.314 -20.232 -4.766 5
19.334 -19.085 -4.711 7
18.489 -18.088 -4.678 6
14.433 -14.0 -3.233 18
13.999 -13.463 -3.278 12
14.307 -13.649 -3.657 1
14.056 -13.301 -3.777 39
14.245 -13.372 -4.11 37
14.567 -13.573 -4.523 5
14.074 -13.013 -4.513 6
13.611 -12.496 -4.508 8
13.164 -11.997 -4.496 6
12.734 -11.526 -4.485 5
12.326 -11.079 -4.473 8
11.947 -10.667 -4.469 7
11.592 -10.28 -4.469 9
9.832 -8.663 -3.528 24
8.971 -7.852 -3.135 4
8.706 -7.569 -3.129 3
8.784 -7.589 -3.368 3
8.925 -7.661 -3.659 3
25.139 -28.236 -1.979 42
25.303 -28.103 -2.463 41
25.435 -27.93 -2.937 35
25.622 -27.833 -3.426 31
25.895 -27.822 -3.937 34
26.134 -27.78 -4.444 32
26.326 -27.701 -4.943 32
25.529 -26.586 -5.128 13
23.923 -24.671 -5.016 5
22.513 -22.989 -4.916 24
21.252 -21.501 -4.826 5
20.178 -20.223 -4.763 5
19.209 -19.081 -4.709 8
18.37 -18.084 -4.676 6
14.352 -14.01 -3.237 19
13.969 -13.519 -3.304 26
14.27 -13.7 -3.682 1
13.965 -13.298 -3.776 37
14.154 -13.37 -4.109 37
14.485 -13.582 -4.529 5
13.994 -13.021 -4.517 6
13.533 -12.502 -4.512 9
13.09 -12.004 -4.501 6
12.662 -11.532 -4.489 7
12.263 -11.091 -4.481 8
11.885 -10.678 -4.477 8
11.529 -10.287 -4.474 9
9.78 -8.67 -3.533 20
8.92 -7.854 -3.136 4
8.667 -7.58 -3.138 4
8.728 -7.586 -3.365 3
8.867 -7.655 -3.654 3
24.988 -28.235 -1.979 42
25.199 -28.156 -2.473 44
25.397 -28.057 -2.964 40
25.575 -27.951 -3.453 36
25.735 -27.821 -3.936 34
25.931 -27.734 -4.431 44
26.141 -27.676 -4.936 22
25.351 -26.565 -5.122 13
23.748 -24.643 -5.007 5
22.358 -22.975 -4.911 22
21.099 -21.481 -4.818 5
20.056 -20.227 -4.764 5
19.09 -19.083 -4.71 8
18.256 -18.085 -4.677 6
14.274 -14.021 -3.243 21
13.911 -13.548 -3.318 26
14.236 -13.754 -3.708 0
13.88 -13.301 -3.777 39
14.068 -13.374 -4.111 40
14.401 -13.588 -4.532 5
13.915 -13.028 -4.522 6
13.46 -12.512 -4.518 10
13.019 -12.014 -4.507 6
12.6 -11.548 -4.499 7
12.198 -11.099 -4.487 8
11.819 -10.683 -4.48 8
11.472 -10.298 -4.482 9
9.742 -8.689 -3.547 24
8.88 -7.866 -3.146 4
8.619 -7.584 -3.141 4
8.67 -7.58 -3.361 3
8.805 -7.647 -3.648 3
24.919 -28.326 -1.995 50
25.15 -28.271 -2.495 38
25.308 -28.129 -2.979 40
25.452 -27.985 -3.461 37
25.661 -27.911 -3.959 35
25.872 -27.842 -4.46 35
25.935 -27.627 -4.922 21
25.172 -26.541 -5.114 9
23.576 -24.618 -4.999 5
22.215 -22.97 -4.909 12
20.955 -21.468 -4.814 5
19.918 -20.214 -4.76 5
18.963 -19.075 -4.707 8
18.135 -18.079 -4.674 6
14.201 -14.039 -3.25 22
13.845 -13.569 -3.327 0
14.228 -13.834 -3.747 1
13.793 -13.3 -3.777 38
13.983 -13.376 -4.112 39
14.32 -13.596 -4.536 6
13.838 -13.038 -4.527 6
13.382 -12.518 -4.521 13
12.945 -12.021 -4.511 7
12.528 -11.553 -4.502 7
12.13 -11.106 -4.491 8
11.763 -10.698 -4.491 8
11.409 -10.304 -4.487 9
9.709 -8.712 -3.565 24
8.836 -7.875 -3.152 4
8.572 -7.587 -3.144 4
8.612 -7.574 -3.356 3
8.747 -7.641 -3.642 3
24.933 -28.511 -2.027 36
25.036 -28.312 -2.503 39
25.235 -28.218 -2.998 38
25.365 -28.06 -3.478 37
25.577 -27.989 -3.978 36
25.781 -27.915 -4.48 35
25.793 -27.646 -4.927 21
24.976 -26.498 -5.101 7
23.409 -24.597 -4.992 5
22.059 -22.952 -4.903 7
20.813 -21.456 -4.809 6
19.783 -20.203 -4.755 5
18.837 -19.067 -4.704 8
18.022 -18.08 -4.674 7
14.128 -14.055 -3.258 24
0.0 -0.0 3.0 0
14.22 -13.913 -3.786 0
13.7 -13.294 -3.774 40
13.892 -13.373 -4.111 39
14.239 -13.604 -4.541 6
13.756 -13.042 -4.53 6
13.304 -12.523 -4.525 22
12.877 -12.032 -4.518 7
12.461 -11.563 -4.509 5
12.067 -11.117 -4.498 8
11.699 -10.705 -4.496 8
11.347 -10.311 -4.491 9
9.629 -8.692 -3.55 24
8.791 -7.882 -3.158 4
8.529 -7.595 -3.151 4
8.556 -7.57 -3.352 3
8.689 -7.636 -3.638 3
24.77 -28.495 -2.024 43
24.994 -28.435 -2.527 38
25.156 -28.3 -3.015 36
25.309 -28.17 -3.503 35
25.481 -28.056 -3.995 38
25.674 -27.97 -4.495 38
25.614 -27.625 -4.921 21
24.794 -26.469 -5.092 7
23.238 -24.57 -4.983 5
21.895 -22.924 -4.893 5
20.667 -21.439 -4.803 5
19.648 -20.192 -4.751 5
18.707 -19.057 -4.7 8
17.909 -18.08 -4.674 7
14.067 -14.082 -3.27 25
0.0 -0.0 3.0 0
13.578 -13.369 -3.52 0
13.618 -13.298 -3.776 40
13.81 -13.378 -4.113 39
14.153 -13.607 -4.542 5
13.676 -13.048 -4.533 6
13.232 -12.533 -4.531 28
12.809 -12.043 -4.525 6
12.392 -11.57 -4.514 6
11.999 -11.123 -4.503 8
11.632 -10.71 -4.499 7
11.292 -10.324 -4.501 9
9.535 -8.66 -3.526 24
8.74 -7.884 -3.159 4
8.479 -7.596 -3.151 4
8.491 -7.557 -3.341 3
8.63 -7.63 -3.632 3
24.726 -28.614 -2.045 34
24.955 -28.562 -2.552 36
25.07 -28.374 -3.031 39
25.227 -28.25 -3.522 35
25.393 -28.131 -4.014 38
25.57 -28.028 -4.51 37
25.427 -27.594 -4.912 24
24.608 -26.433 -5.082 7
23.075 -24.55 -4.977 5
21.737 -22.901 -4.885 5
20.531 -21.433 -4.801 5
19.518 -20.186 -4.749 4
18.584 -19.05 -4.697 9
17.788 -18.071 -4.671 7
14.01 -14.114 -3.284 29
14.302 -14.285 -3.661 1
13.502 -13.378 -3.525 38
13.531 -13.297 -3.775 42
13.719 -13.374 -4.111 37
14.077 -13.62 -4.549 6
13.605 -13.062 -4.541 6
13.154 -12.538 -4.534 32
12.733 -12.046 -4.527 7
12.323 -11.577 -4.518 7
11.94 -11.136 -4.511 8
11.574 -10.722 -4.508 8
11.229 -10.331 -4.506 9
9.518 -8.698 -3.555 18
8.694 -7.89 -3.164 4
8.442 -7.609 -3.162 4
8.438 -7.555 -3.34 3
8.57 -7.621 -3.625 3
24.8 -28.873 -2.091 32
24.808 -28.566 -2.553 28
25.016 -28.486 -3.055 35
25.058 -28.233 -3.518 36
25.292 -28.191 -4.029 39
25.479 -28.101 -4.53 37
25.239 -27.559 -4.902 30
24.424 -26.401 -5.071 7
22.91 -24.527 -4.969 5
21.587 -22.886 -4.88 5
20.388 -21.417 -4.795 6
19.384 -20.173 -4.744 4
18.463 -19.046 -4.695 8
17.681 -18.077 -4.673 6
13.956 -14.148 -3.299 31
14.242 -14.315 -3.675 1
13.431 -13.392 -3.532 45
13.446 -13.297 -3.775 42
13.637 -13.377 -4.113 37
13.991 -13.622 -4.551 5
13.523 -13.065 -4.543 6
13.079 -12.545 -4.538 35
12.665 -12.056 -4.534 5
12.259 -11.589 -4.526 7
11.874 -11.144 -4.517 8
11.507 -10.727 -4.511 8
11.167 -10.336 -4.51 9
9.467 -8.704 -3.559 20
8.651 -7.898 -3.171 4
8.4 -7.617 -3.168 4
8.375 -7.544 -3.33 7
8.509 -7.612 -3.617 3
24.759 -28.998 -2.113 31
24.846 -28.783 -2.595 27
24.963 -28.598 -3.079 33
25.015 -28.357 -3.547 37
25.153 -28.21 -4.034 37
25.387 -28.174 -4.549 40
25.079 -27.556 -4.901 29
24.236 -26.36 -5.059 6
22.751 -24.509 -4.964 5
21.437 -22.87 -4.875 5
20.256 -21.412 -4.793 4
19.257 -20.168 -4.742 5
18.34 -19.039 -4.692 8
17.563 -18.07 -4.67 7
13.897 -14.178 -3.312 32
14.211 -14.375 -3.703 1
13.371 -13.416 -3.544 14
13.365 -13.3 -3.777 43
13.544 -13.37 -4.109 35
13.908 -13.626 -4.553 5
13.447 -13.073 -4.548 6
13.005 -12.551 -4.542 35
12.589 -12.06 -4.536 7
12.192 -11.598 -4.532 7
11.807 -11.149 -4.52 8
11.451 -10.74 -4.52 8
11.112 -10.348 -4.519 8
9.447 -8.739 -3.585 21
8.602 -7.902 -3.174 4
8.358 -7.624 -3.174 4
8.323 -7.542 -3.329 5
8.454 -7.607 -3.613 3
24.667 -29.064 -2.125 34
24.799 -28.903 -2.618 28
24.903 -28.704 -3.101 32
25.013 -28.528 -3.586 36
25.083 -28.304 -4.057 42
25.305 -28.257 -4.571 38
24.928 -27.56 -4.903 23
24.061 -26.334 -5.051 6
22.581 -24.479 -4.954 5
21.274 -22.84 -4.864 5
20.105 -21.387 -4.784 5
19.126 -20.157 -4.738 5
18.212 -19.025 -4.687 14
17.459 -18.076 -4.673 7
13.872 -14.242 -3.341 2
14.185 -14.439 -3.733 1
13.348 -13.478 -3.574 0
13.283 -13.303 -3.778 43
13.454 -13.365 -4.106 30
13.832 -13.638 -4.56 5
13.368 -13.078 -4.551 6
12.935 -12.563 -4.548 30
12.516 -12.064 -4.538 6
12.126 -11.606 -4.537 7
11.744 -11.16 -4.527 8
11.388 -10.747 -4.525 8
11.05 -10.354 -4.523 9
9.39 -8.74 -3.586 25
8.562 -7.913 -3.182 4
8.313 -7.629 -3.178 4
8.281 -7.55 -3.335 4
8.396 -7.601 -3.607 3
24.562 -29.115 -2.134 30
24.74 -29.009 -2.639 40
24.848 -28.816 -3.125 33
24.953 -28.634 -3.611 35
25.023 -28.411 -4.084 43
25.208 -28.323 -4.589 38
24.795 -27.583 -4.909 27
23.887 -26.306 -5.043 6
22.42 -24.457 -4.946 5
21.12 -22.816 -4.856 5
19.976 -21.384 -4.783 5
19.0 -20.151 -4.735 5
18.084 -19.012 -4.681 15
17.341 -18.069 -4.67 7
0.0 -0.0 3.0 0
14.183 -14.529 -3.775 1
0.0 -0.0 3.0 0
13.197 -13.3 -3.777 42
13.348 -13.345 -4.096 32
13.752 -13.645 -4.563 5
13.292 -13.086 -4.555 6
12.858 -12.566 -4.551 6
12.448 -12.074 -4.545 6
12.057 -11.613 -4.541 6
11.679 -11.167 -4.532 8
11.326 -10.755 -4.531 7
10.993 -10.364 -4.53 9
9.342 -8.748 -3.592 23
8.516 -7.919 -3.187 4
8.276 -7.641 -3.188 3
8.275 -7.589 -3.368 4
8.341 -7.596 -3.603 3
24.477 -29.189 -2.147 31
24.677 -29.111 -2.659 40
24.809 -28.946 -3.153 33
24.895 -28.743 -3.636 37
24.947 -28.499 -4.106 49
25.147 -28.429 -4.618 39
24.642 -27.584 -4.91 24
23.697 -26.261 -5.029 6
22.259 -24.433 -4.939 5
20.963 -22.79 -4.847 5
19.834 -21.365 -4.776 5
18.872 -20.142 -4.732 5
17.98 -19.022 -4.685 14
17.232 -18.069 -4.67 7
0.0 -0.0 3.0 0
14.14 -14.577 -3.797 1
0.0 -0.0 3.0 0
13.118 -13.305 -3.779 43
13.277 -13.357 -4.102 2
13.669 -13.648 -4.565 5
13.216 -13.092 -4.559 6
12.794 -12.582 -4.56 6
12.38 -12.084 -4.551 7
11.988 -11.619 -4.545 6
11.617 -11.177 -4.539 8
11.265 -10.764 -4.537 8
10.935 -10.373 -4.537 9
9.272 -8.736 -3.583 25
8.47 -7.924 -3.191 2
8.28 -7.692 -3.229 3
8.276 -7.636 -3.407 5
8.281 -7.587 -3.595 8
24.693 -29.626 -2.224 22
24.599 -29.195 -2.675 20
24.774 -29.082 -3.181 33
24.846 -28.864 -3.664 34
24.94 -28.667 -4.148 38
25.077 -28.527 -4.644 36
24.491 -27.587 -4.91 20
23.516 -26.224 -5.017 6
22.095 -24.406 -4.93 5
20.815 -22.771 -4.841 5
19.684 -21.338 -4.766 5
18.75 -20.138 -4.73 5
17.863 -19.019 -4.684 5
17.113 -18.058 -4.665 6
0.0 -0.0 3.0 0
14.105 -14.634 -3.824 0
0.0 -0.0 3.0 0
13.034 -13.304 -3.779 42
13.303 -13.468 -4.161 5
13.588 -13.654 -4.568 6
13.142 -13.102 -4.565 6
12.714 -12.583 -4.561 7
12.312 -12.093 -4.557 7
11.924 -11.629 -4.552 7
11.549 -11.181 -4.541 7
11.199 -10.767 -4.539 8
