# .PCD v0.7 - Point Cloud Data file format
VERSION 0.7
FIELDS x y z intensity
SIZE 4 4 4 4
TYPE F F F F
COUNT 1 1 1 1
WIDTH 2033
HEIGHT 1
VIEWPOINT 0 0 0 1 0 0 0
POINTS 2033
DATA ascii
9.707 -7.813 -3.556 4
9.714 -7.771 -3.755 4
26.292 -27.509 -1.85 44
26.603 -27.508 -2.347 38
9.07 -9.268 1.03 0
9.113 -9.207 0.874 28
9.223 -9.212 0.703 31
31.266 -30.895 -5.278 10
28.8 -28.148 -5.071 4
27.656 -26.745 -5.177 7
26.133 -25.019 -5.129 5
24.5 -23.218 -4.995 26
23.088 -21.681 -4.891 6
21.85 -20.313 -4.798 8
20.784 -19.149 -4.737 7
19.837 -18.111 -4.688 7
0.0 -0.0 3.0 0
0.0 -0.0 3.0 0
15.243 -13.571 -3.619 27
15.071 -13.31 -3.782 42
15.312 -13.416 -4.134 14
15.512 -13.492 -4.479 5
14.969 -12.923 -4.461 6
14.466 -12.402 -4.452 6
13.971 -11.894 -4.432 6
13.511 -11.427 -4.421 7
13.07 -10.98 -4.406 8
9.867 -8.237 -2.768 0
9.686 -8.034 -2.837 4
9.696 -7.995 -3.024 4
9.693 -7.943 -3.206 4
9.312 -7.583 -3.141 2
9.707 -7.859 -3.595 4
9.709 -7.812 -3.791 4
26.166 -27.539 -1.856 32
26.386 -27.445 -2.335 28
9.03 -9.283 1.027 0
9.074 -9.222 0.871 30
9.202 -9.247 0.694 29
30.988 -30.806 -5.255 11
28.637 -28.162 -5.075 9
27.508 -26.766 -5.183 8
25.945 -24.992 -5.12 5
24.322 -23.194 -4.986 26
22.917 -21.655 -4.882 5
21.705 -20.306 -4.795 18
20.648 -19.143 -4.734 7
19.71 -18.109 -4.687 6
0.0 -0.0 3.0 0
0.0 -0.0 3.0 0
15.176 -13.597 -3.632 28
14.985 -13.316 -3.785 43
15.219 -13.419 -4.135 5
15.427 -13.502 -4.484 6
14.883 -12.928 -4.464 6
14.39 -12.414 -4.459 6
13.899 -11.907 -4.44 6
13.441 -11.438 -4.428 7
13.002 -10.99 -4.413 8
12.59 -10.575 -4.405 9
9.686 -8.083 -2.873 4
9.688 -8.036 -3.056 6
9.633 -7.94 -3.204 3
9.25 -7.577 -3.136 3
9.702 -7.901 -3.63 4
9.717 -7.864 -3.836 4
26.018 -27.545 -1.857 43
26.27 -27.488 -2.343 37
26.687 -27.597 -2.866 19
9.28 -9.489 0.809 30
9.223 -9.325 0.675 25
30.765 -30.773 -5.246 16
28.355 -28.056 -5.045 18
27.355 -26.781 -5.188 7
25.754 -24.963 -5.111 5
24.153 -23.176 -4.98 25
22.767 -21.646 -4.879 6
21.567 -20.303 -4.794 26
20.513 -19.137 -4.732 7
19.589 -18.111 -4.688 6
0.0 -0.0 3.0 0
0.0 -0.0 3.0 0
15.106 -13.619 -3.642 29
14.904 -13.328 -3.791 46
15.135 -13.428 -4.14 4
15.325 -13.497 -4.481 5
14.8 -12.937 -4.469 6
14.305 -12.418 -4.461 6
13.825 -11.916 -4.446 6
13.373 -11.451 -4.436 7
12.933 -10.999 -4.419 8
12.522 -10.583 -4.41 8
9.684 -8.13 -2.907 4
9.688 -8.085 -3.092 6
9.396 -7.791 -3.087 5
9.191 -7.574 -3.133 4
9.335 -7.647 -3.417 3
9.711 -7.906 -3.872 4
25.936 -27.619 -1.87 31
26.181 -27.559 -2.357 39
9.385 -9.763 0.925 11
9.278 -9.544 0.797 32
9.224 -9.383 0.661 32
30.704 -30.9 -5.28 15
28.207 -28.081 -5.052 21
27.199 -26.793 -5.191 9
25.575 -24.943 -5.104 5
23.979 -23.152 -4.972 24
22.608 -21.63 -4.873 5
21.417 -20.289 -4.788 27
20.378 -19.131 -4.73 7
19.46 -18.104 -4.685 6
15.934 -14.699 -3.544 0
0.0 -0.0 3.0 0
15.041 -13.646 -3.656 29
14.829 -13.345 -3.799 47
15.099 -13.48 -4.168 5
15.2 -13.471 -4.467 4
14.719 -12.947 -4.475 6
14.232 -12.432 -4.47 6
13.751 -11.926 -4.452 6
13.298 -11.456 -4.44 7
12.862 -11.005 -4.423 8
12.458 -10.593 -4.417 8
9.689 -8.184 -2.946 4
9.688 -8.133 -3.129 4
9.353 -7.802 -3.096 4
9.129 -7.568 -3.128 3
9.273 -7.642 -3.412 3
9.707 -7.949 -3.91 4
25.861 -27.703 -1.885 41
26.011 -27.542 -2.354 39
9.314 -9.747 0.928 22
9.229 -9.552 0.795 25
9.231 -9.446 0.645 20
27.983 -28.334 -4.592 19
28.042 -28.089 -5.054 16
27.029 -26.791 -5.191 9
25.385 -24.912 -5.094 5
23.813 -23.136 -4.966 24
22.449 -21.613 -4.867 6
21.279 -20.285 -4.787 29
20.246 -19.126 -4.728 8
19.336 -18.103 -4.684 6
15.855 -14.718 -3.553 0
0.0 -0.0 3.0 0
14.977 -13.673 -3.669 30
14.762 -13.368 -3.811 15
14.902 -13.388 -4.119 3
15.116 -13.48 -4.472 3
14.636 -12.955 -4.479 6
14.154 -12.441 -4.475 6
13.679 -11.937 -4.459 7
13.228 -11.467 -4.447 7
12.793 -11.015 -4.429 8
12.394 -10.602 -4.424 8
9.683 -8.23 -2.979 5
9.687 -8.182 -3.166 4
9.304 -7.808 -3.1 4
9.068 -7.561 -3.123 2
9.214 -7.638 -3.409 3
9.374 -7.721 -3.712 2
25.692 -27.686 -1.882 33
26.001 -27.696 -2.384 35
9.287 -9.777 0.922 15
9.235 -9.616 0.78 1
9.237 -9.511 0.629 0
27.266 -27.777 -4.443 23
27.919 -28.138 -5.069 16
26.865 -26.793 -5.191 11
25.187 -24.871 -5.081 4
23.643 -23.113 -4.958 22
22.3 -21.603 -4.863 5
21.139 -20.277 -4.783 27
20.12 -19.127 -4.728 7
19.213 -18.1 -4.683 6
15.768 -14.73 -3.558 1
15.379 -14.243 -3.641 1
14.909 -13.697 -3.681 30
14.709 -13.404 -3.83 14
14.84 -13.417 -4.134 3
15.037 -13.494 -4.48 4
14.559 -12.967 -4.487 6
14.069 -12.443 -4.477 6
13.602 -11.944 -4.463 7
13.155 -11.474 -4.451 7
12.725 -11.023 -4.435 8
12.321 -10.605 -4.426 8
9.68 -8.276 -3.013 0
9.689 -8.234 -3.205 4
9.258 -7.816 -3.106 4
9.003 -7.553 -3.116 2
9.152 -7.631 -3.403 3
9.306 -7.711 -3.703 3
25.647 -27.8 -1.902 41
25.868 -27.719 -2.388 36
9.297 -9.848 0.907 17
26.319 -27.571 -3.365 37
26.642 -27.598 -3.881 22
27.093 -27.77 -4.441 34
27.59 -27.978 -5.022 37
26.674 -26.767 -5.184 13
25.001 -24.841 -5.071 5
23.475 -23.092 -4.951 22
22.153 -21.595 -4.86 6
21.015 -20.284 -4.786 19
19.98 -19.114 -4.722 7
19.084 -18.093 -4.68 7
15.714 -14.772 -3.577 4
15.262 -14.225 -3.633 9
14.842 -13.721 -3.692 30
14.654 -13.437 -3.847 11
14.712 -13.384 -4.116 5
14.991 -13.537 -4.504 5
14.47 -12.969 -4.488 6
13.994 -12.454 -4.483 7
13.531 -11.955 -4.471 6
13.082 -11.481 -4.456 7
12.662 -11.036 -4.444 7
12.265 -10.621 -4.437 7
11.896 -10.233 -4.435 9
9.686 -8.28 -3.239 4
9.201 -7.815 -3.106 4
8.945 -7.548 -3.112 4
9.088 -7.622 -3.396 3
9.239 -7.7 -3.694 3
25.497 -27.801 -1.902 31
25.757 -27.766 -2.397 37
26.014 -27.719 -2.892 32
26.166 -27.576 -3.366 32
26.49 -27.609 -3.884 27
26.918 -27.759 -4.438 21
27.383 -27.938 -5.011 20
26.494 -26.75 -5.178 13
24.829 -24.823 -5.066 5
23.305 -23.069 -4.943 16
21.993 -21.573 -4.852 6
20.878 -20.278 -4.784 9
19.846 -19.105 -4.719 8
18.967 -18.094 -4.681 6
15.672 -14.825 -3.6 23
15.194 -14.249 -3.644 23
14.777 -13.748 -3.705 31
14.601 -13.474 -3.865 10
14.645 -13.407 -4.129 49
14.91 -13.549 -4.51 5
14.393 -12.98 -4.494 6
13.915 -12.462 -4.488 6
13.457 -11.964 -4.476 6
13.013 -11.491 -4.463 7
12.591 -11.041 -4.447 7
12.198 -10.628 -4.441 8
11.833 -10.241 -4.44 9
9.714 -8.354 -3.296 3
9.158 -7.825 -3.113 4
8.892 -7.548 -3.112 3
9.026 -7.615 -3.39 3
9.172 -7.689 -3.684 3
25.475 -27.943 -1.927 36
25.657 -27.824 -2.408 39
25.791 -27.648 -2.877 35
26.016 -27.584 -3.368 23
26.33 -27.609 -3.884 21
26.705 -27.709 -4.425 20
27.132 -27.854 -4.987 20
26.311 -26.731 -5.172 11
24.638 -24.786 -5.053 5
23.136 -23.044 -4.935 15
21.844 -21.561 -4.848 5
20.73 -20.261 -4.777 5
19.72 -19.104 -4.718 7
18.842 -18.088 -4.678 7
15.59 -14.841 -3.608 1
15.125 -14.274 -3.656 24
14.715 -13.776 -3.719 31
14.545 -13.507 -3.882 10
14.581 -13.432 -4.142 52
14.82 -13.551 -4.511 5
14.316 -12.991 -4.501 6
13.84 -12.471 -4.493 8
13.383 -11.972 -4.481 7
12.943 -11.5 -4.468 7
12.523 -11.049 -4.453 8
12.136 -10.639 -4.45 9
11.775 -10.254 -4.45 9
10.09 -8.73 -3.579 5
9.109 -7.83 -3.117 4
8.844 -7.553 -3.116 4
8.965 -7.609 -3.384 3
9.113 -7.684 -3.679 3
25.394 -28.02 -1.941 35
25.514 -27.834 -2.41 37
25.65 -27.663 -2.88 36
25.898 -27.626 -3.378 34
26.152 -27.589 -3.879 21
26.519 -27.685 -4.418 23
26.923 -27.81 -4.974 20
26.113 -26.694 -5.161 10
24.467 -24.767 -5.047 5
22.972 -23.024 -4.928 12
21.684 -21.538 -4.839 5
20.584 -20.246 -4.772 5
19.589 -19.096 -4.715 8
18.725 -18.09 -4.679 6
17.894 -17.141 -4.632 6
15.056 -14.299 -3.668 24
14.653 -13.805 -3.733 33
14.492 -13.542 -3.9 46
14.566 -13.503 -4.18 2
14.735 -13.558 -4.516 5
14.228 -12.993 -4.501 6
13.759 -12.475 -4.496 7
13.309 -11.98 -4.486 6
12.876 -11.512 -4.476 7
12.46 -11.062 -4.461 8
12.07 -10.646 -4.454 8
11.71 -10.258 -4.453 9
9.962 -8.672 -3.535 22
9.061 -7.835 -3.121 4
8.799 -7.559 -3.121 4
8.906 -7.604 -3.381 3
9.048 -7.675 -3.672 3
25.31 -28.093 -1.954 42
25.48 -27.964 -2.436 40
25.675 -27.856 -2.921 35
25.807 -27.696 -3.394 34
26.087 -27.689 -3.904 27
26.345 -27.671 -4.415 22
26.704 -27.754 -4.958 33
25.921 -26.662 -5.151 10
24.285 -24.736 -5.037 5
22.811 -23.005 -4.921 13
21.538 -21.527 -4.835 5
20.456 -20.246 -4.772 5
19.461 -19.091 -4.713 7
18.608 -18.09 -4.679 6
17.78 -17.139 -4.631 6
14.99 -14.326 -3.68 24
14.594 -13.836 -3.748 34
14.452 -13.59 -3.925 63
14.529 -13.554 -4.207 9
14.648 -13.563 -4.518 5
14.153 -13.005 -4.509 6
13.683 -12.484 -4.501 8
13.232 -11.985 -4.489 6
12.806 -11.52 -4.481 7
12.394 -11.072 -4.468 8
12.011 -10.658 -4.463 8
11.652 -10.271 -4.462 9
9.859 -8.635 -3.507 27
9.012 -7.84 -3.125 4
8.751 -7.563 -3.125 3
8.848 -7.599 -3.376 3
8.992 -7.672 -3.669 3
25.212 -28.152 -1.964 43
25.396 -28.038 -2.45 39
25.582 -27.923 -2.935 37
25.729 -27.78 -3.414 37
26.0 -27.766 -3.923 26
26.265 -27.758 -4.438 30
26.518 -27.73 -4.952 23
25.715 -26.614 -5.137 11
24.098 -24.698 -5.025 5
22.662 -22.997 -4.919 22
21.385 -21.508 -4.828 6
20.306 -20.223 -4.763 5
19.334 -19.085 -4.711 7
18.494 -18.092 -4.68 6
17.672 -17.142 -4.632 6
14.926 -14.355 -3.694 24
14.537 -13.869 -3.764 35
14.407 -13.633 -3.946 64
14.47 -13.583 -4.222 66
14.575 -13.58 -4.528 5
14.074 -13.013 -4.513 6
13.608 -12.493 -4.507 8
13.164 -11.997 -4.496 7
12.737 -11.529 -4.487 7
12.329 -11.081 -4.474 7
11.947 -10.667 -4.469 7
11.595 -10.282 -4.47 9
9.832 -8.663 -3.528 25
8.963 -7.845 -3.129 4
8.709 -7.572 -3.131 4
8.786 -7.591 -3.37 3
8.928 -7.662 -3.661 3
25.139 -28.236 -1.979 36
25.3 -28.1 -2.462 41
25.443 -27.94 -2.939 34
25.627 -27.839 -3.427 31
25.884 -27.811 -3.934 33
26.124 -27.779 -4.443 31
26.324 -27.698 -4.942 32
25.529 -26.586 -5.128 13
23.923 -24.671 -5.016 5
22.513 -22.989 -4.916 23
21.245 -21.501 -4.826 5
20.178 -20.223 -4.763 5
19.204 -19.077 -4.707 7
18.37 -18.084 -4.676 6
17.561 -17.142 -4.632 7
14.857 -14.379 -3.705 25
14.478 -13.899 -3.779 37
14.375 -13.689 -3.975 63
14.422 -13.624 -4.244 68
14.485 -13.582 -4.529 6
13.994 -13.021 -4.517 6
13.533 -12.502 -4.512 9
13.093 -12.007 -4.503 6
12.672 -11.542 -4.496 7
12.263 -11.091 -4.481 8
11.883 -10.675 -4.475 8
11.532 -10.289 -4.476 9
9.783 -8.672 -3.535 20
8.923 -7.857 -3.138 4
8.661 -7.575 -3.134 4
8.725 -7.584 -3.363 3
8.867 -7.655 -3.654 3
24.991 -28.238 -1.979 40
25.196 -28.153 -2.472 43
25.389 -28.049 -2.962 39
25.573 -27.948 -3.452 37
25.725 -27.809 -3.933 35
25.923 -27.734 -4.431 44
26.138 -27.673 -4.935 22
25.351 -26.565 -5.122 13
23.74 -24.636 -5.005 5
22.361 -22.977 -4.912 22
21.101 -21.489 -4.821 5
20.051 -20.221 -4.762 5
19.082 -19.075 -4.707 8
18.245 -18.075 -4.673 7
17.45 -17.142 -4.632 7
14.796 -14.411 -3.72 25
14.421 -13.933 -3.795 39
14.338 -13.74 -4.001 55
14.381 -13.671 -4.269 28
14.401 -13.588 -4.532 5
13.917 -13.031 -4.523 6
13.457 -12.51 -4.517 11
13.016 -12.011 -4.505 5
12.598 -11.545 -4.498 6
12.193 -11.095 -4.484 8
11.821 -10.685 -4.482 8
11.469 -10.296 -4.48 9
9.742 -8.689 -3.547 23
8.877 -7.863 -3.144 4
8.619 -7.584 -3.141 4
8.67 -7.58 -3.361 3
8.805 -7.647 -3.648 3
24.917 -28.323 -1.994 51
25.15 -28.271 -2.495 38
25.306 -28.126 -2.978 40
25.454 -27.989 -3.462 37
25.661 -27.911 -3.959 36
25.867 -27.845 -4.461 34
25.932 -27.624 -4.921 21
25.174 -26.543 -5.115 10
23.576 -24.618 -4.999 5
22.213 -22.968 -4.908 12
20.954 -21.473 -4.816 5
19.912 -20.209 -4.757 5
18.963 -19.075 -4.707 8
18.135 -18.079 -4.674 6
17.337 -17.138 -4.631 7
14.738 -14.445 -3.736 26
14.378 -13.978 -3.818 40
14.314 -13.803 -4.033 4
14.363 -13.739 -4.305 2
14.315 -13.591 -4.533 6
13.835 -13.035 -4.526 5
13.382 -12.518 -4.521 13
12.948 -12.023 -4.513 6
12.531 -11.555 -4.504 7
12.13 -11.106 -4.491 8
11.757 -10.693 -4.487 8
11.409 -10.304 -4.487 9
9.712 -8.715 -3.567 24
8.828 -7.868 -3.147 4
8.572 -7.587 -3.144 4
8.612 -7.574 -3.356 3
8.744 -7.639 -3.641 3
24.931 -28.508 -2.027 35
25.038 -28.315 -2.504 39
25.235 -28.218 -2.998 38
25.37 -28.066 -3.48 36
25.577 -27.989 -3.978 36
25.779 -27.921 -4.482 36
25.795 -27.649 -4.928 21
24.981 -26.504 -5.103 8
23.417 -24.606 -4.995 5
22.067 -22.96 -4.906 8
20.809 -21.46 -4.811 5
19.785 -20.206 -4.756 5
18.842 -19.073 -4.706 8
18.016 -18.074 -4.672 7
17.229 -17.139 -4.631 7
14.675 -14.474 -3.749 26
14.339 -14.03 -3.843 47
14.33 -13.905 -4.085 2
14.546 -14.003 -4.445 2
14.234 -13.599 -4.538 6
13.756 -13.042 -4.53 6
13.302 -12.52 -4.523 21
12.874 -12.029 -4.517 7
12.464 -11.565 -4.51 7
12.067 -11.117 -4.498 8
11.693 -10.7 -4.492 8
11.347 -10.311 -4.491 9
9.631 -8.695 -3.552 24
8.783 -7.874 -3.152 4
8.529 -7.595 -3.151 4
8.549 -7.564 -3.347 3
8.686 -7.633 -3.636 3
24.772 -28.497 -2.025 36
24.999 -28.442 -2.528 38
25.159 -28.303 -3.016 36
25.307 -28.167 -3.503 35
25.478 -28.053 -3.994 37
25.67 -27.975 -4.496 38
25.611 -27.622 -4.92 21
24.789 -26.463 -5.091 7
23.244 -24.576 -4.985 5
21.89 -22.918 -4.891 5
20.663 -21.443 -4.805 5
19.648 -20.192 -4.751 5
18.713 -19.062 -4.701 8
17.906 -18.077 -4.673 6
17.124 -17.143 -4.633 7
14.619 -14.51 -3.766 26
14.315 -14.093 -3.874 24
14.265 -13.93 -4.098 20
14.661 -14.203 -4.552 5
14.153 -13.607 -4.542 5
13.682 -13.053 -4.536 6
13.232 -12.533 -4.531 28
12.804 -12.038 -4.522 6
12.389 -11.567 -4.512 7
11.999 -11.123 -4.503 8
11.635 -10.712 -4.501 8
11.289 -10.322 -4.499 9
9.535 -8.66 -3.526 24
8.742 -7.885 -3.161 4
8.484 -7.601 -3.155 4
8.498 -7.564 -3.347 3
8.63 -7.63 -3.632 3
24.72 -28.608 -2.044 33
24.952 -28.559 -2.551 37
25.072 -28.377 -3.032 38
25.227 -28.25 -3.522 36
25.39 -28.128 -4.013 37
25.56 -28.027 -4.51 35
25.427 -27.594 -4.912 24
24.613 -26.439 -5.083 7
23.078 -24.553 -4.978 5
21.726 -22.89 -4.882 5
20.522 -21.431 -4.8 5
19.516 -20.183 -4.747 4
18.581 -19.047 -4.696 8
17.796 -18.079 -4.674 7
17.017 -17.143 -4.632 6
14.563 -14.546 -3.783 26
14.3 -14.169 -3.911 1
14.235 -13.988 -4.127 15
14.578 -14.211 -4.556 6
14.075 -13.617 -4.548 6
13.594 -13.051 -4.535 6
13.154 -12.538 -4.534 33
12.736 -12.049 -4.529 6
12.325 -11.579 -4.52 7
11.934 -11.131 -4.508 8
11.574 -10.722 -4.508 8
11.229 -10.331 -4.506 9
9.518 -8.698 -3.555 18
8.699 -7.894 -3.168 4
8.44 -7.607 -3.16 4
8.435 -7.553 -3.338 3
8.565 -7.616 -3.621 3
24.8 -28.873 -2.091 32
24.813 -28.572 -2.554 28
25.016 -28.486 -3.055 35
25.061 -28.236 -3.519 36
25.294 -28.194 -4.03 37
25.474 -28.105 -4.531 37
25.236 -27.556 -4.902 31
24.432 -26.409 -5.074 6
22.905 -24.522 -4.968 5
21.587 -22.886 -4.88 5
20.384 -21.421 -4.796 5
19.381 -20.17 -4.743 5
18.461 -19.043 -4.694 8
17.681 -18.077 -4.673 6
16.912 -17.146 -4.634 7
14.518 -14.592 -3.805 27
14.288 -14.246 -3.948 2
14.217 -14.06 -4.164 30
14.488 -14.212 -4.557 5
13.991 -13.622 -4.551 5
13.529 -13.07 -4.546 6
13.079 -12.545 -4.538 35
12.662 -12.054 -4.532 5
12.259 -11.589 -4.526 7
11.874 -11.144 -4.517 8
11.51 -10.729 -4.513 7
11.169 -10.338 -4.511 9
9.464 -8.701 -3.557 20
8.653 -7.9 -3.173 4
8.4 -7.617 -3.168 4
8.378 -7.546 -3.332 7
8.514 -7.617 -3.621 3
24.759 -28.998 -2.113 32
24.846 -28.783 -2.595 28
24.957 -28.592 -3.077 34
25.015 -28.357 -3.547 37
25.151 -28.207 -4.033 36
25.377 -28.171 -4.548 41
25.074 -27.55 -4.9 27
24.238 -26.363 -5.06 6
22.743 -24.501 -4.961 5
21.426 -22.859 -4.871 5
20.252 -21.416 -4.795 4
19.257 -20.168 -4.742 5
18.348 -19.047 -4.695 8
17.566 -18.073 -4.671 7
16.808 -17.147 -4.635 7
14.47 -14.637 -3.825 29
14.265 -14.314 -3.981 5
14.211 -14.142 -4.206 18
14.405 -14.221 -4.561 5
13.91 -13.629 -4.554 5
13.442 -13.068 -4.545 6
13.005 -12.551 -4.542 35
12.592 -12.062 -4.537 6
12.19 -11.595 -4.53 7
11.804 -11.147 -4.519 8
11.449 -10.738 -4.519 8
11.112 -10.348 -4.519 8
9.444 -8.736 -3.583 21
8.607 -7.907 -3.177 4
8.358 -7.624 -3.174 4
8.32 -7.54 -3.327 5
8.456 -7.61 -3.615 3
24.67 -29.067 -2.125 35
24.807 -28.912 -2.62 29
24.903 -28.704 -3.101 32
25.015 -28.532 -3.587 35
25.086 -28.307 -4.058 42
25.3 -28.262 -4.573 38
24.925 -27.557 -4.902 22
24.058 -26.331 -5.05 6
22.581 -24.479 -4.954 5
21.272 -22.837 -4.863 5
20.104 -21.393 -4.787 5
19.129 -20.16 -4.739 4
18.212 -19.025 -4.687 14
17.453 -18.071 -4.671 7
16.704 -17.149 -4.635 7
14.528 -14.789 -3.896 1
14.295 -14.434 -4.04 1
14.259 -14.281 -4.276 1
14.32 -14.226 -4.564 6
13.83 -13.635 -4.558 5
13.371 -13.081 -4.552 6
12.938 -12.565 -4.55 29
12.521 -12.069 -4.542 6
12.123 -11.604 -4.536 7
11.744 -11.16 -4.527 8
11.385 -10.744 -4.523 8
11.052 -10.356 -4.524 9
9.396 -8.745 -3.59 24
8.567 -7.917 -3.186 4
8.313 -7.629 -3.178 4
8.276 -7.545 -3.331 4
8.401 -7.605 -3.611 3
24.559 -29.112 -2.133 31
24.745 -29.015 -2.64 39
24.851 -28.819 -3.126 33
24.95 -28.631 -3.61 35
25.026 -28.414 -4.084 43
25.2 -28.324 -4.589 38
24.787 -27.575 -4.907 28
23.874 -26.292 -5.038 6
22.43 -24.467 -4.95 4
21.12 -22.816 -4.856 5
19.969 -21.384 -4.783 5
19.003 -20.154 -4.736 5
18.084 -19.012 -4.681 15
17.336 -18.063 -4.667 6
16.597 -17.148 -4.635 7
14.546 -14.901 -3.948 14
14.295 -14.526 -4.085 1
14.259 -14.371 -4.322 1
14.232 -14.229 -4.566 5
13.749 -13.642 -4.562 5
13.294 -13.088 -4.557 6
12.861 -12.569 -4.552 6
12.448 -12.074 -4.545 7
12.054 -11.61 -4.54 6
11.682 -11.17 -4.534 8
11.329 -10.758 -4.533 7
10.995 -10.367 -4.532 9
9.342 -8.748 -3.592 23
8.519 -7.921 -3.189 4
8.279 -7.644 -3.19 4
8.275 -7.589 -3.368 3
8.341 -7.596 -3.603 3
24.479 -29.192 -2.147 31
24.682 -29.117 -2.66 40
24.806 -28.943 -3.152 31
24.897 -28.747 -3.637 36
24.952 -28.505 -4.107 48
25.142 -28.434 -4.619 38
24.639 -27.581 -4.909 23
23.697 -26.261 -5.029 6
22.256 -24.43 -4.938 5
20.971 -22.799 -4.85 5
19.825 -21.363 -4.776 5
18.875 -20.145 -4.733 5
17.98 -19.022 -4.685 14
17.23 -18.066 -4.669 7
16.493 -17.149 -4.635 7
14.51 -14.959 -3.975 1
14.286 -14.609 -4.125 15
14.625 -14.833 -4.558 3
14.153 -14.239 -4.571 5
13.671 -13.65 -4.567 5
13.216 -13.092 -4.559 6
12.786 -12.574 -4.555 6
12.383 -12.086 -4.552 7
11.99 -11.621 -4.547 6
11.617 -11.177 -4.539 7
11.263 -10.761 -4.535 8
10.935 -10.373 -4.537 9
9.275 -8.739 -3.585 24
8.473 -7.927 -3.193 2
8.278 -7.689 -3.227 3
8.273 -7.633 -3.405 5
8.281 -7.587 -3.595 8
24.699 -29.632 -2.225 22
24.596 -29.192 -2.674 19
24.768 -29.076 -3.18 31
24.849 -28.867 -3.665 33
24.945 -28.673 -4.149 39
25.078 -28.537 -4.646 37
24.491 -27.587 -4.91 20
23.508 -26.215 -5.015 6
22.093 -24.403 -4.929 5
20.815 -22.771 -4.841 5
19.688 -21.35 -4.771 5
18.744 -20.132 -4.728 5
17.863 -19.019 -4.684 5
17.115 -18.06 -4.666 6
16.384 -17.144 -4.633 7
15.737 -16.326 -4.613 8
14.316 -14.733 -4.186 19
14.576 -14.877 -4.58 5
14.068 -14.243 -4.573 5
13.593 -13.659 -4.571 6
13.137 -13.097 -4.562 6
12.719 -12.588 -4.564 6
12.312 -12.093 -4.557 7
11.924 -11.629 -4.552 7
11.549 -11.181 -4.541 7
11.204 -10.772 -4.542 8
10.878 -10.383 -4.544 8
9.221 -8.741 -3.587 12
8.427 -7.932 -3.197 0
8.271 -7.73 -3.259 3
8.277 -7.683 -3.447 4
8.272 -7.624 -3.627 3
24.675 -29.784 -2.252 27
24.698 -29.491 -2.733 22
24.745 -29.227 -3.212 24
24.803 -28.991 -3.693 35
24.899 -28.798 -4.18 38
25.008 -28.635 -4.673 37
24.328 -27.574 -4.907 14
23.333 -26.182 -5.005 6
21.914 -24.359 -4.915 5
20.659 -22.743 -4.831 5
19.552 -21.336 -4.766 5
18.614 -20.118 -4.723 5
17.747 -19.014 -4.682 15
17.014 -18.068 -4.669 7
16.283 -17.146 -4.634 7
15.638 -16.327 -4.613 7
14.459 -14.974 -4.303 13
14.487 -14.881 -4.582 5
13.986 -14.25 -4.577 5
13.513 -13.664 -4.574 6
13.066 -13.109 -4.568 6
12.64 -12.588 -4.563 8
12.242 -12.1 -4.561 7
11.858 -11.637 -4.557 7
11.49 -11.193 -4.55 7
11.138 -10.775 -4.545 8
10.818 -10.389 -4.548 8
9.162 -8.739 -3.586 4
8.952 -8.478 -3.624 21
8.282 -7.787 -3.306 3
8.278 -7.73 -3.486 3
8.28 -7.677 -3.673 3
24.724 -30.023 -2.294 27
24.722 -29.7 -2.773 23
24.729 -29.387 -3.246 25
24.774 -29.136 -3.727 32
24.847 -28.915 -4.209 34
24.948 -28.744 -4.702 37
24.131 -27.522 -4.892 9
23.175 -26.169 -5.001 6
21.767 -24.348 -4.911 5
20.506 -22.718 -4.822 5
19.413 -21.319 -4.76 5
18.494 -20.116 -4.722 5
17.612 -18.99 -4.672 19
16.898 -18.058 -4.665 7
16.185 -17.152 -4.636 6
15.537 -16.325 -4.613 8
14.945 -15.577 -4.597 6
14.405 -14.891 -4.587 5
13.896 -14.249 -4.576 5
13.433 -13.669 -4.577 5
12.985 -13.11 -4.569 6
12.57 -12.598 -4.57 7
12.174 -12.109 -4.566 7
11.792 -11.644 -4.562 6
11.425 -11.199 -4.554 7
11.08 -10.785 -4.552 7
10.759 -10.397 -4.554 9
9.134 -8.766 -3.606 9
8.93 -8.508 -3.647 25
8.283 -7.835 -3.345 3
8.281 -7.78 -3.528 3
8.278 -7.721 -3.712 3
24.593 -30.047 -2.298 24
24.627 -29.767 -2.786 22
24.725 -29.562 -3.284 23
24.749 -29.287 -3.761 26
24.804 -29.045 -4.242 33
24.805 -28.758 -4.706 43
23.92 -27.452 -4.872 8
22.993 -26.126 -4.988 6
21.616 -24.331 -4.906 5
20.359 -22.698 -4.815 5
19.275 -21.302 -4.753 6
18.375 -20.114 -4.721 5
17.501 -18.99 -4.673 28
16.792 -18.059 -4.666 6
16.084 -17.154 -4.637 6
15.442 -16.328 -4.614 7
14.851 -15.578 -4.598 6
14.309 -14.885 -4.584 5
13.817 -14.257 -4.581 5
13.358 -13.679 -4.582 6
12.917 -13.123 -4.577 6
12.499 -12.605 -4.574 7
12.104 -12.115 -4.57 6
11.725 -11.652 -4.567 7
11.365 -11.21 -4.562 7
11.022 -10.795 -4.559 7
10.702 -10.406 -4.56 9
9.065 -8.753 -3.596 16
8.862 -8.496 -3.638 16
8.278 -7.879 -3.38 3
8.286 -7.832 -3.572 3
8.28 -7.77 -3.755 3
24.088 -29.608 -2.221 19
24.651 -29.979 -2.827 22
24.74 -29.763 -3.326 21
24.732 -29.447 -3.798 22
24.772 -29.188 -4.277 33
24.648 -28.754 -4.705 36
23.781 -27.463 -4.875 9
22.824 -26.097 -4.979 5
21.456 -24.304 -4.897 5
20.212 -22.676 -4.808 5
19.142 -21.29 -4.749 6
18.248 -20.101 -4.716 5
17.39 -18.99 -4.672 32
16.684 -18.057 -4.665 7
15.976 -17.147 -4.634 7
15.341 -16.325 -4.613 8
14.76 -15.581 -4.599 6
14.23 -14.898 -4.591 5
13.738 -14.266 -4.585 5
13.273 -13.678 -4.582 6
12.838 -13.126 -4.579 6
12.427 -12.613 -4.578 7
12.039 -12.126 -4.577 6
11.662 -11.662 -4.573 7
11.301 -11.216 -4.565 8
10.961 -10.803 -4.564 7
10.647 -10.417 -4.568 8
8.984 -8.729 -3.577 22
8.789 -8.477 -3.623 10
8.283 -7.932 -3.423 3
8.283 -7.877 -3.609 3
8.28 -7.817 -3.795 3
27.659 -34.205 -3.031 6
24.705 -30.229 -2.876 26
24.797 -30.015 -3.38 20
24.736 -29.635 -3.842 22
24.728 -29.317 -4.31 40
24.549 -28.818 -4.722 34
23.657 -27.492 -4.883 12
22.642 -26.052 -4.965 6
21.295 -24.273 -4.887 6
20.068 -22.657 -4.802 5
19.015 -21.282 -4.746 6
18.124 -20.091 -4.712 6
17.287 -18.998 -4.676 20
16.576 -18.055 -4.664 6
15.878 -17.151 -4.636 7
15.251 -16.333 -4.616 7
14.67 -15.584 -4.601 6
14.141 -14.9 -4.592 5
13.653 -14.268 -4.587 5
13.198 -13.688 -4.587 6
12.765 -13.135 -4.583 6
12.358 -12.622 -4.584 7
11.972 -12.134 -4.582 7
11.596 -11.669 -4.578 7
11.238 -11.225 -4.571 8
10.903 -10.812 -4.571 7
10.583 -10.418 -4.569 9
8.948 -8.748 -3.592 19
8.676 -8.42 -3.579 26
9.435 -9.091 -4.361 24
8.28 -7.922 -3.648 3
8.284 -7.868 -3.84 3
27.548 -34.276 -3.044 9
37.376 -46.014 -5.944 9
24.702 -30.085 -3.395 37
24.712 -29.79 -3.878 27
24.734 -29.508 -4.357 22
24.44 -28.869 -4.735 33
23.536 -27.523 -4.892 12
22.481 -26.031 -4.958 6
21.134 -24.243 -4.877 6
19.924 -22.638 -4.795 6
18.877 -21.263 -4.739 5
18.005 -20.087 -4.711 5
17.169 -18.989 -4.672 16
16.468 -18.052 -4.663 7
15.775 -17.149 -4.635 6
15.155 -16.334 -4.617 7
14.584 -15.593 -4.605 6
14.053 -14.901 -4.592 5
13.572 -14.274 -4.59 5
13.121 -13.694 -4.591 5
12.69 -13.14 -4.587 6
12.287 -12.629 -4.588 7
11.904 -12.142 -4.587 7
11.532 -11.678 -4.584 7
11.174 -11.231 -4.575 8
10.842 -10.82 -4.576 7
10.531 -10.432 -4.579 8
8.923 -8.777 -3.614 15
8.626 -8.423 -3.581 28
8.8 -8.53 -3.907 9
8.284 -7.974 -3.691 3
8.281 -7.913 -3.878 4
38.767 -48.53 -5.557 5
37.169 -46.04 -5.949 10
25.003 -30.64 -3.513 11
24.649 -29.9 -3.903 36
24.659 -29.602 -4.381 40
24.272 -28.851 -4.731 19
23.415 -27.553 -4.901 14
22.316 -26.003 -4.95 6
20.986 -24.226 -4.871 5
19.778 -22.615 -4.787 6
18.748 -21.251 -4.735 6
17.887 -20.082 -4.709 5
17.056 -18.984 -4.67 22
16.365 -18.054 -4.664 6
15.675 -17.149 -4.635 7
15.058 -16.333 -4.616 7
14.494 -15.595 -4.606 6
13.975 -14.913 -4.599 5
13.493 -14.281 -4.594 5
13.038 -13.695 -4.591 5
12.612 -13.143 -4.588 6
12.215 -12.635 -4.592 7
11.837 -12.15 -4.592 7
11.469 -11.687 -4.59 7
11.114 -11.241 -4.582 7
10.779 -10.823 -4.579 8
10.474 -10.44 -4.585 8
8.864 -8.773 -3.611 20
8.602 -8.451 -3.603 27
9.313 -9.083 -4.355 24
8.755 -8.478 -4.114 8
8.282 -7.962 -3.921 3
26.984 -33.986 -2.993 16
36.939 -46.038 -5.949 9
33.272 -41.026 -5.72 4
25.055 -30.582 -4.06 4
24.721 -29.863 -4.446 22
24.116 -28.845 -4.729 18
23.291 -27.581 -4.909 15
22.151 -25.974 -4.941 6
20.826 -24.194 -4.861 5
19.635 -22.594 -4.78 6
18.619 -21.239 -4.731 6
17.771 -20.08 -4.708 5
16.943 -18.979 -4.668 24
16.257 -18.05 -4.662 7
15.575 -17.149 -4.635 7
14.968 -16.34 -4.619 8
14.406 -15.6 -4.609 6
13.886 -14.913 -4.599 6
13.414 -14.289 -4.598 5
12.966 -13.706 -4.598 6
12.546 -13.158 -4.597 6
12.144 -12.641 -4.596 7
11.764 -12.152 -4.593 6
11.401 -11.691 -4.592 7
11.055 -11.251 -4.589 7
10.723 -10.836 -4.587 7
10.414 -10.445 -4.589 9
8.821 -8.785 -3.62 9
8.537 -8.439 -3.594 21
8.96 -8.793 -4.12 61
8.714 -8.491 -4.125 10
8.283 -8.011 -3.964 3
26.835 -34.006 -2.996 10
36.728 -46.056 -5.952 9
32.95 -40.88 -5.689 4
29.753 -36.542 -5.436 4
24.857 -30.214 -4.533 19
23.959 -28.838 -4.727 17
23.173 -27.614 -4.918 15
21.981 -25.938 -4.93 6
20.669 -24.163 -4.851 6
19.492 -22.573 -4.772 6
18.49 -21.227 -4.726 6
17.648 -20.068 -4.703 5
16.833 -18.977 -4.667 22
16.147 -18.043 -4.659 6
15.475 -17.149 -4.635 6
14.873 -16.34 -4.619 8
14.316 -15.602 -4.609 6
13.806 -14.922 -4.603 5
13.333 -14.293 -4.6 5
12.889 -13.712 -4.601 6
12.463 -13.154 -4.594 6
12.075 -12.649 -4.601 7
11.7 -12.162 -4.6 7
11.335 -11.697 -4.596 7
10.993 -11.258 -4.594 7
10.662 -10.842 -4.591 7
10.36 -10.456 -4.597 8
10.061 -10.083 -4.598 9
8.497 -8.452 -3.604 25
9.23 -9.114 -4.38 12
8.659 -8.489 -4.123 28
8.367 -8.142 -4.077 6
37.762 -48.148 -5.49 5
36.481 -46.031 -5.947 11
32.621 -40.724 -5.656 3
29.494 -36.449 -5.415 4
25.394 -31.06 -4.744 19
23.75 -28.767 -4.708 19
23.054 -27.647 -4.928 15
21.825 -25.916 -4.923 6
20.53 -24.153 -4.848 6
19.36 -22.562 -4.769 6
18.359 -21.212 -4.72 6
17.53 -20.062 -4.701 5
16.721 -18.971 -4.665 23
16.05 -18.05 -4.662 7
15.381 -17.153 -4.637 7
14.781 -16.343 -4.621 7
14.226 -15.603 -4.61 6
13.723 -14.927 -4.606 5
13.252 -14.298 -4.602 5
12.81 -13.715 -4.602 6
12.396 -13.167 -4.602 6
12.006 -12.657 -4.605 7
11.632 -12.169 -4.604 7
11.271 -11.705 -4.602 7
10.929 -11.263 -4.597 8
10.604 -10.85 -4.597 7
10.301 -10.461 -4.6 8
10.003 -10.087 -4.601 9
8.475 -8.483 -3.627 30
0.0 -0.0 3.0 0
8.619 -8.501 -4.134 13
8.379 -8.203 -4.131 9
37.442 -48.033 -5.47 6
36.189 -45.945 -5.931 14
32.319 -40.598 -5.629 4
29.235 -36.355 -5.393 4
25.251 -31.08 -4.749 24
23.507 -28.652 -4.677 18
22.936 -27.678 -4.937 15
21.658 -25.883 -4.913 6
20.368 -24.116 -4.836 6
19.22 -22.542 -4.762 6
18.235 -21.204 -4.718 6
17.409 -20.052 -4.697 5
16.611 -18.968 -4.664 23
15.946 -18.047 -4.661 7
15.276 -17.146 -4.634 6
14.686 -16.343 -4.621 8
14.138 -15.607 -4.612 6
13.637 -14.93 -4.607 5
13.171 -14.301 -4.604 5
12.735 -13.722 -4.606 6
12.323 -13.173 -4.605 6
11.935 -12.663 -4.609 7
11.57 -12.181 -4.612 7
11.208 -11.714 -4.607 6
10.869 -11.273 -4.604 7
10.546 -10.859 -4.604 7
10.244 -10.469 -4.606 8
9.95 -10.096 -4.608 9
8.445 -8.505 -3.645 29
8.848 -8.845 -4.163 15
8.576 -8.512 -4.142 10
8.332 -8.207 -4.134 9
0.0 -0.0 3.0 0
35.835 -45.777 -5.898 10
31.986 -40.43 -5.594 8
28.974 -36.256 -5.37 4
24.998 -30.963 -4.72 15
23.379 -28.676 -4.684 19
22.815 -27.707 -4.945 15
21.495 -25.851 -4.903 6
20.219 -24.092 -4.828 5
19.089 -22.531 -4.758 6
18.11 -21.193 -4.714 6
17.292 -20.044 -4.694 6
16.507 -18.97 -4.664 22
15.839 -18.042 -4.658 7
15.18 -17.147 -4.634 6
14.594 -16.345 -4.622 7
14.051 -15.611 -4.614 6
13.557 -14.937 -4.611 5
13.087 -14.302 -4.604 5
12.659 -13.727 -4.609 6
12.253 -13.182 -4.611 5
11.869 -12.674 -4.615 6
11.501 -12.185 -4.614 7
11.143 -11.719 -4.61 6
10.807 -11.28 -4.609 7
10.486 -10.865 -4.608 7
10.192 -10.481 -4.615 8
9.897 -10.105 -4.615 9
8.447 -8.56 -3.687 6
9.095 -9.148 -4.408 11
8.531 -8.519 -4.148 11
8.295 -8.221 -4.146 7
36.798 -47.793 -5.427 6
35.44 -45.555 -5.855 10
31.72 -40.344 -5.575 15
28.717 -36.16 -5.348 4
24.694 -30.779 -4.674 19
23.204 -28.641 -4.674 21
22.691 -27.732 -4.952 15
21.337 -25.824 -4.895 7
20.071 -24.068 -4.82 5
18.959 -22.522 -4.755 6
17.984 -21.181 -4.709 6
17.175 -20.036 -4.691 5
16.402 -18.971 -4.665 22
15.735 -18.039 -4.657 7
15.086 -17.151 -4.636 7
14.5 -16.344 -4.621 7
13.959 -15.608 -4.612 6
13.467 -14.933 -4.609 5
13.016 -14.316 -4.612 5
12.585 -13.735 -4.613 6
12.175 -13.183 -4.611 5
11.793 -12.673 -4.615 7
11.434 -12.191 -4.618 7
11.079 -11.726 -4.615 7
10.743 -11.284 -4.611 8
10.43 -10.876 -4.615 7
10.13 -10.483 -4.616 9
9.839 -10.109 -4.618 9
9.561 -9.75 -4.617 10
8.585 -8.688 -4.036 13
8.542 -8.582 -4.201 12
8.268 -8.244 -4.166 8
36.534 -47.743 -5.418 4
35.096 -45.393 -5.823 12
31.447 -40.248 -5.555 16
28.501 -36.115 -5.338 3
24.505 -30.735 -4.663 23
23.022 -28.588 -4.66 33
22.573 -27.763 -4.961 14
21.182 -25.8 -4.888 6
19.928 -24.05 -4.814 5
18.821 -22.501 -4.748 6
17.863 -21.166 -4.704 6
17.058 -20.028 -4.688 6
16.293 -18.966 -4.663 21
15.633 -18.038 -4.657 7
14.987 -17.149 -4.635 6
14.408 -16.346 -4.622 8
13.877 -15.616 -4.616 6
13.389 -14.943 -4.614 5
12.928 -14.31 -4.609 6
12.51 -13.742 -4.617 6
12.105 -13.191 -4.616 6
11.73 -12.685 -4.622 7
11.372 -12.202 -4.625 7
11.016 -11.734 -4.62 7
10.684 -11.293 -4.617 7
10.37 -10.881 -4.619 7
10.078 -10.496 -4.626 9
9.786 -10.118 -4.624 8
9.509 -9.757 -4.623 13
8.564 -8.721 -4.062 13
8.636 -8.731 -4.326 35
8.274 -8.301 -4.216 4
36.207 -47.61 -5.395 4
34.776 -45.26 -5.798 8
31.195 -40.175 -5.539 10
27.325 -34.842 -5.044 4
24.398 -30.795 -4.678 12
22.883 -28.594 -4.662 19
22.427 -27.759 -4.96 15
21.022 -25.769 -4.878 7
19.768 -24.01 -4.801 5
18.682 -22.479 -4.74 6
17.743 -21.159 -4.701 6
16.941 -20.02 -4.685 6
16.197 -18.976 -4.667 13
15.534 -18.04 -4.658 7
14.893 -17.151 -4.636 7
14.316 -16.347 -4.623 7
13.79 -15.619 -4.618 6
13.304 -14.944 -4.614 6
12.855 -14.322 -4.615 6
12.431 -13.743 -4.618 6
12.035 -13.199 -4.621 5
11.659 -12.69 -4.625 7
11.302 -12.206 -4.627 7
10.956 -11.744 -4.627 7
10.622 -11.3 -4.622 7
10.314 -10.891 -4.626 7
10.019 -10.5 -4.629 8
9.735 -10.129 -4.632 9
9.455 -9.762 -4.627 17
8.883 -9.103 -4.371 13
8.648 -8.797 -4.381 27
8.275 -8.353 -4.261 7
35.937 -47.549 -5.384 5
34.453 -45.121 -5.771 3
30.888 -40.03 -5.509 4
27.057 -34.718 -5.015 4
24.211 -30.753 -4.668 6
22.731 -28.586 -4.66 18
22.27 -27.74 -4.954 15
20.865 -25.74 -4.869 6
19.623 -23.987 -4.794 5
18.556 -22.471 -4.737 6
17.628 -21.158 -4.701 6
16.824 -20.01 -4.681 6
16.066 -18.945 -4.654 17
15.433 -18.039 -4.657 7
14.797 -17.151 -4.636 6
14.225 -16.348 -4.623 7
13.705 -15.624 -4.62 5
13.219 -14.944 -4.615 5
12.774 -14.323 -4.616 6
12.36 -13.753 -4.623 6
11.965 -13.207 -4.625 6
11.59 -12.696 -4.629 7
11.235 -12.211 -4.63 6
10.893 -11.752 -4.632 7
10.566 -11.311 -4.629 7
10.254 -10.897 -4.63 7
9.963 -10.507 -4.634 8
9.677 -10.132 -4.635 9
9.403 -9.769 -4.633 23
8.894 -9.17 -4.426 19
8.619 -8.822 -4.403 36
8.274 -8.403 -4.305 11
35.631 -47.438 -5.365 5
0.0 -0.0 3.0 0
30.584 -39.886 -5.478 4
26.749 -34.54 -4.974 5
23.986 -30.661 -4.645 7
22.558 -28.548 -4.649 23
22.105 -27.712 -4.946 13
20.694 -25.693 -4.855 5
19.479 -23.963 -4.786 5
18.424 -22.454 -4.732 6
17.499 -21.139 -4.694 5
16.72 -20.015 -4.683 5
15.97 -18.953 -4.657 18
15.327 -18.031 -4.654 7
14.705 -17.156 -4.638 7
14.134 -16.348 -4.623 7
13.618 -15.626 -4.621 6
13.139 -14.951 -4.618 5
12.694 -14.326 -4.617 5
12.281 -13.753 -4.624 6
11.893 -13.212 -4.628 6
11.525 -12.706 -4.635 6
11.173 -12.222 -4.637 7
10.825 -11.753 -4.633 6
10.504 -11.317 -4.633 7
10.196 -10.905 -4.636 7
9.906 -10.513 -4.638 8
9.624 -10.14 -4.641 9
9.349 -9.774 -4.636 26
8.856 -9.188 -4.441 9
8.575 -8.831 -4.41 29
8.279 -8.461 -4.355 8
35.317 -47.314 -5.343 5
0.0 -0.0 3.0 0
30.315 -39.785 -5.456 4
26.346 -34.235 -4.904 11
23.808 -30.626 -4.636 8
22.402 -28.531 -4.645 14
21.944 -27.686 -4.939 14
20.54 -25.666 -4.847 6
19.337 -23.942 -4.779 5
18.296 -22.442 -4.727 6
17.387 -21.139 -4.694 5
16.599 -19.999 -4.677 5
15.866 -18.952 -4.657 15
15.231 -18.035 -4.655 7
14.61 -17.155 -4.638 6
14.047 -16.354 -4.626 7
13.529 -15.624 -4.62 6
13.06 -14.957 -4.621 5
12.623 -14.338 -4.624 6
12.212 -13.764 -4.63 6
11.826 -13.223 -4.634 6
11.456 -12.712 -4.638 7
11.104 -12.224 -4.639 7
10.769 -11.768 -4.642 6
10.445 -11.325 -4.639 7
10.138 -10.912 -4.641 8
9.852 -10.522 -4.645 8
9.569 -10.145 -4.645 9
9.297 -9.781 -4.642 27
8.811 -9.199 -4.449 11
8.543 -8.853 -4.429 29
8.276 -8.511 -4.398 9
35.013 -47.2 -5.323 11
0.0 -0.0 3.0 0
30.052 -39.688 -5.436 3
26.062 -34.082 -4.868 19
23.621 -30.579 -4.624 9
22.191 -28.443 -4.621 29
21.794 -27.673 -4.935 13
20.389 -25.64 -4.839 5
19.198 -23.924 -4.773 5
18.163 -22.423 -4.721 6
17.266 -21.127 -4.69 5
16.491 -19.997 -4.676 5
15.756 -18.943 -4.653 19
15.128 -18.029 -4.653 7
14.514 -17.153 -4.637 6
13.954 -16.351 -4.624 7
13.448 -15.631 -4.624 6
12.977 -14.959 -4.622 5
12.543 -14.34 -4.624 6
12.131 -13.761 -4.628 5
11.751 -13.224 -4.635 6
11.388 -12.718 -4.642 7
11.04 -12.232 -4.644 8
10.702 -11.769 -4.643 6
10.386 -11.333 -4.644 7
10.083 -10.922 -4.647 8
9.798 -10.531 -4.651 8
9.516 -10.153 -4.651 10
9.243 -9.786 -4.645 26
8.764 -9.207 -4.456 10
8.516 -8.88 -4.451 30
8.274 -8.561 -4.442 30
34.774 -47.172 -5.318 17
0.0 -0.0 3.0 0
29.763 -39.556 -5.408 3
25.835 -33.999 -4.849 20
23.405 -30.493 -4.603 8
22.035 -28.426 -4.617 28
21.621 -27.631 -4.923 11
20.238 -25.615 -4.831 6
19.06 -23.905 -4.767 5
18.039 -22.414 -4.718 6
17.14 -21.11 -4.683 5
16.38 -19.991 -4.674 6
15.658 -18.947 -4.655 25
15.03 -18.029 -4.653 7
14.416 -17.149 -4.635 6
13.873 -16.362 -4.63 8
13.359 -15.629 -4.623 6
12.898 -14.965 -4.625 5
12.467 -14.346 -4.628 6
12.062 -13.773 -4.634 5
11.682 -13.23 -4.639 5
11.323 -12.727 -4.647 8
10.978 -12.243 -4.65 7
10.644 -11.781 -4.65 6
10.327 -11.341 -4.649 7
10.023 -10.925 -4.65 7
9.739 -10.534 -4.654 8
9.463 -10.161 -4.657 8
9.191 -9.792 -4.65 27
8.716 -9.215 -4.462 12
8.479 -8.897 -4.466 27
8.25 -8.589 -4.466 27
34.564 -47.182 -5.319 18
0.0 -0.0 3.0 0
29.5 -39.455 -5.386 4
25.589 -33.889 -4.824 25
23.187 -30.403 -4.58 15
21.921 -28.459 -4.626 33
21.425 -27.555 -4.901 9
20.079 -25.578 -4.82 6
18.926 -23.891 -4.763 5
17.907 -22.394 -4.711 6
17.021 -21.1 -4.68 5
16.267 -19.983 -4.671 6
15.547 -18.936 -4.651 27
14.932 -18.028 -4.652 6
14.325 -17.152 -4.637 6
13.785 -16.364 -4.631 8
13.273 -15.629 -4.623 6
12.814 -14.964 -4.624 5
12.39 -14.35 -4.63 6
11.994 -13.783 -4.64 5
11.615 -13.24 -4.644 5
11.254 -12.733 -4.651 7
10.912 -12.247 -4.653 7
10.579 -11.784 -4.653 6
10.268 -11.349 -4.655 7
9.97 -10.938 -4.659 7
9.687 -10.545 -4.662 8
9.405 -10.163 -4.658 8
9.141 -9.802 -4.658 27
8.695 -9.25 -4.491 13
8.437 -8.909 -4.475 26
8.207 -8.597 -4.474 29
0.0 -0.0 3.0 0
0.0 -0.0 3.0 0
29.215 -39.323 -5.358 4
25.405 -33.862 -4.818 32
22.964 -30.302 -4.555 17
21.771 -28.447 -4.622 29
21.284 -27.551 -4.9 13
19.931 -25.554 -4.813 6
18.788 -23.87 -4.756 5
17.778 -22.378 -4.705 6
16.903 -21.09 -4.676 5
16.154 -19.974 -4.667 6
15.442 -18.931 -4.649 29
14.837 -18.03 -4.653 7
14.23 -17.15 -4.635 6
13.691 -16.36 -4.629 7
13.189 -15.633 -4.625 6
12.739 -14.973 -4.629 5
12.315 -14.356 -4.633 5
11.915 -13.783 -4.64 6
11.538 -13.238 -4.643 5
11.189 -12.741 -4.655 7
10.85 -12.257 -4.659 7
10.521 -11.795 -4.66 6
10.206 -11.354 -4.658 7
9.907 -10.939 -4.659 7
9.628 -10.548 -4.664 7
9.353 -10.171 -4.664 8
9.09 -9.808 -4.663 26
8.767 -9.386 -4.6 25
8.391 -8.916 -4.481 23
8.168 -8.611 -4.485 23
34.108 -47.149 -5.314 29
31.994 -43.784 -5.511 7
28.951 -39.215 -5.335 4
25.206 -33.81 -4.806 25
22.757 -30.223 -4.535 20
21.631 -28.446 -4.622 21
21.124 -27.521 -4.892 10
19.775 -25.517 -4.801 6
18.641 -23.837 -4.745 5
17.651 -22.363 -4.7 5
16.785 -21.079 -4.672 5
16.043 -19.967 -4.665 6
15.34 -18.928 -4.648 26
14.737 -18.026 -4.652 6
14.137 -17.15 -4.635 6
13.603 -16.361 -4.629 8
13.106 -15.636 -4.626 6
12.657 -14.975 -4.63 5
12.237 -14.358 -4.635 5
11.847 -13.793 -4.646 5
11.473 -13.25 -4.65 5
11.121 -12.745 -4.658 8
10.783 -12.26 -4.661 7
10.458 -11.801 -4.664 7
10.15 -11.364 -4.665 7
9.854 -10.951 -4.668 7
9.574 -10.557 -4.67 8
9.297 -10.175 -4.667 8
9.04 -9.817 -4.67 26
8.796 -9.477 -4.674 19
8.347 -8.925 -4.489 23
8.121 -8.614 -4.488 25
33.727 -46.918 -5.273 5
24.798 -34.152 -3.638 82
28.681 -39.097 -5.31 5
24.99 -33.736 -4.789 25
22.566 -30.161 -4.52 23
21.505 -28.463 -4.627 27
20.949 -27.469 -4.877 9
19.628 -25.492 -4.794 6
18.508 -23.822 -4.74 5
17.525 -22.348 -4.695 6
16.672 -21.073 -4.67 5
15.929 -19.953 -4.659 6
15.24 -18.928 -4.647 20
14.635 -18.018 -4.648 7
14.042 -17.146 -4.634 6
13.515 -16.362 -4.63 7
13.027 -15.644 -4.63 6
12.581 -14.982 -4.634 5
12.162 -14.364 -4.638 5
11.773 -13.797 -4.648 6
11.402 -13.253 -4.652 5
11.051 -12.748 -4.659 8
10.722 -12.27 -4.667 7
10.4 -11.812 -4.671 6
10.091 -11.371 -4.67 7
9.795 -10.954 -4.67 7
9.52 -10.564 -4.675 8
9.249 -10.187 -4.677 9
8.989 -9.823 -4.674 26
8.748 -9.485 -4.68 23
8.303 -8.934 -4.496 23
8.073 -8.618 -4.491 31
21.337 -29.87 -2.267 15
31.465 -43.61 -5.477 28
28.414 -38.981 -5.286 5
24.785 -33.674 -4.774 17
22.375 -30.099 -4.505 35
21.375 -28.474 -4.629 30
20.78 -27.425 -4.864 8
19.482 -25.467 -4.786 6
18.371 -23.8 -4.733 4
17.404 -22.339 -4.692 6
16.556 -21.065 -4.667 5
15.824 -19.952 -4.659 6
15.14 -18.928 -4.647 21
14.537 -18.016 -4.647 6
13.959 -17.157 -4.639 7
13.428 -16.362 -4.63 7
12.943 -15.645 -4.631 6
12.499 -14.982 -4.634 5
12.082 -14.363 -4.637 5
11.703 -13.804 -4.652 6
11.335 -13.262 -4.657 6
10.985 -12.755 -4.664 8
10.658 -12.276 -4.671 7
10.335 -11.815 -4.673 6
10.03 -11.375 -4.673 7
9.739 -10.963 -4.676 7
9.464 -10.57 -4.679 8
9.196 -10.194 -4.682 9
8.939 -9.831 -4.681 21
8.702 -9.495 -4.689 20
8.256 -8.941 -4.502 18
8.03 -8.626 -4.498 26
21.281 -29.981 -2.287 24
31.262 -43.606 -5.476 15
28.178 -38.905 -5.27 4
24.499 -33.499 -4.734 15
22.201 -30.058 -4.494 21
21.252 -28.492 -4.635 30
20.62 -27.39 -4.854 8
19.333 -25.438 -4.777 5
18.239 -23.783 -4.728 5
17.271 -22.313 -4.683 4
16.434 -21.047 -4.66 5
15.714 -19.944 -4.656 6
15.043 -18.93 -4.648 21
14.447 -18.022 -4.65 6
13.86 -17.147 -4.634 6
13.342 -16.366 -4.632 7
12.86 -15.647 -4.632 6
12.42 -14.986 -4.636 5
12.01 -14.371 -4.641 6
11.629 -13.808 -4.654 6
11.268 -13.27 -4.661 6
10.92 -12.762 -4.668 8
10.594 -12.282 -4.675 8
10.277 -11.825 -4.679 6
9.976 -11.388 -4.681 7
9.682 -10.968 -4.68 7
9.41 -10.577 -4.684 8
9.141 -10.198 -4.685 8
8.885 -9.835 -4.684 26
8.652 -9.5 -4.693 16
8.21 -8.947 -4.507 17
7.989 -8.636 -4.507 28
21.498 -30.48 -2.374 16
31.0 -43.518 -5.459 4
27.91 -38.783 -5.244 5
24.258 -33.384 -4.707 17
22.043 -30.039 -4.49 18
21.124 -28.505 -4.638 28
20.45 -27.342 -4.84 7
19.188 -25.411 -4.769 5
18.103 -23.76 -4.72 5
17.153 -22.307 -4.681 4
16.324 -21.043 -4.659 5
15.609 -19.942 -4.655 6
14.938 -18.923 -4.645 18
14.348 -18.016 -4.648 7
13.77 -17.148 -4.635 6
13.257 -16.369 -4.633 7
12.775 -15.645 -4.631 6
12.341 -14.989 -4.637 5
11.935 -14.376 -4.644 5
11.559 -13.814 -4.657 6
11.199 -13.276 -4.665 6
10.852 -12.766 -4.67 7
10.532 -12.291 -4.68 7
10.215 -11.83 -4.683 6
9.915 -11.391 -4.683 7
9.624 -10.975 -4.685 7
9.356 -10.584 -4.69 8
9.091 -10.207 -4.692 9
8.836 -9.843 -4.69 19
8.606 -9.51 -4.701 23
8.157 -8.945 -4.506 15
7.948 -8.647 -4.516 28
32.744 -46.721 -5.238 16
0.0 -0.0 3.0 0
27.662 -38.686 -5.223 5
23.808 -32.977 -4.613 11
21.877 -30.005 -4.481 18
20.998 -28.521 -4.642 26
20.29 -27.305 -4.83 7
19.047 -25.39 -4.763 6
17.981 -23.755 -4.718 5
17.028 -22.289 -4.675 6
16.207 -21.03 -4.654 5
15.498 -19.93 -4.65 6
14.841 -18.925 -4.646 19
14.256 -18.019 -4.649 7
13.683 -17.152 -4.637 7
13.172 -16.371 -4.634 7
12.694 -15.65 -4.633 6
12.265 -14.994 -4.64 5
11.863 -14.383 -4.648 6
11.486 -13.817 -4.659 6
11.13 -13.281 -4.668 5
10.792 -12.778 -4.678 8
10.471 -12.299 -4.685 7
10.157 -11.84 -4.689 6
9.856 -11.398 -4.688 7
9.572 -10.985 -4.692 7
9.3 -10.589 -4.693 8
9.038 -10.213 -4.696 8
8.78 -9.843 -4.69 23
8.553 -9.512 -4.703 21
8.113 -8.954 -4.513 23
7.91 -8.66 -4.528 18
32.498 -46.667 -5.229 21
0.0 -0.0 3.0 0
27.394 -38.56 -5.196 5
23.345 -32.546 -4.514 15
21.691 -29.943 -4.466 19
20.868 -28.529 -4.644 27
20.14 -27.281 -4.823 7
18.904 -25.366 -4.755 6
17.85 -23.736 -4.712 5
16.915 -22.287 -4.674 6
16.095 -21.023 -4.652 5
15.398 -19.933 -4.652 6
14.745 -18.925 -4.646 17
14.162 -18.018 -4.648 7
13.589 -17.147 -4.634 6
13.082 -16.367 -4.632 7
12.611 -15.651 -4.633 6
12.186 -14.997 -4.641 5
11.791 -14.39 -4.651 6
11.413 -13.82 -4.661 6
11.058 -13.282 -4.668 5
10.722 -12.78 -4.679 7
10.407 -12.304 -4.689 7
10.1 -11.85 -4.695 7
9.797 -11.404 -4.692 7
9.512 -10.988 -4.694 7
9.243 -10.593 -4.697 8
8.988 -10.223 -4.703 8
8.735 -9.856 -4.701 16
8.507 -9.522 -4.711 20
8.064 -8.957 -4.516 17
7.865 -8.665 -4.532 23
32.286 -46.662 -5.228 26
0.0 -0.0 3.0 0
27.159 -38.476 -5.178 5
23.048 -32.34 -4.466 19
21.509 -29.886 -4.451 19
20.729 -28.524 -4.643 26
19.972 -27.23 -4.808 6
18.762 -25.34 -4.747 6
17.716 -23.715 -4.705 5
16.795 -22.275 -4.67 6
15.983 -21.015 -4.649 5
15.285 -19.917 -4.645 6
14.643 -18.92 -4.644 16
14.063 -18.012 -4.645 7
13.502 -17.15 -4.636 6
13.0 -16.372 -4.635 8
12.531 -15.654 -4.635 6
12.108 -15.0 -4.643 5
11.711 -14.388 -4.65 6
11.347 -13.832 -4.667 8
10.992 -13.29 -4.673 5
10.659 -12.789 -4.684 7
10.344 -12.31 -4.692 7
10.035 -11.852 -4.696 6
9.739 -11.41 -4.696 7
9.459 -10.998 -4.701 7
9.192 -10.603 -4.703 8
8.933 -10.226 -4.706 9
8.684 -9.861 -4.704 11
8.459 -9.529 -4.716 22
8.02 -8.965 -4.523 16
7.819 -8.67 -4.536 17
21.378 -31.096 -2.483 9
0.0 -0.0 3.0 0
26.911 -38.372 -5.156 4
22.781 -32.174 -4.428 19
21.31 -29.803 -4.431 15
20.574 -28.497 -4.636 14
19.815 -27.195 -4.798 6
18.618 -25.312 -4.739 5
17.586 -23.695 -4.699 5
16.67 -22.256 -4.664 5
15.872 -21.007 -4.646 5
15.176 -19.907 -4.642 6
14.547 -18.92 -4.644 15
13.971 -18.012 -4.646 6
13.408 -17.144 -4.633 6
12.911 -16.368 -4.632 7
12.448 -15.654 -4.635 6
12.031 -15.004 -4.645 5
11.639 -14.395 -4.654 6
11.274 -13.834 -4.668 6
10.923 -13.294 -4.675 6
10.592 -12.792 -4.686 7
10.282 -12.318 -4.697 7
9.975 -11.858 -4.701 6
9.682 -11.419 -4.702 7
9.402 -11.003 -4.704 7
9.136 -10.607 -4.706 8
8.882 -10.234 -4.712 9
8.635 -9.869 -4.71 12
8.413 -9.539 -4.724 18
7.974 -8.971 -4.528 17
7.779 -8.679 -4.545 15
21.23 -31.08 -2.48 2
0.0 -0.0 3.0 0
26.661 -38.264 -5.133 4
22.549 -32.055 -4.4 14
21.116 -29.726 -4.412 18
20.425 -28.476 -4.63 8
19.66 -27.158 -4.788 6
18.483 -25.294 -4.733 6
17.453 -23.672 -4.692 5
16.558 -22.253 -4.662 6
15.767 -21.007 -4.646 5
15.065 -19.893 -4.636 6
14.443 -18.911 -4.64 14
13.875 -18.008 -4.644 7
13.323 -17.149 -4.635 7
12.828 -16.372 -4.634 7
12.37 -15.66 -4.638 6
11.955 -15.009 -4.647 6
11.57 -14.404 -4.659 6
11.199 -13.834 -4.668 6
10.856 -13.301 -4.679 5
10.529 -12.801 -4.691 7
10.216 -12.32 -4.698 8
9.917 -11.868 -4.707 6
9.626 -11.427 -4.707 7
9.342 -11.005 -4.706 7
9.082 -10.614 -4.711 8
8.83 -10.24 -4.716 9
8.588 -9.879 -4.719 18
8.365 -9.545 -4.729 19
7.919 -8.967 -4.524 38
7.733 -8.684 -4.549 16
31.528 -46.453 -5.191 21
0.0 -0.0 3.0 0
26.422 -38.168 -5.113 5
22.285 -31.887 -4.362 16
20.98 -29.727 -4.412 18
20.236 -28.399 -4.609 9
19.509 -27.128 -4.779 6
18.342 -25.267 -4.725 6
17.33 -23.661 -4.688 5
16.436 -22.237 -4.657 5
15.651 -20.992 -4.64 5
14.966 -19.894 -4.637 7
14.349 -18.913 -4.642 13
13.783 -18.009 -4.644 7
13.232 -17.146 -4.634 7
12.746 -16.376 -4.636 7
12.29 -15.662 -4.639 6
11.879 -15.013 -4.649 5
11.493 -14.405 -4.659 6
11.131 -13.841 -4.672 6
10.79 -13.308 -4.683 5
10.464 -12.806 -4.695 7
10.153 -12.324 -4.701 8
9.855 -11.871 -4.709 6
9.57 -11.435 -4.713 7
9.287 -11.012 -4.711 7
9.028 -10.62 -4.716 8
8.777 -10.246 -4.721 10
8.532 -9.878 -4.718 27
8.314 -9.549 -4.732 22
7.886 -8.987 -4.541 17
7.688 -8.689 -4.553 19
20.592 -30.538 -2.385 3
21.29 -31.266 -3.078 25
26.185 -38.073 -5.093 5
22.075 -31.794 -4.34 22
20.791 -29.654 -4.394 21
20.096 -28.389 -4.607 9
19.347 -27.082 -4.765 6
18.205 -25.245 -4.718 6
17.198 -23.638 -4.68 5
16.317 -22.223 -4.652 6
15.545 -20.988 -4.639 5
14.863 -19.888 -4.634 7
14.249 -18.906 -4.638 11
13.694 -18.012 -4.646 7
13.145 -17.148 -4.635 7
12.659 -16.373 -4.635 7
12.208 -15.661 -4.639 6
11.804 -15.016 -4.651 6
11.419 -14.407 -4.661 6
11.063 -13.848 -4.676 6
10.724 -13.313 -4.687 5
10.402 -12.814 -4.7 7
10.094 -12.335 -4.708 8
9.795 -11.878 -4.713 6
9.511 -11.44 -4.717 7
9.232 -11.02 -4.716 7
8.975 -10.626 -4.72 8
8.725 -10.251 -4.724 9
8.485 -9.888 -4.726 34
8.266 -9.556 -4.738 18
7.845 -8.998 -4.55 23
7.649 -8.701 -4.564 22
21.235 -31.696 -2.589 19
21.179 -31.307 -3.085 25
25.941 -37.966 -5.07 4
21.802 -31.607 -4.297 18
20.613 -29.594 -4.379 22
19.972 -28.4 -4.61 11
19.194 -27.046 -4.755 6
18.067 -25.221 -4.711 6
17.064 -23.61 -4.671 5
16.201 -22.211 -4.648 5
15.434 -20.977 -4.635 5
14.755 -19.877 -4.63 7
14.146 -18.895 -4.634 9
13.599 -18.007 -4.643 7
13.057 -17.147 -4.634 6
12.575 -16.373 -4.635 7
12.13 -15.667 -4.641 6
11.725 -15.017 -4.652 5
11.347 -14.412 -4.663 6
10.991 -13.85 -4.677 6
10.655 -13.318 -4.689 5
10.335 -12.817 -4.701 7
10.035 -12.345 -4.714 8
9.736 -11.884 -4.717 6
9.453 -11.445 -4.72 6
9.18 -11.03 -4.723 7
8.928 -10.641 -4.731 8
8.672 -10.256 -4.728 8
8.429 -9.888 -4.725 27
8.218 -9.562 -4.743 20
7.794 -8.997 -4.549 31
7.604 -8.705 -4.567 16
20.332 -30.546 -2.386 12
21.167 -31.494 -3.122 16
25.71 -37.875 -5.051 5
21.63 -31.564 -4.287 17
20.473 -29.587 -4.377 32
19.857 -28.424 -4.616 11
19.033 -26.998 -4.742 6
17.929 -25.195 -4.703 5
16.946 -23.604 -4.669 5
16.082 -22.196 -4.643 6
15.321 -20.965 -4.63 5
14.652 -19.871 -4.628 6
14.05 -18.894 -4.634 8
13.508 -18.007 -4.643 7
12.97 -17.148 -4.635 7
12.496 -16.38 -4.638 7
12.052 -15.671 -4.643 6
11.654 -15.027 -4.657 6
11.278 -14.42 -4.667 6
10.925 -13.86 -4.683 6
10.591 -13.326 -4.694 5
10.268 -12.819 -4.702 7
9.972 -12.348 -4.716 7
9.683 -11.898 -4.727 6
9.39 -11.445 -4.72 7
9.123 -11.034 -4.726 7
8.87 -10.641 -4.731 8
8.624 -10.267 -4.737 8
8.384 -9.9 -4.735 27
8.172 -9.571 -4.75 19
7.748 -9.002 -4.554 21
7.563 -8.715 -4.576 15
20.224 -30.584 -2.393 22
21.454 -32.13 -3.245 4
25.483 -37.788 -5.032 4
21.505 -31.589 -4.293 20
20.324 -29.567 -4.372 22
19.749 -28.457 -4.625 12
18.882 -26.962 -4.731 6
17.791 -25.169 -4.695 6
16.824 -23.59 -4.665 5
15.971 -22.191 -4.641 5
15.211 -20.953 -4.626 5
14.543 -19.855 -4.621 6
13.952 -18.889 -4.631 8
13.412 -18.0 -4.641 6
12.882 -17.146 -4.634 7
12.409 -16.376 -4.636 7
11.973 -15.672 -4.644 6
11.574 -15.024 -4.655 6
11.206 -14.426 -4.67 6
10.855 -13.864 -4.685 6
10.527 -13.334 -4.699 5
10.207 -12.829 -4.708 7
9.911 -12.354 -4.72 8
9.616 -11.895 -4.725 6
9.336 -11.455 -4.727 7
9.068 -11.04 -4.73 7
8.816 -10.646 -4.735 8
8.567 -10.266 -4.736 8
8.333 -9.904 -4.738 22
8.122 -9.574 -4.753 19
7.7 -9.005 -4.556 13
7.523 -8.725 -4.584 17
30.378 -46.24 -5.153 11
21.336 -32.164 -3.252 14
25.245 -37.684 -5.01 4
21.437 -31.699 -4.318 23
20.213 -29.602 -4.381 23
19.636 -28.484 -4.632 12
18.731 -26.925 -4.721 6
17.665 -25.158 -4.692 5
16.696 -23.567 -4.657 5
15.85 -22.172 -4.634 5
15.108 -20.951 -4.626 5
14.449 -19.86 -4.623 7
13.857 -18.887 -4.631 8
13.324 -18.002 -4.641 7
12.798 -17.149 -4.635 7
12.328 -16.379 -4.638 9
11.895 -15.677 -4.646 6
11.503 -15.033 -4.66 5
11.132 -14.427 -4.671 6
10.785 -13.868 -4.687 6
10.459 -13.337 -4.7 5
10.143 -12.833 -4.711 7
9.85 -12.362 -4.724 7
9.557 -11.901 -4.729 6
9.28 -11.463 -4.732 7
9.013 -11.047 -4.735 7
8.762 -10.652 -4.739 8
8.517 -10.274 -4.742 9
8.282 -9.908 -4.741 22
8.076 -9.583 -4.76 17
7.658 -9.015 -4.564 14
7.484 -8.736 -4.594 15
20.129 -30.841 -2.438 24
21.485 -32.602 -3.337 22
25.022 -37.598 -4.992 5
21.366 -31.804 -4.343 23
20.082 -29.606 -4.382 33
19.523 -28.509 -4.639 13
18.58 -26.888 -4.71 6
17.526 -25.127 -4.682 5
16.574 -23.554 -4.653 5
15.737 -22.162 -4.631 5
14.998 -20.939 -4.621 5
14.342 -19.846 -4.618 7
13.766 -18.889 -4.632 8
13.231 -17.998 -4.64 7
12.712 -17.15 -4.636 7
12.246 -16.381 -4.638 7
11.82 -15.683 -4.649 6
11.425 -15.032 -4.659 6
11.059 -14.429 -4.672 6
10.72 -13.877 -4.692 6
10.39 -13.34 -4.702 5
10.076 -12.835 -4.712 7
9.789 -12.367 -4.728 7
9.504 -11.915 -4.737 6
9.222 -11.467 -4.735 7
8.954 -11.047 -4.735 7
8.709 -10.657 -4.743 7
8.467 -10.281 -4.747 8
8.235 -9.917 -4.748 23
8.03 -9.591 -4.767 18
7.616 -9.024 -4.572 14
7.441 -8.743 -4.6 14
19.982 -30.817 -2.434 16
20.256 -30.941 -3.014 6
24.799 -37.51 -4.973 4
21.214 -31.789 -4.339 23
19.881 -29.506 -4.357 34
19.415 -28.541 -4.648 13
18.432 -26.853 -4.7 6
17.394 -25.105 -4.675 6
16.457 -23.546 -4.65 5
15.62 -22.146 -4.625 5
14.892 -20.933 -4.619 5
14.242 -19.841 -4.616 7
13.666 -18.881 -4.628 8
13.138 -17.993 -4.638 7
12.629 -17.153 -4.637 7
