# .PCD v0.7 - Point Cloud Data file format
VERSION 0.7
FIELDS x y z intensity
SIZE 4 4 4 4
TYPE F F F F
COUNT 1 1 1 1
WIDTH 1980
HEIGHT 1
VIEWPOINT 0 0 0 1 0 0 0
POINTS 1980
DATA ascii
-27.47 -15.737 -4.676 6
-26.069 -14.834 -4.559 5
-24.793 -14.023 -4.456 5
-23.653 -13.3 -4.373 7
-22.59 -12.642 -4.299 8
-21.643 -12.056 -4.244 7
-19.988 -11.093 -3.932 255
-19.955 -11.037 -4.168 7
-19.182 -10.581 -4.137 9
-16.38 -9.012 -3.311 16
-16.11 -8.848 -3.429 5
-16.188 -8.876 -3.689 28
-15.818 -8.664 -3.769 12
-15.263 -8.353 -3.764 11
-14.739 -8.059 -3.762 13
-14.235 -7.781 -3.764 21
-10.98 -7.632 1.654 9
-11.027 -7.536 1.535 13
0.0 -0.0 3.0 0
-11.704 -7.746 1.212 13
-11.648 -7.592 1.107 1
-11.916 -7.651 0.95 9
-11.852 -7.504 0.848 34
-11.651 -7.278 0.775 12
-11.604 -7.153 0.676 10
-13.341 -8.124 0.203 25
-12.664 -7.618 0.227 20
-35.667 -21.23 -5.149 25
-12.739 -7.502 -0.031 22
-32.948 -19.221 -5.159 13
-31.111 -17.984 -5.007 11
-29.277 -16.787 -4.828 6
-27.65 -15.731 -4.673 7
-26.236 -14.827 -4.555 5
-24.941 -14.009 -4.449 5
-23.788 -13.285 -4.364 7
-22.723 -12.629 -4.292 9
-21.757 -12.038 -4.233 7
-20.035 -11.046 -3.902 33
-20.062 -11.023 -4.158 7
-17.198 -9.425 -3.357 1
-16.396 -8.963 -3.276 15
-16.202 -8.842 -3.424 5
-16.313 -8.889 -3.698 29
-15.893 -8.651 -3.759 13
-15.333 -8.341 -3.754 12
-14.807 -8.048 -3.753 14
-14.289 -7.765 -3.75 19
-31.212 -21.566 -0.803 22
-11.052 -7.507 1.541 20
-11.328 -7.571 1.391 43
-11.747 -7.725 1.217 22
-11.777 -7.627 1.098 13
-11.655 -7.436 1.008 16
-11.615 -7.305 0.905 2
-11.647 -7.227 0.791 18
-11.886 -7.278 0.635 2
-13.29 -8.038 0.232 20
-12.628 -7.544 0.254 11
-35.883 -21.212 -5.142 23
-12.785 -7.478 -0.021 29
-33.173 -19.218 -5.158 12
-31.359 -18.001 -5.015 7
-29.48 -16.787 -4.828 5
-27.847 -15.734 -4.674 7
-26.413 -14.823 -4.553 6
-25.081 -13.991 -4.439 5
-23.92 -13.267 -4.354 8
-22.849 -12.613 -4.282 9
-21.881 -12.025 -4.225 7
-21.008 -11.505 -4.189 8
-20.176 -11.012 -4.151 7
-17.172 -9.35 -3.306 9
-16.505 -8.965 -3.277 20
-16.267 -8.822 -3.409 0
-16.643 -9.012 -3.791 31
-15.957 -8.633 -3.745 13
-15.4 -8.326 -3.742 11
-14.873 -8.036 -3.743 14
-14.357 -7.757 -3.743 19
-11.559 -7.939 1.6 12
-11.12 -7.507 1.541 27
-11.248 -7.471 1.412 23
0.0 -0.0 3.0 0
-11.651 -7.498 1.131 6
-11.665 -7.394 1.019 7
-11.6 -7.248 0.922 1
-11.66 -7.187 0.803 14
-11.98 -7.287 0.632 5
-11.844 -7.115 0.55 0
-12.639 -7.499 0.271 26
-12.932 -7.592 0.086 19
-12.847 -7.462 -0.015 20
-33.391 -19.21 -5.154 12
-31.57 -17.997 -5.013 4
-29.681 -16.783 -4.826 5
-28.027 -15.725 -4.67 7
-26.57 -14.809 -4.545 5
-25.253 -13.989 -4.438 5
-24.055 -13.25 -4.345 7
-22.985 -12.602 -4.276 9
-21.998 -12.008 -4.215 5
-20.474 -11.137 -3.959 7
-20.279 -10.995 -4.14 7
-17.437 -9.431 -3.361 5
-16.565 -8.939 -3.259 19
-16.13 -8.692 -3.315 16
-16.447 -8.849 -3.668 29
-16.048 -8.629 -3.741 12
-15.473 -8.316 -3.734 12
-14.941 -8.025 -3.734 13
-14.424 -7.747 -3.735 23
-11.535 -7.875 1.611 13
-11.138 -7.474 1.547 23
-11.25 -7.426 1.422 11
-11.52 -7.481 1.273 20
-11.73 -7.5 1.13 9
-11.627 -7.322 1.038 6
-11.442 -7.103 0.963 0
-11.639 -7.126 0.821 11
-11.801 -7.129 0.684 12
-11.887 -7.093 0.558 9
-12.64 -7.448 0.289 8
-12.957 -7.554 0.1 39
-12.882 -7.431 -0.002 16
-33.599 -19.196 -5.148 12
-31.795 -17.999 -5.013 3
-29.909 -16.794 -4.831 12
-28.215 -15.72 -4.667 7
-26.738 -14.798 -4.54 5
-25.404 -13.976 -4.431 6
-24.193 -13.235 -4.336 7
-23.111 -12.584 -4.266 9
-22.123 -11.994 -4.206 7
-21.223 -11.467 -4.165 7
-20.39 -10.981 -4.131 7
-17.498 -9.402 -3.342 15
-16.661 -8.933 -3.255 17
-16.295 -8.724 -3.339 3
-16.619 -8.886 -3.696 38
-16.12 -8.613 -3.729 12
-15.539 -8.3 -3.721 11
-15.017 -8.017 -3.727 12
-14.485 -7.735 -3.724 20
-11.577 -7.857 1.615 6
-11.183 -7.459 1.55 29
-11.146 -7.311 1.446 22
-12.106 -7.812 1.197 11
-11.485 -7.296 1.181 21
-12.405 -7.761 0.92 8
-13.76 -8.485 0.567 6
-13.038 -7.93 0.575 3
-11.878 -7.127 0.684 0
-13.371 -7.923 0.272 0
-12.393 -7.252 0.36 11
-12.985 -7.518 0.114 2
-12.924 -7.403 0.009 26
-33.82 -19.187 -5.144 11
-32.041 -18.011 -5.019 5
-30.083 -16.773 -4.821 19
-28.389 -15.706 -4.66 7
-26.895 -14.782 -4.532 4
-25.569 -13.97 -4.428 6
-24.342 -13.224 -4.33 7
-23.244 -12.57 -4.257 8
-22.243 -11.977 -4.196 7
-21.338 -11.451 -4.156 8
-20.497 -10.965 -4.121 8
-17.572 -9.38 -3.327 6
-16.753 -8.924 -3.249 16
-16.564 -8.812 -3.402 5
-16.878 -8.968 -3.758 45
-16.197 -8.602 -3.72 12
-15.623 -8.294 -3.716 11
-15.085 -8.006 -3.718 13
-14.543 -7.72 -3.711 20
-11.312 -7.632 1.654 13
-11.47 -7.604 1.522 27
-11.174 -7.285 1.452 24
-13.038 -8.36 1.07 7
-11.591 -7.317 1.176 10
-11.679 -7.259 1.055 3
-12.228 -7.49 0.852 32
-12.384 -7.482 0.713 0
-13.538 -8.068 0.378 18
-47.318 -27.849 -6.589 2
-12.417 -7.216 0.374 7
-36.967 -21.255 -5.159 20
-12.881 -7.327 0.04 24
-34.025 -19.168 -5.136 10
-32.256 -18.004 -5.016 5
-30.322 -16.788 -4.828 14
-28.587 -15.704 -4.66 7
-27.077 -14.777 -4.529 5
-25.728 -13.958 -4.421 6
-24.471 -13.202 -4.318 8
-23.384 -12.559 -4.251 9
-22.375 -11.965 -4.189 7
-20.587 -10.974 -3.857 79
-20.489 -10.888 -4.071 31
-17.637 -9.352 -3.308 10
-16.853 -8.919 -3.245 24
-17.557 -9.28 -3.742 18
-17.004 -8.978 -3.765 32
-16.275 -8.589 -3.711 13
-15.689 -8.279 -3.704 19
-15.151 -7.993 -3.707 13
-14.624 -7.717 -3.708 15
-11.545 -7.742 1.635 23
-11.551 -7.611 1.521 3
-11.275 -7.304 1.447 15
-11.396 -7.261 1.324 13
-11.764 -7.378 1.16 15
-11.57 -7.144 1.086 11
-12.505 -7.609 0.818 22
-12.648 -7.59 0.679 1
-12.507 -7.404 0.594 6
-12.994 -7.595 0.385 2
-12.386 -7.148 0.398 22
-12.414 -7.088 0.279 0
-12.906 -7.289 0.055 18
-34.248 -19.159 -5.132 10
-32.489 -18.006 -5.017 5
-30.534 -16.786 -4.827 14
-28.789 -15.705 -4.66 7
-27.245 -14.764 -4.523 5
-25.889 -13.947 -4.416 6
-24.617 -13.188 -4.31 7
-23.514 -12.541 -4.241 9
-22.496 -11.947 -4.179 7
-20.603 -10.908 -3.816 255
-20.539 -10.841 -4.04 19
-17.728 -9.339 -3.299 14
-16.845 -8.857 -3.202 22
-16.829 -8.838 -3.421 15
-17.094 -8.968 -3.758 37
-16.35 -8.575 -3.7 12
-15.762 -8.267 -3.694 11
-15.233 -7.988 -3.703 14
-14.688 -7.706 -3.699 15
-11.554 -7.702 1.642 6
-11.141 -7.296 1.582 23
-11.54 -7.43 1.421 7
-11.458 -7.255 1.325 27
-11.632 -7.248 1.193 10
-11.605 -7.119 1.092 8
-12.515 -7.566 0.831 10
0.0 -0.0 3.0 0
-12.395 -7.288 0.632 11
-13.001 -7.547 0.401 0
-12.492 -7.16 0.394 16
-12.564 -7.123 0.266 0
-12.954 -7.266 0.065 24
-34.46 -19.141 -5.125 9
-32.732 -18.013 -5.02 5
-30.75 -16.785 -4.827 13
-28.977 -15.695 -4.655 7
-27.43 -14.759 -4.52 4
-26.045 -13.933 -4.408 6
-24.773 -13.179 -4.305 8
-23.644 -12.524 -4.231 9
-22.62 -11.931 -4.169 7
-20.608 -10.837 -3.772 255
-20.629 -10.816 -4.024 9
-17.843 -9.337 -3.298 17
-17.305 -9.039 -3.329 21
-16.898 -8.818 -3.407 17
-17.146 -8.938 -3.736 42
-16.424 -8.56 -3.688 13
-15.846 -8.26 -3.689 11
-15.291 -7.971 -3.689 15
-14.752 -7.695 -3.689 15
-12.731 -8.435 1.513 11
-11.165 -7.267 1.587 22
-11.616 -7.432 1.42 7
-11.385 -7.163 1.346 10
-11.691 -7.238 1.195 8
-11.576 -7.055 1.11 19
-12.383 -7.435 0.868 3
-12.655 -7.492 0.709 1
-12.452 -7.271 0.637 19
-13.306 -7.671 0.359 6
-12.662 -7.207 0.377 35
-12.89 -7.257 0.214 5
-12.958 -7.217 0.084 23
-34.676 -19.125 -5.118 8
-32.962 -18.011 -5.019 5
-30.972 -16.787 -4.828 14
-29.172 -15.689 -4.652 7
-27.602 -14.747 -4.514 5
-26.2 -13.917 -4.4 6
-24.909 -13.159 -4.294 6
-23.778 -12.507 -4.221 9
-22.745 -11.915 -4.159 7
-20.62 -10.768 -3.729 255
-20.515 -10.683 -3.938 32
-17.958 -9.334 -3.296 20
-17.142 -8.895 -3.228 18
-16.802 -8.711 -3.329 23
-17.212 -8.917 -3.719 48
-16.495 -8.545 -3.676 12
-15.916 -8.246 -3.677 11
-15.357 -7.958 -3.677 20
-14.819 -7.684 -3.68 15
-12.844 -8.459 1.508 19
-11.202 -7.246 1.591 3
-11.751 -7.472 1.412 7
-11.406 -7.131 1.354 21
-11.696 -7.194 1.206 21
-11.561 -6.999 1.125 14
-12.552 -7.487 0.853 7
-12.624 -7.424 0.73 14
-12.527 -7.264 0.64 20
-12.965 -7.423 0.444 28
-12.58 -7.11 0.412 14
-12.756 -7.131 0.263 15
-13.006 -7.193 0.094 6
-34.906 -19.115 -5.114 8
-33.206 -18.015 -5.021 5
-31.182 -16.779 -4.824 15
-29.365 -15.68 -4.647 7
-27.771 -14.732 -4.507 4
-26.376 -13.912 -4.397 6
-25.058 -13.145 -4.286 5
-23.929 -12.498 -4.216 7
-20.746 -10.793 -3.485 35
-20.631 -10.701 -3.687 255
-21.023 -10.874 -4.062 8
-17.988 -9.288 -3.265 17
-17.225 -8.88 -3.218 19
-17.063 -8.789 -3.386 16
-17.315 -8.912 -3.716 36
-16.573 -8.531 -3.665 15
-15.992 -8.235 -3.669 11
-15.426 -7.945 -3.667 19
-14.897 -7.679 -3.675 14
-11.049 -7.234 1.725 12
-11.615 -7.467 1.549 10
-11.232 -7.097 1.491 12
-11.333 -7.039 1.375 21
-11.399 -6.967 1.263 18
-11.521 -6.93 1.143 17
-12.681 -7.514 0.846 23
-12.627 -7.375 0.745 17
-12.67 -7.297 0.629 18
-12.845 -7.303 0.485 22
-12.631 -7.089 0.42 20
-12.724 -7.063 0.289 24
-13.024 -7.151 0.111 6
-35.119 -19.095 -5.105 9
-33.464 -18.026 -5.026 5
-31.412 -16.783 -4.826 14
-29.567 -15.675 -4.645 7
-27.967 -14.731 -4.506 4
-26.549 -13.904 -4.393 6
-25.205 -13.128 -4.277 3
-24.063 -12.48 -4.205 7
-20.764 -10.727 -3.445 25
-20.635 -10.63 -3.642 255
-21.011 -10.795 -4.01 24
-18.066 -9.266 -3.25 17
-17.701 -9.065 -3.348 7
-17.115 -8.759 -3.364 22
-17.378 -8.888 -3.698 36
-16.648 -8.516 -3.654 26
-16.072 -8.225 -3.661 12
-15.504 -7.937 -3.66 16
-14.958 -7.666 -3.664 14
-11.113 -7.232 1.725 9
-11.717 -7.487 1.545 24
-11.283 -7.085 1.494 6
-12.131 -7.487 1.271 24
-11.536 -7.004 1.254 12
-11.573 -6.914 1.147 0
-13.42 -7.898 0.735 5
-12.678 -7.354 0.752 11
-12.758 -7.297 0.629 15
-13.088 -7.389 0.456 17
-12.671 -7.061 0.43 30
-12.789 -7.049 0.294 8
-12.982 -7.077 0.141 7
-35.343 -19.079 -5.098 9
-33.692 -18.018 -5.022 4
-31.625 -16.776 -4.823 16
-29.774 -15.672 -4.644 7
-28.139 -14.715 -4.498 4
-26.712 -13.89 -4.385 6
-25.355 -13.114 -4.269 4
-24.193 -12.46 -4.194 7
-23.13 -11.866 -4.13 7
-20.646 -10.562 -3.6 255
-20.995 -10.713 -3.957 26
-18.1 -9.221 -3.22 22
-17.802 -9.057 -3.341 52
-17.468 -8.882 -3.453 22
-17.464 -8.875 -3.688 35
-16.729 -8.504 -3.644 13
-16.152 -8.216 -3.653 12
-15.576 -7.927 -3.651 18
-15.025 -7.655 -3.654 14
-30.124 -19.484 -0.436 3
-12.312 -7.819 1.48 17
-11.263 -7.028 1.506 6
-11.805 -7.239 1.329 35
-11.798 -7.117 1.226 17
-12.668 -7.519 0.985 7
-13.336 -7.796 0.764 9
-12.756 -7.349 0.753 8
-12.789 -7.264 0.64 14
-12.823 -7.189 0.525 25
-12.781 -7.073 0.426 26
-13.054 -7.144 0.258 3
-13.054 -7.066 0.145 1
-35.57 -19.064 -5.092 8
-33.95 -18.026 -5.026 4
-31.846 -16.771 -4.821 15
-29.984 -15.669 -4.642 30
-28.34 -14.714 -4.497 4
-26.886 -13.88 -4.38 6
-25.491 -13.09 -4.256 4
-24.334 -12.444 -4.185 6
-23.244 -11.842 -4.115 7
-20.667 -10.5 -3.561 50
-21.359 -10.825 -4.03 7
-18.211 -9.216 -3.216 16
-17.814 -9.003 -3.304 25
-17.646 -8.915 -3.477 28
-17.547 -8.861 -3.677 35
-16.814 -8.494 -3.636 12
-16.232 -8.205 -3.645 11
-15.665 -7.924 -3.649 15
-15.096 -7.645 -3.646 15
-17.059 -10.967 1.066 7
-12.459 -7.863 1.472 41
-11.297 -7.005 1.511 0
-11.901 -7.251 1.326 48
-11.792 -7.067 1.238 19
-12.749 -7.517 0.986 3
-13.473 -7.823 0.757 5
-12.762 -7.302 0.767 12
-12.908 -7.282 0.634 22
-12.798 -7.125 0.547 17
-12.866 -7.069 0.427 19
-13.171 -7.157 0.253 27
-37.203 -19.993 -5.078 24
-35.811 -19.056 -5.089 8
-34.206 -18.031 -5.028 5
-32.077 -16.771 -4.821 13
-30.163 -15.649 -4.633 40
-28.526 -14.704 -4.492 4
-27.059 -13.87 -4.375 6
-25.634 -13.07 -4.245 5
-24.458 -12.419 -4.17 6
-23.383 -11.83 -4.108 7
-20.818 -10.504 -3.564 26
-21.484 -10.814 -4.023 7
-18.378 -9.237 -3.231 22
-17.693 -8.883 -3.22 21
-18.321 -9.195 -3.681 21
-17.616 -8.839 -3.66 38
-16.895 -8.481 -3.626 16
-16.312 -8.196 -3.637 12
-15.737 -7.913 -3.639 15
-15.167 -7.636 -3.637 15
-17.056 -10.899 1.078 18
-12.404 -7.78 1.488 39
-12.57 -7.745 1.354 45
-12.17 -7.368 1.299 27
-11.882 -7.074 1.236 33
-13.401 -7.848 0.897 17
-13.377 -7.715 0.788 5
-13.208 -7.506 0.705 1
-12.973 -7.268 0.639 7
-13.229 -7.313 0.482 15
-13.017 -7.102 0.415 10
-13.192 -7.117 0.268 31
-37.558 -20.038 -5.096 23
-36.042 -19.04 -5.082 8
-34.462 -18.034 -5.029 5
-32.281 -16.755 -4.813 9
-30.367 -15.641 -4.628 40
-28.703 -14.689 -4.484 4
-27.215 -13.849 -4.364 6
-25.802 -13.062 -4.24 4
-24.602 -12.405 -4.162 6
-23.512 -11.812 -4.097 7
-21.944 -10.995 -3.871 21
-21.598 -10.797 -4.011 7
-18.373 -9.173 -3.187 34
-17.684 -8.819 -3.175 23
-17.663 -8.807 -3.398 17
-17.685 -8.817 -3.644 28
-16.973 -8.467 -3.615 13
-16.385 -8.181 -3.625 12
-15.806 -7.899 -3.628 20
-15.235 -7.625 -3.628 15
-12.219 -7.761 1.632 1
-12.291 -7.661 1.511 4
-12.07 -7.39 1.429 26
-12.114 -7.287 1.318 19
-12.381 -7.323 1.174 18
-13.963 -8.123 0.823 27
-13.645 -7.816 0.759 4
-13.218 -7.46 0.719 1
-13.134 -7.306 0.626 32
-13.335 -7.321 0.479 20
-13.276 -7.192 0.382 21
-13.257 -7.101 0.274 12
-37.858 -20.052 -5.102 24
-36.27 -19.022 -5.074 8
-34.715 -18.035 -5.03 5
-32.537 -16.766 -4.818 4
-30.571 -15.632 -4.624 42
-28.89 -14.678 -4.479 4
-27.389 -13.838 -4.358 6
-25.973 -13.055 -4.236 4
-24.723 -12.377 -4.146 6
-23.64 -11.792 -4.086 4
-22.625 -11.258 -4.035 6
-21.709 -10.778 -4.0 7
-18.424 -9.136 -3.162 36
-17.771 -8.803 -3.164 27
-17.613 -8.724 -3.339 23
-17.782 -8.807 -3.637 33
-17.058 -8.456 -3.606 13
-16.466 -8.171 -3.617 12
-15.878 -7.888 -3.619 16
-15.312 -7.618 -3.622 15
-12.274 -7.75 1.634 6
-12.333 -7.64 1.515 2
-12.102 -7.363 1.435 16
-12.936 -7.731 1.215 11
-12.441 -7.31 1.177 7
-12.673 -7.323 1.038 6
-13.377 -7.61 0.818 2
-66.189 -37.099 -8.342 23
-12.981 -7.171 0.67 10
-13.009 -7.091 0.559 17
-13.084 -7.038 0.439 42
-13.274 -7.058 0.291 19
-38.165 -20.069 -5.108 23
-34.089 -17.748 -4.533 18
-34.99 -18.045 -5.034 5
-32.776 -16.766 -4.818 4
-30.779 -15.623 -4.62 41
-29.067 -14.66 -4.47 4
-27.57 -13.828 -4.352 6
-26.151 -13.05 -4.234 6
-24.867 -12.36 -4.136 5
-22.017 -10.905 -3.552 0
-22.752 -11.242 -4.025 7
-18.5 -9.122 -2.924 13
-18.522 -9.123 -3.153 22
-17.847 -8.782 -3.149 21
-17.668 -8.694 -3.317 22
-17.861 -8.79 -3.624 31
-17.142 -8.444 -3.597 14
-16.539 -8.157 -3.605 11
-15.943 -7.872 -3.606 18
-15.373 -7.603 -3.609 15
-13.143 -8.247 1.546 6
-12.362 -7.611 1.521 0
-12.089 -7.309 1.446 9
-12.543 -7.448 1.281 25
-12.788 -7.465 1.139 10
-16.798 -9.642 0.416 17
-13.449 -7.599 0.821 10
-16.87 -9.39 0.129 9
-13.205 -7.243 0.646 12
-13.161 -7.122 0.548 24
-12.871 -6.873 0.499 18
-13.29 -7.017 0.307 1
-38.473 -20.083 -5.114 23
-34.087 -17.617 -4.478 17
-35.233 -18.037 -5.03 5
-33.016 -16.764 -4.817 4
-30.997 -15.618 -4.618 39
-29.282 -14.66 -4.47 4
-27.748 -13.816 -4.346 6
-26.288 -13.023 -4.219 6
-25.012 -12.343 -4.126 6
-23.905 -11.756 -4.064 4
-22.872 -11.222 -4.012 7
-18.45 -9.034 -2.867 35
-18.655 -9.126 -3.155 8
-17.979 -8.788 -3.153 22
-17.765 -8.684 -3.309 4
-17.947 -8.776 -3.613 22
-17.224 -8.43 -3.586 13
-16.612 -8.142 -3.593 12
-16.022 -7.863 -3.598 18
-15.447 -7.595 -3.602 15
-13.389 -8.35 1.528 18
-13.568 -8.302 1.386 14
-11.984 -7.2 1.47 6
-12.534 -7.394 1.293 9
-12.924 -7.495 1.131 18
-12.669 -7.224 1.064 2
-13.597 -7.63 0.812 5
-16.872 -9.327 0.149 0
-13.027 -7.096 0.694 12
-13.566 -7.289 0.49 17
-12.873 -6.824 0.516 15
-41.363 -21.68 -5.322 20
-38.792 -20.102 -5.122 16
-34.073 -17.481 -4.42 34
-35.491 -18.035 -5.03 6
-33.259 -16.763 -4.817 5
-31.212 -15.611 -4.614 35
-29.469 -14.647 -4.463 4
-27.919 -13.8 -4.337 5
-26.467 -13.017 -4.215 6
-25.164 -12.329 -4.118 6
-24.03 -11.734 -4.051 4
-23.006 -11.208 -4.004 7
-18.475 -8.984 -2.834 38
-18.656 -9.064 -3.114 5
-18.213 -8.843 -3.192 6
-18.557 -9.012 -3.548 17
-18.027 -8.758 -3.599 30
-17.315 -8.421 -3.579 13
-16.696 -8.133 -3.586 12
-16.097 -7.852 -3.589 15
-15.511 -7.581 -3.59 15
-13.121 -8.134 1.566 4
-15.258 -9.278 1.197 23
-12.896 -7.699 1.364 59
-12.202 -7.153 1.349 28
-12.95 -7.46 1.14 0
-12.678 -7.18 1.076 8
-13.662 -7.614 0.817 12
-67.044 -36.802 -8.252 19
-12.945 -7.001 0.725 23
-14.119 -7.533 0.406 23
-12.874 -6.776 0.534 21
-41.732 -21.713 -5.335 19
-34.082 -17.532 -4.084 30
-34.052 -17.341 -4.361 32
-35.759 -18.038 -5.031 5
-33.471 -16.746 -4.809 28
-31.435 -15.607 -4.612 37
-29.661 -14.633 -4.456 4
-28.104 -13.79 -4.332 6
-26.614 -12.994 -4.203 7
-25.319 -12.316 -4.111 6
-24.166 -11.716 -4.04 4
-18.487 -8.944 -2.589 3
-18.521 -8.944 -2.808 28
-20.663 -9.97 -3.725 13
-18.238 -8.796 -3.159 19
-18.651 -8.999 -3.538 27
-18.082 -8.728 -3.577 17
-17.4 -8.409 -3.57 13
-16.772 -8.119 -3.574 12
-16.159 -7.835 -3.574 14
-15.582 -7.571 -3.581 15
-30.851 -19.01 -0.352 26
-13.448 -8.126 1.42 18
-12.529 -7.431 1.42 14
-12.193 -7.099 1.361 22
-12.645 -7.236 1.196 9
-12.748 -7.171 1.079 1
-13.827 -7.654 0.805 30
-13.671 -7.452 0.722 2
-12.72 -6.831 0.781 12
-13.966 -7.398 0.453 17
0.0 -0.0 3.0 0
-42.07 -21.73 -5.341 19
-34.053 -17.389 -4.026 22
-34.016 -17.195 -4.299 36
-34.004 -17.025 -4.58 20
-33.743 -16.757 -4.814 14
-31.658 -15.601 -4.609 36
-29.87 -14.628 -4.453 4
-28.272 -13.77 -4.322 6
-26.783 -12.981 -4.195 7
-25.475 -12.302 -4.103 6
-24.302 -11.698 -4.029 4
-18.453 -8.864 -2.539 31
-18.598 -8.919 -2.792 6
-20.581 -9.862 -3.652 9
-18.166 -8.701 -3.093 22
-18.894 -9.054 -3.578 21
-18.141 -8.699 -3.555 13
-17.482 -8.395 -3.559 14
-16.856 -8.109 -3.567 12
-16.238 -7.825 -3.566 16
-15.653 -7.56 -3.572 15
-15.486 -9.484 1.328 2
-13.229 -7.945 1.456 25
-12.015 -7.082 1.495 30
-12.52 -7.243 1.328 22
-12.653 -7.192 1.207 12
-13.57 -7.582 0.969 3
-13.486 -7.414 0.874 1
-13.534 -7.326 0.76 1
-12.784 -6.816 0.785 7
-13.542 -7.122 0.548 8
-13.398 -6.95 0.47 1
-34.117 -17.493 -3.715 6
-34.048 -17.258 -3.973 32
-34.004 -17.062 -4.242 37
-33.981 -16.887 -4.519 33
-33.931 -16.724 -4.799 15
-31.888 -15.597 -4.607 36
-30.062 -14.612 -4.445 5
-28.464 -13.761 -4.317 6
-26.951 -12.967 -4.188 6
-25.62 -12.282 -4.091 6
-24.431 -11.676 -4.016 4
-18.468 -8.808 -2.504 37
-19.723 -9.391 -3.099 19
-19.742 -9.395 -3.337 14
-18.211 -8.664 -3.067 21
-19.03 -9.059 -3.582 28
-18.22 -8.681 -3.541 13
-17.566 -8.383 -3.549 13
-16.933 -8.095 -3.555 14
-16.31 -7.812 -3.555 19
-15.724 -7.55 -3.563 16
-13.484 -8.207 1.553 0
-13.176 -7.863 1.472 33
-12.739 -7.461 1.414 12
-12.307 -7.074 1.367 26
-12.792 -7.223 1.199 6
-12.753 -7.077 1.104 1
-14.038 -7.664 0.803 2
-13.149 -7.067 0.839 26
-13.62 -7.211 0.657 13
-13.954 -7.285 0.491 2
-50.871 -26.195 -6.534 3
-34.098 -17.355 -3.662 30
-34.015 -17.113 -3.914 33
-33.995 -16.93 -4.187 38
-33.972 -16.757 -4.461 33
-34.252 -16.757 -4.814 8
-32.118 -15.593 -4.605 34
-30.285 -14.612 -4.445 4
-28.65 -13.749 -4.311 6
-27.106 -12.946 -4.176 6
-25.766 -12.263 -4.08 6
-18.471 -8.764 -2.266 0
-18.506 -8.764 -2.476 32
-19.99 -9.452 -3.138 20
-20.158 -9.528 -3.426 5
-18.28 -8.638 -3.049 19
-19.117 -9.04 -3.568 22
-18.317 -8.67 -3.533 12
-17.655 -8.371 -3.54 13
-16.999 -8.076 -3.54 21
-16.389 -7.802 -3.546 13
-15.784 -7.533 -3.549 16
-16.295 -9.858 1.262 21
-12.688 -7.525 1.537 23
-12.022 -6.995 1.513 18
-12.434 -7.1 1.361 18
-12.623 -7.08 1.235 8
-13.918 -7.671 0.945 38
-14.058 -7.622 0.815 1
-13.371 -7.136 0.818 25
-13.594 -7.146 0.678 7
-57.334 -29.718 -7.233 2
-51.445 -26.297 -6.571 2
-34.089 -17.222 -3.611 30
-34.002 -16.979 -3.86 36
-33.986 -16.799 -4.131 41
-33.959 -16.625 -4.402 36
-34.451 -16.728 -4.8 19
-32.352 -15.589 -4.603 32
-30.499 -14.604 -4.441 5
-28.835 -13.735 -4.303 5
-27.286 -12.935 -4.17 4
-25.918 -12.245 -4.07 6
-18.436 -8.684 -2.218 26
-18.576 -8.735 -2.458 1
-19.884 -9.336 -3.063 18
-20.088 -9.429 -3.36 19
-18.381 -8.627 -3.041 23
-18.8 -8.832 -3.417 5
-18.399 -8.652 -3.52 16
-17.743 -8.359 -3.531 13
-17.089 -8.068 -3.533 14
-16.454 -7.786 -3.533 14
-15.859 -7.524 -3.54 16
-16.319 -9.813 1.27 16
-12.648 -7.454 1.551 9
-12.001 -6.938 1.525 5
-12.382 -7.024 1.378 24
-12.588 -7.013 1.251 6
-12.814 -7.014 1.121 2
-14.183 -7.635 0.811 8
-13.421 -7.112 0.826 23
-13.557 -7.075 0.701 16
-13.646 -7.022 0.582 9
-13.382 -6.79 0.529 23
-34.121 -17.11 -3.568 2
-33.988 -16.846 -3.806 35
-33.976 -16.668 -4.075 40
-33.963 -16.502 -4.347 34
-34.675 -16.71 -4.792 19
-32.562 -15.572 -4.595 15
-30.684 -14.583 -4.431 5
-29.039 -13.729 -4.3 5
-27.455 -12.919 -4.161 5
-26.081 -12.231 -4.062 6
-18.442 -8.624 -2.182 36
-23.762 -11.093 -3.932 4
-19.942 -9.297 -3.038 19
-19.236 -8.967 -3.048 1
-18.579 -8.66 -3.064 17
-18.901 -8.819 -3.408 16
-18.493 -8.639 -3.51 16
-17.835 -8.348 -3.522 13
-17.173 -8.057 -3.525 15
-16.533 -7.775 -3.524 15
-15.933 -7.515 -3.532 16
-15.477 -9.25 1.369 10
-12.652 -7.409 1.56 2
-11.983 -6.883 1.537 18
-12.147 -6.845 1.42 27
-12.634 -6.992 1.257 1
-12.866 -6.994 1.126 10
-14.315 -7.653 0.806 24
-13.976 -7.354 0.752 11
-14.349 -7.434 0.584 21
-13.933 -7.117 0.549 9
-13.432 -6.765 0.538 9
-34.097 -16.971 -3.514 2
-33.988 -16.72 -3.755 35
-33.969 -16.539 -4.02 38
-33.97 -16.38 -4.293 34
-34.899 -16.691 -4.783 14
-32.853 -15.592 -4.605 7
-30.908 -14.579 -4.428 4
-29.239 -13.72 -4.295 5
-27.627 -12.904 -4.153 6
-26.245 -12.217 -4.054 5
-18.501 -8.588 -2.16 27
-23.893 -11.073 -3.919 5
-20.0 -9.258 -3.012 19
-19.233 -8.903 -3.005 5
-18.62 -8.62 -3.036 15
-19.082 -8.844 -3.426 5
-18.596 -8.631 -3.504 13
-17.923 -8.336 -3.513 13
-17.243 -8.04 -3.511 13
-16.598 -7.757 -3.509 14
-15.997 -7.499 -3.519 16
-12.612 -7.491 1.679 2
-13.557 -7.889 1.466 6
-12.597 -7.189 1.472 35
-12.181 -6.819 1.426 11
-12.707 -6.985 1.259 8
-12.643 -6.826 1.171 3
-13.834 -7.344 0.894 62
-13.009 -6.796 0.922 8
-14.418 -7.417 0.59 20
-13.512 -6.852 0.641 8
-13.468 -6.733 0.549 25
-34.132 -16.861 -3.473 2
-33.981 -16.59 -3.703 33
-33.965 -16.412 -3.966 40
-33.98 -16.261 -4.24 36
-35.145 -16.68 -4.778 9
-33.084 -15.584 -4.601 7
-31.112 -14.564 -4.421 4
-29.436 -13.709 -4.289 5
-27.79 -12.883 -4.141 5
-18.422 -8.512 -1.914 37
-18.549 -8.548 -2.136 1
-23.995 -11.041 -3.899 15
-20.12 -9.248 -3.006 20
-19.216 -8.832 -2.957 4
-18.815 -8.651 -3.058 5
-19.138 -8.811 -3.402 6
-18.689 -8.617 -3.493 15
-18.008 -8.321 -3.501 13
-17.32 -8.025 -3.498 14
-16.674 -7.745 -3.499 14
-16.064 -7.486 -3.508 15
-12.629 -7.455 1.685 12
-13.586 -7.857 1.473 15
-12.472 -7.072 1.497 21
-12.159 -6.762 1.439 28
-12.811 -6.995 1.256 24
-12.73 -6.826 1.171 2
-13.717 -7.231 0.927 60
-13.083 -6.787 0.925 11
-14.453 -7.38 0.602 10
-13.527 -6.809 0.655 10
-13.537 -6.717 0.555 17
-34.131 -16.734 -3.424 2
-33.983 -16.466 -3.653 35
-33.964 -16.287 -3.913 39
-33.979 -16.137 -4.184 38
-35.419 -16.682 -4.779 6
-33.323 -15.576 -4.597 6
-31.322 -14.551 -4.414 5
-29.63 -13.695 -4.282 5
-27.973 -12.871 -4.135 4
-18.42 -8.449 -1.878 39
-25.292 -11.569 -3.951 4
-24.042 -10.982 -3.862 32
-19.261 -8.79 -2.708 5
-19.213 -8.769 -2.915 4
-19.02 -8.686 -3.082 7
-19.128 -8.747 -3.355 5
-18.793 -8.607 -3.486 12
-18.1 -8.31 -3.492 13
-17.413 -8.017 -3.492 13
-16.753 -7.735 -3.49 13
-16.135 -7.474 -3.497 16
-16.732 -9.816 1.269 15
-13.615 -7.824 1.479 17
-12.43 -7.003 1.511 27
-12.321 -6.807 1.428 0
-13.363 -7.246 1.193 10
-12.555 -6.685 1.209 3
-13.788 -7.217 0.93 37
-13.119 -6.757 0.934 1
-14.437 -7.318 0.622 11
-13.736 -6.864 0.637 20
-13.548 -6.673 0.571 5
-34.166 -16.625 -3.382 2
-33.982 -16.34 -3.602 44
-33.962 -16.162 -3.86 40
-33.992 -16.019 -4.132 40
-35.722 -16.696 -4.785 15
-33.562 -15.568 -4.593 7
-31.547 -14.544 -4.411 5
-29.834 -13.685 -4.276 5
-18.424 -8.413 -1.663 0
-18.471 -8.409 -1.855 34
-25.428 -11.546 -3.938 3
-24.113 -10.935 -3.833 23
-19.24 -8.717 -2.661 4
-19.205 -8.704 -2.871 4
-18.981 -8.608 -3.027 13
-19.121 -8.685 -3.31 6
-18.928 -8.612 -3.489 15
-18.185 -8.295 -3.481 14
-17.49 -8.002 -3.48 15
-16.825 -7.72 -3.478 14
-16.216 -7.467 -3.491 15
-16.797 -9.794 1.273 19
-13.422 -7.665 1.51 10
-12.471 -6.98 1.516 0
-12.672 -6.954 1.394 5
-13.556 -7.301 1.18 10
-13.652 -7.219 1.066 12
-13.708 -7.125 0.957 25
-13.136 -6.717 0.946 1
-14.082 -7.087 0.697 33
-13.737 -6.813 0.654 15
-13.52 -6.609 0.594 9
-34.16 -16.497 -3.333 2
-33.98 -16.214 -3.551 44
-33.964 -16.039 -3.808 40
-34.0 -15.899 -4.079 40
-34.02 -15.778 -4.357 19
-33.787 -15.552 -4.585 7
-31.766 -14.532 -4.404 4
-30.035 -13.672 -4.269 6
-18.411 -8.344 -1.625 27
-18.53 -8.372 -1.834 13
-24.107 -10.865 -3.529 33
-24.364 -10.968 -3.854 6
-19.232 -8.651 -2.618 4
-19.198 -8.64 -2.827 4
-19.17 -8.633 -3.045 4
-19.117 -8.624 -3.266 8
-19.045 -8.608 -3.487 13
-18.28 -8.285 -3.473 14
-17.577 -7.991 -3.471 14
-16.897 -7.705 -3.465 14
-16.283 -7.453 -3.479 16
-17.43 -10.1 1.219 22
-15.577 -8.839 1.282 20
-12.292 -6.836 1.547 0
-13.576 -7.4 1.292 3
-13.069 -6.992 1.257 7
-12.704 -6.671 1.212 0
-14.203 -7.33 0.898 24
-14.27 -7.243 0.785 24
-14.094 -7.04 0.712 22
-13.738 -6.763 0.671 21
-13.559 -6.578 0.606 31
-17.796 -8.528 -0.274 2
-33.991 -16.096 -3.503 26
-33.972 -15.918 -3.757 33
-34.005 -15.779 -4.025 40
-34.1 -15.693 -4.318 32
-34.02 -15.537 -4.578 7
-18.437 -8.37 -1.265 13
-18.471 -8.344 -1.436 16
-18.398 -8.275 -1.587 41
-27.038 -12.125 -4.0 6
-24.131 -10.796 -3.487 255
-24.559 -10.975 -3.858 4
-19.235 -8.591 -2.579 4
-19.183 -8.572 -2.782 4
-19.159 -8.568 -2.999 4
-19.14 -8.576 -3.231 6
-19.16 -8.603 -3.482 16
-18.369 -8.271 -3.462 14
-17.664 -7.98 -3.462 12
-16.972 -7.693 -3.455 14
-16.364 -7.446 -3.472 17
-15.404 -8.871 1.436 4
-15.553 -8.769 1.295 20
-15.276 -8.44 1.206 12
-12.667 -6.86 1.416 6
-12.943 -6.877 1.285 8
-12.759 -6.654 1.217 19
-13.339 -6.835 1.04 2
-14.204 -7.158 0.811 26
-14.358 -7.119 0.687 28
-13.809 -6.747 0.677 14
-13.574 -6.536 0.621 19
-34.088 -16.212 -3.223 27
-18.029 -8.471 -0.423 14
-18.152 -8.44 -0.582 26
-18.224 -8.391 -0.736 10
-18.279 -8.346 -0.892 21
-18.373 -8.326 -1.061 20
-18.445 -8.309 -1.233 41
-18.479 -8.283 -1.404 39
-18.41 -8.216 -1.554 44
-23.893 -10.634 -3.14 18
-25.885 -11.494 -3.906 4
-24.69 -10.953 -3.844 4
-19.216 -8.52 -2.533 4
-19.175 -8.508 -2.739 8
-19.147 -8.504 -2.955 4
-19.224 -8.555 -3.216 2
-19.257 -8.588 -3.472 14
-18.447 -8.252 -3.447 14
-17.744 -7.965 -3.45 13
-17.044 -7.677 -3.442 14
-16.428 -7.429 -3.458 19
-15.414 -8.822 1.445 19
-15.56 -8.717 1.306 29
-17.159 -9.418 0.998 0
-12.614 -6.785 1.434 30
-12.963 -6.84 1.294 12
-13.181 -6.826 1.171 10
-13.848 -7.045 0.98 14
-13.993 -7.001 0.86 17
-14.299 -7.038 0.713 13
-13.749 -6.667 0.704 24
-13.585 -6.491 0.637 27
-17.906 -8.451 -0.244 9
-18.047 -8.414 -0.399 24
-18.163 -8.379 -0.557 34
-18.25 -8.337 -0.712 35
-18.304 -8.293 -0.867 46
-18.398 -8.273 -1.035 34
-18.488 -8.263 -1.21 28
-18.558 -8.254 -1.389 20
-18.464 -8.178 -1.533 17
-23.942 -10.575 -3.105 255
-26.036 -11.474 -3.895 4
-23.763 -10.464 -3.539 53
-19.211 -8.456 -2.491 4
-19.177 -8.448 -2.698 10
-19.145 -8.444 -2.913 9
-19.359 -8.557 -3.217 2
-19.347 -8.572 -3.459 13
-18.546 -8.243 -3.44 14
-17.828 -7.952 -3.44 13
-17.119 -7.664 -3.431 13
-16.506 -7.42 -3.451 15
-15.459 -8.793 1.45 19
-15.543 -8.653 1.318 22
-15.973 -8.711 1.148 11
-12.64 -6.754 1.441 5
-13.212 -6.924 1.274 14
-13.23 -6.803 1.177 15
-13.151 -6.643 1.095 31
-13.706 -6.807 0.919 17
-14.339 -7.005 0.724 21
-13.838 -6.66 0.707 22
-13.666 -6.48 0.641 28
-17.902 -8.384 -0.218 25
-34.095 -15.773 -3.373 2
-18.205 -8.333 -0.537 1
-18.371 -8.327 -0.707 3
-18.351 -8.249 -0.847 15
-18.592 -8.294 -1.045 5
-18.535 -8.22 -1.188 0
-18.28 -8.067 -1.29 29
-18.514 -8.137 -1.51 7
-27.531 -12.067 -3.967 6
-23.921 -10.464 -3.287 2
-19.683 -8.603 -2.376 0
-19.195 -8.388 -2.447 5
-19.171 -8.385 -2.656 4
-19.14 -8.383 -2.87 4
-19.481 -8.551 -3.213 4
-19.458 -8.563 -3.453 12
-18.648 -8.234 -3.433 14
-17.908 -7.937 -3.427 12
-17.198 -7.651 -3.42 14
-16.583 -7.41 -3.441 16
-15.413 -8.713 1.464 8
-15.574 -8.615 1.326 22
-12.562 -6.805 1.554 3
-12.825 -6.806 1.429 2
-13.194 -6.867 1.288 12
-12.897 -6.585 1.236 8
-12.792 -6.415 1.161 34
-13.802 -6.804 0.92 25
-14.233 -6.902 0.757 10
-13.824 -6.603 0.726 20
-13.663 -6.429 0.66 25
-17.937 -8.335 -0.2 27
-34.119 -15.662 -3.328 2
-34.01 -15.446 -3.557 37
-18.576 -8.353 -0.719 1
-18.613 -8.301 -0.871 6
-18.61 -8.237 -1.017 43
-31.683 -13.94 -4.103 2
-18.287 -8.008 -1.258 35
-29.3 -12.778 -4.083 56
-27.709 -12.053 -3.959 6
-23.905 -10.377 -3.235 12
-19.81 -8.595 -2.371 1
-19.196 -8.327 -2.408 4
-19.159 -8.32 -2.612 4
-19.251 -8.372 -2.862 2
-19.592 -8.541 -3.206 5
-19.551 -8.546 -3.44 13
-18.761 -8.23 -3.43 17
-17.995 -7.925 -3.418 13
-17.28 -7.64 -3.411 14
-16.654 -7.397 -3.43 16
-17.265 -9.699 1.29 19
-15.66 -8.607 1.327 10
-15.83 -8.52 1.189 22
-12.626 -6.657 1.463 7
-13.168 -6.806 1.303 2
-12.885 -6.532 1.25 0
-12.545 -6.246 1.209 26
-13.602 -6.657 0.965 19
-14.194 -6.832 0.78 24
-13.835 -6.558 0.742 20
-13.745 -6.418 0.664 29
-17.957 -8.28 -0.178 29
-34.071 -15.518 -3.27 1
-34.051 -15.343 -3.513 35
-31.777 -14.177 -3.312 3
-18.667 -8.258 -0.851 33
-18.671 -8.198 -0.998 1
-18.276 -7.978 -1.065 11
-18.329 -7.964 -1.234 33
-29.513 -12.771 -4.079 57
-27.888 -12.038 -3.95 5
-23.867 -10.282 -3.178 255
-19.93 -8.582 -2.363 1
-19.19 -8.264 -2.367 4
-19.146 -8.255 -2.568 17
-19.391 -8.373 -2.863 1
-19.721 -8.539 -3.204 7
-19.644 -8.529 -3.427 13
-18.86 -8.219 -3.421 15
-18.075 -7.91 -3.405 13
-17.366 -7.631 -3.403 15
-16.735 -7.388 -3.422 15
-16.101 -8.989 1.415 14
-15.625 -8.533 1.341 10
-13.26 -7.09 1.493 0
-13.967 -7.314 1.312 2
-13.457 -6.908 1.278 12
-12.497 -6.291 1.314 11
-12.557 -6.207 1.22 13
-13.327 -6.475 1.021 25
-14.176 -6.772 0.8 25
-13.856 -6.518 0.756 22
-14.11 -6.538 0.62 23
-17.942 -8.208 -0.151 27
-34.059 -15.389 -3.218 26
-34.193 -15.285 -3.488 20
-18.715 -8.282 -0.688 6
-18.684 -8.2 -0.824 19
-31.766 -13.837 -3.749 52
-18.279 -7.916 -1.033 43
-18.393 -7.928 -1.215 6
-29.709 -12.755 -4.07 57
-28.053 -12.015 -3.937 4
-23.889 -10.213 -3.137 16
-20.05 -8.569 -2.355 3
-19.18 -8.198 -2.324 5
-19.15 -8.197 -2.529 4
-19.534 -8.376 -2.865 2
-19.833 -8.528 -3.196 6
-19.745 -8.516 -3.417 13
-18.941 -8.201 -3.407 15
-18.159 -7.896 -3.394 13
-17.445 -7.618 -3.392 15
-16.809 -7.376 -3.412 16
-16.048 -8.904 1.43 21
-15.792 -8.568 1.334 13
-15.762 -8.373 1.22 15
0.0 -0.0 3.0 0
-13.959 -7.116 1.226 9
-12.537 -6.267 1.321 13
-12.704 -6.235 1.212 12
-13.565 -6.541 1.0 26
-14.187 -6.726 0.815 22
-13.873 -6.476 0.77 22
-14.44 -6.639 0.584 12
-17.979 -8.161 -0.133 12
-34.1 -15.286 -3.176 32
-34.425 -15.266 -3.48 8
-18.798 -8.253 -0.675 38
-18.666 -8.127 -0.79 0
-18.263 -7.892 -0.849 28
-18.329 -7.874 -1.012 30
-31.691 -13.552 -4.206 6
-29.905 -12.74 -4.062 54
-23.973 -10.188 -2.882 18
-24.793 -10.52 -3.321 21
-20.173 -8.557 -2.347 2
-19.213 -8.152 -2.294 3
-19.283 -8.194 -2.527 1
-19.659 -8.37 -2.861 2
-19.962 -8.524 -3.193 6
-19.849 -8.502 -3.407 13
-19.037 -8.188 -3.397 15
-18.249 -7.885 -3.385 12
-17.527 -7.606 -3.382 16
-16.88 -7.363 -3.4 15
-15.689 -8.65 1.475 22
-16.468 -8.878 1.274 18
-13.983 -7.379 1.432 7
-13.119 -6.776 1.436 4
-14.051 -7.113 1.227 5
-15.626 -7.756 0.922 2
-12.82 -6.245 1.209 8
-13.632 -6.525 1.005 15
-14.28 -6.719 0.817 27
-14.059 -6.513 0.757 16
-14.361 -6.551 0.616 1
-17.974 -8.095 -0.107 12
-34.176 -15.199 -3.141 26
-18.875 -8.303 -0.525 5
-18.909 -8.235 -0.667 10
-18.163 -7.845 -0.658 4
-18.265 -7.83 -0.819 39
-31.92 -13.604 -3.932 31
-31.908 -13.537 -4.198 5
-30.109 -12.725 -4.054 43
-23.991 -10.117 -2.841 248
-24.611 -10.362 -3.226 161
-20.3 -8.546 -2.34 2
-19.328 -8.14 -2.286 2
-19.408 -8.188 -2.523 1
-19.81 -8.374 -2.864 2
-20.088 -8.519 -3.189 6
-19.957 -8.491 -3.398 14
-19.115 -8.167 -3.381 15
-18.34 -7.873 -3.375 13
-17.609 -7.594 -3.372 14
-16.964 -7.355 -3.393 16
-15.705 -8.605 1.483 25
-16.225 -8.692 1.311 16
-16.109 -8.444 1.205 20
-13.796 -7.078 1.366 2
-12.63 -6.349 1.417 6
-12.56 -6.189 1.342 20
-12.882 -6.229 1.214 18
-14.272 -6.78 0.927 6
-14.193 -6.628 0.847 13
-14.091 -6.477 0.77 30
-14.332 -6.487 0.639 3
-34.688 -15.498 -2.949 3
-18.764 -8.278 -0.345 2
-18.864 -8.232 -0.494 34
-31.814 -13.744 -3.119 30
-18.158 -7.779 -0.627 35
-18.328 -7.794 -0.801 15
-31.755 -13.425 -3.84 26
-32.125 -13.52 -4.189 4
-30.331 -12.717 -4.049 32
-24.038 -10.058 -2.807 38
-24.558 -10.26 -3.165 150
-20.431 -8.536 -2.334 4
-19.446 -8.129 -2.279 2
-19.548 -8.186 -2.522 1
-19.943 -8.37 -2.861 2
-20.21 -8.51 -3.183 7
-20.05 -8.473 -3.385 13
-19.217 -8.157 -3.373 14
-18.434 -7.862 -3.367 13
-17.702 -7.587 -3.366 14
-17.035 -7.341 -3.381 16
-15.339 -8.353 1.527 24
-16.179 -8.611 1.326 25
-13.251 -6.9 1.533 1
-13.313 -6.784 1.434 9
-13.143 -6.56 1.364 2
-12.575 -6.152 1.352 23
-12.876 -6.181 1.228 12
-13.174 -6.211 1.101 0
-14.25 -6.603 0.854 20
-14.508 -6.617 0.721 24
-14.505 -6.513 0.629 2
-35.918 -15.92 -3.111 9
-18.112 -7.926 -0.202 17
-19.026 -8.235 -0.496 29
-18.075 -7.745 -0.448 13
-18.199 -7.734 -0.606 29
-31.739 -13.386 -3.529 54
-31.711 -13.298 -3.776 14
-32.353 -13.507 -4.182 4
-30.538 -12.703 -4.041 18
-28.831 -11.968 -3.91 7
-24.512 -10.161 -3.106 215
-20.551 -8.521 -2.324 3
-19.547 -8.11 -2.266 3
-19.687 -8.185 -2.521 2
-20.083 -8.369 -2.86 2
-20.365 -8.516 -3.187 5
-20.137 -8.452 -3.369 13
-19.306 -8.141 -3.36 16
-18.528 -7.852 -3.359 13
-17.781 -7.573 -3.354 15
-17.105 -7.326 -3.369 16
-15.253 -8.253 1.545 20
-16.361 -8.652 1.318 23
-15.619 -8.078 1.283 1
-12.701 -6.428 1.516 40
-12.888 -6.388 1.407 19
-12.701 -6.169 1.347 21
-12.891 -6.143 1.239 12
-13.983 -6.544 0.999 2
-14.61 -6.719 0.817 23
-14.573 -6.596 0.729 21
-14.537 -6.476 0.643 1
-16.661 -7.326 0.188 0
-18.175 -7.889 -0.188 18
-18.995 -8.155 -0.462 28
-18.068 -7.679 -0.419 36
-18.258 -7.695 -0.588 5
-31.735 -13.276 -3.475 54
-31.7 -13.186 -3.718 17
-32.578 -13.492 -4.174 5
-30.739 -12.685 -4.031 27
-29.021 -11.952 -3.901 7
-24.476 -10.068 -3.05 255
-20.686 -8.511 -2.318 3
-19.655 -8.094 -2.256 3
-19.835 -8.185 -2.521 1
-20.223 -8.367 -2.859 2
-20.515 -8.519 -3.19 4
-20.226 -8.432 -3.354 13
-19.412 -8.131 -3.352 15
-18.612 -7.837 -3.346 13
-17.863 -7.56 -3.344 14
-17.183 -7.315 -3.359 16
-15.388 -8.274 1.541 23
0.0 -0.0 3.0 0
-15.574 -8.002 1.299 10
-13.231 -6.65 1.465 10
-12.924 -6.361 1.414 8
-13.113 -6.323 1.306 9
-12.892 -6.098 1.251 6
-14.0 -6.502 1.012 0
-14.948 -6.822 0.784 0
-14.547 -6.532 0.751 20
-14.493 -6.405 0.669 4
-16.696 -7.282 0.205 12
0.0 -0.0 3.0 0
-17.988 -7.66 -0.252 32
-18.146 -7.648 -0.405 7
-31.757 -13.275 -3.19 40
-31.727 -13.163 -3.42 53
-31.702 -13.079 -3.664 52
-32.789 -13.469 -4.162 5
-30.91 -12.653 -4.013 49
-29.201 -11.932 -3.889 7
-24.432 -9.972 -2.992 218
-20.803 -8.494 -2.307 3
-19.777 -8.083 -2.249 3
-19.964 -8.178 -2.516 2
-20.374 -8.368 -2.86 2
-20.667 -8.521 -3.191 4
-20.32 -8.413 -3.34 13
-19.511 -8.118 -3.343 13
-18.695 -7.821 -3.333 12
-17.959 -7.554 -3.338 14
-17.25 -7.299 -3.345 16
-15.628 -8.351 1.528 22
-15.144 -7.905 1.463 21
-15.561 -7.942 1.312 22
-13.368 -6.673 1.459 4
-13.179 -6.441 1.394 3
-12.888 -6.17 1.347 10
-12.932 -6.072 1.259 6
-16.413 -7.566 0.687 7
-16.071 -7.277 0.635 25
-14.648 -6.526 0.753 3
-14.539 -6.375 0.68 8
-16.724 -7.236 0.222 16
-17.897 -7.643 -0.088 8
-18.029 -7.614 -0.232 31
-18.328 -7.662 -0.411 26
-31.748 -13.161 -3.137 50
-31.722 -13.053 -3.366 53
-31.69 -12.967 -3.607 20
-32.916 -13.411 -4.131 3
-31.075 -12.618 -3.994 58
-29.406 -11.92 -3.882 6
-24.587 -9.956 -2.982 7
-24.319 -9.853 -3.157 28
-19.892 -8.069 -2.24 3
-20.097 -8.172 -2.512 2
-20.529 -8.371 -2.862 2
-20.839 -8.533 -3.199 4
-20.428 -8.4 -3.33 13
-19.603 -8.103 -3.33 14
-18.765 -7.799 -3.316 19
-18.045 -7.542 -3.328 15
-17.32 -7.284 -3.332 15
-15.404 -8.178 1.558 15
-15.162 -7.863 1.472 17
-15.793 -8.007 1.298 17
-13.298 -6.593 1.478 7
-12.908 -6.264 1.438 15
-13.814 -6.565 1.241 16
-13.116 -6.112 1.247 6
-16.296 -7.454 0.721 4
-16.145 -7.254 0.643 20
-14.694 -6.494 0.764 23
-16.451 -7.155 0.396 18
-16.751 -7.189 0.241 33
-17.897 -7.581 -0.063 34
-18.073 -7.57 -0.213 52
-18.358 -7.611 -0.389 30
-31.743 -13.05 -3.085 51
-31.716 -12.942 -3.312 54
-31.812 -12.909 -3.578 4
-32.796 -13.253 -4.047 1
-31.264 -12.592 -3.98 35
-29.594 -11.9 -3.87 7
-24.39 -9.799 -2.888 18
-21.206 -8.525 -2.327 8
-20.0 -8.05 -2.228 3
-20.248 -8.172 -2.512 1
-20.698 -8.379 -2.867 1
-21.055 -8.56 -3.219 4
-20.514 -8.377 -3.312 18
-19.695 -8.086 -3.318 14
-18.862 -7.789 -3.307 14
-18.123 -7.528 -3.317 15
-17.405 -7.275 -3.324 16
-15.475 -8.165 1.56 17
-15.176 -7.819 1.48 19
-15.627 -7.87 1.327 25
-15.616 -7.688 1.225 28
-12.872 -6.202 1.454 10
-13.848 -6.533 1.249 9
-13.189 -6.101 1.251 23
-16.351 -7.423 0.731 21
-16.197 -7.22 0.654 23
-14.722 -6.455 0.777 0
-16.435 -7.09 0.419 26
-16.542 -7.04 0.297 44
-16.509 -6.935 0.198 4
-18.048 -7.497 -0.182 22
-32.953 -13.547 -3.032 6
-31.733 -12.938 -3.033 54
-31.717 -12.836 -3.26 53
-32.123 -12.928 -3.587 17
-33.054 -13.248 -4.044 1
-31.484 -12.577 -3.972 14
-29.767 -11.873 -3.855 7
-24.309 -9.688 -2.821 37
-21.182 -8.449 -2.28 5
-20.122 -8.039 -2.22 3
-20.399 -8.172 -2.512 2
-21.126 -8.491 -2.945 4
-21.235 -8.572 -3.228 3
-20.622 -8.363 -3.302 13
-19.791 -8.071 -3.306 14
-18.942 -7.772 -3.293 13
-18.202 -7.513 -3.304 15
-17.479 -7.262 -3.313 16
-15.504 -8.129 1.567 18
-15.134 -7.746 1.494 21
-16.375 -8.19 1.259 1
-12.842 -6.279 1.55 1
-13.245 -6.337 1.42 8
-13.245 -6.204 1.338 20
-13.2 -6.06 1.262 3
-16.425 -7.399 0.738 15
-16.187 -7.16 0.674 25
-16.69 -7.261 0.5 15
-16.523 -7.071 0.426 20
-16.846 -7.111 0.27 21
-16.477 -6.864 0.227 11
-18.058 -7.438 -0.157 18
-33.28 -13.568 -3.041 6
-31.727 -12.826 -2.981 255
-31.693 -12.718 -3.203 15
-32.355 -12.912 -3.579 17
-33.258 -13.219 -4.029 2
-24.193 -9.586 -2.313 0
-24.267 -9.601 -2.543 49
-24.248 -9.588 -2.761 31
-21.19 -8.387 -2.241 4
-20.244 -8.025 -2.211 3
-20.547 -8.17 -2.511 2
-21.127 -8.429 -2.902 4
-21.402 -8.577 -3.232 3
-20.719 -8.344 -3.288 14
-19.897 -8.06 -3.298 14
-19.029 -7.756 -3.281 12
-18.288 -7.501 -3.294 15
-17.559 -7.251 -3.303 17
-15.645 -8.151 1.563 21
-15.62 -7.944 1.456 13
-14.187 -7.048 1.502 0
-13.336 -6.475 1.505 9
-13.986 -6.644 1.344 3
-12.871 -5.984 1.397 23
-13.189 -6.01 1.277 13
-16.383 -7.323 0.761 18
-16.576 -7.274 0.636 9
-16.845 -7.269 0.497 1
-16.528 -7.016 0.446 22
-16.395 -6.864 0.365 30
-16.529 -6.829 0.241 10
-18.526 -7.567 -0.212 30
-18.395 -7.437 -0.311 1
-31.727 -12.718 -2.931 255
-31.891 -12.689 -3.189 5
-32.605 -12.903 -3.575 16
-33.98 -13.394 -4.122 6
-24.063 -9.455 -2.241 3
-24.199 -9.497 -2.483 44
-24.177 -9.483 -2.698 30
-21.285 -8.358 -2.223 3
-20.367 -8.012 -2.203 3
-20.706 -8.171 -2.511 1
-21.258 -8.419 -2.895 1
-21.582 -8.589 -3.24 4
-20.83 -8.331 -3.278 16
-19.996 -8.046 -3.286 14
-19.106 -7.737 -3.265 13
-18.366 -7.485 -3.281 15
-17.651 -7.244 -3.297 15
-15.646 -8.1 1.572 27
-15.482 -7.822 1.48 18
-16.942 -8.361 1.223 17
-13.519 -6.518 1.495 0
-13.768 -6.493 1.381 2
-12.95 -5.976 1.399 20
-13.215 -5.976 1.286 3
-16.307 -7.233 0.789 28
-16.665 -7.256 0.642 7
-17.575 -7.523 0.409 43
-16.602 -6.989 0.456 14
-16.666 -6.92 0.344 22
-16.647 -6.82 0.244 0
-18.559 -7.517 -0.191 27
-18.414 -7.38 -0.286 1
-31.745 -12.618 -2.884 193
-32.151 -12.685 -3.187 16
-32.855 -12.892 -3.569 17
-34.21 -13.371 -4.11 7
-24.009 -9.356 -2.186 5
-24.138 -9.395 -2.424 34
-24.116 -9.383 -2.638 30
-21.391 -8.334 -2.208 3
-20.486 -7.996 -2.193 3
-21.125 -8.274 -2.581 5
-21.432 -8.426 -2.9 2
-21.756 -8.596 -3.245 7
-20.938 -8.316 -3.267 13
-20.095 -8.031 -3.275 14
-19.207 -7.727 -3.257 12
-18.452 -7.473 -3.271 15
-17.735 -7.235 -3.289 16
-16.124 -8.295 1.537 18
-15.328 -7.694 1.504 22
-15.839 -7.763 1.35 5
-16.812 -8.05 1.142 4
-13.855 -6.487 1.383 0
-12.877 -5.899 1.419 24
-13.24 -5.942 1.296 0
-16.261 -7.157 0.812 25
-17.613 -7.608 0.528 65
-17.172 -7.291 0.489 57
-16.559 -6.914 0.484 25
-16.59 -6.831 0.378 29
-18.11 -7.357 0.028 24
-18.878 -7.581 -0.218 23
-34.281 -13.624 -3.066 5
-31.701 -12.493 -2.825 14
-32.386 -12.669 -3.179 17
-33.102 -12.88 -3.562 16
-34.462 -13.357 -4.102 6
-24.031 -9.287 -2.148 4
-24.069 -9.291 -2.364 48
-24.058 -9.286 -2.579 50
-21.515 -8.316 -2.196 3
-20.612 -7.983 -2.184 3
-21.129 -8.213 -2.54 3
-21.602 -8.43 -2.903 2
-21.912 -8.596 -3.245 18
-21.052 -8.304 -3.257 14
-20.191 -8.016 -3.262 14
-19.301 -7.714 -3.247 13
-18.534 -7.459 -3.259 15
-17.819 -7.225 -3.28 15
-15.433 -7.889 1.609 10
-15.378 -7.668 1.509 29
-15.635 -7.612 1.382 26
-15.674 -7.452 1.28 25
-16.702 -7.764 1.064 17
-12.862 -5.849 1.433 17
-15.929 -7.094 0.966 27
-16.283 -7.111 0.826 17
-17.655 -7.565 0.542 28
-17.089 -7.197 0.522 10
-16.666 -6.901 0.488 24
-16.492 -6.733 0.415 30
-18.135 -7.305 0.049 30
-18.973 -7.554 -0.207 8
-34.618 -13.64 -3.073 5
-31.818 -12.431 -2.797 4
-32.635 -12.657 -3.173 16
-33.297 -12.845 -3.545 11
-34.696 -13.334 -4.09 6
-24.558 -9.412 -2.217 15
-23.999 -9.189 -2.305 49
-24.123 -9.235 -2.549 54
-21.624 -8.292 -2.181 2
-20.815 -7.999 -2.195 2
-21.274 -8.207 -2.535 1
-21.761 -8.43 -2.903 2
-22.036 -8.582 -3.235 17
-21.171 -8.293 -3.249 14
-20.29 -8.0 -3.25 14
-19.409 -7.707 -3.241 13
-18.613 -7.443 -3.245 15
-17.893 -7.21 -3.268 15
-15.45 -7.847 1.616 21
-15.456 -7.656 1.512 26
-15.706 -7.594 1.386 18
-15.723 -7.424 1.286 20
-17.1 -7.892 1.032 9
-12.865 -5.806 1.444 23
-13.748 -6.076 1.258 3
-16.261 -7.046 0.846 28
-16.806 -7.143 0.679 13
-17.087 -7.138 0.542 30
-16.739 -6.874 0.498 30
-16.353 -6.621 0.459 28
-18.703 -7.469 -0.018 32
-18.256 -7.206 -0.059 11
-34.885 -13.626 -3.067 2
-32.122 -12.442 -2.802 2
-32.889 -12.646 -3.168 16
-33.537 -12.826 -3.535 15
-34.908 -13.302 -4.073 19
-24.613 -9.353 -2.185 21
-23.94 -9.09 -2.248 59
-24.211 -9.193 -2.524 54
-21.745 -8.271 -2.168 2
-21.127 -8.056 -2.231 4
-21.437 -8.206 -2.535 1
-21.954 -8.441 -2.911 1
-22.163 -8.569 -3.226 18
-21.293 -8.282 -3.241 14
-20.393 -7.986 -3.239 14
-19.5 -7.692 -3.229 13
-18.702 -7.431 -3.235 14
-17.981 -7.201 -3.26 16
-15.592 -7.87 1.612 15
-15.54 -7.648 1.513 21
-15.845 -7.61 1.382 11
-15.914 -7.461 1.278 18
-13.524 -6.197 1.455 1
-12.904 -5.781 1.451 35
-15.859 -6.955 1.006 26
-16.173 -6.952 0.875 25
-16.865 -7.111 0.689 26
-17.102 -7.085 0.56 24
-16.699 -6.8 0.525 28
-16.382 -6.576 0.476 25
-18.628 -7.376 0.02 25
-18.258 -7.145 -0.033 14
-39.366 -15.243 -3.787 10
-32.411 -12.445 -2.803 3
-33.139 -12.631 -3.16 16
-33.803 -12.816 -3.53 15
-35.153 -13.28 -4.061 15
-24.709 -9.31 -2.161 16
-23.994 -9.035 -2.216 39
-24.06 -9.061 -2.445 56
-21.858 -8.248 -2.154 2
-21.155 -8.004 -2.198 2
-21.604 -8.207 -2.536 1
-22.132 -8.446 -2.914 1
-22.276 -8.551 -3.213 15
-21.401 -8.265 -3.228 16
-20.492 -7.971 -3.227 15
-18.987 -7.441 -3.025 48
-18.78 -7.415 -3.222 15
-18.037 -7.18 -3.241 17
-15.712 -7.879 1.611 2
-15.59 -7.621 1.519 27
-16.427 -7.835 1.335 23
-16.021 -7.458 1.278 8
-13.538 -6.158 1.465 0
-12.892 -5.732 1.464 7
-15.953 -6.943 1.009 25
-16.209 -6.913 0.886 28
-17.136 -7.167 0.671 26
-17.099 -7.025 0.581 16
-16.777 -6.775 0.534 21
-16.679 -6.639 0.451 11
-18.576 -7.292 0.054 30
-18.261 -7.084 -0.007 13
-39.687 -15.233 -3.782 9
-32.701 -12.446 -2.804 4
-33.323 -12.591 -3.141 11
-34.057 -12.801 -3.522 15
-35.425 -13.268 -4.055 5
-24.848 -9.283 -2.146 8
-24.096 -8.997 -2.194 57
-24.14 -9.016 -2.417 2
-21.982 -8.227 -2.141 2
-21.311 -7.999 -2.194 1
-21.778 -8.21 -2.537 1
-22.314 -8.452 -2.918 2
-22.396 -8.535 -3.201 15
-21.505 -8.248 -3.215 15
-20.594 -7.956 -3.216 14
-18.769 -7.307 -2.917 67
-18.866 -7.402 -3.211 15
-18.139 -7.176 -3.238 16
-15.782 -7.865 1.613 0
-15.639 -7.595 1.524 22
-15.84 -7.504 1.405 23
-15.945 -7.37 1.299 20
-13.32 -6.014 1.501 2
-17.289 -7.63 0.956 39
-16.105 -6.956 1.006 20
-16.289 -6.892 0.893 30
-17.529 -7.272 0.637 24
-17.283 -7.043 0.575 1
-16.983 -6.8 0.525 19
-18.116 -7.149 0.256 31
-18.608 -7.241 0.074 22
-18.262 -7.023 0.019 7
-39.994 -15.217 -3.775 6
-33.01 -12.454 -2.807 5
-33.574 -12.574 -3.133 16
-34.331 -12.792 -3.518 14
-35.46 -13.166 -4.001 2
-24.958 -9.244 -2.124 7
-24.186 -8.955 -2.17 56
-24.285 -8.996 -2.405 0
-22.114 -8.21 -2.13 2
-21.485 -8.001 -2.196 2
-21.946 -8.209 -2.537 2
-22.5 -8.459 -2.923 2
-22.519 -8.52 -3.19 15
-21.609 -8.229 -3.201 16
-18.892 -7.249 -2.663 48
-18.772 -7.26 -2.879 55
-18.951 -7.388 -3.199 15
-18.223 -7.165 -3.228 14
-15.706 -7.777 1.629 12
-15.627 -7.539 1.535 22
-15.745 -7.408 1.425 15
-16.501 -7.573 1.252 17
-16.221 -7.271 1.187 13
-16.212 -7.1 1.098 5
-16.174 -6.93 1.013 18
-16.325 -6.852 0.905 26
-17.64 -7.258 0.642 21
-17.802 -7.194 0.523 19
-17.159 -6.813 0.52 23
-18.483 -7.231 0.224 33
-18.687 -7.208 0.088 31
-18.308 -6.979 0.038 0
-19.115 -7.209 -0.21 29
-33.312 -12.456 -2.808 6
-33.832 -12.559 -3.125 15
-34.601 -12.779 -3.511 13
-35.558 -13.088 -3.959 2
-25.09 -9.214 -2.107 9
-24.259 -8.905 -2.141 7
-24.383 -8.957 -2.382 0
-22.234 -8.188 -2.116 2
-21.649 -7.998 -2.194 1
-22.142 -8.218 -2.543 1
-22.689 -8.465 -2.928 1
-22.632 -8.499 -3.175 15
-18.93 -7.158 -2.394 0
-18.862 -7.187 -2.615 39
-18.807 -7.226 -2.851 1
-19.044 -7.376 -3.19 16
-18.304 -7.153 -3.218 14
-15.741 -7.744 1.634 23
-15.726 -7.537 1.535 25
-15.737 -7.353 1.437 19
-16.613 -7.57 1.252 15
-16.184 -7.201 1.205 25
-16.287 -7.079 1.103 12
-16.235 -6.903 1.021 33
-16.298 -6.786 0.925 10
-17.718 -7.23 0.651 11
-17.877 -7.163 0.533 26
-17.148 -6.75 0.543 31
-18.606 -7.216 0.23 25
-18.745 -7.167 0.104 22
0.0 -0.0 3.0 0
-19.129 -7.15 -0.183 18
-33.637 -12.465 -2.813 6
-34.094 -12.543 -3.118 16
-35.042 -12.828 -3.536 28
-36.003 -13.136 -3.985 2
-25.193 -9.172 -2.084 11
-24.375 -8.872 -2.122 3
-24.485 -8.919 -2.359 0
-22.381 -8.174 -2.108 2
-21.812 -7.994 -2.191 1
-22.324 -8.221 -2.545 1
-23.407 -8.668 -3.069 5
-22.756 -8.484 -3.164 16
-18.875 -7.086 -2.34 45
-18.836 -7.129 -2.57 46
-20.009 -7.637 -3.184 14
-19.133 -7.364 -3.179 15
-18.392 -7.142 -3.209 15
-15.686 -7.668 1.648 24
-15.807 -7.525 1.537 22
-16.162 -7.499 1.406 12
-16.649 -7.532 1.261 17
-15.931 -7.037 1.246 20
-16.246 -7.008 1.122 24
-16.314 -6.882 1.027 28
-16.264 -6.718 0.946 28
-17.744 -7.181 0.667 4
-17.933 -7.125 0.547 4
-17.418 -6.797 0.526 21
-18.626 -7.161 0.251 15
-18.746 -7.105 0.13 27
-19.548 -7.32 -0.107 8
-19.231 -7.123 -0.171 0
-18.925 -6.95 -0.241 15
-34.36 -12.528 -3.11 16
-35.25 -12.789 -3.516 17
-36.446 -13.18 -4.008 4
-25.118 -9.064 -2.024 5
-24.447 -8.822 -2.093 8
-24.601 -8.886 -2.339 0
-22.531 -8.162 -2.1 2
-22.017 -8.004 -2.198 1
-22.51 -8.225 -2.548 1
-23.788 -8.742 -3.121 38
-22.876 -8.465 -3.151 19
-18.833 -7.02 -2.29 48
-18.821 -7.074 -2.527 49
-20.103 -7.621 -3.172 13
-19.218 -7.349 -3.167 16
-18.487 -7.135 -3.202 14
-15.749 -7.65 1.651 23
-15.899 -7.518 1.539 20
-16.128 -7.432 1.42 21
-16.782 -7.539 1.259 18
-13.728 -6.018 1.5 3
-16.029 -6.861 1.162 25
-16.423 -6.874 1.029 22
-16.273 -6.667 0.962 20
-17.693 -7.102 0.693 0
-17.849 -7.032 0.579 9
-17.769 -6.874 0.498 33
-18.446 -7.029 0.302 27
-18.755 -7.045 0.154 5
-19.584 -7.268 -0.085 27
-41.325 -15.17 -3.754 6
-18.927 -6.889 -0.212 12
-34.619 -12.51 -3.101 14
-35.528 -12.775 -3.509 14
-36.692 -13.151 -3.993 4
-25.102 -8.98 -1.977 6
-24.555 -8.785 -2.072 9
-24.68 -8.839 -2.311 1
-22.659 -8.14 -2.086 2
-22.155 -7.989 -2.188 4
-22.7 -8.23 -2.551 1
-23.895 -8.714 -3.102 41
-18.833 -6.918 -2.026 15
-18.814 -6.963 -2.247 255
-18.852 -7.037 -2.498 33
-20.212 -7.612 -3.164 13
-19.304 -7.335 -3.155 15
-18.574 -7.125 -3.194 14
-15.614 -7.535 1.671 3
-16.074 -7.551 1.532 3
-16.151 -7.392 1.429 21
-16.596 -7.402 1.291 15
-17.384 -7.565 1.114 28
-16.415 -6.972 1.132 24
-16.994 -7.057 0.976 15
-16.301 -6.625 0.975 24
-19.652 -7.823 0.458 13
-17.915 -6.998 0.59 0
-17.788 -6.822 0.517 23
-18.455 -6.971 0.324 26
-19.447 -7.24 0.075 8
-19.408 -7.138 -0.03 23
-41.651 -15.152 -3.746 8
-18.988 -6.848 -0.193 1
-34.915 -12.502 -3.098 2
-35.825 -12.766 -3.505 14
-36.95 -13.126 -3.979 4
-25.066 -8.888 -1.927 4
-24.645 -8.741 -2.047 59
-24.696 -8.77 -2.27 66
-22.768 -8.112 -2.069 0
-22.381 -8.006 -2.199 2
-23.988 -8.628 -2.82 8
-24.053 -8.705 -3.095 35
-18.821 -6.863 -1.986 36
-18.816 -6.914 -2.21 91
-18.934 -7.018 -2.483 11
-20.309 -7.598 -3.153 14
-19.396 -7.323 -3.145 15
-18.662 -7.115 -3.185 14
-15.608 -7.484 1.68 17
-15.849 -7.395 1.562 0
-15.631 -7.104 1.49 16
-16.343 -7.236 1.329 23
-17.932 -7.745 1.069 23
-16.025 -6.754 1.19 21
-16.82 -6.93 1.013 14
-16.465 -6.637 0.971 19
-18.901 -7.461 0.576 3
-16.372 -6.341 0.817 1
-17.932 -6.817 0.519 19
-18.515 -6.932 0.339 14
-18.315 -6.758 0.27 19
-17.8 -6.487 0.247 0
-42.001 -15.139 -3.74 10
-34.826 -12.445 -2.803 1
0.0 -0.0 3.0 0
-36.134 -12.759 -3.501 13
-37.215 -13.101 -3.966 4
-25.068 -8.81 -1.883 8
-24.743 -8.699 -2.022 58
-24.738 -8.711 -2.234 1
-25.522 -9.016 -2.634 11
-22.56 -8.004 -2.198 3
-23.617 -8.428 -2.684 2
-24.178 -8.683 -3.08 40
-18.848 -6.822 -1.956 10
-18.847 -6.876 -2.181 64
-19.059 -7.016 -2.482 10
-20.403 -7.582 -3.14 14
-19.489 -7.311 -3.134 15
-18.757 -7.107 -3.178 14
-16.142 -7.691 1.644 23
-15.835 -7.34 1.573 15
-15.661 -7.069 1.497 23
-16.48 -7.245 1.327 10
-18.89 -8.098 0.981 23
-16.059 -6.717 1.2 25
-16.72 -6.833 1.041 32
-16.478 -6.588 0.986 26
-16.501 -6.459 0.901 0
-18.038 -6.925 0.615 41
-18.307 -6.899 0.489 29
-18.59 -6.897 0.352 5
