# .PCD v0.7 - Point Cloud Data file format
VERSION 0.7
FIELDS x y z intensity
SIZE 4 4 4 4
TYPE F F F F
COUNT 1 1 1 1
WIDTH 1979
HEIGHT 1
VIEWPOINT 0 0 0 1 0 0 0
POINTS 1979
DATA ascii
-14.673 -8.071 -3.772 12
-14.177 -7.794 -3.776 21
-10.949 -7.656 1.65 27
-10.992 -7.558 1.531 22
-10.879 -7.361 1.435 10
-11.265 -7.501 1.268 9
-11.529 -7.563 1.114 3
-11.804 -7.631 0.955 3
-11.665 -7.434 0.868 1
-11.928 -7.501 0.707 2
-11.889 -7.378 0.603 2
-13.22 -8.105 0.209 20
-12.62 -7.646 0.217 10
-13.508 -8.096 -0.108 1
-12.876 -7.635 -0.085 5
-32.721 -19.221 -5.159 14
-30.917 -17.996 -5.012 5
-29.087 -16.794 -4.831 5
-27.463 -15.734 -4.674 6
-26.076 -14.838 -4.56 5
-24.79 -14.021 -4.455 5
-23.646 -13.297 -4.371 7
-22.59 -12.642 -4.299 8
-21.643 -12.056 -4.244 7
-19.985 -11.092 -3.931 255
-19.959 -11.039 -4.169 7
-19.188 -10.585 -4.14 9
-16.383 -9.014 -3.312 16
-16.113 -8.85 -3.43 5
-16.168 -8.865 -3.68 27
-15.818 -8.664 -3.769 13
-15.263 -8.353 -3.764 11
-14.735 -8.057 -3.761 13
-14.232 -7.779 -3.762 21
-10.977 -7.629 1.655 1
-11.027 -7.536 1.535 7
-11.814 -7.944 1.311 47
-11.77 -7.789 1.202 10
-11.671 -7.607 1.103 1
-11.858 -7.616 0.959 10
-11.846 -7.5 0.849 34
-11.644 -7.273 0.776 12
-11.617 -7.161 0.673 9
-13.337 -8.122 0.204 23
-12.669 -7.623 0.225 19
-35.678 -21.236 -5.152 25
-12.736 -7.501 -0.03 25
-32.948 -19.221 -5.159 13
-31.114 -17.985 -5.008 10
-29.277 -16.787 -4.828 5
-27.657 -15.735 -4.674 7
-26.233 -14.825 -4.554 5
-24.941 -14.009 -4.449 5
-23.788 -13.285 -4.364 7
-22.726 -12.632 -4.293 9
-21.764 -12.042 -4.235 7
-20.035 -11.046 -3.902 36
-20.055 -11.019 -4.156 7
-17.201 -9.427 -3.359 1
-16.399 -8.965 -3.277 15
-16.199 -8.841 -3.423 6
-16.31 -8.886 -3.696 30
-15.89 -8.649 -3.758 13
-15.336 -8.343 -3.756 12
-14.807 -8.048 -3.753 13
-14.296 -7.769 -3.753 19
-11.578 -8.0 1.589 2
-11.114 -7.549 1.533 8
-11.246 -7.515 1.403 25
-11.581 -7.616 1.242 28
-11.791 -7.637 1.096 16
-11.657 -7.44 1.007 15
-11.615 -7.305 0.905 2
-11.637 -7.221 0.792 18
-11.882 -7.276 0.636 1
-13.465 -8.144 0.196 22
-12.62 -7.543 0.255 12
-35.89 -21.216 -5.144 22
-12.788 -7.479 -0.022 30
-33.169 -19.216 -5.157 12
-31.359 -18.001 -5.015 7
-29.474 -16.783 -4.826 5
-27.844 -15.731 -4.673 7
-26.403 -14.818 -4.55 5
-25.095 -13.999 -4.444 5
-23.923 -13.269 -4.355 8
-22.849 -12.613 -4.282 9
-21.881 -12.025 -4.225 7
-21.008 -11.505 -4.189 7
-20.172 -11.01 -4.15 7
-17.172 -9.35 -3.306 10
-16.505 -8.965 -3.277 20
-17.171 -9.312 -3.765 22
-16.65 -9.015 -3.793 28
-15.971 -8.64 -3.75 13
-15.396 -8.324 -3.741 11
-14.869 -8.034 -3.741 14
-14.357 -7.757 -3.743 18
-11.562 -7.941 1.6 18
-11.149 -7.528 1.537 26
-11.255 -7.475 1.411 22
-11.415 -7.459 1.278 19
-11.654 -7.499 1.13 8
-11.67 -7.4 1.017 7
-11.597 -7.246 0.922 1
-11.663 -7.189 0.802 13
-11.987 -7.291 0.631 5
-11.84 -7.113 0.551 1
-12.641 -7.503 0.269 25
-12.935 -7.594 0.085 22
-12.844 -7.46 -0.014 19
-33.384 -19.207 -5.153 12
-31.57 -17.997 -5.013 4
-29.678 -16.781 -4.825 5
-28.024 -15.723 -4.669 7
-26.564 -14.804 -4.543 5
-25.256 -13.992 -4.44 5
-24.065 -13.256 -4.348 7
-22.988 -12.604 -4.277 9
-22.002 -12.01 -4.216 5
-20.478 -11.139 -3.961 6
-20.276 -10.993 -4.139 7
-17.444 -9.435 -3.364 5
-16.565 -8.939 -3.259 19
-16.136 -8.695 -3.317 14
-16.441 -8.846 -3.666 29
-16.045 -8.627 -3.74 12
-15.473 -8.316 -3.734 12
-14.938 -8.023 -3.732 13
-14.428 -7.749 -3.736 22
-11.545 -7.882 1.61 20
-11.201 -7.516 1.539 9
-11.237 -7.417 1.423 15
-11.54 -7.494 1.27 19
-11.617 -7.428 1.148 10
-11.619 -7.32 1.039 7
-13.79 -8.56 0.545 1
-11.635 -7.124 0.822 12
-11.817 -7.139 0.68 11
-11.887 -7.093 0.558 6
-12.625 -7.443 0.291 8
-12.96 -7.556 0.1 39
-12.882 -7.431 -0.002 15
-33.595 -19.194 -5.147 12
-31.791 -17.997 -5.013 4
-29.916 -16.798 -4.833 11
-28.215 -15.72 -4.667 7
-26.734 -14.796 -4.539 5
-25.411 -13.979 -4.433 6
-24.2 -13.239 -4.338 7
-23.118 -12.588 -4.268 9
-22.126 -11.995 -4.208 7
-21.223 -11.467 -4.165 7
-20.38 -10.976 -4.128 7
-17.495 -9.4 -3.341 15
-16.671 -8.938 -3.258 17
-16.295 -8.724 -3.339 4
-16.629 -8.892 -3.7 36
-16.116 -8.612 -3.728 12
-15.539 -8.3 -3.721 11
-15.013 -8.015 -3.726 12
-14.489 -7.736 -3.725 20
-11.528 -7.824 1.62 3
-11.279 -7.523 1.538 20
-11.235 -7.37 1.433 25
-12.156 -7.844 1.189 9
-11.482 -7.295 1.181 18
-12.401 -7.761 0.92 8
-13.699 -8.447 0.578 10
-12.286 -7.472 0.716 0
-13.498 -8.099 0.368 21
-46.858 -27.767 -6.561 3
-12.392 -7.255 0.359 12
-12.999 -7.526 0.111 1
-12.924 -7.403 0.009 26
-33.81 -19.182 -5.142 11
-32.047 -18.014 -5.02 4
-30.086 -16.775 -4.822 18
-28.385 -15.704 -4.66 7
-26.902 -14.785 -4.533 4
-25.562 -13.965 -4.425 6
-24.339 -13.222 -4.329 7
-23.248 -12.572 -4.258 8
-22.254 -11.983 -4.2 7
-21.338 -11.451 -4.156 8
-20.493 -10.963 -4.12 8
-17.572 -9.38 -3.327 7
-16.753 -8.924 -3.249 16
-16.57 -8.815 -3.405 5
-16.875 -8.966 -3.756 45
-16.197 -8.602 -3.72 12
-15.616 -8.29 -3.713 11
-15.082 -8.005 -3.717 13
-14.55 -7.723 -3.713 20
-11.51 -7.765 1.631 9
-11.473 -7.606 1.522 27
-11.204 -7.304 1.448 22
-11.712 -7.51 1.266 0
-11.708 -7.391 1.157 11
-11.647 -7.242 1.06 8
-12.252 -7.506 0.848 36
-13.578 -8.203 0.492 12
-12.622 -7.523 0.556 0
-47.308 -27.843 -6.587 2
-12.409 -7.214 0.374 7
-36.957 -21.25 -5.157 20
-12.881 -7.327 0.04 23
-34.025 -19.168 -5.136 10
-32.263 -18.008 -5.018 5
-30.322 -16.788 -4.828 15
-28.577 -15.699 -4.657 7
-27.067 -14.771 -4.526 5
-25.728 -13.958 -4.421 6
-24.478 -13.206 -4.32 8
-23.378 -12.555 -4.249 9
-22.364 -11.96 -4.186 7
-20.587 -10.974 -3.857 78
-20.489 -10.888 -4.071 30
-17.633 -9.35 -3.307 10
-16.853 -8.919 -3.245 25
-17.563 -9.283 -3.745 17
-17.001 -8.976 -3.764 31
-16.272 -8.588 -3.709 12
-15.696 -8.282 -3.707 19
-15.151 -7.993 -3.707 13
-14.627 -7.719 -3.71 15
-11.549 -7.744 1.634 24
-11.568 -7.622 1.518 5
-11.268 -7.3 1.448 23
-11.379 -7.25 1.326 24
-11.855 -7.435 1.146 11
-11.572 -7.148 1.085 9
-12.508 -7.612 0.817 21
-13.637 -8.184 0.498 3
-12.487 -7.391 0.598 19
-12.98 -7.587 0.388 2
-12.388 -7.153 0.396 23
-12.418 -7.09 0.279 0
-12.902 -7.288 0.056 18
-34.248 -19.159 -5.132 9
-32.492 -18.008 -5.018 4
-30.541 -16.789 -4.829 15
-28.778 -15.698 -4.657 7
-27.248 -14.766 -4.524 5
-25.883 -13.943 -4.414 6
-24.617 -13.188 -4.31 7
-23.514 -12.541 -4.241 8
-22.485 -11.942 -4.176 7
-20.599 -10.906 -3.815 255
-20.539 -10.841 -4.04 19
-17.728 -9.339 -3.299 14
-16.845 -8.857 -3.202 22
-16.826 -8.837 -3.42 15
-17.087 -8.965 -3.755 36
-16.35 -8.575 -3.7 12
-15.766 -8.268 -3.696 11
-15.223 -7.983 -3.699 14
-14.691 -7.708 -3.7 15
-11.554 -7.702 1.642 1
-11.107 -7.274 1.586 35
-11.574 -7.451 1.416 15
-11.427 -7.235 1.33 28
-11.719 -7.303 1.179 3
-11.591 -7.113 1.094 9
-12.434 -7.516 0.845 11
-12.716 -7.58 0.683 17
-12.504 -7.351 0.611 19
-12.991 -7.541 0.403 0
-12.497 -7.166 0.392 17
-12.558 -7.12 0.267 0
-12.961 -7.269 0.063 23
-34.453 -19.138 -5.123 9
-32.735 -18.014 -5.021 5
-30.746 -16.783 -4.826 13
-28.974 -15.693 -4.654 7
-27.423 -14.756 -4.518 4
-26.048 -13.934 -4.409 6
-24.763 -13.174 -4.302 8
-23.648 -12.526 -4.232 8
-22.62 -11.931 -4.169 7
-20.615 -10.84 -3.774 255
-20.635 -10.819 -4.026 8
-17.836 -9.334 -3.296 17
-17.309 -9.041 -3.33 21
-16.908 -8.823 -3.41 17
-17.15 -8.94 -3.737 43
-16.424 -8.56 -3.688 13
-15.842 -8.258 -3.687 11
-15.288 -7.969 -3.687 14
-14.752 -7.695 -3.689 15
-12.794 -8.477 1.505 15
-11.335 -7.377 1.566 14
-11.646 -7.451 1.416 10
-11.399 -7.171 1.344 6
-11.684 -7.234 1.196 13
-11.585 -7.063 1.108 16
-12.457 -7.481 0.855 3
-12.512 -7.408 0.735 20
-12.579 -7.345 0.614 18
-13.278 -7.655 0.364 6
-12.654 -7.205 0.378 31
-12.883 -7.253 0.216 5
-12.958 -7.217 0.084 22
-34.68 -19.127 -5.119 8
-32.965 -18.013 -5.02 5
-30.969 -16.785 -4.827 14
-29.176 -15.691 -4.653 7
-27.602 -14.747 -4.514 5
-26.217 -13.926 -4.405 6
-24.905 -13.157 -4.293 6
-23.788 -12.512 -4.224 9
-22.745 -11.915 -4.159 7
-20.62 -10.768 -3.729 255
-20.515 -10.683 -3.938 32
-17.965 -9.338 -3.298 20
-17.149 -8.898 -3.231 18
-16.809 -8.715 -3.332 24
-17.209 -8.915 -3.718 47
-16.499 -8.546 -3.677 12
-15.919 -8.247 -3.679 11
-15.357 -7.958 -3.677 20
-14.823 -7.686 -3.681 15
-12.874 -8.479 1.505 19
-11.259 -7.283 1.584 2
-11.745 -7.468 1.413 8
-11.413 -7.135 1.353 22
-11.523 -7.088 1.233 14
0.0 -0.0 3.0 0
-12.552 -7.487 0.853 8
-12.539 -7.373 0.746 22
-12.633 -7.326 0.62 19
-12.855 -7.36 0.466 21
-12.579 -7.112 0.411 14
-12.745 -7.126 0.265 14
-13.0 -7.188 0.096 6
-34.896 -19.109 -5.111 8
-33.199 -18.011 -5.019 5
-31.182 -16.779 -4.824 15
-29.365 -15.68 -4.647 7
-27.771 -14.732 -4.507 4
-26.38 -13.914 -4.398 6
-25.055 -13.143 -4.285 6
-23.922 -12.495 -4.214 7
-20.75 -10.794 -3.486 35
-20.628 -10.699 -3.685 255
-21.03 -10.878 -4.064 8
-17.982 -9.285 -3.263 17
-17.225 -8.88 -3.218 19
-17.066 -8.791 -3.387 16
-17.315 -8.912 -3.716 36
-16.577 -8.533 -3.667 15
-15.992 -8.235 -3.669 11
-15.426 -7.945 -3.667 19
-14.894 -7.677 -3.674 14
-11.063 -7.242 1.723 15
-11.675 -7.506 1.541 1
-11.252 -7.11 1.489 15
-11.32 -7.031 1.377 18
-11.43 -6.985 1.258 18
-11.544 -6.946 1.139 15
-12.718 -7.536 0.839 22
-12.655 -7.391 0.74 15
-12.721 -7.326 0.62 19
-12.91 -7.34 0.473 21
-12.616 -7.083 0.422 21
-12.728 -7.065 0.288 24
-13.017 -7.147 0.112 7
-35.116 -19.093 -5.104 9
-33.457 -18.022 -5.024 5
-31.405 -16.779 -4.824 15
-29.578 -15.682 -4.648 7
-27.974 -14.735 -4.508 4
-26.543 -13.9 -4.391 6
-25.198 -13.125 -4.275 3
-24.066 -12.482 -4.206 7
-20.764 -10.727 -3.445 26
-20.639 -10.631 -3.643 255
-21.014 -10.797 -4.011 24
-18.063 -9.264 -3.249 17
-17.715 -9.072 -3.352 7
-17.115 -8.759 -3.364 22
-17.374 -8.887 -3.697 35
-16.651 -8.518 -3.655 25
-16.072 -8.225 -3.661 12
-15.498 -7.934 -3.657 16
-14.958 -7.666 -3.664 14
-11.12 -7.236 1.724 7
-11.737 -7.499 1.542 21
-11.29 -7.089 1.493 1
-12.138 -7.491 1.271 23
-11.502 -6.984 1.259 27
-11.568 -6.914 1.147 0
-13.424 -7.9 0.735 5
-12.709 -7.372 0.746 15
-12.803 -7.323 0.621 9
-13.342 -7.533 0.406 16
-12.666 -7.062 0.43 28
-12.8 -7.055 0.292 8
-12.982 -7.077 0.141 8
-35.346 -19.081 -5.099 9
-33.692 -18.018 -5.022 5
-31.625 -16.776 -4.823 17
-29.767 -15.668 -4.642 7
-28.146 -14.719 -4.5 4
-26.719 -13.893 -4.387 6
-25.344 -13.108 -4.266 4
-24.197 -12.462 -4.195 7
-23.126 -11.865 -4.129 7
-20.643 -10.56 -3.599 255
-20.992 -10.712 -3.956 26
-18.1 -9.221 -3.22 22
-17.795 -9.053 -3.339 52
-17.465 -8.881 -3.452 22
-17.457 -8.872 -3.685 35
-16.729 -8.504 -3.644 13
-16.149 -8.214 -3.651 12
-15.57 -7.923 -3.649 18
-15.029 -7.656 -3.655 14
-11.652 -7.537 1.671 2
-12.373 -7.857 1.473 17
-11.263 -7.028 1.506 13
-12.025 -7.374 1.298 21
-11.791 -7.113 1.227 14
-12.67 -7.522 0.984 4
-13.329 -7.792 0.766 9
-12.794 -7.371 0.746 2
-12.833 -7.29 0.631 12
-12.809 -7.181 0.527 25
-12.772 -7.071 0.426 25
-13.099 -7.169 0.248 5
-13.061 -7.07 0.144 0
-35.573 -19.066 -5.093 9
-33.954 -18.028 -5.026 4
-31.849 -16.773 -4.821 15
-29.988 -15.671 -4.643 30
-28.34 -14.714 -4.497 4
-26.882 -13.878 -4.379 6
-25.498 -13.094 -4.258 4
-24.334 -12.444 -4.185 5
-23.255 -11.847 -4.119 7
-20.663 -10.498 -3.56 51
-21.352 -10.821 -4.027 7
-18.215 -9.217 -3.217 16
-17.811 -9.001 -3.303 24
-17.65 -8.916 -3.478 26
-17.547 -8.861 -3.677 34
-16.817 -8.496 -3.638 12
-16.229 -8.204 -3.644 11
-15.662 -7.922 -3.648 15
-15.096 -7.645 -3.646 15
-17.018 -10.941 1.071 8
-12.503 -7.891 1.466 57
-12.253 -7.598 1.385 22
-12.155 -7.406 1.29 33
-11.789 -7.065 1.239 18
-12.741 -7.514 0.987 5
-13.476 -7.825 0.756 4
-12.772 -7.308 0.766 0
-12.912 -7.284 0.633 22
-12.802 -7.127 0.546 14
-12.854 -7.065 0.428 20
-13.199 -7.172 0.247 29
-37.2 -19.991 -5.077 24
-35.801 -19.05 -5.086 8
-34.22 -18.038 -5.031 5
-32.074 -16.769 -4.82 13
-30.16 -15.648 -4.632 40
-28.53 -14.706 -4.493 4
-27.049 -13.865 -4.372 6
-25.641 -13.074 -4.247 5
-24.458 -12.419 -4.17 6
-23.376 -11.826 -4.106 7
-20.815 -10.502 -3.563 26
-21.487 -10.816 -4.024 7
-18.378 -9.237 -3.231 22
-17.693 -8.883 -3.22 21
-18.318 -9.193 -3.679 21
-17.616 -8.839 -3.66 38
-16.898 -8.483 -3.628 15
-16.312 -8.196 -3.637 12
-15.73 -7.909 -3.637 15
-15.164 -7.634 -3.636 15
-17.039 -10.889 1.08 6
-12.424 -7.793 1.485 33
-12.553 -7.735 1.356 39
-12.174 -7.37 1.299 28
-11.824 -7.04 1.245 21
-13.393 -7.847 0.897 16
-13.384 -7.719 0.787 3
-13.229 -7.518 0.702 1
-12.98 -7.272 0.637 8
-13.274 -7.338 0.473 15
-12.967 -7.077 0.424 11
-13.216 -7.13 0.263 34
-37.551 -20.034 -5.094 22
-36.029 -19.032 -5.079 9
-34.462 -18.034 -5.029 5
-32.284 -16.757 -4.814 8
-30.36 -15.637 -4.627 40
-28.699 -14.687 -4.483 4
-27.219 -13.851 -4.365 6
-25.812 -13.067 -4.243 5
-24.585 -12.396 -4.157 6
-23.512 -11.812 -4.097 7
-21.947 -10.997 -3.872 21
-21.595 -10.795 -4.01 7
-18.377 -9.175 -3.189 33
-17.684 -8.819 -3.175 23
-17.653 -8.801 -3.395 17
-17.689 -8.818 -3.645 28
-16.976 -8.469 -3.616 13
-16.389 -8.183 -3.627 12
-15.799 -7.896 -3.626 21
-15.235 -7.625 -3.628 15
-12.236 -7.772 1.63 3
-12.284 -7.657 1.512 7
-12.063 -7.386 1.43 25
-12.103 -7.281 1.319 16
-12.357 -7.309 1.178 13
-13.794 -8.027 0.849 0
-13.642 -7.814 0.759 3
-13.201 -7.45 0.722 0
-13.117 -7.296 0.629 33
-13.349 -7.328 0.477 18
-13.278 -7.196 0.381 21
-13.257 -7.101 0.274 13
-37.855 -20.05 -5.101 24
-36.26 -19.016 -5.072 8
-34.708 -18.031 -5.028 5
-32.544 -16.769 -4.82 4
-30.578 -15.635 -4.626 41
-28.883 -14.674 -4.477 4
-27.379 -13.832 -4.355 6
-25.973 -13.055 -4.236 4
-24.736 -12.384 -4.15 6
-23.633 -11.789 -4.083 4
-22.618 -11.254 -4.032 7
-21.716 -10.782 -4.002 7
-18.417 -9.133 -3.16 35
-17.771 -8.803 -3.164 26
-17.616 -8.726 -3.34 23
-17.775 -8.804 -3.634 34
-17.058 -8.456 -3.606 13
-16.466 -8.171 -3.617 12
-15.875 -7.886 -3.617 16
-15.305 -7.615 -3.62 15
-12.278 -7.752 1.633 3
-12.337 -7.643 1.514 5
-12.112 -7.369 1.434 20
-12.916 -7.719 1.218 15
-12.451 -7.316 1.176 3
-12.679 -7.329 1.036 6
-13.387 -7.616 0.816 3
-66.189 -37.099 -8.342 23
-12.998 -7.18 0.667 11
-13.009 -7.091 0.559 17
-13.114 -7.057 0.432 42
-13.288 -7.066 0.288 12
-38.165 -20.069 -5.108 22
-34.089 -17.748 -4.533 17
-34.965 -18.032 -5.028 5
-32.766 -16.76 -4.815 4
-30.779 -15.623 -4.62 41
-29.077 -14.665 -4.472 4
-27.57 -13.828 -4.352 6
-26.162 -13.054 -4.236 6
-24.86 -12.357 -4.134 5
-22.037 -10.915 -3.558 0
-22.748 -11.24 -4.024 7
-18.503 -9.123 -2.925 12
-18.515 -9.119 -3.151 22
-17.851 -8.784 -3.151 21
-17.665 -8.692 -3.315 22
-17.861 -8.79 -3.624 30
-17.142 -8.444 -3.597 14
-16.542 -8.158 -3.607 11
-15.943 -7.872 -3.606 19
-15.373 -7.603 -3.609 15
-13.146 -8.249 1.545 12
-13.497 -8.31 1.385 23
-12.059 -7.291 1.45 9
-12.549 -7.452 1.28 25
-12.816 -7.481 1.135 16
-16.755 -9.621 0.422 19
-13.438 -7.593 0.823 9
-66.441 -36.983 -8.307 21
-13.202 -7.241 0.647 13
-13.136 -7.11 0.552 24
-12.877 -6.878 0.496 17
-13.321 -7.033 0.3 0
-38.47 -20.082 -5.113 23
-34.087 -17.617 -4.478 17
-35.233 -18.037 -5.03 5
-33.012 -16.762 -4.816 4
-31.001 -15.62 -4.618 39
-29.285 -14.662 -4.471 4
-27.748 -13.816 -4.346 6
-26.291 -13.025 -4.22 6
-25.022 -12.348 -4.129 6
-23.912 -11.76 -4.066 4
-22.868 -11.22 -4.011 7
-18.453 -9.036 -2.868 34
-18.651 -9.124 -3.154 7
-17.975 -8.786 -3.152 22
-17.765 -8.684 -3.309 4
-17.947 -8.776 -3.613 23
-17.227 -8.432 -3.588 13
-16.616 -8.143 -3.594 12
-16.019 -7.861 -3.597 18
-15.447 -7.595 -3.602 15
-13.7 -8.545 1.493 8
-13.568 -8.302 1.386 7
-12.011 -7.216 1.466 8
-12.499 -7.374 1.298 8
-12.927 -7.497 1.131 21
-12.679 -7.232 1.062 2
-13.638 -7.653 0.805 8
-66.73 -36.886 -8.277 22
-13.023 -7.094 0.695 13
-13.545 -7.279 0.494 15
-12.924 -6.854 0.505 29
-41.363 -21.68 -5.322 20
-38.806 -20.11 -5.125 17
-34.07 -17.479 -4.42 35
-35.487 -18.034 -5.029 6
-33.241 -16.755 -4.813 5
-31.212 -15.611 -4.614 36
-29.476 -14.65 -4.465 4
-27.915 -13.799 -4.337 5
-26.467 -13.017 -4.215 6
-25.167 -12.331 -4.119 6
-24.034 -11.736 -4.052 4
-22.992 -11.202 -4.0 7
-18.475 -8.984 -2.834 38
-18.653 -9.062 -3.113 5
-18.186 -8.829 -3.182 6
-18.554 -9.011 -3.547 17
-18.027 -8.758 -3.599 30
-17.315 -8.421 -3.579 13
-16.696 -8.133 -3.586 12
-16.097 -7.852 -3.589 15
-15.511 -7.581 -3.59 15
-13.131 -8.141 1.565 1
-13.418 -8.159 1.414 0
-12.732 -7.6 1.385 59
-12.233 -7.17 1.345 36
-13.71 -7.898 1.031 11
-12.673 -7.179 1.076 9
-13.644 -7.605 0.819 12
-67.037 -36.798 -8.25 18
-12.924 -6.99 0.729 22
-14.147 -7.548 0.401 19
-12.873 -6.778 0.533 21
-41.739 -21.717 -5.336 19
-34.082 -17.532 -4.084 30
-34.052 -17.341 -4.361 32
-35.745 -18.031 -5.028 4
-33.474 -16.748 -4.81 28
-31.435 -15.607 -4.612 36
-29.671 -14.638 -4.458 4
-28.09 -13.783 -4.328 6
-26.631 -13.003 -4.208 7
-25.323 -12.317 -4.112 6
-24.166 -11.716 -4.04 4
-18.487 -8.944 -2.589 3
-18.514 -8.94 -2.806 29
-20.67 -9.974 -3.727 13
-18.235 -8.794 -3.157 19
0.0 -0.0 3.0 0
-18.086 -8.729 -3.578 18
-17.397 -8.408 -3.569 13
-16.772 -8.119 -3.574 12
-16.163 -7.837 -3.576 14
-15.582 -7.571 -3.581 15
-30.848 -19.008 -0.352 21
-13.394 -8.094 1.427 11
-12.546 -7.441 1.418 17
-12.175 -7.09 1.363 15
-12.659 -7.244 1.194 4
-12.736 -7.167 1.08 1
-13.82 -7.65 0.806 29
-13.661 -7.446 0.723 2
-12.706 -6.824 0.783 14
-13.931 -7.379 0.459 15
-13.227 -6.914 0.483 9
-42.06 -21.724 -5.339 19
-34.057 -17.391 -4.026 21
-34.02 -17.197 -4.3 36
-34.007 -17.027 -4.581 20
-33.736 -16.753 -4.812 14
-31.658 -15.601 -4.609 37
-29.859 -14.622 -4.45 4
-28.272 -13.77 -4.322 6
-26.786 -12.982 -4.196 7
-25.475 -12.302 -4.103 6
-24.295 -11.695 -4.027 4
-18.453 -8.864 -2.539 28
-18.598 -8.919 -2.792 7
-20.616 -9.879 -3.663 9
-18.159 -8.699 -3.091 21
-18.897 -9.056 -3.58 22
-18.141 -8.699 -3.555 13
-17.475 -8.392 -3.556 14
-16.859 -8.11 -3.567 12
-16.235 -7.823 -3.565 16
-15.65 -7.559 -3.571 15
-15.54 -9.517 1.322 2
-13.222 -7.94 1.457 15
-12.019 -7.084 1.494 27
-12.482 -7.221 1.333 26
-12.656 -7.194 1.206 14
-13.572 -7.586 0.967 4
-13.49 -7.415 0.874 2
-13.527 -7.322 0.761 3
-12.805 -6.827 0.782 7
-13.542 -7.122 0.548 8
-13.393 -6.95 0.47 1
-34.121 -17.495 -3.716 6
-34.041 -17.254 -3.971 32
-34.004 -17.062 -4.242 38
-33.988 -16.891 -4.52 32
-33.927 -16.723 -4.798 15
-31.888 -15.597 -4.607 35
-30.055 -14.609 -4.443 4
-28.468 -13.763 -4.318 5
-26.955 -12.969 -4.189 6
-25.62 -12.282 -4.091 6
-24.431 -11.676 -4.016 4
-18.464 -8.807 -2.503 38
-19.726 -9.393 -3.1 19
-19.742 -9.395 -3.337 15
-18.218 -8.668 -3.069 21
-19.023 -9.057 -3.58 28
-18.22 -8.681 -3.541 13
-17.573 -8.385 -3.551 13
-16.929 -8.093 -3.554 14
-16.314 -7.814 -3.557 19
-15.72 -7.548 -3.562 15
-13.443 -8.182 1.557 3
-13.057 -7.792 1.485 42
-12.739 -7.461 1.414 15
-12.348 -7.097 1.361 28
-12.809 -7.233 1.197 7
-12.738 -7.071 1.105 1
-14.035 -7.662 0.803 1
-13.156 -7.071 0.838 27
-13.613 -7.207 0.658 12
-13.936 -7.276 0.495 2
-50.859 -26.2 -6.536 3
-34.109 -17.359 -3.664 29
-34.018 -17.115 -3.915 32
-33.995 -16.93 -4.187 39
-33.962 -16.752 -4.458 34
-34.252 -16.757 -4.814 8
-32.125 -15.596 -4.607 33
-30.289 -14.613 -4.446 4
-28.65 -13.749 -4.311 6
-27.102 -12.944 -4.175 6
-25.776 -12.267 -4.082 5
-18.471 -8.764 -2.266 0
-18.51 -8.766 -2.477 33
-19.986 -9.451 -3.137 21
-20.158 -9.528 -3.426 6
-18.287 -8.642 -3.051 19
-19.117 -9.04 -3.568 22
-18.313 -8.668 -3.532 11
-17.651 -8.369 -3.539 13
-16.999 -8.076 -3.54 21
-16.386 -7.801 -3.546 14
-15.788 -7.535 -3.55 15
-16.312 -9.869 1.26 21
-12.722 -7.545 1.533 23
-12.029 -6.998 1.512 14
-12.441 -7.104 1.36 13
-12.633 -7.086 1.233 6
-14.003 -7.721 0.931 26
-14.079 -7.633 0.811 1
-13.301 -7.099 0.83 14
-13.594 -7.146 0.678 7
0.0 -0.0 3.0 0
-13.358 -6.831 0.514 0
-34.085 -17.22 -3.61 30
-33.998 -16.978 -3.859 35
-33.986 -16.799 -4.131 39
-33.959 -16.625 -4.402 36
-34.448 -16.726 -4.799 20
-32.352 -15.589 -4.603 33
-30.491 -14.601 -4.44 5
-28.842 -13.738 -4.305 5
-27.282 -12.933 -4.169 4
-25.929 -12.25 -4.073 6
-18.436 -8.684 -2.218 26
-18.579 -8.736 -2.459 1
-19.884 -9.336 -3.063 18
-20.095 -9.432 -3.362 19
-18.377 -8.625 -3.039 24
-18.794 -8.829 -3.414 5
-18.393 -8.649 -3.518 16
-17.746 -8.361 -3.532 13
-17.093 -8.07 -3.535 14
-16.454 -7.786 -3.533 14
-15.852 -7.521 -3.538 15
-15.018 -9.03 1.408 1
-12.661 -7.462 1.549 9
-11.997 -6.936 1.526 6
-12.341 -7.0 1.384 24
-12.623 -7.033 1.247 2
-12.826 -7.024 1.118 2
-14.159 -7.622 0.814 7
-13.442 -7.123 0.822 23
-13.557 -7.075 0.701 16
-13.629 -7.012 0.585 9
-13.38 -6.793 0.528 23
-34.135 -17.118 -3.571 2
-33.996 -16.85 -3.808 34
-33.976 -16.668 -4.075 40
-33.963 -16.502 -4.347 34
-34.675 -16.71 -4.792 19
-32.565 -15.573 -4.596 14
-30.677 -14.58 -4.429 5
-29.025 -13.723 -4.296 6
-27.444 -12.915 -4.159 4
-26.078 -12.23 -4.061 6
-18.446 -8.625 -2.183 35
-23.762 -11.093 -3.932 4
-19.935 -9.294 -3.035 19
-19.25 -8.973 -3.052 1
-18.579 -8.66 -3.064 17
-18.898 -8.819 -3.407 15
-18.493 -8.639 -3.51 16
-17.831 -8.346 -3.521 13
-17.173 -8.057 -3.525 15
-16.533 -7.775 -3.524 15
-15.933 -7.515 -3.532 15
-15.515 -9.271 1.365 20
-12.679 -7.426 1.557 0
-11.989 -6.887 1.536 16
-12.129 -6.836 1.422 24
-12.616 -6.982 1.259 1
-12.827 -6.975 1.131 11
-14.311 -7.651 0.806 18
-13.934 -7.331 0.759 10
-14.349 -7.434 0.584 20
-13.94 -7.121 0.548 9
-13.431 -6.767 0.537 10
-34.076 -16.96 -3.51 2
-33.985 -16.718 -3.754 35
-33.972 -16.541 -4.021 38
-33.97 -16.38 -4.293 33
-34.899 -16.691 -4.783 13
-32.846 -15.589 -4.603 7
-30.891 -14.57 -4.424 4
-29.236 -13.718 -4.294 5
-27.62 -12.9 -4.151 6
-26.245 -12.217 -4.054 5
-18.498 -8.587 -2.159 27
-23.896 -11.075 -3.921 5
-19.996 -9.257 -3.012 19
-19.233 -8.903 -3.005 4
-18.623 -8.622 -3.037 15
-19.079 -8.843 -3.425 6
-18.596 -8.631 -3.504 13
-17.923 -8.336 -3.513 13
-17.246 -8.041 -3.511 13
-16.602 -7.76 -3.511 15
-15.997 -7.499 -3.519 16
-12.619 -7.495 1.678 4
-13.564 -7.894 1.466 3
-12.531 -7.152 1.48 14
-12.191 -6.825 1.424 21
-12.703 -6.982 1.259 9
-12.666 -6.841 1.167 7
-13.817 -7.335 0.897 66
-13.016 -6.8 0.921 9
-14.383 -7.398 0.596 11
-13.505 -6.848 0.642 8
-13.467 -6.735 0.549 26
-34.15 -16.87 -3.476 2
-33.988 -16.594 -3.704 33
-33.968 -16.414 -3.967 41
-33.977 -16.259 -4.239 35
-35.145 -16.68 -4.778 9
-33.077 -15.58 -4.599 7
-31.115 -14.565 -4.421 4
-29.429 -13.705 -4.287 5
-27.793 -12.884 -4.142 5
-18.422 -8.512 -1.914 38
-18.567 -8.556 -2.141 1
-24.006 -11.046 -3.902 15
-20.117 -9.247 -3.005 20
-19.227 -8.838 -2.961 4
-18.808 -8.647 -3.055 5
-19.128 -8.806 -3.398 6
-18.689 -8.617 -3.493 16
-18.012 -8.323 -3.503 13
-17.32 -8.025 -3.498 14
-16.674 -7.745 -3.499 14
-16.064 -7.486 -3.508 15
-12.639 -7.461 1.684 1
-13.596 -7.862 1.472 17
0.0 -0.0 3.0 0
-12.166 -6.765 1.438 25
-12.839 -7.01 1.252 22
-12.806 -6.869 1.159 0
-13.72 -7.233 0.926 67
-13.08 -6.785 0.926 10
-14.389 -7.348 0.613 9
-13.555 -6.823 0.651 11
-13.532 -6.717 0.555 20
-34.145 -16.742 -3.427 2
-33.976 -16.463 -3.651 35
-33.964 -16.287 -3.913 40
-33.979 -16.137 -4.184 37
-35.415 -16.681 -4.778 6
-33.316 -15.573 -4.595 6
-31.315 -14.548 -4.413 4
-29.626 -13.693 -4.281 5
-27.984 -12.875 -4.137 4
-18.424 -8.45 -1.879 39
-25.274 -11.561 -3.947 4
-24.049 -10.986 -3.865 31
-19.268 -8.793 -2.71 5
-19.213 -8.769 -2.915 4
-19.055 -8.701 -3.093 6
-19.131 -8.749 -3.356 5
-18.789 -8.605 -3.485 13
-18.1 -8.31 -3.492 14
-17.413 -8.017 -3.492 13
-16.749 -7.733 -3.489 13
-16.132 -7.472 -3.496 16
-16.67 -9.78 1.276 15
-13.615 -7.824 1.479 9
-12.447 -7.013 1.509 27
-12.593 -6.957 1.394 0
-13.38 -7.256 1.191 10
-12.575 -6.699 1.205 1
-13.785 -7.215 0.931 31
-13.105 -6.748 0.937 1
-14.448 -7.324 0.62 11
-13.743 -6.866 0.636 21
-13.55 -6.677 0.57 2
-34.162 -16.623 -3.381 2
-33.982 -16.34 -3.602 43
-33.962 -16.162 -3.86 40
-33.988 -16.017 -4.131 41
-35.718 -16.694 -4.785 16
-33.548 -15.561 -4.59 7
-31.551 -14.546 -4.411 4
-29.834 -13.685 -4.276 5
-18.431 -8.416 -1.665 0
-18.471 -8.409 -1.855 35
-25.432 -11.548 -3.939 3
-24.113 -10.935 -3.833 23
-19.247 -8.72 -2.663 4
-19.202 -8.703 -2.87 4
-18.974 -8.605 -3.025 12
-19.121 -8.685 -3.31 6
-18.924 -8.61 -3.488 15
-18.188 -8.297 -3.482 13
-17.494 -8.003 -3.481 14
-16.825 -7.72 -3.478 14
-16.213 -7.465 -3.49 15
-16.845 -9.822 1.268 16
-13.419 -7.663 1.511 9
-12.405 -6.944 1.524 0
-12.669 -6.952 1.395 3
-13.363 -7.198 1.205 13
-13.612 -7.201 1.07 11
-13.659 -7.1 0.964 14
-13.14 -6.718 0.946 1
-14.089 -7.09 0.696 22
-13.737 -6.813 0.654 16
-13.512 -6.607 0.595 11
-34.164 -16.498 -3.333 2
-33.983 -16.216 -3.552 44
-33.96 -16.037 -3.807 40
-33.997 -15.898 -4.078 40
-34.024 -15.78 -4.358 19
-33.798 -15.556 -4.587 6
-31.776 -14.537 -4.407 4
-30.021 -13.666 -4.266 5
-18.404 -8.341 -1.623 29
-18.53 -8.372 -1.834 13
-24.107 -10.865 -3.529 32
-24.36 -10.966 -3.853 6
-19.236 -8.653 -2.619 4
-19.187 -8.635 -2.824 4
-19.17 -8.633 -3.045 4
-19.124 -8.627 -3.268 8
-19.039 -8.605 -3.484 13
-18.28 -8.285 -3.473 14
-17.574 -7.99 -3.47 14
-16.893 -7.703 -3.464 14
-16.287 -7.455 -3.48 16
-17.41 -10.089 1.221 19
-15.57 -8.835 1.283 20
-12.292 -6.836 1.547 0
-13.576 -7.4 1.292 5
-13.066 -6.99 1.257 7
-12.699 -6.671 1.213 1
-14.199 -7.328 0.899 25
-14.27 -7.243 0.785 23
-14.129 -7.058 0.707 23
-13.738 -6.763 0.671 21
-13.565 -6.584 0.604 33
-17.782 -8.522 -0.271 2
-33.988 -16.094 -3.503 21
-33.968 -15.917 -3.756 33
-34.009 -15.78 -4.026 40
-34.1 -15.693 -4.318 33
-34.027 -15.541 -4.58 6
-18.433 -8.368 -1.264 13
-18.468 -8.342 -1.435 16
-18.398 -8.275 -1.587 41
-27.038 -12.125 -4.0 6
-24.131 -10.796 -3.487 255
-24.552 -10.972 -3.856 4
-19.224 -8.585 -2.575 4
-19.186 -8.573 -2.783 4
-19.162 -8.57 -3.001 4
-19.14 -8.576 -3.231 6
-19.153 -8.599 -3.48 15
-18.369 -8.271 -3.462 14
-17.664 -7.98 -3.462 13
-16.965 -7.689 -3.452 14
-16.364 -7.446 -3.472 16
-15.407 -8.872 1.436 12
-15.702 -8.854 1.279 21
-15.328 -8.469 1.2 18
-12.657 -6.854 1.418 7
-12.837 -6.821 1.299 10
-12.772 -6.663 1.215 17
-13.346 -6.839 1.039 1
-14.173 -7.142 0.816 20
-14.393 -7.137 0.681 23
-13.799 -6.742 0.679 12
-13.569 -6.537 0.621 21
-34.091 -16.214 -3.224 26
-18.025 -8.47 -0.422 15
-18.145 -8.437 -0.581 26
-18.224 -8.391 -0.736 10
-18.283 -8.348 -0.893 20
-18.366 -8.323 -1.059 20
-18.441 -8.307 -1.233 41
-18.479 -8.283 -1.404 39
-18.406 -8.215 -1.553 45
-27.202 -12.107 -3.99 6
-24.145 -10.721 -3.442 0
-24.683 -10.949 -3.842 4
-19.223 -8.523 -2.535 4
-19.178 -8.509 -2.739 8
-19.157 -8.508 -2.958 4
-19.227 -8.556 -3.216 2
-19.253 -8.587 -3.471 14
-18.454 -8.256 -3.45 14
-17.748 -7.967 -3.452 12
-17.044 -7.677 -3.442 14
-16.428 -7.429 -3.458 19
-15.462 -8.849 1.44 23
-15.536 -8.704 1.308 28
-15.969 -8.766 1.137 14
-12.61 -6.783 1.434 29
-13.118 -6.922 1.274 10
-13.187 -6.831 1.17 10
-13.876 -7.059 0.976 13
-14.018 -7.013 0.856 28
-14.235 -7.006 0.724 15
-13.742 -6.664 0.705 24
-13.583 -6.493 0.637 27
-17.906 -8.451 -0.244 10
-18.047 -8.414 -0.399 25
-18.163 -8.379 -0.557 35
-18.246 -8.335 -0.711 35
-18.304 -8.293 -0.867 45
-18.398 -8.273 -1.035 35
-18.492 -8.265 -1.211 29
-18.555 -8.252 -1.388 21
-18.46 -8.176 -1.532 18
-27.373 -12.091 -3.981 6
-26.022 -11.468 -3.891 4
-23.767 -10.466 -3.54 54
-19.207 -8.454 -2.49 5
-19.177 -8.448 -2.698 10
-19.142 -8.442 -2.911 8
-19.37 -8.561 -3.22 3
-19.343 -8.57 -3.458 13
-18.539 -8.24 -3.438 14
-17.825 -7.951 -3.438 13
-17.116 -7.662 -3.429 14
-16.509 -7.422 -3.451 15
-15.403 -8.762 1.455 19
-15.543 -8.653 1.318 23
-15.869 -8.653 1.161 9
-12.689 -6.78 1.435 1
-13.265 -6.952 1.267 12
-13.148 -6.764 1.188 19
-13.105 -6.619 1.102 25
-13.859 -6.882 0.896 32
-14.317 -6.995 0.727 22
-13.842 -6.662 0.706 21
-13.655 -6.477 0.642 25
-17.905 -8.386 -0.219 26
-34.106 -15.779 -3.375 2
-18.209 -8.335 -0.538 1
-18.375 -8.328 -0.708 3
-18.347 -8.247 -0.846 15
-18.595 -8.296 -1.046 5
-18.535 -8.22 -1.188 0
-18.28 -8.067 -1.29 29
-18.514 -8.137 -1.51 7
-27.541 -12.072 -3.97 6
-23.904 -10.456 -3.282 20
-19.694 -8.608 -2.379 0
-19.205 -8.392 -2.45 5
-19.164 -8.383 -2.654 4
-19.133 -8.379 -2.867 4
-19.474 -8.549 -3.211 3
-19.447 -8.558 -3.449 13
-18.655 -8.237 -3.436 14
-17.912 -7.939 -3.429 13
-17.201 -7.652 -3.421 14
-16.58 -7.409 -3.44 16
-17.117 -9.676 1.294 19
-15.619 -8.639 1.321 19
-12.562 -6.805 1.554 3
-12.804 -6.795 1.431 3
-13.18 -6.86 1.29 12
-12.882 -6.58 1.237 6
-12.65 -6.344 1.181 33
-13.766 -6.787 0.925 18
-14.111 -6.843 0.777 16
-13.849 -6.615 0.722 20
-13.683 -6.442 0.655 24
-14.581 -6.776 0.399 0
-34.116 -15.66 -3.327 3
-34.01 -15.446 -3.557 37
-18.583 -8.356 -0.72 1
-18.616 -8.302 -0.871 6
-18.61 -8.237 -1.017 43
-31.68 -13.939 -4.102 2
-18.283 -8.006 -1.257 34
-29.307 -12.78 -4.084 55
-24.271 -10.557 -3.095 0
-23.866 -10.36 -3.225 5
-19.803 -8.591 -2.368 1
-19.196 -8.327 -2.408 4
-19.166 -8.323 -2.614 4
-19.244 -8.369 -2.86 2
-19.603 -8.546 -3.209 5
-19.544 -8.543 -3.438 13
-18.761 -8.23 -3.43 16
-17.999 -7.927 -3.419 13
-17.284 -7.642 -3.413 14
-16.657 -7.399 -3.432 16
-16.111 -9.051 1.404 1
-15.605 -8.577 1.333 18
-15.847 -8.529 1.187 19
-12.641 -6.664 1.462 5
-13.818 -7.142 1.219 3
-12.774 -6.479 1.264 0
-12.541 -6.244 1.209 24
-13.616 -6.664 0.963 25
-14.115 -6.794 0.793 24
-13.842 -6.561 0.741 18
-13.74 -6.418 0.664 30
-17.964 -8.283 -0.18 32
-34.057 -15.511 -3.267 1
-34.059 -15.346 -3.514 34
-31.77 -14.173 -3.31 3
-18.667 -8.258 -0.851 34
-18.653 -8.191 -0.995 1
-18.273 -7.976 -1.064 11
-18.322 -7.96 -1.233 34
-29.513 -12.771 -4.079 57
-24.301 -10.49 -3.056 255
-23.845 -10.273 -3.173 103
-19.93 -8.582 -2.363 1
-19.187 -8.262 -2.366 4
-19.149 -8.256 -2.569 16
-19.387 -8.372 -2.862 2
-19.711 -8.534 -3.201 7
-19.644 -8.529 -3.427 13
-18.86 -8.219 -3.421 15
-18.075 -7.91 -3.405 12
-17.369 -7.632 -3.404 15
-16.739 -7.39 -3.424 16
-16.031 -8.95 1.422 18
-15.838 -8.65 1.319 2
-13.253 -7.086 1.494 0
-13.964 -7.311 1.312 2
-13.46 -6.909 1.277 13
-12.559 -6.325 1.305 25
-12.557 -6.207 1.22 17
-13.331 -6.476 1.02 29
-14.151 -6.76 0.803 19
-13.859 -6.52 0.755 21
-14.145 -6.557 0.613 16
-14.626 -6.692 0.431 1
-34.062 -15.391 -3.218 25
-34.193 -15.285 -3.488 20
-18.701 -8.277 -0.685 6
-18.684 -8.2 -0.824 19
-31.766 -13.837 -3.749 51
-18.279 -7.916 -1.033 43
-18.393 -7.928 -1.215 6
-29.709 -12.755 -4.07 58
-24.345 -10.428 -3.02 209
-23.835 -10.19 -3.123 1
-20.043 -8.566 -2.353 2
-19.184 -8.2 -2.325 5
-19.147 -8.195 -2.528 4
-19.544 -8.38 -2.868 2
-19.829 -8.527 -3.195 6
-19.748 -8.517 -3.418 13
-18.945 -8.202 -3.408 15
-18.155 -7.895 -3.393 13
-17.438 -7.615 -3.39 15
-16.809 -7.376 -3.412 16
-15.766 -8.747 1.458 20
-15.718 -8.529 1.342 13
-15.773 -8.378 1.219 21
-15.195 -7.903 1.176 11
-13.98 -7.126 1.223 8
-12.536 -6.269 1.32 11
-12.736 -6.25 1.208 9
-13.54 -6.529 1.004 23
-14.194 -6.73 0.813 24
-13.909 -6.493 0.764 22
-14.425 -6.634 0.585 11
-17.969 -8.157 -0.131 11
-34.096 -15.284 -3.175 32
-34.429 -15.268 -3.481 9
-18.798 -8.253 -0.675 39
-18.666 -8.127 -0.79 0
-18.263 -7.892 -0.849 28
-18.325 -7.873 -1.011 30
-31.691 -13.552 -4.206 5
-29.909 -12.741 -4.062 54
-23.958 -10.182 -2.879 70
-24.793 -10.52 -3.321 29
-20.18 -8.56 -2.349 2
-19.213 -8.152 -2.294 3
-19.268 -8.188 -2.523 1
-19.677 -8.377 -2.866 2
-19.959 -8.522 -3.192 5
-19.842 -8.5 -3.405 13
-19.04 -8.19 -3.399 15
-18.242 -7.881 -3.382 13
-17.52 -7.603 -3.38 15
-16.883 -7.364 -3.402 15
-15.744 -8.681 1.469 16
-16.306 -8.792 1.291 18
-13.987 -7.38 1.431 7
-13.122 -6.779 1.435 1
-14.047 -7.111 1.227 4
-12.665 -6.288 1.315 13
-12.82 -6.245 1.209 8
-13.643 -6.53 1.004 15
-14.291 -6.724 0.815 26
-14.102 -6.533 0.751 21
-14.335 -6.542 0.619 2
-17.978 -8.096 -0.108 11
-34.176 -15.199 -3.141 25
-18.864 -8.299 -0.523 8
-18.913 -8.237 -0.667 9
-18.167 -7.846 -0.659 4
-18.265 -7.83 -0.819 39
-31.92 -13.604 -3.932 31
-31.908 -13.537 -4.198 5
-30.109 -12.725 -4.054 43
-23.966 -10.106 -2.835 163
-24.611 -10.362 -3.226 160
-20.318 -8.554 -2.345 2
-19.306 -8.131 -2.28 2
-19.401 -8.184 -2.52 1
-19.813 -8.375 -2.865 2
-20.088 -8.519 -3.189 6
-19.946 -8.487 -3.395 14
-19.118 -8.168 -3.382 15
-18.34 -7.873 -3.375 12
-17.613 -7.595 -3.373 14
-16.961 -7.353 -3.392 17
-15.705 -8.605 1.483 23
-16.299 -8.731 1.303 21
-16.165 -8.473 1.199 18
-13.796 -7.078 1.366 3
-12.63 -6.349 1.417 6
-12.556 -6.19 1.341 17
-12.878 -6.228 1.214 17
-14.157 -6.726 0.944 24
-14.265 -6.661 0.836 17
-14.008 -6.439 0.783 37
-14.306 -6.478 0.642 8
-34.696 -15.501 -2.95 3
-18.826 -8.305 -0.356 2
-18.871 -8.235 -0.495 36
-31.811 -13.742 -3.118 31
-18.158 -7.779 -0.627 35
-18.328 -7.794 -0.801 16
-31.751 -13.423 -3.839 25
-32.129 -13.522 -4.19 4
-30.327 -12.716 -4.048 32
-24.009 -10.045 -2.8 18
-24.562 -10.262 -3.166 149
-20.442 -8.54 -2.337 4
-19.421 -8.118 -2.272 2
-19.551 -8.188 -2.523 2
-19.939 -8.368 -2.859 2
-20.214 -8.512 -3.184 7
-20.047 -8.472 -3.384 14
-19.217 -8.157 -3.373 14
-18.438 -7.864 -3.368 13
-17.695 -7.584 -3.364 15
-17.035 -7.341 -3.381 16
-15.262 -8.311 1.535 20
-16.186 -8.614 1.326 25
-13.248 -6.898 1.534 2
-13.26 -6.756 1.44 10
-13.143 -6.56 1.364 6
-12.574 -6.154 1.351 21
-12.872 -6.179 1.228 13
-13.174 -6.211 1.101 0
-14.308 -6.63 0.846 16
-14.487 -6.607 0.725 24
-14.496 -6.513 0.63 3
-35.918 -15.92 -3.111 10
-18.115 -7.928 -0.203 16
-19.022 -8.234 -0.495 28
-18.075 -7.745 -0.448 13
-18.203 -7.734 -0.607 29
-31.743 -13.388 -3.53 53
-31.704 -13.295 -3.774 14
-32.357 -13.509 -4.183 4
-30.542 -12.705 -4.042 18
-28.827 -11.967 -3.909 6
-24.512 -10.161 -3.106 214
-20.541 -8.516 -2.322 3
-19.54 -8.107 -2.265 3
-19.673 -8.179 -2.517 2
-20.083 -8.369 -2.86 2
-20.361 -8.514 -3.186 5
-20.133 -8.45 -3.368 13
-19.306 -8.141 -3.36 16
-18.525 -7.851 -3.357 13
-17.784 -7.575 -3.356 15
-17.112 -7.329 -3.371 16
-15.299 -8.278 1.54 21
-16.231 -8.582 1.332 21
-15.555 -8.046 1.29 7
-12.705 -6.429 1.516 36
-12.891 -6.39 1.407 18
-12.707 -6.175 1.346 20
-12.877 -6.136 1.241 11
-13.983 -6.544 0.999 2
-14.534 -6.684 0.828 16
-14.533 -6.577 0.735 20
-14.539 -6.48 0.641 1
-16.639 -7.316 0.192 0
-18.175 -7.889 -0.188 17
-18.035 -7.743 -0.287 0
-18.072 -7.68 -0.42 35
-18.255 -7.694 -0.588 5
-31.731 -13.274 -3.474 54
-31.7 -13.186 -3.718 17
-32.593 -13.498 -4.177 4
-30.739 -12.685 -4.031 27
-29.021 -11.952 -3.901 7
-24.468 -10.065 -3.048 255
-20.682 -8.51 -2.318 3
-19.658 -8.095 -2.257 3
-19.827 -8.182 -2.519 2
-20.237 -8.373 -2.863 2
-20.519 -8.52 -3.19 4
-20.219 -8.428 -3.351 13
-19.408 -8.129 -3.351 15
-18.612 -7.837 -3.346 13
-17.859 -7.559 -3.343 14
-17.179 -7.314 -3.358 15
-15.7 -8.443 1.511 21
-15.136 -7.953 1.454 15
-15.553 -7.991 1.301 11
-13.196 -6.633 1.469 12
-12.938 -6.368 1.412 7
-13.087 -6.313 1.308 9
-12.895 -6.1 1.251 6
-13.989 -6.497 1.014 0
-14.883 -6.792 0.793 0
-14.507 -6.514 0.757 25
-14.495 -6.409 0.667 0
-16.667 -7.269 0.21 13
-18.829 -8.107 -0.275 24
-17.988 -7.66 -0.252 32
-18.142 -7.648 -0.405 5
-31.753 -13.273 -3.189 39
-31.73 -13.165 -3.421 54
-31.702 -13.079 -3.664 54
-32.804 -13.476 -4.165 5
-30.914 -12.654 -4.014 50
-29.208 -11.934 -3.89 7
-24.432 -9.972 -2.992 218
-20.803 -8.494 -2.307 3
-19.773 -8.081 -2.248 3
-19.95 -8.172 -2.512 2
-20.388 -8.375 -2.864 1
-20.677 -8.526 -3.194 4
-20.327 -8.416 -3.342 13
-19.508 -8.117 -3.341 13
-18.688 -7.818 -3.331 12
-17.956 -7.552 -3.337 15
-17.253 -7.3 -3.346 16
-15.322 -8.188 1.556 21
-15.179 -7.924 1.46 23
-15.582 -7.953 1.309 16
-15.479 -7.726 1.216 8
-13.114 -6.41 1.402 9
-12.901 -6.179 1.344 10
-12.928 -6.07 1.259 5
-16.391 -7.555 0.69 4
-16.108 -7.293 0.63 24
-14.629 -6.517 0.756 7
-14.524 -6.371 0.681 2
-16.687 -7.22 0.229 23
-17.897 -7.643 -0.088 8
-18.025 -7.613 -0.231 32
-18.328 -7.662 -0.411 26
-31.748 -13.161 -3.137 49
-31.725 -13.055 -3.367 54
-31.683 -12.964 -3.606 22
-32.92 -13.413 -4.132 3
-31.071 -12.616 -3.993 58
-29.396 -11.916 -3.879 7
-24.547 -9.94 -2.973 7
-24.33 -9.857 -3.159 28
-19.888 -8.067 -2.239 3
-20.097 -8.172 -2.512 2
-20.525 -8.37 -2.86 1
-20.843 -8.533 -3.2 4
-20.424 -8.398 -3.328 13
-19.607 -8.103 -3.331 13
-18.765 -7.799 -3.316 19
-18.038 -7.539 -3.326 15
-17.324 -7.286 -3.333 15
-15.372 -8.162 1.561 23
-15.173 -7.868 1.471 19
-15.878 -8.05 1.289 17
-13.291 -6.588 1.479 7
-12.893 -6.257 1.44 12
-13.731 -6.528 1.251 18
-13.134 -6.121 1.245 6
-16.281 -7.448 0.723 23
-16.152 -7.257 0.642 20
-14.668 -6.484 0.767 25
-16.421 -7.145 0.4 13
-16.747 -7.187 0.241 31
-17.897 -7.581 -0.063 34
-18.077 -7.571 -0.214 51
-18.358 -7.611 -0.389 30
-31.746 -13.052 -3.086 51
-31.72 -12.944 -3.313 54
-31.808 -12.908 -3.577 4
-32.775 -13.244 -4.042 1
-31.264 -12.592 -3.98 36
-29.59 -11.898 -3.869 7
-24.386 -9.797 -2.887 12
-21.21 -8.527 -2.328 9
-19.996 -8.049 -2.227 3
-20.244 -8.171 -2.511 1
-20.695 -8.378 -2.866 1
-21.051 -8.558 -3.218 4
-20.51 -8.376 -3.311 18
-19.695 -8.086 -3.318 14
-18.866 -7.791 -3.309 15
-18.123 -7.528 -3.317 15
-17.405 -7.275 -3.324 16
-15.45 -8.152 1.563 21
-15.123 -7.792 1.485 28
-16.1 -8.108 1.277 20
-15.659 -7.709 1.22 19
-12.858 -6.196 1.455 12
-13.854 -6.539 1.248 8
-13.185 -6.099 1.251 23
-16.322 -7.41 0.735 27
-16.182 -7.214 0.656 13
-14.715 -6.452 0.778 0
-16.404 -7.081 0.423 21
-16.768 -7.137 0.26 30
-17.919 -7.527 -0.041 14
-18.04 -7.493 -0.181 22
-32.96 -13.551 -3.033 6
-31.737 -12.938 -3.033 53
-31.717 -12.836 -3.26 53
-32.112 -12.923 -3.585 17
-33.051 -13.246 -4.043 2
-31.48 -12.575 -3.971 13
-29.777 -11.877 -3.857 7
-24.312 -9.69 -2.823 38
-21.182 -8.449 -2.28 5
-20.126 -8.039 -2.221 3
-20.396 -8.17 -2.511 2
-21.133 -8.494 -2.947 5
-21.243 -8.575 -3.23 3
-20.614 -8.36 -3.3 13
-19.794 -8.072 -3.307 14
-18.939 -7.77 -3.292 13
-18.206 -7.514 -3.305 15
-17.482 -7.263 -3.314 16
-15.405 -8.077 1.576 17
-15.265 -7.814 1.481 13
-16.414 -8.211 1.255 2
-12.838 -6.277 1.551 0
-13.156 -6.294 1.431 9
-13.201 -6.186 1.343 20
-13.196 -6.059 1.263 2
-16.392 -7.384 0.742 13
-16.202 -7.166 0.672 1
-16.705 -7.267 0.498 22
-16.453 -7.044 0.436 21
-16.842 -7.11 0.271 25
-16.525 -6.884 0.219 4
-18.062 -7.44 -0.158 18
-33.269 -13.563 -3.039 6
-31.723 -12.825 -2.98 255
-31.7 -12.721 -3.204 15
-32.355 -12.912 -3.579 17
-33.239 -13.212 -4.025 2
-24.223 -9.597 -2.32 0
-24.267 -9.601 -2.543 51
-24.248 -9.588 -2.761 32
-21.197 -8.39 -2.242 4
-20.241 -8.024 -2.211 3
-20.533 -8.163 -2.506 2
-21.127 -8.429 -2.902 4
-21.398 -8.577 -3.231 3
-20.722 -8.345 -3.289 15
-19.901 -8.062 -3.298 14
-19.026 -7.755 -3.28 12
-18.284 -7.5 -3.293 15
-17.563 -7.252 -3.304 17
-15.667 -8.162 1.561 21
-15.599 -7.932 1.458 14
-14.194 -7.052 1.501 0
-13.336 -6.475 1.505 10
-13.117 -6.231 1.447 0
-12.855 -5.98 1.398 22
-13.204 -6.016 1.275 14
-16.292 -7.282 0.774 29
-16.595 -7.282 0.634 1
-16.921 -7.302 0.486 1
-16.56 -7.032 0.44 23
-16.472 -6.896 0.353 14
-16.507 -6.82 0.245 21
-18.522 -7.566 -0.212 30
-18.384 -7.432 -0.309 1
-31.72 -12.715 -2.929 255
-31.876 -12.684 -3.186 5
-32.601 -12.901 -3.574 17
-33.984 -13.395 -4.122 6
-24.074 -9.46 -2.244 3
-24.207 -9.5 -2.485 45
-24.181 -9.484 -2.699 30
-21.281 -8.357 -2.222 3
-20.371 -8.013 -2.204 3
-20.71 -8.173 -2.513 1
-21.265 -8.422 -2.897 1
-21.586 -8.59 -3.241 4
-20.826 -8.33 -3.277 16
-19.996 -8.046 -3.286 14
-19.106 -7.737 -3.265 13
-18.373 -7.488 -3.283 15
-17.647 -7.243 -3.296 15
-15.706 -8.131 1.566 19
-15.311 -7.735 1.496 21
-16.178 -7.983 1.303 0
-13.544 -6.53 1.492 1
-13.761 -6.49 1.382 2
-12.945 -5.977 1.398 19
-13.218 -5.977 1.286 2
-16.304 -7.231 0.789 27
-16.654 -7.251 0.644 4
0.0 -0.0 3.0 0
-16.575 -6.982 0.459 21
-16.666 -6.92 0.344 27
-16.563 -6.786 0.258 1
-18.559 -7.517 -0.191 27
-18.417 -7.382 -0.287 1
-31.745 -12.618 -2.884 207
-32.151 -12.685 -3.187 17
-32.847 -12.89 -3.568 16
-34.213 -13.373 -4.111 7
-24.009 -9.356 -2.186 5
-24.134 -9.394 -2.423 34
-24.116 -9.383 -2.638 31
-21.391 -8.334 -2.208 3
-20.489 -7.998 -2.194 3
-21.133 -8.277 -2.583 4
-21.421 -8.421 -2.897 2
-21.752 -8.595 -3.244 7
-20.938 -8.316 -3.267 14
-20.092 -8.03 -3.274 14
-19.203 -7.726 -3.256 12
-18.452 -7.473 -3.271 15
-17.739 -7.236 -3.29 16
-16.142 -8.305 1.536 19
-15.357 -7.708 1.502 26
-15.685 -7.688 1.366 11
-15.706 -7.52 1.264 0
-13.841 -6.481 1.384 0
-12.865 -5.896 1.42 23
-13.233 -5.939 1.297 0
-16.261 -7.157 0.812 26
-17.616 -7.609 0.528 66
-17.238 -7.319 0.48 55
-16.591 -6.93 0.478 27
-16.656 -6.858 0.368 25
-18.106 -7.355 0.028 24
-18.889 -7.585 -0.22 23
-34.277 -13.622 -3.065 6
-31.705 -12.494 -2.826 15
-32.389 -12.67 -3.179 17
-33.109 -12.882 -3.564 16
-34.458 -13.355 -4.101 6
-24.023 -9.284 -2.146 4
-24.069 -9.291 -2.364 47
-24.054 -9.284 -2.578 48
-21.511 -8.314 -2.195 2
-20.616 -7.985 -2.185 3
-21.133 -8.214 -2.541 3
-21.595 -8.427 -2.901 2
-21.908 -8.594 -3.244 17
-21.056 -8.306 -3.259 15
-20.191 -8.016 -3.262 14
-19.308 -7.717 -3.249 13
-18.531 -7.457 -3.258 15
-17.812 -7.221 -3.277 16
-15.411 -7.878 1.611 25
-15.388 -7.673 1.508 29
-15.677 -7.633 1.378 21
-15.681 -7.456 1.279 25
-16.699 -7.763 1.065 19
-12.858 -5.849 1.433 19
-15.929 -7.094 0.966 28
-16.217 -7.081 0.835 12
-17.626 -7.553 0.546 23
-17.089 -7.197 0.522 11
-16.657 -6.901 0.488 27
-16.517 -6.745 0.411 31
-18.135 -7.305 0.049 30
-18.973 -7.554 -0.207 10
-34.614 -13.638 -3.072 5
-31.814 -12.429 -2.796 4
-32.632 -12.656 -3.173 17
-33.293 -12.844 -3.544 12
-34.696 -13.334 -4.09 6
-24.558 -9.412 -2.217 12
-23.999 -9.189 -2.305 48
-24.12 -9.234 -2.548 56
-21.628 -8.293 -2.182 2
-20.807 -7.996 -2.193 2
-21.27 -8.205 -2.534 1
-21.772 -8.434 -2.905 2
-22.039 -8.583 -3.236 17
-21.171 -8.293 -3.249 14
-20.29 -8.0 -3.25 14
-19.413 -7.709 -3.242 13
-18.616 -7.444 -3.247 15
-17.897 -7.211 -3.269 15
-15.429 -7.837 1.618 22
-15.427 -7.641 1.515 25
-15.709 -7.596 1.385 17
-15.727 -7.425 1.286 28
-16.862 -7.782 1.06 4
-12.86 -5.807 1.444 23
-13.745 -6.075 1.258 2
-16.21 -7.023 0.853 27
-16.784 -7.134 0.682 18
-17.094 -7.14 0.541 30
-16.749 -6.882 0.495 27
-16.356 -6.622 0.458 30
-18.699 -7.468 -0.017 32
-18.263 -7.209 -0.06 11
-34.881 -13.625 -3.066 2
-32.136 -12.447 -2.804 2
-32.882 -12.642 -3.166 17
-33.544 -12.829 -3.537 15
-34.908 -13.302 -4.073 18
-24.621 -9.356 -2.186 21
-23.944 -9.091 -2.249 59
-24.211 -9.193 -2.524 54
-21.741 -8.27 -2.167 2
-21.127 -8.056 -2.231 4
-21.419 -8.2 -2.531 1
-21.95 -8.44 -2.909 1
-22.159 -8.568 -3.225 19
-21.29 -8.28 -3.24 14
-20.393 -7.986 -3.239 14
-18.651 -7.357 -2.958 50
-18.702 -7.431 -3.235 15
-17.974 -7.199 -3.258 16
-15.599 -7.874 1.612 17
-15.608 -7.681 1.507 24
-15.946 -7.658 1.372 35
-16.018 -7.51 1.266 20
-13.521 -6.194 1.456 2
-12.899 -5.781 1.451 34
-15.859 -6.955 1.006 24
-16.177 -6.954 0.874 28
-16.832 -7.097 0.694 19
-17.124 -7.094 0.557 22
-16.676 -6.795 0.527 28
-16.378 -6.575 0.476 22
-18.632 -7.378 0.019 25
-18.258 -7.145 -0.033 14
-39.358 -15.24 -3.785 10
-32.415 -12.446 -2.804 3
-33.147 -12.634 -3.162 16
-33.795 -12.814 -3.529 15
-35.142 -13.277 -4.059 16
-24.705 -9.308 -2.16 16
-23.998 -9.036 -2.217 40
-24.067 -9.064 -2.446 55
-21.858 -8.248 -2.154 2
-21.144 -7.999 -2.195 2
-21.611 -8.21 -2.538 1
-22.125 -8.443 -2.912 1
-22.276 -8.551 -3.213 15
-21.404 -8.266 -3.229 16
-18.766 -7.299 -2.703 40
-18.651 -7.309 -2.919 52
-18.78 -7.415 -3.222 15
-18.048 -7.183 -3.245 17
-15.744 -7.896 1.608 4
-15.6 -7.627 1.518 24
-15.974 -7.619 1.381 31
-15.873 -7.389 1.294 12
-13.513 -6.146 1.468 0
-12.88 -5.729 1.465 5
-15.964 -6.948 1.008 25
-16.249 -6.93 0.881 28
0.0 -0.0 3.0 0
-17.077 -7.016 0.584 18
-16.75 -6.767 0.537 22
-16.392 -6.524 0.496 19
-18.576 -7.292 0.054 30
-18.264 -7.085 -0.008 13
-39.691 -15.235 -3.783 8
-32.698 -12.445 -2.803 4
-33.323 -12.591 -3.141 11
-34.061 -12.803 -3.523 15
-35.428 -13.269 -4.055 5
-24.848 -9.283 -2.146 8
-24.096 -8.997 -2.194 58
-24.121 -9.01 -2.414 2
-21.993 -8.232 -2.144 2
-21.315 -8.001 -2.196 1
-21.782 -8.211 -2.539 1
-22.325 -8.456 -2.921 1
-22.396 -8.535 -3.201 15
-21.509 -8.249 -3.216 15
-18.72 -7.232 -2.65 32
-18.679 -7.272 -2.889 44
-18.866 -7.402 -3.211 15
-18.139 -7.176 -3.238 16
-15.793 -7.87 1.612 0
-15.61 -7.581 1.526 22
-15.862 -7.514 1.403 22
-15.934 -7.365 1.3 16
-13.324 -6.016 1.5 3
-17.226 -7.605 0.962 37
-16.08 -6.944 1.009 18
-16.271 -6.884 0.895 27
-17.525 -7.271 0.638 24
-17.184 -7.002 0.589 1
-16.867 -6.757 0.541 16
-18.12 -7.15 0.255 29
-18.608 -7.241 0.074 24
-18.259 -7.022 0.019 7
-19.109 -7.27 -0.237 1
-33.018 -12.456 -2.808 5
-33.567 -12.571 -3.131 16
-34.324 -12.789 -3.516 14
-35.468 -13.169 -4.002 2
-24.958 -9.244 -2.124 7
-24.186 -8.955 -2.17 56
-24.293 -8.998 -2.407 0
-22.106 -8.207 -2.128 2
-21.471 -7.995 -2.192 2
-21.957 -8.213 -2.54 2
-22.507 -8.461 -2.925 1
-22.516 -8.518 -3.189 15
-18.753 -7.141 -2.381 1
-18.658 -7.158 -2.593 47
-19.807 -7.66 -3.203 13
-18.951 -7.388 -3.199 15
-18.227 -7.167 -3.23 13
-15.664 -7.756 1.632 16
-15.706 -7.577 1.527 23
-15.688 -7.381 1.431 26
-16.53 -7.586 1.249 15
-16.192 -7.258 1.19 17
-16.21 -7.103 1.097 9
-16.181 -6.933 1.012 22
-16.325 -6.852 0.905 28
-17.651 -7.263 0.64 21
-17.81 -7.197 0.522 19
-17.195 -6.83 0.514 21
-18.486 -7.233 0.224 32
-18.68 -7.206 0.089 31
-18.279 -6.968 0.042 0
-19.119 -7.21 -0.21 32
-33.308 -12.454 -2.808 5
-33.825 -12.556 -3.124 16
-34.586 -12.774 -3.509 13
-35.591 -13.1 -3.965 2
-25.101 -9.218 -2.11 9
-24.266 -8.908 -2.143 7
-24.365 -8.95 -2.378 0
-22.234 -8.188 -2.116 2
-21.649 -7.998 -2.194 1
-22.131 -8.214 -2.54 1
-22.685 -8.465 -2.927 1
-22.636 -8.501 -3.176 15
-18.716 -7.077 -2.333 51
-18.639 -7.103 -2.549 52
-19.904 -7.648 -3.193 14
-19.044 -7.376 -3.19 16
-18.308 -7.154 -3.219 13
-15.687 -7.718 1.639 23
-15.726 -7.537 1.535 24
-15.845 -7.404 1.426 17
-16.671 -7.597 1.246 14
-16.184 -7.201 1.205 24
-16.348 -7.108 1.095 13
-16.246 -6.907 1.019 30
-16.283 -6.78 0.927 13
-17.725 -7.233 0.65 11
-17.877 -7.163 0.533 25
-17.14 -6.75 0.543 32
-18.603 -7.215 0.231 25
-18.752 -7.17 0.103 22
-20.53 -7.757 -0.293 1
-19.147 -7.157 -0.187 12
-18.938 -7.018 -0.273 3
-34.083 -12.54 -3.116 16
-35.046 -12.829 -3.536 23
-36.007 -13.137 -3.985 2
-25.2 -9.174 -2.085 11
-24.375 -8.872 -2.122 3
-24.488 -8.92 -2.36 0
-22.381 -8.174 -2.108 2
-21.82 -7.996 -2.193 1
-22.324 -8.221 -2.545 1
-23.473 -8.692 -3.086 6
-22.753 -8.482 -3.162 16
-18.69 -7.017 -2.287 49
-18.667 -7.065 -2.519 60
-20.009 -7.637 -3.184 14
-19.129 -7.362 -3.178 16
-18.392 -7.142 -3.209 14
-15.697 -7.673 1.647 25
-15.739 -7.492 1.544 16
-16.078 -7.461 1.414 18
-16.627 -7.522 1.263 19
-15.928 -7.034 1.246 18
-16.245 -7.01 1.122 25
-16.325 -6.887 1.025 28
-16.256 -6.715 0.947 28
-17.737 -7.178 0.668 3
-17.933 -7.125 0.547 4
-17.409 -6.797 0.526 20
-18.619 -7.159 0.252 15
-18.735 -7.101 0.131 28
-19.548 -7.32 -0.107 12
-19.246 -7.129 -0.174 1
-18.925 -6.95 -0.241 24
-34.356 -12.527 -3.11 15
-35.242 -12.786 -3.515 18
-36.434 -13.176 -4.006 4
-25.118 -9.064 -2.024 5
-24.458 -8.826 -2.096 8
-24.59 -8.882 -2.337 0
-22.505 -8.152 -2.094 2
-21.991 -7.995 -2.192 1
-22.518 -8.228 -2.55 1
-23.788 -8.742 -3.121 37
-22.876 -8.465 -3.151 20
-18.681 -6.963 -2.247 255
-18.731 -7.04 -2.5 43
-20.107 -7.623 -3.173 13
-19.222 -7.351 -3.168 16
-18.483 -7.134 -3.201 14
-15.716 -7.634 1.654 15
-15.896 -7.517 1.539 16
-16.175 -7.454 1.416 22
-16.866 -7.576 1.251 20
-13.713 -6.011 1.501 5
-16.06 -6.877 1.157 22
-16.449 -6.884 1.026 21
-16.273 -6.667 0.962 21
-19.841 -7.964 0.412 3
-17.838 -7.028 0.58 9
-17.768 -6.878 0.497 32
-18.439 -7.026 0.303 27
-18.755 -7.045 0.154 5
-19.596 -7.271 -0.087 28
-41.31 -15.164 -3.752 7
-18.975 -6.906 -0.22 12
-34.626 -12.512 -3.103 14
-35.539 -12.778 -3.511 14
-36.703 -13.156 -3.995 4
-25.098 -8.978 -1.977 6
-24.552 -8.784 -2.071 9
-24.68 -8.839 -2.311 1
-22.663 -8.141 -2.087 2
-22.151 -7.988 -2.188 4
-22.704 -8.231 -2.552 1
-23.895 -8.714 -3.102 42
-18.713 -6.874 -1.995 2
-18.687 -6.916 -2.212 63
-18.841 -7.033 -2.495 29
-20.212 -7.612 -3.164 13
-19.307 -7.336 -3.156 15
-18.574 -7.125 -3.194 14
-15.682 -7.568 1.666 0
-16.146 -7.584 1.526 2
-15.659 -7.166 1.477 21
-16.538 -7.376 1.297 17
-17.475 -7.604 1.104 31
-16.436 -6.984 1.129 23
-16.994 -7.057 0.976 15
-16.301 -6.625 0.975 23
-19.652 -7.823 0.458 13
-17.904 -6.994 0.592 0
-17.794 -6.828 0.515 22
-18.455 -6.971 0.324 26
-19.436 -7.236 0.076 7
-19.408 -7.138 -0.03 19
-41.648 -15.15 -3.745 8
-34.627 -12.489 -2.824 5
-34.915 -12.502 -3.098 2
-35.833 -12.769 -3.506 14
-36.957 -13.128 -3.981 4
-25.081 -8.893 -1.929 4
-24.649 -8.742 -2.047 58
-24.696 -8.77 -2.27 66
-22.776 -8.114 -2.07 1
-22.363 -7.999 -2.195 2
-23.991 -8.63 -2.821 8
-24.049 -8.704 -3.095 36
-18.7 -6.818 -1.954 11
-18.692 -6.869 -2.176 57
-18.876 -6.997 -2.466 0
-20.309 -7.598 -3.153 13
-19.396 -7.323 -3.145 15
-18.662 -7.115 -3.185 14
-15.619 -7.49 1.679 28
-15.816 -7.38 1.565 4
-15.649 -7.113 1.488 20
-16.394 -7.259 1.324 15
-17.95 -7.753 1.067 16
-15.976 -6.737 1.195 19
-16.732 -6.893 1.023 16
-16.461 -6.635 0.971 20
-18.897 -7.459 0.576 3
-16.357 -6.335 0.819 0
-17.938 -6.823 0.517 19
-18.518 -6.933 0.339 14
-18.304 -6.753 0.272 20
-17.792 -6.484 0.248 1
-42.012 -15.143 -3.742 10
-34.834 -12.448 -2.805 1
0.0 -0.0 3.0 0
-36.134 -12.759 -3.501 13
-37.207 -13.098 -3.965 4
-25.068 -8.81 -1.883 8
-24.743 -8.699 -2.022 57
-24.753 -8.715 -2.237 1
-25.518 -9.016 -2.634 11
-22.579 -8.01 -2.202 3
-23.643 -8.437 -2.691 2
