# .PCD v0.7 - Point Cloud Data file format
VERSION 0.7
FIELDS x y z intensity
SIZE 4 4 4 4
TYPE F F F F
COUNT 1 1 1 1
WIDTH 2019
HEIGHT 1
VIEWPOINT 0 0 0 1 0 0 0
POINTS 2019
DATA ascii
-3.524 -16.618 -4.749 7
-3.415 -15.972 -4.79 9
-3.313 -15.383 -4.838 7
-3.215 -14.818 -4.879 8
-3.126 -14.287 -4.919 9
-3.045 -13.811 -4.974 7
-2.965 -13.338 -5.014 7
-2.882 -12.863 -5.038 8
-2.811 -12.439 -5.078 10
-2.738 -12.018 -5.106 10
-2.671 -11.618 -5.135 10
-2.605 -11.241 -5.167 10
-2.544 -10.874 -5.194 11
-2.483 -10.527 -5.225 10
-2.423 -10.182 -5.245 13
-2.366 -9.848 -5.264 13
-2.31 -9.53 -5.284 29
-7.432 -38.53 -3.794 7
-6.539 -33.632 -3.537 33
-6.349 -32.429 -3.893 14
0.0 -0.0 3.0 0
-5.061 -25.469 -3.35 52
-5.112 -25.55 -3.846 33
-5.079 -25.185 -4.222 6
-4.847 -23.867 -4.297 6
-4.636 -22.648 -4.359 5
-4.438 -21.531 -4.414 10
-4.263 -20.518 -4.468 24
-4.108 -19.633 -4.537 8
-3.971 -18.828 -4.607 8
-3.829 -18.025 -4.651 7
-3.704 -17.3 -4.702 8
-3.584 -16.619 -4.75 8
-3.474 -15.977 -4.792 8
-3.371 -15.391 -4.842 7
-3.269 -14.813 -4.876 8
-3.178 -14.282 -4.917 8
-3.098 -13.817 -4.977 8
-3.015 -13.336 -5.013 8
-2.932 -12.866 -5.04 8
-2.859 -12.438 -5.077 10
-2.783 -12.014 -5.103 10
-2.717 -11.621 -5.137 9
-2.65 -11.244 -5.169 10
-2.587 -10.875 -5.195 11
-2.524 -10.521 -5.22 13
-2.462 -10.177 -5.241 12
-2.406 -9.849 -5.264 14
-2.349 -9.53 -5.284 37
-7.562 -38.566 -3.8 6
-6.654 -33.667 -3.544 21
-6.455 -32.433 -3.894 14
0.0 -0.0 3.0 0
-5.149 -25.492 -3.356 52
-5.194 -25.533 -3.842 42
-5.165 -25.193 -4.224 6
-4.927 -23.864 -4.296 6
-4.715 -22.659 -4.363 5
-4.514 -21.54 -4.417 10
-4.334 -20.518 -4.468 25
-4.175 -19.629 -4.535 9
-4.038 -18.832 -4.609 7
-3.892 -18.024 -4.651 7
-3.766 -17.3 -4.702 8
-3.646 -16.626 -4.753 8
-3.531 -15.974 -4.791 9
-3.428 -15.392 -4.843 7
-3.323 -14.814 -4.877 8
-3.231 -14.28 -4.916 9
-3.147 -13.808 -4.972 8
-3.066 -13.335 -5.012 7
-2.979 -12.858 -5.035 8
-2.907 -12.437 -5.077 10
-2.831 -12.016 -5.105 10
-2.761 -11.617 -5.134 10
-2.694 -11.24 -5.166 12
-2.628 -10.865 -5.187 12
-2.567 -10.524 -5.222 11
-2.504 -10.176 -5.241 12
-2.446 -9.846 -5.262 12
-2.388 -9.527 -5.282 32
-7.691 -38.597 -3.806 6
-6.766 -33.685 -3.548 17
-6.562 -32.44 -3.895 14
-5.397 -26.473 -3.112 2
-5.234 -25.496 -3.357 47
-5.277 -25.526 -3.84 48
-5.252 -25.203 -4.227 6
-5.01 -23.875 -4.299 6
-4.794 -22.668 -4.365 5
-4.587 -21.538 -4.416 10
-4.404 -20.512 -4.466 19
-4.246 -19.638 -4.538 9
-4.103 -18.827 -4.607 7
-3.956 -18.024 -4.651 7
-3.828 -17.3 -4.702 7
-3.705 -16.623 -4.752 8
-3.588 -15.967 -4.788 9
-3.484 -15.393 -4.843 7
-3.378 -14.815 -4.877 8
-3.284 -14.282 -4.917 9
-3.2 -13.81 -4.973 8
-3.115 -13.33 -5.009 7
-3.029 -12.86 -5.036 8
-2.954 -12.433 -5.074 9
-2.878 -12.019 -5.107 9
-2.807 -11.62 -5.136 9
-2.738 -11.24 -5.166 10
-2.673 -10.871 -5.192 11
-2.608 -10.518 -5.217 10
-2.545 -10.177 -5.241 12
-2.487 -9.85 -5.265 14
-2.426 -9.522 -5.278 35
-7.822 -38.632 -3.812 6
-6.883 -33.726 -3.556 20
-6.669 -32.447 -3.897 14
-5.435 -26.239 -3.058 9
-5.321 -25.506 -3.359 49
-5.361 -25.518 -3.837 11
-5.339 -25.214 -4.23 5
-5.093 -23.887 -4.303 6
-4.873 -22.672 -4.367 5
-4.662 -21.539 -4.416 7
-4.478 -20.524 -4.47 12
-4.315 -19.641 -4.539 9
-4.17 -18.829 -4.608 8
-4.021 -18.027 -4.652 8
-3.89 -17.3 -4.702 8
-3.765 -16.623 -4.752 7
-3.648 -15.975 -4.792 9
-3.542 -15.397 -4.845 7
-3.433 -14.816 -4.878 7
-3.336 -14.276 -4.913 9
-3.252 -13.812 -4.974 6
-3.167 -13.335 -5.012 7
-3.078 -12.862 -5.037 8
-3.002 -12.435 -5.075 10
-2.924 -12.014 -5.104 10
-2.852 -11.616 -5.133 11
-2.781 -11.236 -5.163 11
-2.716 -10.871 -5.192 11
-2.651 -10.521 -5.22 11
-2.587 -10.179 -5.243 10
-2.526 -9.844 -5.26 14
-2.466 -9.522 -5.277 33
-7.955 -38.677 -3.82 6
-6.991 -33.721 -3.555 31
-6.773 -32.442 -3.896 14
-5.533 -26.291 -3.07 9
-5.405 -25.505 -3.359 51
-5.463 -25.6 -3.859 1
-5.426 -25.224 -4.233 7
-5.176 -23.894 -4.305 6
-4.951 -22.676 -4.368 5
-4.737 -21.544 -4.418 8
-4.55 -20.529 -4.472 9
-4.383 -19.636 -4.537 9
-4.237 -18.832 -4.609 8
-4.084 -18.022 -4.65 7
-3.953 -17.303 -4.704 7
-3.824 -16.619 -4.75 8
-3.704 -15.968 -4.788 9
-3.599 -15.401 -4.847 8
-3.489 -14.82 -4.88 7
-3.391 -14.28 -4.916 9
-3.303 -13.809 -4.973 6
-3.217 -13.333 -5.011 7
-3.127 -12.861 -5.036 8
-3.049 -12.43 -5.072 9
-2.971 -12.017 -5.106 9
-2.897 -11.615 -5.133 10
-2.826 -11.235 -5.163 9
-2.759 -10.87 -5.191 11
-2.693 -10.521 -5.22 11
-2.628 -10.177 -5.241 11
-2.566 -9.841 -5.258 13
-2.505 -9.519 -5.275 33
-8.088 -38.723 -3.828 7
-7.095 -33.699 -3.55 24
-6.88 -32.449 -3.897 16
-5.629 -26.339 -3.081 8
-5.488 -25.5 -3.358 51
-5.53 -25.515 -3.837 1
-5.515 -25.245 -4.239 6
-5.257 -23.893 -4.305 5
-5.032 -22.691 -4.373 4
-4.814 -21.555 -4.422 11
-4.624 -20.542 -4.477 9
-4.454 -19.644 -4.541 9
-4.303 -18.83 -4.608 8
-4.148 -18.021 -4.65 7
-4.015 -17.302 -4.703 7
-3.886 -16.626 -4.753 7
-3.764 -15.971 -4.79 9
-3.656 -15.402 -4.848 8
-3.542 -14.811 -4.875 8
-3.443 -14.278 -4.914 9
-3.357 -13.813 -4.975 7
-3.267 -13.331 -5.01 8
-3.176 -12.859 -5.035 8
-3.097 -12.432 -5.074 10
-3.017 -12.012 -5.102 10
-2.943 -11.614 -5.132 10
-2.871 -11.237 -5.164 10
-2.803 -10.87 -5.191 11
-2.735 -10.517 -5.217 12
-2.668 -10.171 -5.236 13
-2.606 -9.841 -5.257 14
-2.544 -9.52 -5.276 33
-8.221 -38.761 -3.835 6
-7.187 -33.621 -3.535 21
-6.988 -32.456 -3.899 16
-5.732 -26.413 -3.098 8
-5.574 -25.507 -3.36 50
-5.62 -25.532 -3.841 8
-5.603 -25.255 -4.242 6
-5.34 -23.903 -4.308 6
-5.11 -22.691 -4.373 5
-4.888 -21.556 -4.422 15
-4.695 -20.539 -4.476 9
-4.523 -19.646 -4.541 9
-4.371 -18.836 -4.61 8
-4.214 -18.027 -4.652 8
-4.077 -17.301 -4.703 8
-3.946 -16.625 -4.753 7
-3.822 -15.971 -4.79 9
-3.712 -15.398 -4.846 8
-3.598 -14.815 -4.877 8
-3.497 -14.279 -4.915 9
-3.406 -13.801 -4.968 7
-3.318 -13.332 -5.011 8
-3.226 -12.861 -5.036 8
-3.144 -12.427 -5.07 9
-3.063 -12.011 -5.101 10
-2.989 -11.616 -5.133 10
-2.915 -11.237 -5.164 9
-2.845 -10.866 -5.188 11
-2.777 -10.514 -5.214 13
-2.708 -10.167 -5.233 13
-2.646 -9.838 -5.255 13
-2.583 -9.517 -5.273 35
-7.182 -33.36 -2.882 14
-7.301 -33.641 -3.539 14
-7.094 -32.457 -3.899 16
-5.838 -26.499 -3.118 7
-5.661 -25.517 -3.362 51
-5.706 -25.539 -3.843 4
-5.689 -25.261 -4.243 6
-5.425 -23.918 -4.312 6
-5.191 -22.706 -4.378 5
-4.96 -21.545 -4.419 28
-4.768 -20.548 -4.479 9
-4.591 -19.643 -4.54 9
-4.439 -18.841 -4.612 7
-4.278 -18.026 -4.651 8
-4.139 -17.3 -4.702 8
-4.006 -16.625 -4.753 5
-3.881 -15.974 -4.791 9
-3.769 -15.398 -4.846 8
-3.653 -14.815 -4.877 8
-3.55 -14.276 -4.913 9
-3.459 -13.806 -4.971 8
-3.368 -13.327 -5.007 7
-3.275 -12.858 -5.035 8
-3.193 -12.429 -5.072 9
-3.11 -12.009 -5.1 10
-3.035 -11.615 -5.133 10
-2.958 -11.23 -5.159 10
-2.889 -10.865 -5.188 11
-2.819 -10.513 -5.214 12
-2.752 -10.176 -5.24 12
-2.687 -9.838 -5.255 14
-2.621 -9.511 -5.268 27
-7.261 -33.227 -2.859 4
-7.418 -33.677 -3.546 17
-7.201 -32.462 -3.9 15
-5.95 -26.612 -3.144 5
-5.747 -25.518 -3.362 50
-5.811 -25.623 -3.866 10
-5.777 -25.274 -4.247 6
-5.506 -23.916 -4.312 6
-5.27 -22.713 -4.38 5
-5.038 -21.556 -4.422 20
-4.84 -20.548 -4.479 10
-4.662 -19.648 -4.542 9
-4.505 -18.839 -4.611 7
-4.343 -18.031 -4.654 7
-4.202 -17.305 -4.705 7
-4.067 -16.628 -4.754 4
-3.939 -15.971 -4.789 9
-3.826 -15.398 -4.846 8
-3.707 -14.812 -4.875 8
-3.604 -14.28 -4.915 8
-3.512 -13.809 -4.973 7
-3.419 -13.327 -5.008 7
-3.325 -12.863 -5.038 8
-3.241 -12.428 -5.071 9
-3.157 -12.008 -5.099 10
-3.08 -11.614 -5.132 10
-3.004 -11.232 -5.16 10
-2.933 -10.867 -5.189 10
-2.862 -10.513 -5.213 12
-2.793 -10.173 -5.238 11
-2.727 -9.837 -5.255 14
-2.661 -9.511 -5.268 36
-8.624 -38.893 -3.858 6
-7.519 -33.639 -3.539 29
-7.31 -32.471 -3.902 15
-6.084 -26.814 -3.19 4
-5.833 -25.524 -3.364 46
-5.891 -25.598 -3.859 71
-5.866 -25.287 -4.251 6
-5.59 -23.926 -4.315 5
-5.351 -22.723 -4.383 5
-5.113 -21.56 -4.424 13
-4.912 -20.549 -4.479 10
-4.732 -19.653 -4.544 9
-4.574 -18.843 -4.613 7
-4.408 -18.033 -4.655 8
-4.265 -17.304 -4.704 7
-4.128 -16.626 -4.753 7
-3.999 -15.977 -4.792 9
-3.883 -15.401 -4.847 8
-3.763 -14.812 -4.875 8
-3.657 -14.277 -4.914 9
-3.563 -13.803 -4.969 7
-3.471 -13.332 -5.011 7
-3.373 -12.858 -5.034 8
-3.29 -12.432 -5.073 10
-3.204 -12.01 -5.101 10
-3.126 -11.612 -5.131 10
-3.048 -11.23 -5.159 12
-2.977 -10.867 -5.189 10
-2.904 -10.512 -5.213 11
-2.834 -10.168 -5.234 11
-2.768 -9.837 -5.254 13
-2.701 -9.514 -5.271 34
-8.761 -38.944 -3.867 7
-7.652 -33.743 -3.559 22
-7.416 -32.472 -3.902 15
-7.063 -30.679 -4.083 4
-5.923 -25.547 -3.37 45
-5.972 -25.577 -3.853 24
-5.953 -25.291 -4.252 7
-5.676 -23.943 -4.32 6
-5.43 -22.726 -4.384 5
-5.194 -21.585 -4.432 8
-4.988 -20.563 -4.484 9
-4.802 -19.656 -4.545 8
-4.641 -18.845 -4.614 8
-4.474 -18.038 -4.657 7
-4.329 -17.31 -4.707 8
-4.189 -16.629 -4.754 8
-4.056 -15.972 -4.79 9
-3.94 -15.4 -4.847 8
-3.817 -14.808 -4.874 7
-3.711 -14.277 -4.914 9
-3.616 -13.803 -4.969 7
-3.521 -13.329 -5.009 5
-3.422 -12.855 -5.033 8
-3.337 -12.426 -5.07 9
-3.251 -12.007 -5.099 10
-3.171 -11.61 -5.129 10
-3.093 -11.232 -5.161 11
-3.02 -10.865 -5.188 11
-2.947 -10.514 -5.214 12
-2.875 -10.168 -5.234 11
-2.808 -9.834 -5.251 13
-2.74 -9.511 -5.268 34
-8.896 -38.984 -3.874 7
-7.75 -33.694 -3.549 30
-7.526 -32.484 -3.905 15
-7.165 -30.684 -4.084 6
-6.014 -25.572 -3.376 41
-6.065 -25.604 -3.861 9
-6.04 -25.297 -4.254 7
-5.758 -23.945 -4.321 6
-5.509 -22.728 -4.385 5
-5.271 -21.592 -4.435 8
-5.061 -20.567 -4.486 9
-4.874 -19.664 -4.548 6
-4.707 -18.843 -4.613 7
-4.539 -18.04 -4.657 7
-4.392 -17.312 -4.708 8
-4.251 -16.634 -4.757 8
-4.117 -15.979 -4.793 8
-3.996 -15.397 -4.845 8
-3.872 -14.808 -4.874 8
-3.766 -14.28 -4.915 9
-3.668 -13.804 -4.97 8
-3.573 -13.333 -5.011 5
-3.471 -12.849 -5.029 8
-3.385 -12.424 -5.068 9
-3.297 -12.006 -5.098 10
-3.217 -11.609 -5.128 10
-3.138 -11.231 -5.16 10
-3.063 -10.861 -5.184 11
-2.988 -10.507 -5.209 13
-2.917 -10.168 -5.234 12
-2.849 -9.836 -5.253 14
-2.778 -9.504 -5.262 30
-9.033 -39.034 -3.883 6
-7.889 -33.819 -3.574 17
-7.634 -32.488 -3.906 14
-7.27 -30.697 -4.087 6
-6.111 -25.618 -3.387 38
-6.15 -25.597 -3.859 2
-6.131 -25.32 -4.26 7
-5.843 -23.957 -4.325 6
-5.59 -22.737 -4.388 5
-5.349 -21.605 -4.439 9
-5.134 -20.57 -4.487 10
-4.943 -19.665 -4.549 5
-4.777 -18.85 -4.616 6
-4.604 -18.037 -4.656 7
-4.452 -17.303 -4.704 8
-4.312 -16.636 -4.758 8
-4.174 -15.973 -4.791 9
-4.054 -15.399 -4.846 8
-3.927 -14.804 -4.871 8
-3.817 -14.27 -4.91 9
-3.721 -13.804 -4.97 8
-3.623 -13.327 -5.008 5
-3.521 -12.85 -5.029 7
-3.433 -12.421 -5.067 9
-3.344 -12.004 -5.096 10
-3.262 -11.606 -5.127 10
-3.182 -11.225 -5.156 11
-3.106 -10.86 -5.183 11
-3.032 -10.509 -5.21 12
-2.958 -10.163 -5.23 12
-2.89 -9.835 -5.253 12
-2.819 -9.507 -5.264 25
-9.174 -39.094 -3.893 6
-8.028 -33.937 -3.597 21
-7.74 -32.484 -3.905 12
-7.379 -30.724 -4.093 7
-6.204 -25.649 -3.395 8
-6.261 -25.699 -3.886 1
-6.218 -25.324 -4.262 6
-5.929 -23.973 -4.329 6
-5.67 -22.747 -4.391 5
-5.426 -21.611 -4.441 7
-5.208 -20.577 -4.489 10
-5.015 -19.672 -4.551 4
-4.842 -18.844 -4.613 5
-4.67 -18.042 -4.658 8
-4.516 -17.307 -4.706 8
-4.373 -16.634 -4.757 8
-4.236 -15.983 -4.795 10
-4.112 -15.401 -4.847 8
-3.981 -14.799 -4.869 8
-3.873 -14.276 -4.914 8
-3.774 -13.807 -4.972 8
-3.675 -13.331 -5.01 6
-3.57 -12.851 -5.03 8
-3.483 -12.426 -5.069 10
-3.392 -12.004 -5.097 10
-3.308 -11.605 -5.126 10
-3.227 -11.228 -5.157 11
-3.151 -10.862 -5.185 10
-3.073 -10.504 -5.207 13
-2.998 -10.16 -5.227 12
-2.93 -9.834 -5.252 13
-2.859 -9.509 -5.266 22
-9.309 -39.129 -3.899 7
-8.163 -34.039 -3.616 23
-7.847 -32.488 -3.905 11
-7.484 -30.736 -4.096 6
-6.325 -25.793 -3.431 1
-6.339 -25.664 -3.877 24
-6.306 -25.327 -4.263 6
-6.013 -23.981 -4.332 5
-5.752 -22.759 -4.395 4
-5.503 -21.617 -4.443 8
-5.281 -20.579 -4.49 9
-5.082 -19.661 -4.547 4
-4.911 -18.847 -4.615 8
-4.735 -18.042 -4.659 7
-4.58 -17.312 -4.708 8
-4.433 -16.633 -4.756 8
-4.293 -15.978 -4.793 9
-4.169 -15.4 -4.847 8
-4.039 -14.809 -4.874 8
-3.927 -14.276 -4.913 8
-3.825 -13.8 -4.968 8
-3.724 -13.32 -5.004 8
-3.62 -12.851 -5.03 9
-3.531 -12.424 -5.068 10
-3.438 -12.002 -5.096 10
-3.355 -11.606 -5.127 9
-3.271 -11.222 -5.153 11
-3.193 -10.856 -5.181 11
-3.117 -10.506 -5.208 12
-3.041 -10.161 -5.228 12
-2.97 -9.831 -5.249 14
-2.898 -9.506 -5.263 22
-9.448 -39.177 -3.908 7
-8.273 -34.033 -3.615 34
-7.955 -32.487 -3.905 15
-7.59 -30.751 -4.099 6
-6.474 -26.041 -3.493 3
-6.743 -26.931 -4.216 4
-6.396 -25.342 -4.267 7
-6.097 -23.986 -4.333 5
-5.833 -22.764 -4.397 4
-5.579 -21.619 -4.444 8
-5.354 -20.582 -4.491 9
-5.155 -19.675 -4.552 5
-4.98 -18.855 -4.618 6
-4.799 -18.039 -4.657 7
-4.643 -17.309 -4.706 8
-4.494 -16.631 -4.755 7
-4.354 -15.983 -4.796 8
-4.228 -15.406 -4.85 8
-4.094 -14.805 -4.872 8
-3.98 -14.272 -4.911 7
-3.877 -13.797 -4.966 8
-3.777 -13.327 -5.008 7
-3.67 -12.848 -5.028 8
-3.579 -12.424 -5.068 8
-3.485 -12.0 -5.094 10
-3.4 -11.604 -5.125 10
-3.318 -11.23 -5.159 10
-3.238 -10.858 -5.182 11
-3.159 -10.505 -5.207 12
-3.081 -10.157 -5.225 12
-3.011 -9.83 -5.248 12
-2.938 -9.505 -5.262 17
-9.594 -39.256 -3.922 11
-8.395 -34.074 -3.623 30
-8.064 -32.493 -3.907 14
-7.7 -30.781 -4.106 6
-7.235 -28.718 -4.16 7
-6.837 -26.94 -4.219 5
-6.486 -25.357 -4.271 6
-6.184 -24.0 -4.338 5
-5.915 -22.776 -4.4 5
-5.658 -21.629 -4.447 10
-5.428 -20.588 -4.493 9
-5.225 -19.674 -4.552 9
-5.049 -18.858 -4.619 6
-4.866 -18.043 -4.659 7
-4.705 -17.306 -4.705 7
-4.555 -16.632 -4.755 8
-4.412 -15.978 -4.793 9
-4.284 -15.401 -4.847 8
-4.15 -14.807 -4.873 8
-4.035 -14.275 -4.913 7
-3.93 -13.8 -4.967 8
-3.827 -13.323 -5.005 8
-3.72 -12.848 -5.028 8
-3.627 -12.421 -5.066 9
-3.534 -12.004 -5.096 10
-3.446 -11.602 -5.124 9
-3.361 -11.222 -5.153 10
-3.281 -10.856 -5.181 11
-3.202 -10.503 -5.206 12
-3.125 -10.162 -5.229 13
-3.052 -9.831 -5.249 12
-2.977 -9.501 -5.259 17
-9.73 -39.289 -3.928 11
-8.548 -34.239 -3.655 24
-8.174 -32.504 -3.909 13
-7.809 -30.807 -4.112 6
-7.335 -28.729 -4.163 7
-6.932 -26.954 -4.222 5
-6.577 -25.371 -4.275 6
-6.267 -24.005 -4.339 6
-5.994 -22.777 -4.401 5
-5.735 -21.634 -4.449 8
-5.505 -20.602 -4.498 9
-5.298 -19.684 -4.556 9
-5.117 -18.861 -4.62 7
-4.932 -18.046 -4.66 7
-4.768 -17.307 -4.706 7
-4.618 -16.636 -4.758 7
-4.47 -15.976 -4.792 9
-4.343 -15.403 -4.848 7
-4.208 -14.813 -4.876 8
-4.089 -14.273 -4.912 8
-3.983 -13.799 -4.967 8
-3.877 -13.316 -5.001 8
-3.769 -12.844 -5.026 9
-3.675 -12.418 -5.064 10
-3.58 -11.998 -5.093 9
-3.492 -11.599 -5.122 10
-3.405 -11.22 -5.152 11
-3.325 -10.854 -5.179 12
-3.245 -10.504 -5.207 12
-3.166 -10.158 -5.225 11
-3.091 -9.824 -5.244 14
-3.016 -9.497 -5.256 15
-9.871 -39.34 -3.937 9
-8.651 -34.202 -3.648 24
-8.282 -32.505 -3.909 14
-7.917 -30.825 -4.117 6
-7.437 -28.749 -4.168 7
-7.027 -26.966 -4.226 5
-6.666 -25.381 -4.278 6
-6.353 -24.016 -4.342 5
-6.077 -22.788 -4.404 6
-5.813 -21.642 -4.452 8
-5.58 -20.61 -4.502 9
-5.37 -19.69 -4.558 12
-5.184 -18.857 -4.619 6
-4.997 -18.043 -4.659 7
-4.831 -17.304 -4.704 8
-4.68 -16.641 -4.76 8
-4.53 -15.977 -4.792 9
-4.399 -15.398 -4.845 8
-4.261 -14.804 -4.871 8
-4.141 -14.265 -4.907 9
-4.037 -13.801 -4.968 8
-3.929 -13.319 -5.003 7
-3.82 -12.848 -5.028 8
-3.723 -12.415 -5.062 10
-3.627 -11.998 -5.093 10
-3.538 -11.6 -5.122 10
-3.451 -11.22 -5.152 11
-3.369 -10.856 -5.18 11
-3.287 -10.5 -5.203 12
-3.208 -10.159 -5.226 12
-3.133 -9.826 -5.245 13
-3.056 -9.499 -5.257 14
-10.004 -39.355 -3.939 10
-8.777 -34.256 -3.659 41
-8.393 -32.519 -3.912 13
-8.028 -30.854 -4.123 6
-7.54 -28.772 -4.174 7
-7.123 -26.982 -4.23 5
-6.756 -25.39 -4.281 7
-6.441 -24.034 -4.348 6
-6.159 -22.796 -4.407 5
-5.89 -21.644 -4.453 8
-5.654 -20.612 -4.502 9
-5.44 -19.689 -4.558 31
-5.255 -18.867 -4.623 6
-5.063 -18.046 -4.66 7
-4.893 -17.301 -4.703 7
-4.741 -16.638 -4.758 7
-4.59 -15.978 -4.793 9
-4.457 -15.399 -4.846 8
-4.318 -14.806 -4.872 8
-4.196 -14.268 -4.909 8
-4.089 -13.797 -4.966 8
-3.98 -13.316 -5.001 8
-3.871 -12.851 -5.03 8
-3.773 -12.418 -5.064 9
-3.674 -11.995 -5.091 9
-3.585 -11.6 -5.122 11
-3.496 -11.218 -5.15 9
-3.412 -10.85 -5.176 11
-3.33 -10.498 -5.202 12
-3.25 -10.157 -5.225 12
-3.174 -9.825 -5.244 13
-3.096 -9.498 -5.256 14
-10.141 -39.391 -3.946 10
-8.918 -34.362 -3.679 26
-8.502 -32.52 -3.912 13
-8.14 -30.888 -4.131 6
-7.639 -28.779 -4.176 7
-7.219 -26.999 -4.234 4
-6.845 -25.396 -4.282 6
-6.527 -24.044 -4.351 5
-6.241 -22.807 -4.411 5
-5.969 -21.655 -4.456 8
-5.729 -20.617 -4.504 7
-5.507 -19.677 -4.553 38
-5.323 -18.866 -4.622 5
-5.13 -18.049 -4.661 7
-4.959 -17.308 -4.706 7
-4.804 -16.642 -4.76 8
-4.65 -15.979 -4.793 9
-4.515 -15.4 -4.847 7
-4.375 -14.808 -4.873 8
-4.251 -14.27 -4.91 9
-4.143 -13.8 -4.967 8
-4.031 -13.315 -5.0 8
-3.919 -12.844 -5.026 8
-3.82 -12.411 -5.06 9
-3.722 -11.995 -5.091 9
-3.632 -11.6 -5.123 11
-3.54 -11.216 -5.149 10
-3.456 -10.848 -5.175 10
-3.374 -10.502 -5.205 13
-3.292 -10.156 -5.224 12
-3.215 -9.826 -5.245 13
-3.136 -9.497 -5.255 15
-10.281 -39.433 -3.953 9
-9.044 -34.409 -3.688 32
-8.61 -32.521 -3.912 12
-8.249 -30.908 -4.136 7
-7.743 -28.801 -4.181 7
-7.316 -27.018 -4.24 6
-6.937 -25.413 -4.287 6
-6.613 -24.05 -4.353 6
-6.326 -22.826 -4.417 5
-6.049 -21.667 -4.46 8
-5.802 -20.618 -4.504 7
-5.578 -19.678 -4.554 35
-5.393 -18.872 -4.625 5
-5.197 -18.056 -4.664 7
-5.025 -17.315 -4.709 7
-4.865 -16.642 -4.76 7
-4.709 -15.976 -4.792 10
-4.574 -15.401 -4.847 8
-4.429 -14.802 -4.871 8
-4.304 -14.265 -4.907 9
-4.195 -13.798 -4.966 8
-4.084 -13.317 -5.002 8
-3.968 -12.84 -5.023 8
-3.87 -12.414 -5.062 9
-3.771 -11.998 -5.093 10
-3.677 -11.597 -5.121 10
-3.586 -11.216 -5.149 10
-3.501 -10.852 -5.177 11
-3.416 -10.497 -5.201 13
-3.332 -10.151 -5.22 13
-3.257 -9.828 -5.246 13
-3.177 -9.498 -5.257 15
-10.424 -39.486 -3.962 8
-9.149 -34.377 -3.682 37
-8.721 -32.529 -3.914 12
-8.359 -30.929 -4.14 6
-7.848 -28.827 -4.187 7
-7.412 -27.03 -4.243 5
-7.029 -25.429 -4.292 6
-6.7 -24.064 -4.357 6
-6.406 -22.825 -4.416 5
-6.125 -21.667 -4.461 8
-5.879 -20.631 -4.509 7
-5.65 -19.684 -4.556 29
-5.461 -18.87 -4.624 8
-5.263 -18.055 -4.664 7
-5.087 -17.311 -4.707 7
-4.927 -16.642 -4.76 8
-4.77 -15.98 -4.794 8
-4.632 -15.402 -4.848 8
-4.486 -14.804 -4.871 8
-4.359 -14.266 -4.908 8
-4.249 -13.8 -4.967 7
-4.135 -13.316 -5.001 8
-4.021 -12.846 -5.027 8
-3.919 -12.414 -5.062 9
-3.819 -11.998 -5.093 10
-3.723 -11.594 -5.118 9
-3.631 -11.213 -5.147 8
-3.544 -10.846 -5.173 11
-3.459 -10.495 -5.2 11
-3.375 -10.152 -5.221 12
-3.297 -9.823 -5.243 14
-3.218 -9.5 -5.258 14
-10.57 -39.546 -3.973 7
-9.296 -34.497 -3.706 25
-8.83 -32.53 -3.914 13
-8.469 -30.952 -4.146 6
-7.948 -28.837 -4.19 7
-7.509 -27.044 -4.246 5
-7.12 -25.441 -4.295 6
-6.785 -24.066 -4.358 6
-6.489 -22.835 -4.42 5
-6.205 -21.678 -4.464 7
-5.953 -20.632 -4.509 8
-5.724 -19.692 -4.559 12
-5.531 -18.876 -4.626 6
-5.329 -18.054 -4.663 7
-5.153 -17.317 -4.71 7
-4.988 -16.638 -4.758 7
-4.83 -15.98 -4.794 9
-4.689 -15.4 -4.846 8
-4.543 -14.805 -4.872 8
-4.415 -14.268 -4.909 8
-4.301 -13.795 -4.965 8
-4.186 -13.311 -4.998 7
-4.07 -12.842 -5.025 9
-3.967 -12.41 -5.059 9
-3.864 -11.989 -5.086 9
-3.769 -11.591 -5.116 9
-3.676 -11.214 -5.147 10
-3.59 -10.85 -5.176 11
-3.502 -10.496 -5.2 12
-3.416 -10.147 -5.217 12
-3.337 -9.818 -5.239 18
-3.256 -9.496 -5.254 14
-10.707 -39.572 -3.978 7
-9.427 -34.561 -3.718 21
-8.943 -32.544 -3.917 13
-8.581 -30.979 -4.152 7
-8.053 -28.861 -4.196 7
-7.605 -27.056 -4.25 5
-7.212 -25.454 -4.299 7
-6.874 -24.086 -4.364 6
-6.573 -22.849 -4.424 5
-6.285 -21.688 -4.468 7
-6.031 -20.646 -4.515 10
-5.8 -19.711 -4.566 9
-5.599 -18.874 -4.625 7
-5.396 -18.056 -4.665 7
-5.216 -17.313 -4.708 7
-5.051 -16.642 -4.76 7
-4.889 -15.977 -4.792 9
-4.748 -15.4 -4.846 8
-4.601 -14.809 -4.874 7
-4.469 -14.266 -4.908 8
-4.355 -13.797 -4.966 8
-4.236 -13.307 -4.996 7
-4.118 -12.834 -5.019 8
-4.018 -12.413 -5.061 9
-3.913 -11.991 -5.088 10
-3.817 -11.595 -5.119 9
-3.721 -11.211 -5.145 9
-3.633 -10.844 -5.172 11
-3.545 -10.493 -5.198 12
-3.461 -10.154 -5.223 13
-3.379 -9.819 -5.239 20
-3.296 -9.494 -5.253 14
-10.856 -39.639 -3.989 6
-9.522 -34.487 -3.704 23
-9.055 -32.555 -3.92 14
-8.691 -30.998 -4.157 6
-8.156 -28.874 -4.199 6
-7.704 -27.077 -4.255 5
-7.303 -25.466 -4.302 6
-6.96 -24.091 -4.365 6
-6.657 -22.859 -4.427 4
-6.363 -21.692 -4.469 7
-6.11 -20.661 -4.52 15
-5.873 -19.716 -4.568 9
-5.668 -18.876 -4.626 6
-5.463 -18.058 -4.665 7
-5.282 -17.319 -4.711 8
-5.112 -16.638 -4.758 7
-4.95 -15.98 -4.794 9
-4.805 -15.397 -4.845 8
-4.655 -14.803 -4.871 7
-4.523 -14.264 -4.907 8
-4.407 -13.792 -4.963 8
-4.29 -13.312 -4.999 8
-4.17 -12.836 -5.021 8
-4.066 -12.409 -5.058 9
-3.959 -11.984 -5.083 9
-3.862 -11.588 -5.114 10
-3.768 -11.214 -5.147 9
-3.678 -10.848 -5.174 11
-3.589 -10.494 -5.199 12
-3.5 -10.146 -5.216 13
-3.419 -9.815 -5.236 27
-3.337 -9.495 -5.254 14
-11.007 -39.712 -4.002 6
-9.685 -34.659 -3.737 25
-9.167 -32.565 -3.922 11
-8.804 -31.026 -4.163 6
-8.261 -28.899 -4.205 7
-7.804 -27.099 -4.261 5
-7.396 -25.481 -4.307 6
-7.048 -24.104 -4.369 6
-6.74 -22.868 -4.43 5
-6.444 -21.702 -4.473 8
-6.183 -20.658 -4.519 28
-5.947 -19.723 -4.571 9
-5.738 -18.88 -4.628 6
-5.53 -18.06 -4.666 7
-5.347 -17.321 -4.712 8
-5.175 -16.641 -4.76 7
-5.01 -15.98 -4.794 8
-4.863 -15.393 -4.843 8
-4.711 -14.801 -4.87 8
-4.58 -14.268 -4.909 9
-4.463 -13.796 -4.965 7
-4.341 -13.307 -4.996 8
-4.219 -12.831 -5.018 8
-4.114 -12.404 -5.055 9
-4.008 -11.987 -5.085 10
-3.91 -11.591 -5.116 10
-3.812 -11.207 -5.143 10
-3.721 -10.842 -5.17 12
-3.631 -10.488 -5.194 11
-3.544 -10.15 -5.219 12
-3.46 -9.815 -5.236 31
-3.378 -9.496 -5.255 17
-11.155 -39.77 -4.013 6
-9.77 -34.555 -3.717 24
-9.284 -32.591 -3.927 10
-8.918 -31.055 -4.17 6
-8.364 -28.911 -4.208 7
-7.898 -27.101 -4.262 5
-7.489 -25.495 -4.311 6
-7.136 -24.116 -4.373 6
-6.827 -22.888 -4.437 5
-6.524 -21.712 -4.476 8
-6.255 -20.65 -4.516 29
-6.019 -19.728 -4.573 8
-5.809 -18.885 -4.63 6
-5.598 -18.065 -4.668 7
-5.41 -17.32 -4.711 8
-5.237 -16.64 -4.759 8
-5.071 -15.983 -4.796 9
-4.924 -15.4 -4.847 8
-4.768 -14.801 -4.87 7
-4.633 -14.262 -4.906 8
-4.515 -13.791 -4.962 8
-4.394 -13.308 -4.996 8
-4.271 -12.837 -5.021 8
-4.164 -12.407 -5.057 9
-4.055 -11.983 -5.083 10
-3.955 -11.588 -5.114 10
-3.859 -11.21 -5.145 10
-3.766 -10.842 -5.17 10
-3.675 -10.489 -5.195 12
-3.584 -10.141 -5.212 13
-3.501 -9.813 -5.234 33
-3.418 -9.494 -5.253 14
-11.297 -39.809 -4.019 5
-9.87 -34.499 -3.706 33
-9.402 -32.619 -3.933 9
-9.034 -31.092 -4.178 7
-8.468 -28.931 -4.213 7
-7.999 -27.127 -4.269 5
-7.579 -25.499 -4.312 7
-7.224 -24.127 -4.376 6
-6.907 -22.883 -4.435 4
-6.607 -21.729 -4.482 7
-6.33 -20.653 -4.517 22
-6.092 -19.732 -4.574 9
-5.879 -18.889 -4.632 6
-5.665 -18.067 -4.669 6
-5.476 -17.322 -4.712 8
-5.301 -16.645 -4.762 8
-5.132 -15.982 -4.795 28
-4.98 -15.393 -4.843 9
-4.825 -14.802 -4.87 8
-4.692 -14.273 -4.912 8
-4.57 -13.795 -4.965 8
-4.445 -13.307 -4.995 8
-4.321 -12.832 -5.018 8
-4.213 -12.405 -5.056 8
-4.106 -11.992 -5.088 9
-4.002 -11.586 -5.113 10
-3.904 -11.207 -5.143 9
-3.81 -10.839 -5.167 11
-3.717 -10.485 -5.192 11
-3.628 -10.144 -5.215 13
-3.543 -9.813 -5.234 38
-3.458 -9.492 -5.251 14
-11.438 -39.839 -4.025 5
-9.976 -34.465 -3.699 33
-9.526 -32.667 -3.944 8
-9.146 -31.113 -4.183 6
-8.572 -28.947 -4.217 7
-8.098 -27.143 -4.273 5
-7.676 -25.524 -4.319 6
-7.312 -24.136 -4.379 6
-6.992 -22.895 -4.439 4
-6.686 -21.735 -4.484 8
-6.412 -20.678 -4.526 10
-6.165 -19.735 -4.575 9
-5.949 -18.89 -4.632 6
-5.733 -18.071 -4.671 8
-5.542 -17.327 -4.715 8
-5.363 -16.644 -4.761 7
-5.19 -15.975 -4.792 42
-5.04 -15.397 -4.845 7
-4.882 -14.802 -4.87 8
-4.743 -14.26 -4.904 9
-4.622 -13.789 -4.961 8
-4.496 -13.302 -4.992 8
-4.372 -12.834 -5.019 8
-4.264 -12.407 -5.057 8
-4.152 -11.984 -5.084 9
-4.049 -11.586 -5.112 10
-3.951 -11.209 -5.144 9
-3.856 -10.841 -5.17 12
-3.76 -10.483 -5.19 12
-3.672 -10.148 -5.218 14
-3.585 -9.814 -5.235 40
-3.498 -9.49 -5.25 15
-11.583 -39.885 -4.033 5
-10.069 -34.39 -3.685 21
-9.645 -32.698 -3.95 11
-9.262 -31.146 -4.191 7
-8.677 -28.966 -4.222 6
-8.194 -27.152 -4.275 5
-7.767 -25.53 -4.321 6
-7.4 -24.147 -4.382 6
-7.078 -22.911 -4.444 4
-6.768 -21.748 -4.488 15
-6.492 -20.695 -4.532 9
-6.239 -19.742 -4.578 9
-6.018 -18.89 -4.632 8
-5.801 -18.072 -4.671 7
-5.605 -17.322 -4.712 7
-5.427 -16.646 -4.762 7
-5.254 -15.984 -4.796 41
-5.1 -15.4 -4.847 8
-4.938 -14.798 -4.868 8
-4.799 -14.263 -4.906 8
-4.676 -13.79 -4.962 8
-4.55 -13.305 -4.995 7
-4.422 -12.829 -5.016 8
-4.311 -12.399 -5.052 9
-4.2 -11.983 -5.083 9
-4.08 -11.538 -5.079 24
-3.995 -11.206 -5.141 7
-3.901 -10.841 -5.169 9
-3.805 -10.485 -5.192 12
-3.712 -10.139 -5.21 13
-3.624 -9.806 -5.228 41
-3.539 -9.491 -5.25 16
-11.734 -39.945 -4.043 6
-10.235 -34.56 -3.718 21
-9.772 -32.752 -3.962 11
-9.378 -31.178 -4.198 6
-8.785 -28.991 -4.228 6
-8.295 -27.172 -4.281 5
-7.862 -25.548 -4.326 7
-7.489 -24.158 -4.386 6
-7.163 -22.922 -4.448 5
-6.845 -21.742 -4.486 26
-6.569 -20.701 -4.534 9
-6.311 -19.742 -4.578 9
-6.088 -18.89 -4.632 6
-5.867 -18.07 -4.67 6
-5.671 -17.326 -4.714 8
-5.49 -16.648 -4.763 8
-5.312 -15.976 -4.792 39
-5.157 -15.395 -4.844 8
-4.995 -14.797 -4.868 8
-4.855 -14.264 -4.906 8
-4.729 -13.787 -4.96 8
-4.601 -13.3 -4.992 7
-4.473 -12.83 -5.017 8
-4.361 -12.401 -5.053 9
-4.247 -11.978 -5.079 9
-4.144 -11.584 -5.111 10
-4.04 -11.202 -5.139 7
-3.943 -10.835 -5.165 9
-3.848 -10.483 -5.19 12
-3.754 -10.139 -5.21 12
-3.667 -9.809 -5.231 39
-3.579 -9.488 -5.248 15
-11.88 -39.989 -4.051 4
-10.35 -34.556 -3.717 24
-9.891 -32.779 -3.967 14
-9.486 -31.183 -4.199 6
-8.892 -29.013 -4.234 6
-8.392 -27.18 -4.283 5
-7.955 -25.558 -4.329 6
-7.579 -24.172 -4.39 6
-7.246 -22.926 -4.449 5
-6.923 -21.744 -4.487 29
-6.646 -20.707 -4.537 9
-6.389 -19.759 -4.585 9
-6.16 -18.897 -4.635 6
-5.936 -18.077 -4.673 6
-5.735 -17.325 -4.713 7
-5.551 -16.643 -4.761 8
-5.374 -15.982 -4.795 46
-5.216 -15.394 -4.844 8
-5.053 -14.801 -4.87 7
-4.91 -14.261 -4.905 8
-4.784 -13.788 -4.961 8
-4.654 -13.3 -4.992 8
-4.523 -12.824 -5.013 8
-4.411 -12.399 -5.052 9
-4.296 -11.98 -5.081 10
-4.189 -11.579 -5.108 10
-4.087 -11.205 -5.141 8
-3.988 -10.834 -5.164 12
-3.892 -10.483 -5.19 12
-3.796 -10.136 -5.208 13
-3.708 -9.807 -5.229 38
-3.62 -9.489 -5.249 16
-12.031 -40.047 -4.061 4
-10.43 -34.438 -3.694 34
-10.012 -32.808 -3.974 15
-9.606 -31.226 -4.209 6
-8.999 -29.035 -4.239 6
-8.494 -27.203 -4.289 5
-8.048 -25.57 -4.332 6
-7.666 -24.175 -4.391 6
-7.332 -22.938 -4.453 5
-7.002 -21.745 -4.487 17
-6.724 -20.716 -4.54 9
-6.46 -19.754 -4.583 5
-6.231 -18.9 -4.636 6
-6.007 -18.088 -4.678 8
-5.801 -17.326 -4.714 8
-5.617 -16.652 -4.765 8
-5.434 -15.977 -4.792 43
-5.275 -15.393 -4.843 8
-5.112 -14.804 -4.871 8
-4.965 -14.26 -4.905 9
-4.837 -13.785 -4.959 8
-4.706 -13.298 -4.99 8
-4.573 -12.822 -5.012 8
-4.46 -12.397 -5.051 10
-4.343 -11.976 -5.078 9
-4.237 -11.579 -5.108 10
-4.131 -11.197 -5.135 9
-4.032 -10.83 -5.161 10
-3.935 -10.479 -5.187 11
-3.839 -10.136 -5.208 12
-3.75 -9.807 -5.229 41
-3.659 -9.484 -5.244 16
-12.18 -40.098 -4.07 5
-10.533 -34.396 -3.686 33
-10.128 -32.823 -3.977 15
-9.724 -31.26 -4.217 6
-9.104 -29.049 -4.243 7
-8.595 -27.222 -4.294 5
-8.145 -25.59 -4.338 7
-7.757 -24.192 -4.396 5
-7.418 -22.949 -4.457 5
-7.089 -21.771 -4.496 8
-6.803 -20.725 -4.543 10
-6.537 -19.767 -4.588 8
-6.303 -18.908 -4.639 6
-6.073 -18.082 -4.675 7
-5.866 -17.326 -4.714 7
-5.679 -16.649 -4.763 7
-5.497 -15.982 -4.795 40
-5.335 -15.396 -4.845 8
-5.168 -14.799 -4.869 7
-5.022 -14.264 -4.907 8
-4.892 -13.785 -4.959 8
-4.759 -13.298 -4.99 8
-4.628 -12.83 -5.017 8
-4.51 -12.395 -5.049 9
-4.392 -11.974 -5.077 10
-4.284 -11.577 -5.106 10
-4.177 -11.196 -5.135 10
-4.076 -10.827 -5.158 11
-3.98 -10.481 -5.189 12
-3.881 -10.133 -5.205 12
-3.79 -9.802 -5.224 37
-3.701 -9.484 -5.244 15
-12.321 -40.119 -4.074 4
-10.653 -34.405 -3.688 21
-10.246 -32.842 -3.981 19
-9.835 -31.272 -4.22 6
-9.214 -29.077 -4.25 7
-8.698 -27.248 -4.301 5
-8.242 -25.611 -4.344 7
-7.846 -24.201 -4.399 6
-7.503 -22.959 -4.46 5
-7.173 -21.786 -4.502 7
-6.88 -20.73 -4.545 9
-6.61 -19.77 -4.589 8
-6.374 -18.91 -4.64 6
-6.141 -18.084 -4.676 7
-5.932 -17.326 -4.714 7
-5.743 -16.65 -4.764 7
-5.557 -15.981 -4.794 44
-5.397 -15.402 -4.847 8
-5.225 -14.798 -4.868 8
-5.077 -14.259 -4.904 9
-4.944 -13.778 -4.955 8
-4.811 -13.296 -4.989 8
-4.677 -12.824 -5.013 8
-4.56 -12.396 -5.05 9
-4.44 -11.972 -5.075 8
-4.331 -11.576 -5.105 9
-4.223 -11.195 -5.134 10
-4.122 -10.829 -5.16 11
-4.023 -10.478 -5.186 11
-3.927 -10.139 -5.21 11
-3.831 -9.798 -5.222 37
-3.741 -9.481 -5.242 16
-12.467 -40.157 -4.081 5
-10.803 -34.512 -3.708 25
-10.37 -32.882 -3.989 21
-9.957 -31.317 -4.23 6
-9.324 -29.106 -4.257 6
-8.796 -27.255 -4.303 6
-8.337 -25.626 -4.348 6
-7.94 -24.226 -4.407 5
-7.588 -22.966 -4.462 5
-7.256 -21.797 -4.505 7
-6.962 -20.749 -4.552 10
-6.686 -19.779 -4.592 9
-6.444 -18.909 -4.64 6
-6.21 -18.088 -4.678 7
-5.998 -17.33 -4.716 5
-5.808 -16.654 -4.766 7
-5.619 -15.981 -4.795 39
-5.456 -15.4 -4.847 8
-5.281 -14.794 -4.866 8
-5.134 -14.262 -4.906 8
-5.001 -13.784 -4.958 8
-4.863 -13.292 -4.987 8
-4.725 -12.815 -5.007 8
-4.608 -12.39 -5.046 9
-4.489 -11.973 -5.076 10
-4.377 -11.571 -5.102 10
-4.269 -11.194 -5.133 9
-4.167 -10.828 -5.159 12
-4.067 -10.478 -5.186 11
-3.967 -10.132 -5.205 12
-3.873 -9.798 -5.222 39
-3.781 -9.479 -5.24 14
-12.617 -40.202 -4.089 5
-10.952 -34.614 -3.728 8
-10.487 -32.896 -3.992 29
-10.074 -31.343 -4.236 7
-9.429 -29.118 -4.26 7
-8.899 -27.277 -4.309 5
-8.433 -25.641 -4.352 6
-8.03 -24.235 -4.409 6
-7.677 -22.984 -4.468 5
-7.337 -21.805 -4.508 7
-7.039 -20.75 -4.552 9
-6.76 -19.781 -4.593 9
-6.514 -18.908 -4.639 6
-6.278 -18.087 -4.678 7
-6.065 -17.334 -4.717 7
-5.869 -16.648 -4.763 8
-5.68 -15.98 -4.794 42
-5.515 -15.398 -4.846 8
-5.342 -14.803 -4.871 8
-5.191 -14.265 -4.907 8
-5.054 -13.781 -4.956 8
-4.916 -13.292 -4.987 8
-4.778 -12.818 -5.01 8
-4.659 -12.391 -5.047 9
-4.538 -11.971 -5.074 10
-4.425 -11.572 -5.103 9
-4.316 -11.192 -5.131 10
-4.213 -10.827 -5.158 10
-4.111 -10.476 -5.185 13
-4.011 -10.132 -5.205 13
-3.914 -9.795 -5.219 42
-3.821 -9.476 -5.237 14
-12.776 -40.278 -4.102 5
-11.035 -34.507 -3.707 33
-10.606 -32.913 -3.996 30
-10.194 -31.38 -4.245 6
-9.541 -29.149 -4.268 6
-9.001 -27.294 -4.314 4
-8.532 -25.663 -4.359 7
-8.121 -24.247 -4.413 6
-7.763 -22.993 -4.471 4
-7.422 -21.818 -4.513 7
-7.119 -20.761 -4.557 9
-6.836 -19.789 -4.596 9
-6.588 -18.917 -4.643 8
-6.348 -18.094 -4.68 7
-6.13 -17.33 -4.716 7
-5.936 -16.655 -4.766 7
-5.742 -15.981 -4.794 40
-5.575 -15.399 -4.846 8
-5.397 -14.795 -4.867 9
-5.245 -14.257 -4.903 8
-5.109 -13.78 -4.956 8
-4.97 -13.292 -4.987 8
-4.829 -12.815 -5.008 8
-4.709 -12.388 -5.045 9
-4.584 -11.963 -5.069 10
-4.472 -11.571 -5.102 10
-4.364 -11.197 -5.135 9
-4.256 -10.823 -5.156 9
-4.154 -10.472 -5.182 13
-4.054 -10.131 -5.204 13
-3.955 -9.792 -5.216 39
-3.866 -9.484 -5.245 17
-12.936 -40.353 -4.115 5
-11.146 -34.485 -3.703 34
-10.725 -32.933 -4.0 28
-10.31 -31.401 -4.25 7
-9.649 -29.169 -4.273 7
-9.105 -27.319 -4.32 5
-8.625 -25.671 -4.361 6
-8.212 -24.259 -4.417 6
-7.849 -23.003 -4.474 4
-7.505 -21.829 -4.516 8
-7.198 -20.768 -4.559 10
-6.911 -19.794 -4.598 9
-6.66 -18.923 -4.645 6
-6.419 -18.1 -4.683 7
-6.198 -17.337 -4.719 7
-6.0 -16.655 -4.766 7
-5.804 -15.981 -4.795 43
-5.634 -15.397 -4.845 8
-5.456 -14.797 -4.868 8
-5.016 -13.491 -4.478 0
-5.162 -13.776 -4.953 8
-5.022 -13.289 -4.985 7
-4.881 -12.815 -5.008 8
-4.759 -12.389 -5.045 9
-4.634 -11.967 -5.072 9
-4.519 -11.565 -5.098 10
-4.408 -11.189 -5.129 9
-4.302 -10.821 -5.154 11
-4.197 -10.469 -5.179 13
-4.096 -10.128 -5.201 13
-3.997 -9.792 -5.216 38
-3.899 -9.464 -5.227 22
-13.093 -40.418 -4.127 5
-11.266 -34.492 -3.705 35
-10.841 -32.942 -4.002 30
-10.427 -31.426 -4.255 7
-9.759 -29.191 -4.278 6
-9.204 -27.325 -4.322 5
-8.723 -25.689 -4.366 6
-8.301 -24.264 -4.418 6
-7.938 -23.019 -4.479 5
-7.587 -21.836 -4.519 13
-7.277 -20.776 -4.562 10
-6.99 -19.809 -4.604 9
-6.734 -18.931 -4.649 6
-6.487 -18.098 -4.682 7
-6.265 -17.34 -4.72 7
-6.064 -16.656 -4.767 7
-5.865 -15.979 -4.793 41
-5.694 -15.395 -4.844 8
-5.514 -14.795 -4.867 8
-5.006 -13.321 -4.384 0
-5.219 -13.782 -4.957 7
-5.075 -13.288 -4.984 8
-4.933 -12.815 -5.007 8
-4.809 -12.386 -5.044 9
-4.683 -11.964 -5.07 9
-4.567 -11.567 -5.099 10
-4.455 -11.19 -5.13 11
-4.347 -10.82 -5.153 11
-4.243 -10.47 -5.18 10
-4.139 -10.127 -5.201 10
-4.04 -9.791 -5.215 40
-3.939 -9.461 -5.224 23
-13.242 -40.454 -4.133 5
-11.391 -34.515 -3.709 20
-10.962 -32.962 -4.006 28
-10.552 -31.472 -4.266 6
0.0 -0.0 3.0 0
-9.312 -27.359 -4.331 5
-8.819 -25.703 -4.37 6
-8.395 -24.283 -4.424 6
-8.023 -23.021 -4.48 7
-7.669 -21.842 -4.521 7
-7.357 -20.786 -4.566 10
-7.063 -19.806 -4.603 9
-6.805 -18.929 -4.648 6
-6.557 -18.104 -4.685 7
-6.334 -17.346 -4.723 7
-6.128 -16.655 -4.766 7
-5.928 -15.982 -4.795 34
-5.754 -15.395 -4.844 8
-5.116 -13.583 -4.222 1
-5.003 -13.174 -4.303 0
-4.958 -12.956 -4.48 2
-5.128 -13.287 -4.984 7
-4.981 -12.805 -5.002 8
-4.859 -12.383 -5.042 9
-4.733 -11.965 -5.07 9
-4.614 -11.564 -5.097 9
-4.499 -11.182 -5.124 10
-4.393 -10.821 -5.154 11
-4.284 -10.463 -5.175 11
-4.181 -10.123 -5.197 11
-4.083 -9.793 -5.217 40
-3.981 -9.463 -5.226 22
-13.401 -40.52 -4.145 5
-11.51 -34.518 -3.71 8
-11.081 -32.977 -4.009 26
-10.673 -31.507 -4.274 7
0.0 -0.0 3.0 0
-9.413 -27.372 -4.334 5
-8.917 -25.721 -4.375 7
-8.487 -24.298 -4.429 6
-8.113 -23.04 -4.486 5
-7.754 -21.855 -4.525 8
-7.437 -20.793 -4.568 9
-7.138 -19.81 -4.604 9
-6.876 -18.93 -4.648 6
-6.627 -18.106 -4.685 8
-6.398 -17.341 -4.721 7
-6.192 -16.655 -4.766 7
-5.992 -15.986 -4.797 40
-5.816 -15.4 -4.847 8
-5.155 -13.546 -4.202 2
-5.05 -13.16 -4.295 1
-4.971 -12.853 -4.421 0
-5.182 -13.286 -4.983 8
-5.035 -12.808 -5.003 8
-4.91 -12.383 -5.041 9
-4.781 -11.962 -5.068 9
-4.66 -11.558 -5.093 11
-4.547 -11.184 -5.125 10
-4.437 -10.817 -5.151 10
-4.33 -10.465 -5.176 12
-4.223 -10.118 -5.194 13
-4.123 -9.787 -5.212 40
-4.023 -9.463 -5.226 21
-13.556 -40.573 -4.154 5
-11.647 -34.573 -3.72 11
-11.197 -32.985 -4.011 31
-10.814 -31.597 -4.295 1
0.0 -0.0 3.0 0
-9.517 -27.391 -4.34 5
-9.014 -25.734 -4.379 6
-8.579 -24.309 -4.432 6
-8.2 -23.048 -4.489 5
-7.839 -21.867 -4.53 8
-7.519 -20.807 -4.573 10
-7.218 -19.824 -4.61 10
-6.952 -18.942 -4.653 6
-6.696 -18.108 -4.686 6
-6.467 -17.348 -4.724 5
-6.258 -16.662 -4.769 7
-6.054 -15.986 -4.797 42
-5.875 -15.397 -4.845 7
0.0 -0.0 3.0 0
-5.083 -13.11 -4.267 0
-4.981 -12.748 -4.36 0
-5.229 -13.269 -4.973 1
-5.086 -12.804 -5.001 8
-4.959 -12.38 -5.039 8
-4.83 -11.959 -5.066 9
-4.71 -11.562 -5.096 10
-4.593 -11.182 -5.124 10
-4.484 -10.817 -5.151 11
-4.375 -10.466 -5.177 11
-4.268 -10.121 -5.196 11
-4.165 -9.786 -5.211 37
-4.062 -9.457 -5.221 20
-13.71 -40.618 -4.162 4
-12.61 -37.052 -4.202 6
-11.321 -33.01 -4.017 31
0.0 -0.0 3.0 0
0.0 -0.0 3.0 0
-9.623 -27.414 -4.346 5
-9.113 -25.75 -4.384 7
-8.671 -24.319 -4.435 6
-8.291 -23.067 -4.495 5
-7.919 -21.866 -4.529 7
-7.598 -20.813 -4.575 10
-7.294 -19.832 -4.613 17
-7.025 -18.946 -4.655 5
-6.766 -18.109 -4.687 7
-6.534 -17.349 -4.724 5
-6.323 -16.661 -4.769 6
-6.117 -15.99 -4.799 41
-5.177 -13.429 -3.842 1
0.0 -0.0 3.0 0
-5.072 -12.947 -4.177 0
-5.01 -12.692 -4.328 0
-4.979 -12.506 -4.515 2
-5.138 -12.804 -5.001 8
-5.009 -12.376 -5.037 9
-4.879 -11.959 -5.066 9
-4.756 -11.556 -5.092 10
-4.641 -11.182 -5.124 10
-4.528 -10.813 -5.148 10
-4.418 -10.462 -5.174 11
-4.31 -10.116 -5.192 12
-4.208 -9.784 -5.21 38
-4.104 -9.459 -5.222 19
-13.878 -40.704 -4.177 4
-11.824 -34.395 -3.686 2
-11.445 -33.04 -4.023 32
0.0 -0.0 3.0 0
-9.484 -26.948 -3.719 0
-9.73 -27.44 -4.352 5
-9.211 -25.767 -4.389 6
-8.766 -24.336 -4.44 6
-8.381 -23.082 -4.5 5
-8.005 -21.882 -4.535 7
-7.677 -20.816 -4.576 8
-7.365 -19.821 -4.609 33
-7.098 -18.95 -4.656 6
-6.836 -18.114 -4.689 6
-6.602 -17.351 -4.725 5
-6.387 -16.66 -4.769 8
-6.179 -15.985 -4.796 41
-5.168 -13.27 -3.761 0
-5.067 -12.911 -3.865 1
-5.08 -12.838 -4.116 2
-5.059 -12.685 -4.324 0
-4.992 -12.412 -4.458 8
-5.191 -12.806 -5.002 8
-5.059 -12.373 -5.035 8
-4.928 -11.956 -5.064 10
-4.805 -11.557 -5.092 9
-4.686 -11.177 -5.12 11
-4.574 -10.814 -5.149 12
-4.463 -10.46 -5.172 11
-4.353 -10.115 -5.191 12
-4.25 -9.783 -5.209 33
-4.143 -9.452 -5.217 24
-14.044 -40.783 -4.191 5
-12.897 -37.144 -4.22 5
-11.565 -33.053 -4.026 29
0.0 -0.0 3.0 0
-9.533 -26.817 -3.686 1
-9.835 -27.458 -4.357 5
-9.309 -25.779 -4.392 6
-8.858 -24.347 -4.443 6
-8.47 -23.093 -4.503 5
-8.091 -21.894 -4.539 7
-7.758 -20.825 -4.58 11
-7.439 -19.82 -4.608 33
-7.172 -18.954 -4.658 6
-6.907 -18.119 -4.691 7
-6.668 -17.349 -4.724 5
-6.453 -16.662 -4.77 7
-6.241 -15.985 -4.796 43
-5.202 -13.222 -3.737 1
-5.093 -12.847 -3.831 3
-5.098 -12.754 -4.07 31
0.0 -0.0 3.0 0
-5.032 -12.385 -4.442 165
-5.241 -12.799 -4.998 8
-5.11 -12.372 -5.034 9
-4.976 -11.952 -5.062 9
-4.854 -11.557 -5.092 10
-4.733 -11.177 -5.121 10
-4.618 -10.808 -5.145 11
-4.507 -10.458 -5.171 13
-4.396 -10.113 -5.19 13
-4.291 -9.779 -5.206 25
-4.186 -9.454 -5.218 21
-14.206 -40.848 -4.203 5
-13.043 -37.194 -4.23 6
-11.686 -33.071 -4.029 31
0.0 -0.0 3.0 0
-9.581 -26.686 -3.654 1
-9.602 -26.543 -4.112 2
-9.409 -25.799 -4.398 7
-8.951 -24.36 -4.448 6
-8.56 -23.107 -4.508 5
-8.176 -21.906 -4.543 8
-7.841 -20.838 -4.584 10
-7.514 -19.819 -4.608 22
-7.248 -18.964 -4.662 5
-6.976 -18.116 -4.69 8
-6.736 -17.351 -4.725 6
-6.517 -16.661 -4.769 7
-6.304 -15.984 -4.796 40
0.0 -0.0 3.0 0
-5.116 -12.777 -3.793 0
-5.111 -12.657 -4.016 2
0.0 -0.0 3.0 0
-5.054 -12.317 -4.401 0
-5.289 -12.788 -4.991 7
-5.16 -12.368 -5.032 8
-5.025 -11.949 -5.06 9
-4.901 -11.554 -5.09 9
-4.78 -11.175 -5.119 10
-4.668 -10.816 -5.15 11
-4.551 -10.456 -5.169 12
-4.438 -10.108 -5.186 12
-4.335 -9.781 -5.207 17
-4.226 -9.451 -5.216 22
-14.364 -40.899 -4.212 4
-13.189 -37.244 -4.239 6
-11.808 -33.087 -4.033 27
0.0 -0.0 3.0 0
-9.645 -26.602 -3.633 3
-9.685 -26.51 -4.103 4
-9.504 -25.803 -4.399 7
-9.044 -24.369 -4.45 6
-8.65 -23.121 -4.513 5
-8.263 -21.92 -4.548 7
-7.926 -20.857 -4.591 13
-7.595 -19.836 -4.614 11
-7.316 -18.954 -4.658 5
-7.048 -18.123 -4.693 6
-6.806 -17.359 -4.729 5
-6.581 -16.659 -4.768 7
-5.359 -13.455 -3.562 0
0.0 -0.0 3.0 0
-5.156 -12.749 -3.779 1
-5.093 -12.489 -3.923 4
0.0 -0.0 3.0 0
-5.075 -12.245 -4.357 0
-5.152 -12.332 -4.706 1
-5.211 -12.368 -5.032 9
-5.075 -11.949 -5.059 9
-4.948 -11.547 -5.086 10
-4.826 -11.172 -5.117 10
-4.712 -10.81 -5.146 11
-4.597 -10.457 -5.17 11
-4.484 -10.113 -5.19 12
-4.376 -9.777 -5.204 13
-4.266 -9.446 -5.212 22
-14.527 -40.961 -4.222 5
-13.346 -37.319 -4.254 6
-11.931 -33.107 -4.037 23
0.0 -0.0 3.0 0
-9.719 -26.544 -3.618 5
-9.771 -26.485 -4.097 8
-9.609 -25.832 -4.407 6
-9.141 -24.389 -4.456 6
-8.742 -23.138 -4.518 4
-8.348 -21.928 -4.55 7
-8.004 -20.854 -4.59 26
-7.678 -19.856 -4.622 9
-7.392 -18.963 -4.662 6
-7.124 -18.137 -4.699 8
-6.873 -17.357 -4.728 7
-6.647 -16.661 -4.769 7
-5.358 -13.322 -3.497 0
0.0 -0.0 3.0 0
0.0 -0.0 3.0 0
-5.131 -12.458 -3.906 1
-5.108 -12.306 -4.105 0
0.0 -0.0 3.0 0
-5.141 -12.185 -4.614 2
-5.261 -12.363 -5.029 9
-5.125 -11.948 -5.059 9
-4.998 -11.55 -5.088 9
-4.874 -11.171 -5.117 11
-4.756 -10.804 -5.142 11
-4.642 -10.455 -5.168 11
-4.527 -10.108 -5.186 11
-4.417 -9.772 -5.2 12
-4.306 -9.442 -5.208 19
-14.688 -41.017 -4.232 4
-13.494 -37.372 -4.264 6
-12.061 -33.145 -4.045 24
0.0 -0.0 3.0 0
-9.799 -26.504 -3.608 4
-9.863 -26.474 -4.094 13
-9.708 -25.848 -4.412 6
-9.233 -24.398 -4.459 6
-8.828 -23.138 -4.518 4
-8.432 -21.935 -4.553 7
-8.08 -20.849 -4.588 26
-7.754 -19.858 -4.623 9
-7.468 -18.97 -4.664 6
-7.191 -18.131 -4.696 7
-6.939 -17.354 -4.726 5
-6.711 -16.655 -4.766 8
0.0 -0.0 3.0 0
0.0 -0.0 3.0 0
0.0 -0.0 3.0 0
-5.145 -12.372 -3.858 1
-5.135 -12.25 -4.072 0
0.0 -0.0 3.0 0
-5.18 -12.158 -4.597 0
-5.312 -12.362 -5.028 9
-5.172 -11.941 -5.054 9
-5.044 -11.544 -5.083 9
-4.921 -11.169 -5.114 10
-4.803 -10.804 -5.142 10
-4.685 -10.45 -5.164 11
-4.57 -10.107 -5.184 13
-4.461 -9.774 -5.201 13
-4.349 -9.444 -5.21 22
-14.869 -41.126 -4.252 5
-13.642 -37.42 -4.274 6
-12.193 -33.186 -4.054 24
0.0 -0.0 3.0 0
-9.884 -26.478 -3.602 14
-9.956 -26.466 -4.092 8
-9.808 -25.861 -4.416 7
-9.332 -24.42 -4.466 6
-8.921 -23.157 -4.524 4
-8.521 -21.952 -4.559 8
-8.159 -20.85 -4.589 19
-7.83 -19.86 -4.624 9
-7.54 -18.969 -4.664 6
-7.264 -18.137 -4.699 6
-7.008 -17.358 -4.728 4
-6.777 -16.656 -4.767 7
0.0 -0.0 3.0 0
0.0 -0.0 3.0 0
0.0 -0.0 3.0 0
-5.177 -12.328 -3.833 0
-5.18 -12.24 -4.067 28
-5.16 -12.091 -4.265 0
-5.215 -12.123 -4.575 0
-5.364 -12.364 -5.029 9
-5.224 -11.943 -5.056 9
-5.092 -11.54 -5.081 10
-4.968 -11.168 -5.114 10
-4.848 -10.802 -5.14 11
-4.73 -10.45 -5.165 11
-4.613 -10.104 -5.182 11
-4.503 -9.772 -5.199 13
-4.39 -9.44 -5.206 19
-15.033 -41.185 -4.262 6
-13.795 -37.479 -4.285 6
-12.322 -33.22 -4.061 22
0.0 -0.0 3.0 0
-9.977 -26.471 -3.6 10
-10.041 -26.44 -4.084 6
-9.909 -25.88 -4.421 6
-9.426 -24.432 -4.47 6
-9.01 -23.163 -4.526 4
-8.605 -21.956 -4.56 8
-8.252 -20.885 -4.601 11
-7.91 -19.868 -4.627 8
-7.615 -18.975 -4.666 6
-7.333 -18.134 -4.697 8
-7.077 -17.359 -4.729 4
-6.843 -16.658 -4.768 8
0.0 -0.0 3.0 0
-5.25 -12.581 -3.41 0
0.0 -0.0 3.0 0
-5.203 -12.271 -3.802 0
-5.192 -12.15 -4.015 1
-5.2 -12.068 -4.251 0
-5.257 -12.102 -4.562 0
-5.414 -12.359 -5.026 9
-5.272 -11.939 -5.053 9
-5.139 -11.537 -5.078 8
-5.015 -11.166 -5.112 10
-4.895 -10.802 -5.14 11
-4.775 -10.448 -5.163 11
-4.656 -10.099 -5.178 10
-4.546 -9.77 -5.198 14
-4.431 -9.439 -5.205 20
-15.199 -41.248 -4.273 5
-13.945 -37.53 -4.295 6
-12.449 -33.245 -4.066 23
0.0 -0.0 3.0 0
-10.072 -26.47 -3.6 8
-10.154 -26.482 -4.096 2
-10.008 -25.889 -4.424 6
-9.521 -24.444 -4.473 6
-9.101 -23.175 -4.53 5
-8.696 -21.976 -4.567 14
-8.337 -20.899 -4.607 10
-7.989 -19.876 -4.63 9
-7.689 -18.977 -4.667 6
-7.407 -18.143 -4.701 5
-7.147 -17.365 -4.731 7
-6.907 -16.655 -4.766 7
0.0 -0.0 3.0 0
0.0 -0.0 3.0 0
-5.273 -12.418 -3.603 0
-5.239 -12.237 -3.783 0
-5.24 -12.146 -4.012 6
-5.247 -12.06 -4.247 0
-5.302 -12.092 -4.556 0
-5.467 -12.361 -5.027 9
-5.324 -11.941 -5.054 8
-5.19 -11.539 -5.08 10
-5.062 -11.162 -5.11 10
-4.942 -10.802 -5.14 11
-4.821 -10.448 -5.163 10
-4.7 -10.1 -5.179 12
-4.587 -9.765 -5.194 18
-4.473 -9.437 -5.203 17
-15.365 -41.31 -4.284 5
-14.098 -37.588 -4.306 5
-12.586 -33.296 -4.077 30
0.0 -0.0 3.0 0
-10.169 -26.476 -3.601 6
-10.237 -26.448 -4.087 2
-10.111 -25.91 -4.429 6
-9.615 -24.451 -4.475 6
-9.194 -23.191 -4.535 5
-8.777 -21.971 -4.565 20
-8.422 -20.914 -4.612 10
-8.07 -19.887 -4.634 9
-7.768 -18.989 -4.672 6
-7.476 -18.139 -4.7 8
-7.214 -17.362 -4.73 6
-6.972 -16.652 -4.765 8
0.0 -0.0 3.0 0
0.0 -0.0 3.0 0
-5.305 -12.377 -3.581 0
-5.264 -12.18 -3.751 0
-5.256 -12.067 -3.967 0
0.0 -0.0 3.0 0
-5.35 -12.084 -4.551 0
-5.518 -12.359 -5.026 9
-5.371 -11.933 -5.049 9
-5.237 -11.535 -5.077 10
-5.109 -11.162 -5.109 10
-4.988 -10.798 -5.137 11
-4.864 -10.442 -5.158 10
-4.747 -10.103 -5.181 11
-4.63 -9.763 -5.192 24
-4.513 -9.432 -5.199 21
-15.53 -41.367 -4.294 5
-14.252 -37.645 -4.317 6
-12.716 -33.328 -4.084 34
0.0 -0.0 3.0 0
-10.265 -26.474 -3.601 5
-10.352 -26.497 -4.1 13
-10.21 -25.919 -4.432 6
-9.714 -24.472 -4.482 6
-9.284 -23.199 -4.538 5
-8.859 -21.971 -4.565 29
-8.506 -20.924 -4.616 11
-8.146 -19.889 -4.634 8
-7.842 -18.991 -4.673 6
-7.552 -18.151 -4.705 6
-7.287 -17.371 -4.734 7
-7.037 -16.649 -4.763 8
0.0 -0.0 3.0 0
0.0 -0.0 3.0 0
-5.334 -12.326 -3.554 0
-5.306 -12.162 -3.742 0
0.0 -0.0 3.0 0
-5.335 -12.031 -4.229 0
-5.404 -12.092 -4.556 0
-5.568 -12.354 -5.023 10
-5.422 -11.932 -5.048 9
-5.286 -11.534 -5.076 10
-5.156 -11.158 -5.107 9
-5.035 -10.798 -5.137 10
-4.907 -10.436 -5.154 11
-4.789 -10.098 -5.177 11
-4.67 -9.755 -5.186 26
-4.555 -9.431 -5.198 18
-15.703 -41.442 -4.307 5
-14.409 -37.709 -4.33 5
-12.847 -33.36 -4.091 32
0.0 -0.0 3.0 0
-10.363 -26.48 -3.602 5
-10.441 -26.476 -4.094 13
-10.312 -25.935 -4.437 6
-9.808 -24.479 -4.484 5
-9.378 -23.218 -4.544 4
-8.943 -21.972 -4.566 19
-8.587 -20.927 -4.617 10
-8.226 -19.896 -4.637 9
-7.913 -18.985 -4.671 6
-7.623 -18.15 -4.704 6
-7.355 -17.371 -4.734 7
-7.106 -16.656 -4.767 7
-5.582 -12.977 -3.329 0
0.0 -0.0 3.0 0
-5.363 -12.278 -3.528 0
-5.324 -12.089 -3.701 0
0.0 -0.0 3.0 0
-5.379 -12.018 -4.221 0
0.0 -0.0 3.0 0
-5.621 -12.356 -5.024 9
-5.472 -11.931 -5.047 9
-5.334 -11.529 -5.073 10
-5.201 -11.151 -5.102 10
-5.079 -10.792 -5.133 11
-4.953 -10.436 -5.154 11
-4.834 -10.098 -5.178 11
-4.714 -9.756 -5.186 34
-4.599 -9.435 -5.201 21
-15.877 -41.517 -4.321 4
-14.561 -37.758 -4.339 5
-12.961 -33.346 -4.088 30
0.0 -0.0 3.0 0
-10.462 -26.489 -3.604 4
-10.543 -26.488 -4.098 23
-10.42 -25.966 -4.446 6
-9.909 -24.503 -4.491 6
-9.473 -23.236 -4.55 5
-9.039 -22.002 -4.576 8
-8.672 -20.94 -4.621 9
-8.307 -19.907 -4.641 8
-7.993 -19.0 -4.677 6
-7.693 -18.149 -4.704 8
-7.424 -17.37 -4.734 5
-7.171 -16.652 -4.765 8
0.0 -0.0 3.0 0
0.0 -0.0 3.0 0
0.0 -0.0 3.0 0
-5.364 -12.068 -3.689 0
0.0 -0.0 3.0 0
-5.431 -12.022 -4.224 0
0.0 -0.0 3.0 0
-5.671 -12.35 -5.02 9
-5.521 -11.926 -5.044 9
-5.383 -11.528 -5.072 10
-5.251 -11.153 -5.103 9
-5.127 -10.795 -5.134 11
-4.998 -10.434 -5.152 11
-4.876 -10.093 -5.173 10
-4.756 -9.754 -5.184 39
-4.641 -9.433 -5.2 21
-16.027 -41.528 -4.323 4
-14.718 -37.817 -4.351 6
-13.104 -33.406 -4.101 32
0.0 -0.0 3.0 0
-10.561 -26.493 -3.606 4
-10.654 -26.522 -4.107 20
-10.521 -25.978 -4.449 6
-10.006 -24.517 -4.495 6
-9.562 -23.24 -4.551 5
-9.13 -22.021 -4.583 8
-8.757 -20.95 -4.625 11
-8.384 -19.907 -4.641 9
-8.068 -19.001 -4.677 6
-7.769 -18.157 -4.707 6
-7.492 -17.37 -4.733 5
-7.241 -16.659 -4.768 8
0.0 -0.0 3.0 0
0.0 -0.0 3.0 0
-5.425 -12.192 -3.483 0
0.0 -0.0 3.0 0
-5.434 -12.019 -3.939 0
-5.483 -12.027 -4.226 0
-5.533 -12.039 -4.523 0
-5.721 -12.344 -5.017 9
-5.572 -11.927 -5.045 9
-5.434 -11.53 -5.074 11
-5.297 -11.149 -5.1 10
-5.171 -10.788 -5.129 11
-5.044 -10.433 -5.151 12
-4.918 -10.087 -5.168 11
-4.799 -9.751 -5.182 38
-4.678 -9.422 -5.19 18
-16.207 -41.617 -4.338 5
-14.873 -37.872 -4.361 6
-13.249 -33.473 -4.115 30
0.0 -0.0 3.0 0
-10.659 -26.499 -3.607 3
-10.74 -26.494 -4.099 2
-10.628 -26.003 -4.456 6
-10.1 -24.522 -4.497 6
-9.654 -23.25 -4.554 5
-9.216 -22.027 -4.584 8
-8.841 -20.958 -4.628 10
-8.466 -19.917 -4.645 9
-8.147 -19.011 -4.681 6
-7.842 -18.162 -4.709 8
-7.564 -17.375 -4.736 6
-7.307 -16.659 -4.768 8
0.0 -0.0 3.0 0
-5.564 -12.485 -3.361 0
-5.467 -12.174 -3.473 0
0.0 -0.0 3.0 0
0.0 -0.0 3.0 0
-5.529 -12.015 -4.219 0
-5.58 -12.031 -4.518 0
-5.773 -12.342 -5.015 9
-5.621 -11.922 -5.041 9
-5.48 -11.522 -5.068 11
-5.346 -11.148 -5.099 10
-5.217 -10.785 -5.127 11
-5.088 -10.429 -5.148 13
-4.965 -10.09 -5.171 11
-4.842 -9.748 -5.18 39
-4.723 -9.425 -5.193 16
-16.388 -41.704 -4.354 4
-15.031 -37.93 -4.373 6
-13.405 -33.561 -4.134 24
0.0 -0.0 3.0 0
-10.763 -26.517 -3.611 3
-10.866 -26.562 -4.117 3
-10.731 -26.018 -4.46 6
-10.2 -24.542 -4.503 6
-9.747 -23.26 -4.558 5
-9.305 -22.037 -4.588 7
-8.926 -20.967 -4.631 11
-8.543 -19.916 -4.645 16
-8.222 -19.012 -4.682 5
-7.913 -18.16 -4.708 6
-7.631 -17.37 -4.734 5
-7.374 -16.658 -4.768 7
0.0 -0.0 3.0 0
0.0 -0.0 3.0 0
0.0 -0.0 3.0 0
0.0 -0.0 3.0 0
0.0 -0.0 3.0 0
-5.572 -12.0 -4.21 0
-5.65 -12.073 -4.544 1
-5.72 -12.118 -4.869 3
-5.672 -11.92 -5.04 9
-5.529 -11.521 -5.067 10
-5.391 -11.14 -5.094 10
-5.266 -10.786 -5.128 12
-5.133 -10.426 -5.146 11
-5.007 -10.084 -5.166 10
-4.884 -9.746 -5.178 33
-4.763 -9.421 -5.189 21
-16.58 -41.817 -4.373 5
-15.184 -37.976 -4.382 5
-13.597 -33.739 -4.171 19
0.0 -0.0 3.0 0
-10.865 -26.528 -3.614 5
-10.943 -26.512 -4.104 1
-10.837 -26.039 -4.467 6
-10.296 -24.551 -4.506 6
-9.841 -23.273 -4.562 4
-9.393 -22.045 -4.591 7
-9.01 -20.976 -4.635 11
-8.626 -19.929 -4.65 7
-8.298 -19.015 -4.683 6
-7.987 -18.164 -4.71 6
-7.704 -17.379 -4.738 5
-7.441 -16.657 -4.767 7
0.0 -0.0 3.0 0
0.0 -0.0 3.0 0
0.0 -0.0 3.0 0
-5.568 -12.076 -3.694 1
0.0 -0.0 3.0 0
0.0 -0.0 3.0 0
-5.692 -12.052 -4.531 2
-5.731 -12.032 -4.813 6
-5.724 -11.92 -5.04 9
-5.579 -11.519 -5.065 9
-5.441 -11.142 -5.095 9
-5.31 -10.779 -5.123 10
-5.178 -10.423 -5.143 11
-5.051 -10.081 -5.163 12
-4.928 -9.746 -5.178 39
-4.802 -9.412 -5.182 18
-16.749 -41.87 -4.383 5
-15.343 -38.033 -4.393 6
-13.753 -33.822 -4.189 23
0.0 -0.0 3.0 0
-10.964 -26.532 -3.615 3
-11.046 -26.522 -4.106 1
-10.939 -26.05 -4.47 6
-10.395 -24.566 -4.511 6
-9.935 -23.286 -4.566 4
-9.482 -22.055 -4.594 8
-9.094 -20.981 -4.636 11
-8.711 -19.946 -4.656 7
-8.376 -19.022 -4.685 6
-8.058 -18.162 -4.709 6
-7.773 -17.377 -4.737 5
-7.51 -16.662 -4.77 8
0.0 -0.0 3.0 0
0.0 -0.0 3.0 0
