# .PCD v0.7 - Point Cloud Data file format
VERSION 0.7
FIELDS x y z intensity
SIZE 4 4 4 4
TYPE F F F F
COUNT 1 1 1 1
WIDTH 2006
HEIGHT 1
VIEWPOINT 0 0 0 1 0 0 0
POINTS 2006
DATA ascii
-4.709 -11.559 -5.094 10
-4.596 -11.187 -5.128 10
-4.483 -10.815 -5.15 11
-4.374 -10.463 -5.175 11
-4.268 -10.121 -5.196 11
-4.165 -9.786 -5.211 37
-4.063 -9.459 -5.223 20
-13.719 -40.645 -4.167 5
-12.607 -37.045 -4.201 5
-11.321 -33.01 -4.017 30
0.0 -0.0 3.0 0
0.0 -0.0 3.0 0
-9.624 -27.401 -4.342 5
-9.11 -25.744 -4.382 6
-8.675 -24.33 -4.438 6
-8.292 -23.071 -4.496 5
-7.921 -21.873 -4.532 8
-7.603 -20.815 -4.576 10
-7.291 -19.821 -4.608 17
-7.024 -18.943 -4.653 5
-6.766 -18.109 -4.687 7
-6.533 -17.346 -4.723 5
-6.321 -16.657 -4.767 6
-6.115 -15.982 -4.795 41
-5.937 -15.401 -4.847 8
-5.749 -14.8 -4.869 7
-5.584 -14.255 -4.902 5
-5.438 -13.774 -4.952 8
-5.286 -13.278 -4.978 8
-5.136 -12.8 -4.998 8
-5.009 -12.376 -5.037 9
-4.879 -11.959 -5.066 9
-4.756 -11.556 -5.092 10
-4.641 -11.182 -5.124 10
-4.53 -10.819 -5.153 10
-4.42 -10.464 -5.176 11
-4.31 -10.116 -5.192 12
-4.208 -9.784 -5.21 39
-4.104 -9.459 -5.222 19
-13.887 -40.731 -4.182 5
-11.826 -34.403 -3.687 2
-11.448 -33.046 -4.024 32
0.0 -0.0 3.0 0
-9.488 -26.959 -3.722 0
-9.731 -27.427 -4.349 5
-9.211 -25.767 -4.389 7
-8.764 -24.333 -4.439 6
-8.381 -23.082 -4.5 5
-8.005 -21.882 -4.535 8
-7.681 -20.815 -4.576 8
-7.364 -19.817 -4.607 32
-7.1 -18.954 -4.658 6
-6.839 -18.121 -4.692 6
-6.599 -17.345 -4.722 5
-6.387 -16.66 -4.769 8
-6.18 -15.989 -4.798 41
-5.998 -15.401 -4.847 8
-5.807 -14.797 -4.868 8
-5.64 -14.252 -4.9 9
-5.492 -13.771 -4.951 7
-5.341 -13.28 -4.979 8
-5.19 -12.803 -5.0 8
-5.061 -12.379 -5.039 8
-4.927 -11.952 -5.062 10
-4.806 -11.559 -5.094 9
-4.688 -11.183 -5.125 11
-4.574 -10.814 -5.149 11
-4.463 -10.46 -5.172 11
-4.353 -10.115 -5.191 12
-4.251 -9.787 -5.212 33
-4.144 -9.455 -5.219 24
-14.045 -40.787 -4.192 5
-11.907 -34.293 -3.666 1
-11.566 -33.057 -4.026 29
0.0 -0.0 3.0 0
-9.533 -26.817 -3.686 1
-9.84 -27.456 -4.357 5
-9.31 -25.783 -4.393 6
-8.858 -24.347 -4.443 6
-8.468 -23.089 -4.502 5
-8.092 -21.898 -4.54 7
-7.762 -20.823 -4.579 10
-7.438 -19.816 -4.607 33
-7.172 -18.954 -4.658 6
-6.907 -18.119 -4.691 6
-6.669 -17.353 -4.726 5
-6.45 -16.655 -4.766 7
-6.242 -15.988 -4.798 42
-6.058 -15.397 -4.845 7
-5.866 -14.797 -4.868 7
-5.698 -14.253 -4.901 9
-5.55 -13.777 -4.954 8
-5.395 -13.279 -4.979 8
-5.241 -12.799 -4.998 8
-5.11 -12.372 -5.034 9
-4.976 -11.952 -5.062 9
-4.851 -11.551 -5.088 10
-4.735 -11.18 -5.123 10
-4.62 -10.812 -5.147 11
-4.507 -10.458 -5.171 13
-4.396 -10.113 -5.19 13
-4.292 -9.783 -5.209 25
-4.186 -9.454 -5.218 21
-14.204 -40.841 -4.201 5
-13.042 -37.19 -4.229 5
-11.684 -33.063 -4.028 29
0.0 -0.0 3.0 0
-9.585 -26.697 -3.656 1
-9.601 -26.526 -4.108 2
-9.408 -25.795 -4.397 7
-8.949 -24.353 -4.445 6
-8.56 -23.107 -4.508 5
-8.176 -21.906 -4.543 7
-7.844 -20.836 -4.584 10
-7.514 -19.819 -4.608 22
-7.244 -18.954 -4.658 5
-6.976 -18.116 -4.69 7
-6.738 -17.358 -4.728 6
-6.517 -16.661 -4.769 7
-6.304 -15.984 -4.796 43
-6.117 -15.394 -4.844 8
-5.926 -14.797 -4.868 8
-5.757 -14.258 -4.903 9
-5.604 -13.771 -4.951 7
-5.448 -13.277 -4.978 8
-5.295 -12.801 -4.999 8
-5.161 -12.371 -5.034 8
-5.026 -11.952 -5.062 9
-4.903 -11.557 -5.092 9
-4.781 -11.178 -5.121 10
-4.665 -10.809 -5.145 11
-4.551 -10.456 -5.169 12
-4.441 -10.115 -5.191 12
-4.336 -9.784 -5.21 18
-4.227 -9.453 -5.218 22
-14.366 -40.903 -4.212 5
-13.191 -37.247 -4.24 5
-11.808 -33.087 -4.033 27
0.0 -0.0 3.0 0
-9.643 -26.595 -3.631 3
-9.693 -26.516 -4.105 4
-9.505 -25.807 -4.4 7
-9.048 -24.38 -4.454 6
-8.65 -23.121 -4.513 5
-8.261 -21.913 -4.545 7
-7.929 -20.852 -4.59 13
-7.595 -19.836 -4.614 11
-7.319 -18.961 -4.661 4
-7.048 -18.123 -4.693 7
-6.806 -17.359 -4.729 6
-6.579 -16.652 -4.765 8
-6.363 -15.976 -4.792 40
-6.181 -15.4 -4.847 8
-5.985 -14.798 -4.868 7
-5.812 -14.252 -4.9 8
-5.659 -13.769 -4.95 8
-5.502 -13.275 -4.977 8
-5.346 -12.796 -4.996 8
-5.212 -12.371 -5.034 9
-5.076 -11.952 -5.062 9
-4.949 -11.551 -5.088 10
-4.826 -11.172 -5.117 10
-4.713 -10.813 -5.148 11
-4.596 -10.454 -5.168 12
-4.482 -10.107 -5.184 12
-4.375 -9.774 -5.201 13
-4.266 -9.446 -5.212 23
-14.527 -40.961 -4.222 5
-13.351 -37.334 -4.257 6
-11.931 -33.107 -4.037 24
0.0 -0.0 3.0 0
-9.72 -26.548 -3.619 5
-9.776 -26.483 -4.096 8
-9.607 -25.829 -4.406 6
-9.139 -24.385 -4.455 6
-8.742 -23.138 -4.518 5
-8.346 -21.924 -4.549 7
-8.006 -20.849 -4.589 26
-7.678 -19.856 -4.622 9
-7.39 -18.957 -4.659 6
-7.117 -18.12 -4.691 8
-6.877 -17.367 -4.732 7
-6.649 -16.664 -4.771 8
-6.429 -15.982 -4.795 44
-6.242 -15.399 -4.846 8
-6.043 -14.795 -4.866 7
-5.87 -14.252 -4.9 9
-5.717 -13.773 -4.952 7
-5.557 -13.276 -4.977 8
-5.397 -12.792 -4.993 9
-5.261 -12.363 -5.029 9
-5.125 -11.948 -5.059 9
-4.999 -11.554 -5.09 10
-4.874 -11.171 -5.117 11
-4.757 -10.807 -5.144 11
-4.64 -10.452 -5.166 11
-4.527 -10.108 -5.186 11
-4.42 -9.778 -5.205 12
-4.308 -9.446 -5.211 20
-14.688 -41.017 -4.232 4
-13.496 -37.375 -4.265 6
-12.061 -33.145 -4.045 24
0.0 -0.0 3.0 0
-9.799 -26.504 -3.608 4
-9.869 -26.476 -4.094 13
-9.707 -25.844 -4.411 6
-9.236 -24.405 -4.461 6
-8.832 -23.148 -4.521 4
-8.434 -21.939 -4.554 7
-8.082 -20.844 -4.587 26
-7.757 -19.865 -4.626 9
-7.468 -18.97 -4.664 6
-7.191 -18.131 -4.696 6
-6.941 -17.358 -4.728 5
-6.711 -16.655 -4.766 8
-6.49 -15.977 -4.793 44
-6.303 -15.399 -4.846 8
-6.104 -14.797 -4.868 7
-5.926 -14.249 -4.898 9
-5.769 -13.764 -4.947 8
-5.61 -13.271 -4.974 8
-5.45 -12.793 -4.994 8
-5.312 -12.362 -5.028 9
-5.172 -11.941 -5.054 9
-5.044 -11.544 -5.083 8
-4.921 -11.169 -5.114 10
-4.803 -10.804 -5.142 10
-4.686 -10.453 -5.167 11
-4.569 -10.103 -5.182 13
-4.46 -9.771 -5.199 13
-4.349 -9.444 -5.21 22
-14.872 -41.133 -4.253 4
-13.642 -37.42 -4.274 6
-12.192 -33.182 -4.053 24
0.0 -0.0 3.0 0
-9.884 -26.478 -3.602 13
-9.962 -26.468 -4.092 8
-9.805 -25.854 -4.414 7
-9.328 -24.409 -4.463 6
-8.92 -23.153 -4.523 4
-8.52 -21.95 -4.558 8
-8.163 -20.848 -4.588 18
-7.83 -19.86 -4.624 8
-7.541 -18.973 -4.666 6
-7.261 -18.131 -4.696 7
-7.01 -17.361 -4.73 4
-6.775 -16.653 -4.766 8
-6.554 -15.979 -4.793 45
-6.366 -15.401 -4.847 8
-6.162 -14.794 -4.866 6
-5.984 -14.249 -4.899 9
-5.827 -13.768 -4.949 8
-5.665 -13.273 -4.975 8
-5.503 -12.792 -4.993 7
-5.364 -12.364 -5.029 9
-5.224 -11.943 -5.056 9
-5.093 -11.544 -5.083 10
-4.966 -11.163 -5.11 10
-4.848 -10.802 -5.14 11
-4.729 -10.447 -5.162 11
-4.613 -10.104 -5.182 12
-4.502 -9.769 -5.197 13
-4.39 -9.44 -5.206 19
-15.041 -41.207 -4.266 6
-13.792 -37.471 -4.284 6
-12.322 -33.22 -4.061 22
0.0 -0.0 3.0 0
-9.977 -26.471 -3.6 10
-10.046 -26.438 -4.084 6
-9.908 -25.876 -4.42 6
-9.426 -24.432 -4.47 6
-9.011 -23.166 -4.527 4
-8.61 -21.97 -4.565 8
-8.256 -20.884 -4.601 11
-7.91 -19.868 -4.627 9
-7.617 -18.978 -4.668 6
-7.333 -18.134 -4.697 8
-7.079 -17.365 -4.731 4
-6.841 -16.654 -4.766 8
-6.616 -15.974 -4.791 44
-6.423 -15.39 -4.842 8
-6.224 -14.8 -4.869 7
-6.043 -14.252 -4.9 9
-5.882 -13.765 -4.947 8
-5.719 -13.27 -4.974 8
-5.554 -12.787 -4.99 8
-5.416 -12.363 -5.029 8
-5.274 -11.943 -5.055 9
-5.141 -11.54 -5.08 8
-5.014 -11.162 -5.11 10
-4.895 -10.802 -5.14 11
-4.774 -10.445 -5.16 11
-4.658 -10.105 -5.183 10
-4.545 -9.768 -5.196 14
-4.432 -9.441 -5.207 20
-15.208 -41.273 -4.278 6
-13.952 -37.548 -4.299 8
-12.446 -33.238 -4.065 22
0.0 -0.0 3.0 0
-10.07 -26.466 -3.599 7
-10.16 -26.484 -4.096 2
-10.008 -25.889 -4.424 6
-9.52 -24.44 -4.472 6
-9.102 -23.179 -4.531 5
-8.697 -21.98 -4.568 13
-8.339 -20.895 -4.605 10
-7.99 -19.88 -4.631 9
-7.692 -18.984 -4.67 6
-7.406 -18.14 -4.7 6
-7.146 -17.362 -4.73 7
-6.909 -16.658 -4.768 8
-6.683 -15.982 -4.795 39
-6.487 -15.396 -4.845 8
-6.279 -14.789 -4.863 6
-6.101 -14.252 -4.9 8
-5.938 -13.762 -4.945 8
-5.774 -13.271 -4.974 8
-5.609 -12.791 -4.993 8
-5.464 -12.355 -5.023 9
-5.321 -11.935 -5.05 8
-5.191 -11.542 -5.082 9
-5.062 -11.162 -5.11 10
-4.941 -10.799 -5.137 11
-4.819 -10.445 -5.161 10
-4.7 -10.1 -5.179 12
-4.587 -9.765 -5.194 18
-4.473 -9.437 -5.203 16
-15.371 -41.324 -4.287 5
-14.095 -37.581 -4.305 5
-12.589 -33.303 -4.079 30
0.0 -0.0 3.0 0
-10.168 -26.472 -3.6 6
-10.24 -26.443 -4.085 2
-10.107 -25.899 -4.426 6
-9.616 -24.455 -4.477 5
-9.189 -23.181 -4.532 5
-8.777 -21.971 -4.565 20
-8.423 -20.905 -4.609 10
-8.068 -19.885 -4.633 8
-7.766 -18.986 -4.671 6
-7.476 -18.139 -4.7 6
-7.216 -17.365 -4.731 6
-6.972 -16.652 -4.765 8
-6.744 -15.977 -4.793 44
-6.548 -15.394 -4.844 9
-6.34 -14.791 -4.865 6
-6.16 -14.251 -4.9 8
-5.996 -13.766 -4.948 7
-5.826 -13.265 -4.971 8
-5.66 -12.785 -4.989 8
-5.518 -12.359 -5.026 9
-5.371 -11.933 -5.049 9
-5.237 -11.535 -5.077 10
-5.107 -11.155 -5.105 10
-4.988 -10.798 -5.137 11
-4.867 -10.448 -5.163 10
-4.745 -10.1 -5.179 11
-4.627 -9.758 -5.188 23
-4.514 -9.435 -5.202 21
-15.536 -41.381 -4.297 5
-14.252 -37.645 -4.317 5
-12.715 -33.324 -4.083 33
0.0 -0.0 3.0 0
-10.263 -26.471 -3.6 5
-10.36 -26.502 -4.101 14
-10.21 -25.919 -4.432 6
-9.714 -24.472 -4.482 6
-9.287 -23.206 -4.54 5
-8.86 -21.974 -4.566 29
-8.507 -20.916 -4.613 10
-8.148 -19.892 -4.636 7
-7.843 -18.994 -4.674 6
-7.551 -18.148 -4.704 5
-7.284 -17.365 -4.731 7
-7.041 -16.66 -4.769 8
-6.807 -15.974 -4.791 43
-6.606 -15.385 -4.839 8
-6.397 -14.783 -4.861 7
-6.216 -14.248 -4.898 8
-6.053 -13.765 -4.947 8
-5.883 -13.269 -4.973 8
-5.713 -12.783 -4.988 8
-5.568 -12.354 -5.023 9
-5.423 -11.935 -5.05 9
-5.288 -11.537 -5.078 10
-5.156 -11.158 -5.107 10
-5.032 -10.793 -5.133 10
-4.907 -10.436 -5.154 10
-4.788 -10.095 -5.175 12
-4.671 -9.758 -5.188 26
-4.553 -9.428 -5.195 18
-15.698 -41.427 -4.305 5
-14.408 -37.706 -4.329 6
-12.847 -33.36 -4.091 33
0.0 -0.0 3.0 0
-10.361 -26.477 -3.601 4
-10.447 -26.478 -4.095 13
-10.31 -25.932 -4.436 6
-9.81 -24.486 -4.486 5
-9.38 -23.221 -4.545 5
-8.944 -21.976 -4.567 19
-8.592 -20.929 -4.618 10
-8.227 -19.9 -4.639 8
-7.916 -18.992 -4.673 6
-7.621 -18.147 -4.703 6
-7.354 -17.368 -4.733 6
-7.108 -16.66 -4.769 7
-6.871 -15.975 -4.792 43
-6.669 -15.387 -4.84 9
-6.458 -14.785 -4.861 6
-6.274 -14.247 -4.897 5
-6.107 -13.758 -4.943 8
-5.937 -13.266 -4.971 8
-5.766 -12.781 -4.986 8
-5.62 -12.352 -5.022 9
-5.472 -11.931 -5.047 8
-5.334 -11.529 -5.073 10
-5.203 -11.154 -5.104 10
-5.08 -10.795 -5.134 11
-4.955 -10.439 -5.156 11
-4.833 -10.095 -5.175 10
-4.714 -9.756 -5.186 34
-4.598 -9.432 -5.199 22
-15.859 -41.469 -4.312 3
-14.564 -37.765 -4.341 5
-12.962 -33.35 -4.089 31
0.0 -0.0 3.0 0
-10.464 -26.493 -3.605 4
-10.546 -26.483 -4.096 27
-10.417 -25.958 -4.443 6
-9.907 -24.499 -4.49 5
-9.47 -23.229 -4.548 4
-9.039 -22.002 -4.576 8
-8.678 -20.942 -4.622 10
-8.307 -19.907 -4.641 9
-7.993 -19.0 -4.677 6
-7.693 -18.149 -4.704 6
-7.424 -17.37 -4.734 5
-7.174 -16.66 -4.769 8
-6.935 -15.973 -4.79 44
-6.732 -15.388 -4.84 8
-6.517 -14.781 -4.859 7
-6.333 -14.246 -4.897 8
-6.163 -13.758 -4.943 7
-5.993 -13.266 -4.971 8
-5.818 -12.778 -4.985 7
-5.67 -12.347 -5.018 9
-5.522 -11.929 -5.046 9
-5.383 -11.528 -5.072 10
-5.251 -11.153 -5.103 9
-5.124 -10.788 -5.129 11
-4.998 -10.434 -5.152 10
-4.875 -10.09 -5.17 10
-4.758 -9.757 -5.187 39
-4.639 -9.43 -5.197 22
-16.04 -41.562 -4.328 4
-14.718 -37.817 -4.351 5
-13.105 -33.41 -4.102 31
0.0 -0.0 3.0 0
-10.558 -26.487 -3.604 3
-10.657 -26.517 -4.105 20
-10.519 -25.974 -4.448 6
-10.006 -24.517 -4.495 6
-9.559 -23.233 -4.549 4
-9.13 -22.021 -4.583 8
-8.761 -20.948 -4.624 11
-8.387 -19.913 -4.644 9
-8.071 -19.008 -4.68 6
-7.767 -18.154 -4.706 6
-7.492 -17.37 -4.733 5
-7.239 -16.656 -4.767 8
-7.001 -15.976 -4.792 44
-6.795 -15.389 -4.841 8
-6.576 -14.779 -4.858 7
-6.388 -14.239 -4.893 8
-6.219 -13.754 -4.941 5
-6.047 -13.263 -4.969 8
-5.872 -12.779 -4.985 8
-5.723 -12.348 -5.019 9
-5.571 -11.924 -5.043 9
-5.431 -11.524 -5.069 11
-5.297 -11.149 -5.1 10
-5.173 -10.791 -5.132 11
-5.042 -10.43 -5.149 12
-4.917 -10.084 -5.166 12
-4.799 -9.751 -5.182 38
-4.681 -9.427 -5.195 18
-16.21 -41.624 -4.339 5
-14.872 -37.867 -4.361 6
-13.249 -33.473 -4.115 30
0.0 -0.0 3.0 0
-10.658 -26.495 -3.606 3
-10.745 -26.492 -4.098 2
-10.622 -25.989 -4.452 6
-10.098 -24.518 -4.496 6
-9.656 -23.254 -4.556 5
-9.219 -22.033 -4.587 7
-8.846 -20.961 -4.629 10
-8.466 -19.917 -4.645 9
-8.147 -19.011 -4.681 6
-7.839 -18.155 -4.706 8
-7.564 -17.375 -4.736 6
-7.309 -16.662 -4.77 8
-7.065 -15.976 -4.792 46
-6.855 -15.383 -4.838 8
-6.638 -14.781 -4.859 7
-6.448 -14.24 -4.894 8
-6.28 -13.763 -4.946 6
-6.101 -13.259 -4.967 8
-5.924 -12.772 -4.981 10
-5.776 -12.348 -5.019 8
-5.623 -11.925 -5.044 9
-5.481 -11.525 -5.07 11
-5.346 -11.148 -5.099 10
-5.217 -10.785 -5.127 11
-5.088 -10.429 -5.148 13
-4.962 -10.084 -5.166 11
-4.842 -9.748 -5.18 40
-4.721 -9.423 -5.191 16
-16.386 -41.701 -4.353 4
-15.029 -37.926 -4.372 5
-13.409 -33.572 -4.136 24
0.0 -0.0 3.0 0
-10.762 -26.513 -3.61 3
-10.866 -26.55 -4.114 3
-10.728 -26.011 -4.458 6
-10.2 -24.542 -4.503 6
-9.747 -23.26 -4.558 5
-9.304 -22.034 -4.587 7
-8.93 -20.966 -4.631 11
-8.544 -19.919 -4.646 16
-8.226 -19.023 -4.686 5
-7.915 -18.163 -4.71 6
-7.634 -17.377 -4.737 6
-7.375 -16.662 -4.769 8
-7.13 -15.976 -4.792 45
-6.92 -15.387 -4.84 8
-6.695 -14.772 -4.855 7
-6.505 -14.235 -4.891 9
-6.333 -13.753 -4.94 8
-6.157 -13.259 -4.967 8
-5.978 -12.772 -4.981 8
-5.826 -12.343 -5.015 9
-5.67 -11.916 -5.038 9
-5.529 -11.521 -5.067 10
-5.392 -11.144 -5.096 10
-5.263 -10.78 -5.124 12
-5.133 -10.426 -5.146 11
-5.007 -10.084 -5.166 10
-4.886 -9.749 -5.181 34
-4.766 -9.426 -5.194 20
-16.575 -41.806 -4.371 6
-15.184 -37.976 -4.382 5
-13.596 -33.736 -4.171 19
0.0 -0.0 3.0 0
-10.865 -26.528 -3.614 5
-10.951 -26.517 -4.105 1
-10.834 -26.032 -4.465 6
-10.298 -24.554 -4.507 6
-9.841 -23.273 -4.562 4
-9.393 -22.045 -4.591 7
-9.016 -20.978 -4.635 11
-8.628 -19.932 -4.651 7
-8.298 -19.015 -4.683 6
-7.987 -18.164 -4.71 6
-7.705 -17.382 -4.739 5
-7.441 -16.657 -4.767 8
-7.193 -15.973 -4.79 44
-6.981 -15.384 -4.839 8
-6.759 -14.779 -4.858 9
-6.56 -14.228 -4.886 8
-6.392 -13.754 -4.941 8
-6.211 -13.255 -4.964 8
-6.031 -12.769 -4.979 11
-5.878 -12.339 -5.013 9
-5.722 -11.918 -5.038 9
-5.579 -11.519 -5.065 9
-5.439 -11.139 -5.093 9
-5.311 -10.782 -5.125 10
-5.178 -10.423 -5.143 11
-5.049 -10.078 -5.161 12
-4.927 -9.743 -5.175 39
-4.803 -9.415 -5.185 17
-16.739 -41.845 -4.378 4
-15.344 -38.037 -4.394 5
-13.751 -33.818 -4.188 22
0.0 -0.0 3.0 0
-10.961 -26.524 -3.613 3
-11.061 -26.545 -4.113 2
-10.936 -26.043 -4.468 7
-10.395 -24.566 -4.511 6
-9.935 -23.286 -4.566 4
-9.485 -22.063 -4.597 7
-9.102 -20.989 -4.639 11
-8.711 -19.946 -4.656 8
-8.376 -19.022 -4.685 6
-8.059 -18.165 -4.711 6
-7.776 -17.383 -4.74 5
-7.507 -16.656 -4.767 7
-7.26 -15.975 -4.792 44
-7.043 -15.381 -4.837 9
-6.816 -14.771 -4.854 7
-6.622 -14.232 -4.889 7
-6.447 -13.749 -4.938 8
-6.267 -13.254 -4.964 8
-6.084 -12.766 -4.977 15
-5.929 -12.336 -5.011 9
-5.773 -11.915 -5.037 9
-5.626 -11.514 -5.062 9
-5.489 -11.141 -5.094 10
-5.356 -10.775 -5.12 11
-5.221 -10.416 -5.138 12
-5.095 -10.077 -5.16 10
-4.973 -9.746 -5.178 33
-4.847 -9.416 -5.185 17
-16.918 -41.923 -4.392 5
-15.498 -38.078 -4.402 6
-13.873 -33.817 -4.188 22
-11.091 -26.812 -3.19 0
-11.062 -26.531 -3.615 3
-11.155 -26.534 -4.11 2
-11.045 -26.07 -4.475 6
-10.496 -24.585 -4.516 5
-10.026 -23.293 -4.568 4
-9.573 -22.07 -4.599 8
-9.186 -20.994 -4.641 11
-8.793 -19.954 -4.66 9
-8.455 -19.032 -4.69 7
-8.135 -18.172 -4.713 6
-7.845 -17.381 -4.739 5
-7.576 -16.658 -4.768 7
-7.325 -15.975 -4.792 46
-7.106 -15.381 -4.837 8
-6.879 -14.774 -4.856 8
-6.679 -14.227 -4.886 8
-6.504 -13.749 -4.938 8
-6.321 -13.25 -4.961 8
-6.138 -12.766 -4.977 16
-5.981 -12.333 -5.009 9
-5.823 -11.913 -5.035 9
-5.674 -11.509 -5.058 9
-5.536 -11.136 -5.09 9
-5.404 -10.777 -5.121 11
-5.267 -10.416 -5.137 11
-5.137 -10.071 -5.156 12
-5.012 -9.738 -5.171 38
-4.888 -9.413 -5.182 16
-17.102 -42.007 -4.407 6
-15.664 -38.152 -4.416 5
-14.071 -34.001 -4.227 6
0.0 -0.0 3.0 0
-11.168 -26.552 -3.62 3
-11.261 -26.551 -4.114 2
-11.15 -26.088 -4.481 7
-10.596 -24.599 -4.521 5
-10.126 -23.315 -4.576 4
-9.666 -22.086 -4.605 8
-9.272 -21.005 -4.645 11
-8.871 -19.953 -4.659 9
-8.53 -19.031 -4.689 6
-8.209 -18.175 -4.715 6
-7.917 -17.386 -4.741 5
-7.647 -16.666 -4.772 8
-7.388 -15.971 -4.789 46
-7.167 -15.375 -4.834 8
-6.942 -14.778 -4.857 7
-6.737 -14.224 -4.885 5
-6.562 -13.746 -4.936 8
-6.377 -13.249 -4.961 8
-6.191 -12.762 -4.974 14
-6.034 -12.334 -5.01 9
-5.877 -11.916 -5.037 9
-5.725 -11.509 -5.059 9
-5.584 -11.134 -5.089 10
-5.449 -10.769 -5.115 11
-5.315 -10.417 -5.139 12
-5.182 -10.071 -5.155 10
-5.055 -9.734 -5.168 38
-4.93 -9.41 -5.18 18
-17.275 -42.065 -4.417 5
-15.832 -38.225 -4.43 5
-14.655 -35.103 -4.461 9
0.0 -0.0 3.0 0
-11.268 -26.554 -3.621 2
-11.356 -26.541 -4.112 2
-11.259 -26.111 -4.487 6
-10.694 -24.609 -4.524 6
-10.216 -23.317 -4.576 4
-9.753 -22.09 -4.606 9
-9.356 -21.009 -4.647 11
-8.953 -19.961 -4.662 9
-8.609 -19.037 -4.691 6
-8.285 -18.183 -4.718 6
-7.989 -17.39 -4.742 6
-7.713 -16.662 -4.769 7
-7.455 -15.974 -4.791 46
-7.233 -15.38 -4.836 8
-7.002 -14.775 -4.856 7
-6.799 -14.229 -4.887 8
-6.619 -13.745 -4.935 8
-6.431 -13.244 -4.958 8
-6.247 -12.764 -4.976 19
-6.087 -12.333 -5.009 8
-5.926 -11.91 -5.033 10
-5.775 -11.507 -5.057 9
-5.632 -11.132 -5.088 10
-5.496 -10.768 -5.114 13
-5.36 -10.413 -5.136 11
-5.229 -10.072 -5.156 12
-5.1 -9.734 -5.168 39
-4.971 -9.405 -5.175 17
-17.453 -42.131 -4.429 5
-15.996 -38.287 -4.442 4
-14.802 -35.149 -4.471 8
0.0 -0.0 3.0 0
-11.368 -26.56 -3.622 1
-11.468 -26.572 -4.12 2
-11.369 -26.137 -4.495 6
-10.797 -24.631 -4.53 6
-10.311 -23.329 -4.58 4
-9.841 -22.096 -4.608 8
-9.445 -21.023 -4.652 11
-9.037 -19.972 -4.667 9
-8.685 -19.04 -4.693 6
-8.357 -18.179 -4.717 6
-8.058 -17.387 -4.741 5
-7.781 -16.662 -4.77 8
-7.52 -15.972 -4.79 40
-7.297 -15.38 -4.837 8
-7.058 -14.762 -4.849 7
-6.855 -14.219 -4.882 7
-6.678 -13.746 -4.936 8
-6.489 -13.245 -4.959 8
-6.302 -12.763 -4.975 16
-6.139 -12.329 -5.007 9
-5.976 -11.907 -5.031 9
-5.825 -11.508 -5.058 8
-5.681 -11.13 -5.086 10
-5.543 -10.767 -5.113 12
-5.403 -10.406 -5.13 12
-5.271 -10.066 -5.151 12
-5.142 -9.731 -5.165 37
-5.014 -9.404 -5.175 17
-17.626 -42.185 -4.438 5
-16.157 -38.341 -4.453 5
-14.949 -35.192 -4.48 9
0.0 -0.0 3.0 0
-11.477 -26.583 -3.628 1
-11.569 -26.573 -4.12 2
-11.48 -26.164 -4.502 6
-10.897 -24.645 -4.535 6
-10.41 -23.35 -4.587 5
-9.933 -22.107 -4.612 7
-9.53 -21.03 -4.654 11
-9.118 -19.977 -4.669 15
-8.762 -19.042 -4.693 6
-8.434 -18.188 -4.721 6
-8.129 -17.387 -4.741 5
-7.848 -16.661 -4.769 8
-7.587 -15.974 -4.791 45
-7.362 -15.382 -4.837 8
-7.121 -14.766 -4.851 7
-6.918 -14.226 -4.886 8
-6.732 -13.737 -4.931 8
-6.542 -13.238 -4.954 8
-6.355 -12.759 -4.973 17
-6.191 -12.326 -5.005 8
-6.028 -11.907 -5.031 9
-5.873 -11.502 -5.054 9
-5.726 -11.122 -5.08 12
-5.591 -10.765 -5.112 12
-5.449 -10.405 -5.129 11
-5.313 -10.059 -5.146 11
-5.187 -9.73 -5.164 36
-5.051 -9.393 -5.166 17
-17.818 -42.281 -4.455 6
-16.333 -38.43 -4.47 5
-15.1 -35.245 -4.491 7
0.0 -0.0 3.0 0
-11.588 -26.609 -3.634 1
-11.671 -26.577 -4.121 2
-11.586 -26.179 -4.507 6
-11.004 -24.672 -4.543 6
-10.507 -23.365 -4.592 4
-10.024 -22.12 -4.617 8
-9.616 -21.036 -4.656 11
-9.196 -19.974 -4.667 30
-8.843 -19.05 -4.697 6
-8.509 -18.191 -4.722 6
-8.203 -17.394 -4.744 5
-7.919 -16.664 -4.771 8
-7.65 -15.969 -4.789 40
-7.426 -15.381 -4.837 5
-7.183 -14.765 -4.851 7
-6.974 -14.217 -4.881 8
-6.791 -13.738 -4.932 8
-6.599 -13.239 -4.955 8
-6.408 -12.754 -4.97 25
-6.244 -12.325 -5.004 8
-6.076 -11.897 -5.025 10
-5.921 -11.496 -5.049 8
-5.776 -11.122 -5.081 11
-5.638 -10.762 -5.11 11
-5.494 -10.4 -5.125 11
-5.359 -10.058 -5.145 12
-5.23 -9.727 -5.162 37
-5.096 -9.395 -5.167 16
-18.003 -42.359 -4.469 5
-16.511 -38.519 -4.487 5
-15.245 -35.282 -4.499 8
0.0 -0.0 3.0 0
-11.693 -26.622 -3.638 1
-11.779 -26.596 -4.126 2
-11.697 -26.205 -4.514 6
-11.103 -24.681 -4.546 6
-10.599 -23.369 -4.593 4
-10.115 -22.129 -4.62 7
-9.707 -21.052 -4.662 10
-9.276 -19.975 -4.668 31
-8.917 -19.045 -4.695 6
-8.582 -18.19 -4.721 6
-8.272 -17.391 -4.743 5
-7.989 -16.669 -4.773 8
-7.716 -15.967 -4.788 14
-7.489 -15.38 -4.837 8
-7.242 -14.758 -4.847 9
-7.034 -14.217 -4.881 9
-6.849 -13.736 -4.93 8
-6.655 -13.238 -4.954 8
-6.462 -12.753 -4.969 19
-6.293 -12.315 -4.998 8
-6.13 -11.9 -5.027 9
-5.974 -11.499 -5.051 6
-5.824 -11.119 -5.079 10
-5.682 -10.755 -5.104 12
-5.541 -10.398 -5.124 11
-5.404 -10.057 -5.144 11
-5.272 -9.723 -5.159 36
-4.769 -8.717 -4.578 1
-18.184 -42.425 -4.481 4
-16.678 -38.581 -4.499 4
-15.404 -35.348 -4.514 7
0.0 -0.0 3.0 0
-11.796 -26.629 -3.639 1
-11.88 -26.597 -4.127 2
-11.805 -26.222 -4.519 6
-11.202 -24.691 -4.549 5
-10.695 -23.379 -4.596 5
-10.201 -22.127 -4.619 7
-9.788 -21.048 -4.661 11
-9.356 -19.975 -4.668 18
-9.0 -19.059 -4.7 7
-8.654 -18.186 -4.719 6
-8.346 -17.397 -4.746 4
-8.058 -16.669 -4.773 8
-7.789 -15.982 -4.795 9
-7.553 -15.378 -4.836 8
-7.306 -14.76 -4.848 8
-7.091 -14.211 -4.877 9
-6.903 -13.726 -4.925 8
-6.71 -13.232 -4.95 8
-6.517 -12.751 -4.968 21
-6.35 -12.321 -5.001 8
-6.179 -11.893 -5.022 9
-6.022 -11.492 -5.047 6
-5.873 -11.118 -5.077 11
-5.73 -10.752 -5.102 11
-5.585 -10.394 -5.121 12
-5.448 -10.053 -5.141 12
-5.318 -9.725 -5.16 32
-4.719 -8.553 -4.435 3
-18.356 -42.469 -4.488 3
-16.834 -38.615 -4.506 4
-15.56 -35.407 -4.526 7
0.0 -0.0 3.0 0
-11.907 -26.655 -3.646 1
-11.987 -26.611 -4.13 2
-11.92 -26.254 -4.528 6
-11.306 -24.71 -4.555 6
-10.789 -23.385 -4.598 5
-10.296 -22.145 -4.625 8
-9.879 -21.064 -4.667 13
-9.449 -20.002 -4.678 9
-9.079 -19.064 -4.702 6
-8.73 -18.19 -4.721 6
-8.417 -17.396 -4.745 5
-8.129 -16.672 -4.774 8
-7.855 -15.979 -4.793 9
-7.617 -15.377 -4.835 8
-7.366 -14.756 -4.846 8
-7.154 -14.214 -4.879 9
-6.962 -13.726 -4.925 8
-6.766 -13.229 -4.949 8
-6.57 -12.747 -4.965 26
-6.402 -12.316 -4.998 8
-6.231 -11.893 -5.022 9
-6.073 -11.492 -5.047 7
-5.921 -11.114 -5.075 9
-5.779 -10.753 -5.103 12
-5.633 -10.395 -5.122 11
-5.493 -10.051 -5.139 11
-4.712 -8.544 -4.169 5
-4.714 -8.473 -4.365 5
-18.549 -42.559 -4.504 17
-17.007 -38.687 -4.52 6
-15.721 -35.474 -4.54 6
-14.595 -32.657 -4.539 7
-12.012 -26.665 -3.648 1
-12.091 -26.617 -4.132 2
-12.027 -26.268 -4.532 6
-11.413 -24.732 -4.561 5
-10.887 -23.398 -4.603 5
-10.389 -22.156 -4.629 8
-9.963 -21.065 -4.667 19
-9.534 -20.012 -4.682 9
-9.16 -19.071 -4.705 6
-8.807 -18.195 -4.723 6
-8.493 -17.405 -4.749 5
-8.198 -16.672 -4.774 6
-7.925 -15.986 -4.797 9
-7.681 -15.375 -4.834 8
-7.428 -14.755 -4.846 8
-7.213 -14.21 -4.877 8
-7.02 -13.724 -4.924 8
-6.821 -13.224 -4.946 8
-6.624 -12.742 -4.962 23
-6.454 -12.311 -4.995 8
-6.282 -11.889 -5.019 9
-6.125 -11.492 -5.047 9
-5.97 -11.112 -5.073 9
-5.823 -10.745 -5.097 11
-5.678 -10.39 -5.118 11
-4.755 -8.626 -3.986 3
-4.713 -8.474 -4.11 5
-4.743 -8.454 -4.349 5
-18.723 -42.605 -4.512 14
-17.18 -38.759 -4.534 6
-15.865 -35.504 -4.547 7
-14.728 -32.681 -4.545 6
-12.121 -26.683 -3.653 1
-12.201 -26.634 -4.137 2
-12.139 -26.292 -4.539 6
-11.517 -24.75 -4.567 5
-10.983 -23.409 -4.606 4
-10.48 -22.163 -4.631 7
-10.045 -21.06 -4.665 18
-9.617 -20.018 -4.684 7
-9.236 -19.067 -4.704 6
-8.884 -18.201 -4.726 6
-8.568 -17.411 -4.752 5
-8.267 -16.672 -4.774 8
-7.989 -15.98 -4.794 9
-7.745 -15.373 -4.833 8
-7.494 -14.761 -4.848 7
-7.273 -14.21 -4.876 6
-7.079 -13.723 -4.923 8
-6.878 -13.225 -4.946 8
-6.679 -12.74 -4.961 31
-6.509 -12.313 -4.996 8
-6.335 -11.888 -5.018 9
-6.171 -11.483 -5.04 9
-6.015 -11.102 -5.066 10
-5.872 -10.745 -5.097 10
-5.725 -10.388 -5.116 12
-4.712 -8.478 -3.866 5
-4.721 -8.418 -4.064 5
-4.781 -8.451 -4.346 5
-18.897 -42.647 -4.52 7
-17.345 -38.808 -4.544 5
-16.033 -35.584 -4.564 7
-14.866 -32.716 -4.553 7
0.0 -0.0 3.0 0
-12.305 -26.639 -4.138 1
-12.253 -26.318 -4.547 6
-11.624 -24.771 -4.573 5
-11.079 -23.417 -4.609 4
-10.574 -22.177 -4.636 7
-10.135 -21.072 -4.669 15
-9.702 -20.027 -4.688 8
-9.318 -19.078 -4.708 6
-8.96 -18.204 -4.727 6
-8.639 -17.41 -4.751 5
-8.338 -16.675 -4.776 8
-8.058 -15.983 -4.796 8
-7.809 -15.37 -4.832 8
-7.551 -14.749 -4.842 8
-7.332 -14.205 -4.874 8
-7.137 -13.72 -4.921 8
-6.933 -13.219 -4.943 8
-6.737 -12.743 -4.963 34
-6.56 -12.305 -4.991 8
-6.385 -11.883 -5.015 9
-6.221 -11.479 -5.038 8
-6.067 -11.105 -5.069 9
-5.918 -10.74 -5.093 11
-4.719 -8.492 -3.634 4
-4.713 -8.411 -3.811 5
-4.762 -8.421 -4.066 5
-4.761 -8.346 -4.255 6
-19.092 -42.735 -4.535 3
-17.521 -38.882 -4.558 7
-16.196 -35.651 -4.578 9
-15.008 -32.756 -4.562 7
0.0 -0.0 3.0 0
-12.415 -26.656 -4.142 2
-12.367 -26.345 -4.554 5
-11.724 -24.779 -4.576 6
-11.179 -23.433 -4.614 5
-10.667 -22.187 -4.64 8
-10.226 -21.086 -4.675 11
-9.781 -20.023 -4.686 9
-9.398 -19.082 -4.709 7
-9.037 -18.209 -4.729 6
-8.711 -17.408 -4.751 4
-8.408 -16.674 -4.775 8
-8.122 -15.977 -4.793 9
-7.871 -15.365 -4.829 8
-7.617 -14.754 -4.845 7
-7.395 -14.207 -4.875 8
-7.195 -13.717 -4.919 7
-6.989 -13.216 -4.941 8
-6.79 -12.738 -4.96 32
-6.615 -12.307 -4.992 9
-6.436 -11.879 -5.013 9
-6.272 -11.478 -5.037 8
-6.116 -11.102 -5.066 8
-4.762 -8.57 -3.458 2
-4.714 -8.414 -3.574 5
-4.732 -8.374 -3.781 4
-4.768 -8.362 -4.017 4
-4.796 -8.338 -4.249 17
0.0 -0.0 3.0 0
-17.69 -38.937 -4.569 6
-16.348 -35.691 -4.586 9
-15.153 -32.804 -4.573 7
0.0 -0.0 3.0 0
-12.523 -26.668 -4.146 1
-12.482 -26.371 -4.562 6
-11.831 -24.8 -4.582 6
-11.274 -23.437 -4.615 5
-10.764 -22.203 -4.645 17
-10.318 -21.1 -4.68 11
-9.872 -20.041 -4.693 9
-9.479 -19.087 -4.712 6
-9.116 -18.216 -4.732 6
-8.782 -17.406 -4.75 4
-8.481 -16.68 -4.778 7
-8.191 -15.981 -4.794 9
-7.937 -15.365 -4.829 8
-7.677 -14.749 -4.842 7
-7.454 -14.203 -4.873 8
-7.254 -13.716 -4.919 8
-7.046 -13.213 -4.939 8
-6.845 -12.735 -4.958 35
-6.669 -12.305 -4.991 8
-6.489 -11.877 -5.011 9
-6.325 -11.48 -5.038 8
-6.166 -11.102 -5.066 9
-4.803 -8.573 -3.46 7
-4.719 -8.354 -3.527 4
-4.774 -8.379 -3.786 5
-4.777 -8.309 -3.972 9
-4.832 -8.332 -4.243 6
0.0 -0.0 3.0 0
-17.859 -38.992 -4.579 5
-16.498 -35.729 -4.594 11
-15.294 -32.84 -4.582 7
-12.471 -26.564 -3.623 1
-12.631 -26.68 -4.149 2
-12.6 -26.404 -4.571 6
-11.936 -24.816 -4.587 5
-11.381 -23.467 -4.625 5
-10.847 -22.192 -4.641 24
-10.405 -21.104 -4.681 9
-9.957 -20.049 -4.696 9
-9.559 -19.09 -4.713 6
-9.193 -18.219 -4.734 6
-8.855 -17.407 -4.75 4
-8.548 -16.675 -4.776 6
-8.257 -15.976 -4.792 9
-8.001 -15.363 -4.828 8
-7.745 -14.757 -4.846 7
-7.515 -14.201 -4.872 5
-7.312 -13.712 -4.917 8
-7.102 -13.209 -4.937 8
-6.9 -12.733 -4.957 41
-6.723 -12.302 -4.989 8
-6.541 -11.876 -5.011 10
-6.373 -11.473 -5.034 9
-6.213 -11.095 -5.061 10
-4.841 -8.57 -3.458 7
-4.752 -8.342 -3.518 5
-4.754 -8.277 -3.703 5
-4.796 -8.276 -3.944 9
-4.867 -8.325 -4.237 6
0.0 -0.0 3.0 0
-18.036 -39.06 -4.593 6
-16.643 -35.75 -4.599 6
-15.434 -32.873 -4.589 6
-12.667 -26.763 -3.673 1
-12.735 -26.681 -4.149 2
-12.715 -26.429 -4.579 6
-12.039 -24.826 -4.59 5
-11.474 -23.467 -4.625 5
-10.939 -22.198 -4.643 21
-10.494 -21.111 -4.684 8
-10.042 -20.054 -4.698 7
-9.639 -19.092 -4.714 6
-9.271 -18.223 -4.735 6
-8.929 -17.408 -4.751 4
-8.621 -16.681 -4.778 8
-8.328 -15.983 -4.795 9
-8.065 -15.36 -4.826 9
-7.802 -14.744 -4.84 7
-7.572 -14.193 -4.868 7
-7.372 -13.711 -4.916 8
-7.159 -13.205 -4.935 8
-6.957 -12.734 -4.957 41
-6.773 -12.294 -4.984 8
-6.594 -11.874 -5.009 9
-6.425 -11.472 -5.033 8
-6.264 -11.094 -5.06 9
-4.882 -8.572 -3.46 8
-4.787 -8.337 -3.513 5
-4.787 -8.266 -3.694 5
-4.829 -8.265 -3.935 8
-4.906 -8.324 -4.236 5
0.0 -0.0 3.0 0
-18.209 -39.121 -4.604 5
-16.805 -35.811 -4.612 6
-15.587 -32.932 -4.603 5
-12.812 -26.852 -3.695 0
-12.847 -26.699 -4.154 2
-12.831 -26.454 -4.586 4
-12.151 -24.856 -4.599 5
-11.577 -23.484 -4.63 5
-11.034 -22.209 -4.647 8
-10.586 -21.124 -4.688 9
-10.122 -20.051 -4.697 8
-9.72 -19.098 -4.716 6
-9.35 -18.229 -4.738 6
-9.004 -17.413 -4.753 5
-8.691 -16.679 -4.777 6
-8.396 -15.982 -4.795 9
-8.131 -15.36 -4.826 8
-7.865 -14.742 -4.838 7
-7.635 -14.194 -4.868 9
-7.43 -13.706 -4.913 8
-7.214 -13.199 -4.93 8
-7.014 -12.733 -4.956 39
-6.832 -12.301 -4.988 9
-6.647 -11.872 -5.008 10
-6.471 -11.462 -5.026 8
-6.311 -11.087 -5.055 9
-4.921 -8.572 -3.46 8
-4.771 -8.242 -3.439 7
-4.824 -8.264 -3.692 5
-4.883 -8.29 -3.956 6
-4.942 -8.319 -4.232 5
0.0 -0.0 3.0 0
-18.388 -39.192 -4.618 5
-16.967 -35.868 -4.624 6
-15.748 -33.006 -4.62 6
0.0 -0.0 3.0 0
-12.956 -26.709 -4.157 3
-12.938 -26.461 -4.588 5
-12.258 -24.872 -4.604 6
-11.674 -23.491 -4.633 5
-11.131 -22.225 -4.653 7
-10.677 -21.134 -4.692 9
-10.21 -20.063 -4.701 9
-9.797 -19.093 -4.714 6
-9.424 -18.226 -4.736 6
-9.078 -17.413 -4.753 5
-8.763 -16.68 -4.778 6
-8.464 -15.981 -4.794 9
-8.198 -15.359 -4.826 8
-7.929 -14.743 -4.839 6
-7.694 -14.189 -4.865 9
-7.489 -13.705 -4.912 8
-7.274 -13.201 -4.932 8
-7.066 -12.724 -4.951 42
-6.886 -12.298 -4.986 8
-6.698 -11.867 -5.004 9
-6.526 -11.466 -5.029 8
-6.36 -11.083 -5.052 9
-4.958 -8.566 -3.455 8
-4.816 -8.254 -3.448 6
-4.859 -8.258 -3.687 5
-4.918 -8.284 -3.951 6
-4.987 -8.327 -4.238 5
0.0 -0.0 3.0 0
-18.568 -39.261 -4.632 5
-17.133 -35.93 -4.637 15
-15.894 -33.047 -4.629 6
0.0 -0.0 3.0 0
-13.068 -26.726 -4.161 7
-13.056 -26.489 -4.595 5
-12.361 -24.88 -4.607 5
-11.775 -23.505 -4.637 5
-11.225 -22.233 -4.656 7
-10.766 -21.14 -4.694 8
-10.295 -20.066 -4.703 7
-9.884 -19.108 -4.72 6
-9.502 -18.228 -4.737 6
-9.153 -17.416 -4.754 6
-8.834 -16.682 -4.779 6
-8.534 -15.983 -4.795 11
-8.262 -15.356 -4.824 8
-7.992 -14.739 -4.837 7
-7.757 -14.19 -4.866 9
-7.551 -13.707 -4.913 8
-7.327 -13.191 -4.926 9
-7.123 -12.723 -4.95 39
-6.937 -12.289 -4.98 8
-6.751 -11.865 -5.003 9
-6.578 -11.464 -5.027 9
-6.41 -11.082 -5.052 10
-4.994 -8.56 -3.45 8
-4.857 -8.256 -3.45 7
-4.893 -8.249 -3.68 5
-4.959 -8.287 -3.954 6
-5.028 -8.329 -4.241 5
0.0 -0.0 3.0 0
-18.76 -39.355 -4.65 5
-17.28 -35.954 -4.642 13
-16.052 -33.113 -4.645 5
0.0 -0.0 3.0 0
-13.179 -26.74 -4.165 8
-13.18 -26.529 -4.607 5
-12.478 -24.916 -4.617 5
-11.878 -23.522 -4.643 5
-11.319 -22.24 -4.658 7
-10.852 -21.138 -4.694 9
-10.383 -20.076 -4.707 7
-9.964 -19.109 -4.721 7
-9.583 -18.237 -4.741 6
-9.229 -17.42 -4.756 6
-8.903 -16.675 -4.776 8
-8.605 -15.988 -4.798 9
-8.332 -15.361 -4.827 7
-8.06 -14.746 -4.841 7
-7.82 -14.191 -4.866 9
-7.609 -13.702 -4.911 8
-7.383 -13.186 -4.923 9
-7.18 -12.723 -4.95 41
-6.991 -12.286 -4.979 8
-6.804 -11.863 -5.002 9
-6.626 -11.456 -5.022 9
-6.461 -11.081 -5.051 10
-5.032 -8.556 -3.448 8
-4.897 -8.258 -3.452 7
-4.932 -8.248 -3.679 4
-4.999 -8.286 -3.953 6
-5.07 -8.332 -4.243 5
0.0 -0.0 3.0 0
-18.936 -39.413 -4.661 5
-17.433 -35.987 -4.649 6
-16.197 -33.149 -4.653 16
0.0 -0.0 3.0 0
-13.292 -26.756 -4.169 4
-13.295 -26.549 -4.613 5
-12.591 -24.945 -4.626 2
-11.986 -23.547 -4.651 4
-11.415 -22.251 -4.662 7
-10.949 -21.157 -4.701 11
-10.466 -20.076 -4.707 7
-10.044 -19.11 -4.721 7
-9.659 -18.236 -4.741 6
-9.302 -17.419 -4.755 6
-8.974 -16.676 -4.776 7
-8.671 -15.983 -4.795 8
-8.396 -15.357 -4.825 8
-8.123 -14.743 -4.839 8
-7.882 -14.189 -4.865 8
-7.667 -13.697 -4.908 8
-7.444 -13.188 -4.924 9
-7.231 -12.713 -4.944 41
-7.045 -12.283 -4.977 8
-6.853 -11.854 -4.996 9
-6.676 -11.451 -5.018 9
-6.508 -11.074 -5.046 10
-5.063 -8.54 -3.436 8
-4.936 -8.258 -3.452 9
-4.969 -8.245 -3.677 5
-5.041 -8.291 -3.957 5
-5.113 -8.336 -4.247 6
0.0 -0.0 3.0 0
-19.125 -39.495 -4.677 4
-17.614 -36.075 -4.668 7
-16.338 -33.174 -4.659 15
0.0 -0.0 3.0 0
-13.447 -26.856 -4.196 2
-13.416 -26.578 -4.621 4
-12.704 -24.969 -4.634 1
-12.084 -23.553 -4.653 4
-11.512 -22.262 -4.665 7
-11.039 -21.162 -4.702 12
-10.554 -20.086 -4.71 8
-10.13 -19.12 -4.725 7
-9.737 -18.238 -4.742 6
-9.376 -17.419 -4.755 6
-9.048 -16.68 -4.778 8
-8.74 -15.981 -4.794 9
-8.464 -15.359 -4.826 8
-8.184 -14.736 -4.835 7
-7.939 -14.179 -4.86 9
-7.729 -13.698 -4.908 8
-7.502 -13.187 -4.924 9
-7.289 -12.712 -4.944 39
-7.101 -12.283 -4.976 8
-6.908 -11.854 -4.996 9
-6.73 -11.453 -5.019 9
-6.562 -11.078 -5.049 10
-5.092 -8.522 -3.422 8
-4.969 -8.25 -3.445 7
-5.01 -8.248 -3.679 4
-5.086 -8.299 -3.964 6
-5.161 -8.349 -4.258 5
0.0 -0.0 3.0 0
-19.315 -39.579 -4.693 5
-17.787 -36.147 -4.683 6
-16.482 -33.206 -4.666 9
-15.362 -30.7 -4.654 5
-13.505 -26.76 -4.17 1
-13.536 -26.608 -4.63 5
-12.824 -25.006 -4.645 2
-12.186 -23.565 -4.657 4
-11.61 -22.275 -4.67 8
-11.127 -21.163 -4.703 11
-10.643 -20.095 -4.714 7
-10.216 -19.131 -4.729 7
-9.819 -18.245 -4.745 6
-9.454 -17.425 -4.758 5
-9.124 -16.686 -4.781 8
-8.81 -15.982 -4.795 9
-8.533 -15.361 -4.827 8
-8.25 -14.739 -4.837 7
-8.004 -14.183 -4.862 9
-7.785 -13.689 -4.903 8
-7.557 -13.18 -4.919 8
-7.346 -12.711 -4.943 39
-7.155 -12.279 -4.974 8
-6.962 -11.855 -4.996 9
-6.783 -11.453 -5.02 6
-6.609 -11.07 -5.043 9
-5.123 -8.507 -3.411 8
-5.006 -8.246 -3.443 7
-5.05 -8.25 -3.681 4
-5.127 -8.301 -3.966 5
-5.206 -8.357 -4.265 4
0.0 -0.0 3.0 0
-19.495 -39.639 -4.705 5
-17.951 -36.2 -4.694 6
-16.63 -33.245 -4.675 7
-15.508 -30.752 -4.667 6
-13.631 -26.799 -4.181 0
-13.654 -26.628 -4.636 5
-12.922 -25.003 -4.644 5
-12.293 -23.587 -4.664 5
-11.708 -22.288 -4.674 7
-11.222 -21.177 -4.708 12
-10.732 -20.103 -4.717 7
-10.299 -19.135 -4.731 7
-9.901 -18.254 -4.748 6
-9.53 -17.426 -4.759 6
-9.196 -16.686 -4.781 6
-8.881 -15.985 -4.797 9
-8.598 -15.356 -4.824 8
-8.313 -14.734 -4.834 8
-8.067 -14.183 -4.862 9
-7.849 -13.693 -4.905 8
-7.617 -13.181 -4.92 8
-7.405 -12.713 -4.944 38
-7.206 -12.27 -4.968 8
-7.014 -11.848 -4.992 9
-6.835 -11.451 -5.018 9
-6.663 -11.074 -5.045 9
-5.155 -8.495 -3.401 8
-5.033 -8.225 -3.426 7
-5.093 -8.255 -3.685 4
-5.175 -8.314 -3.977 5
-5.261 -8.381 -4.286 3
0.0 -0.0 3.0 0
-19.685 -39.719 -4.72 5
-18.118 -36.255 -4.706 6
-16.792 -33.311 -4.69 6
-15.639 -30.771 -4.672 6
0.0 -0.0 3.0 0
-13.777 -26.661 -4.645 6
-13.03 -25.015 -4.648 5
-12.397 -23.601 -4.668 5
-11.803 -22.294 -4.676 7
-11.312 -21.181 -4.709 11
-10.819 -20.109 -4.719 8
-10.379 -19.134 -4.731 7
-9.977 -18.251 -4.747 6
-9.606 -17.428 -4.76 6
-9.266 -16.682 -4.779 7
-8.95 -15.983 -4.795 9
-8.664 -15.354 -4.823 8
-8.38 -14.737 -4.836 7
-8.131 -14.182 -4.861 8
-7.907 -13.687 -4.902 8
-7.673 -13.172 -4.915 9
-7.457 -12.702 -4.937 35
-7.264 -12.272 -4.97 9
-7.068 -11.848 -4.992 9
-6.885 -11.445 -5.014 9
-6.707 -11.06 -5.036 9
-5.189 -8.485 -3.394 8
-5.07 -8.222 -3.423 6
-5.141 -8.268 -3.696 5
-5.223 -8.327 -3.987 5
-5.315 -8.401 -4.303 7
0.0 -0.0 3.0 0
-19.881 -39.808 -4.738 5
-18.293 -36.323 -4.721 5
-16.962 -33.39 -4.709 6
-15.781 -30.812 -4.682 5
-14.775 -28.602 -4.664 4
-13.898 -26.689 -4.653 5
-13.136 -25.025 -4.651 5
-12.503 -23.619 -4.674 4
-11.904 -22.31 -4.682 7
-11.402 -21.185 -4.711 9
-10.906 -20.114 -4.721 8
-10.462 -19.137 -4.732 7
-10.058 -18.255 -4.749 6
-9.68 -17.427 -4.759 6
-9.342 -16.689 -4.782 6
-9.02 -15.984 -4.796 9
-8.731 -15.352 -4.822 8
-8.447 -14.739 -4.837 7
-8.191 -14.175 -4.858 9
-7.968 -13.684 -4.9 8
-7.733 -13.173 -4.915 8
-7.516 -12.704 -4.938 35
-7.318 -12.267 -4.967 8
-7.12 -11.842 -4.987 9
-6.939 -11.445 -5.014 9
-6.762 -11.064 -5.038 10
-5.224 -8.475 -3.386 8
-5.108 -8.221 -3.423 5
-5.182 -8.27 -3.697 5
-5.279 -8.351 -4.007 4
-5.787 -9.078 -4.891 9
0.0 -0.0 3.0 0
-20.069 -39.879 -4.752 4
-18.463 -36.381 -4.733 5
-17.104 -33.412 -4.714 6
-15.927 -30.858 -4.694 5
-14.904 -28.63 -4.671 5
-14.016 -26.708 -4.659 5
-13.25 -25.047 -4.658 5
-12.605 -23.629 -4.678 4
-12.001 -22.319 -4.685 7
-11.497 -21.195 -4.714 9
-10.996 -20.122 -4.724 10
-10.547 -19.142 -4.734 7
-10.144 -18.269 -4.755 6
-9.764 -17.442 -4.766 6
-9.418 -16.694 -4.785 8
-9.092 -15.986 -4.797 9
-8.799 -15.353 -4.823 8
-8.51 -14.734 -4.834 7
-8.252 -14.172 -4.856 8
-8.028 -13.681 -4.899 8
-7.792 -13.17 -4.914 8
-7.572 -12.699 -4.935 36
-7.374 -12.267 -4.966 8
-7.178 -11.848 -4.991 9
-6.989 -11.439 -5.01 9
-6.811 -11.059 -5.035 10
-5.263 -8.474 -3.386 8
-5.154 -8.231 -3.431 5
-5.235 -8.291 -3.714 4
-5.325 -8.361 -4.016 0
-5.828 -9.073 -4.887 9
0.0 -0.0 3.0 0
-20.297 -40.026 -4.78 4
-18.635 -36.442 -4.746 5
-17.27 -33.479 -4.729 5
-16.064 -30.887 -4.701 5
-15.031 -28.655 -4.678 4
-14.138 -26.735 -4.666 5
-13.362 -25.065 -4.663 5
-12.71 -23.642 -4.682 4
-12.094 -22.32 -4.686 8
-11.589 -21.201 -4.717 12
-11.09 -20.14 -4.731 13
-10.632 -19.148 -4.736 7
-10.22 -18.265 -4.753 6
-9.837 -17.437 -4.763 6
-9.489 -16.69 -4.783 6
-9.163 -15.986 -4.797 9
-8.868 -15.354 -4.823 8
-8.573 -14.729 -4.832 7
-8.317 -14.174 -4.857 8
-8.086 -13.674 -4.895 8
-7.851 -13.168 -4.912 8
-7.629 -12.698 -4.934 31
-7.427 -12.259 -4.961 9
-7.224 -11.832 -4.981 9
-7.039 -11.433 -5.006 8
-6.862 -11.056 -5.033 10
-5.305 -8.475 -3.386 8
-5.197 -8.236 -3.434 5
-5.287 -8.31 -3.729 3
-6.198 -9.657 -5.103 17
-5.87 -9.068 -4.883 9
0.0 -0.0 3.0 0
-20.473 -40.067 -4.788 5
-18.818 -36.522 -4.763 6
-17.443 -33.56 -4.748 11
-16.194 -30.901 -4.705 6
-15.168 -28.696 -4.689 4
-14.254 -26.748 -4.67 5
-13.476 -25.087 -4.67 5
-12.813 -23.653 -4.685 4
-12.199 -22.342 -4.693 8
-11.681 -21.207 -4.719 9
-11.167 -20.123 -4.724 24
-10.717 -19.154 -4.739 7
-10.303 -18.271 -4.756 6
-9.913 -17.437 -4.764 6
-9.565 -16.695 -4.785 6
-9.235 -15.989 -4.798 9
-8.935 -15.351 -4.822 8
-8.638 -14.728 -4.831 7
-8.381 -14.173 -4.856 8
-8.147 -13.671 -4.893 8
-7.91 -13.165 -4.91 8
-7.688 -12.698 -4.935 32
-7.487 -12.264 -4.964 9
-7.279 -11.831 -4.98 8
-7.091 -11.43 -5.003 8
-6.911 -11.05 -5.029 9
-5.341 -8.468 -3.381 8
-5.252 -8.26 -3.453 4
-6.398 -9.98 -5.082 39
-6.24 -9.648 -5.096 18
-5.913 -9.065 -4.88 11
0.0 -0.0 3.0 0
-20.688 -40.185 -4.811 6
-19.008 -36.613 -4.782 5
-17.6 -33.605 -4.758 17
-16.347 -30.956 -4.718 5
-15.307 -28.74 -4.701 4
-14.384 -26.788 -4.681 5
-13.593 -25.111 -4.677 5
-12.925 -23.678 -4.694 4
-12.299 -22.352 -4.696 7
-11.774 -21.213 -4.721 10
-11.255 -20.127 -4.726 22
-10.802 -19.158 -4.741 7
-10.384 -18.274 -4.757 6
-9.992 -17.441 -4.765 6
-9.639 -16.697 -4.786 8
-9.306 -15.988 -4.798 9
-9.004 -15.351 -4.822 9
-8.707 -14.731 -4.833 4
-8.445 -14.172 -4.855 8
-8.213 -13.677 -4.896 8
-7.968 -13.162 -4.909 8
-7.742 -12.69 -4.929 25
-7.539 -12.257 -4.96 8
-7.336 -11.833 -4.982 8
-7.143 -11.426 -5.001 8
-6.96 -11.045 -5.025 10
-5.373 -8.455 -3.371 1
-5.305 -8.281 -3.47 3
-6.446 -9.98 -5.081 40
-6.287 -9.648 -5.096 22
-5.954 -9.06 -4.876 9
0.0 -0.0 3.0 0
-20.893 -40.281 -4.83 6
-19.174 -36.657 -4.792 6
-17.752 -33.643 -4.767 22
-16.494 -31.0 -4.729 5
-15.437 -28.766 -4.708 4
-14.507 -26.812 -4.688 5
-13.709 -25.135 -4.685 5
-13.027 -23.684 -4.695 4
-12.395 -22.356 -4.698 7
-11.876 -21.234 -4.729 14
-11.343 -20.13 -4.727 15
-10.889 -19.166 -4.744 7
-10.463 -18.273 -4.757 6
-10.068 -17.441 -4.765 6
-9.714 -16.698 -4.786 8
-9.38 -15.994 -4.801 9
-9.075 -15.354 -4.823 8
-8.771 -14.726 -4.83 7
-8.505 -14.164 -4.851 7
-8.275 -13.676 -4.896 8
-8.031 -13.165 -4.911 8
-7.804 -12.694 -4.932 23
-7.594 -12.251 -4.956 9
-7.389 -11.829 -4.979 7
-7.195 -11.423 -4.998 8
-7.014 -11.048 -5.027 10
-6.838 -10.68 -5.048 10
-6.661 -10.319 -5.062 10
-6.49 -9.973 -5.076 33
-6.33 -9.641 -5.09 20
-5.997 -9.057 -4.873 9
0.0 -0.0 3.0 0
-21.09 -40.359 -4.845 6
-19.347 -36.711 -4.803 6
-17.902 -33.673 -4.774 27
-16.64 -31.041 -4.74 5
-15.564 -28.785 -4.713 4
-14.626 -26.831 -4.694 5
-13.819 -25.145 -4.688 5
-13.138 -23.706 -4.702 4
-12.496 -22.37 -4.703 7
-11.967 -21.236 -4.729 22
-11.438 -20.147 -4.734 10
-10.972 -19.167 -4.744 7
-10.549 -18.285 -4.762 6
-10.145 -17.441 -4.765 6
-9.789 -16.699 -4.787 6
-9.451 -15.993 -4.8 9
-9.146 -15.357 -4.825 8
-8.838 -14.727 -4.83 5
-8.57 -14.166 -4.852 8
-8.334 -13.668 -4.891 8
-8.085 -13.153 -4.903 9
-7.861 -12.691 -4.93 21
-7.65 -12.249 -4.955 9
-7.443 -11.824 -4.976 8
-7.248 -11.419 -4.996 8
-7.062 -11.039 -5.02 9
-6.89 -10.68 -5.048 10
-6.708 -10.314 -5.058 11
-6.536 -9.968 -5.072 39
-6.375 -9.638 -5.087 21
-6.038 -9.052 -4.869 9
0.0 -0.0 3.0 0
-21.295 -40.449 -4.863 6
-19.529 -36.781 -4.818 5
-18.059 -33.716 -4.784 34
-16.784 -31.078 -4.749 6
-15.695 -28.811 -4.72 5
-14.755 -26.865 -4.703 5
-13.937 -25.171 -4.696 5
-13.242 -23.713 -4.705 4
-12.597 -22.379 -4.706 7
-12.055 -21.231 -4.727 24
-11.53 -20.156 -4.737 8
-11.06 -19.175 -4.747 7
-10.631 -18.287 -4.762 6
-10.224 -17.444 -4.767 6
-9.863 -16.7 -4.787 6
-9.524 -15.994 -4.801 9
-9.209 -15.347 -4.82 8
-8.903 -14.724 -4.829 7
-8.632 -14.161 -4.849 8
-8.398 -13.67 -4.893 8
-8.146 -13.152 -4.903 8
-7.917 -12.685 -4.927 16
-7.707 -12.247 -4.953 9
-7.498 -11.823 -4.975 9
-7.3 -11.416 -4.994 8
-7.117 -11.041 -5.022 10
-6.937 -10.672 -5.042 11
-6.755 -10.31 -5.055 11
-6.584 -9.966 -5.071 38
-6.425 -9.642 -5.091 19
-6.081 -9.049 -4.866 9
0.0 -0.0 3.0 0
-21.485 -40.508 -4.874 6
-19.704 -36.838 -4.83 5
-18.222 -33.769 -4.796 25
-16.931 -31.116 -4.758 5
-15.83 -28.842 -4.728 4
-14.889 -26.907 -4.715 5
-14.047 -25.181 -4.699 5
-13.347 -23.725 -4.709 4
-12.702 -22.399 -4.712 7
-12.15 -21.238 -4.73 14
-11.623 -20.165 -4.741 8
-11.144 -19.175 -4.747 7
-10.712 -18.289 -4.763 6
-10.303 -17.447 -4.768 6
-9.938 -16.701 -4.788 6
-9.597 -15.996 -4.802 9
-9.28 -15.35 -4.821 8
-8.969 -14.721 -4.827 5
-8.698 -14.162 -4.85 8
-8.46 -13.669 -4.892 8
-8.207 -13.152 -4.902 9
-7.975 -12.682 -4.925 15
-7.761 -12.242 -4.95 9
-7.55 -11.816 -4.97 9
-7.352 -11.412 -4.991 8
-7.166 -11.035 -5.018 8
-6.987 -10.669 -5.04 13
-6.804 -10.308 -5.053 11
-6.632 -9.965 -5.07 40
-6.469 -9.636 -5.085 20
-6.124 -9.046 -4.863 9
0.0 -0.0 3.0 0
-21.678 -40.573 -4.887 6
-19.897 -36.925 -4.849 5
-18.382 -33.815 -4.807 21
-17.073 -31.144 -4.765 5
-15.96 -28.863 -4.734 5
-15.022 -26.946 -4.727 5
-14.171 -25.213 -4.708 5
-13.459 -23.745 -4.715 5
-12.807 -22.414 -4.718 16
-12.253 -21.258 -4.737 9
-11.711 -20.167 -4.742 8
-11.233 -19.185 -4.751 7
-10.797 -18.297 -4.766 6
-10.384 -17.453 -4.771 6
-10.013 -16.701 -4.788 8
-9.668 -15.994 -4.801 9
-9.353 -15.355 -4.824 8
-9.036 -14.721 -4.827 7
-8.764 -14.162 -4.85 8
-8.517 -13.658 -4.885 8
-8.264 -13.145 -4.898 8
-8.035 -12.682 -4.924 10
-7.82 -12.242 -4.95 9
-7.605 -11.814 -4.968 9
-7.406 -11.41 -4.989 8
-7.219 -11.035 -5.017 9
-7.039 -10.669 -5.04 11
-6.855 -10.308 -5.053 10
-6.678 -9.96 -5.065 33
-6.514 -9.631 -5.082 20
-6.167 -9.043 -4.861 9
0.0 -0.0 3.0 0
-21.872 -40.637 -4.899 5
-20.09 -37.01 -4.867 6
-18.53 -33.835 -4.811 9
-17.226 -31.192 -4.777 6
-16.095 -28.893 -4.742 5
-15.157 -26.987 -4.738 4
-14.287 -25.232 -4.714 5
-13.563 -23.752 -4.718 4
-12.9 -22.409 -4.716 20
-12.349 -21.265 -4.74 9
-11.804 -20.175 -4.744 8
-11.317 -19.184 -4.751 7
-10.881 -18.301 -4.768 6
-10.461 -17.452 -4.77 6
-10.092 -16.707 -4.791 6
-9.739 -15.992 -4.8 9
-9.419 -15.347 -4.82 5
-9.104 -14.721 -4.827 7
-8.826 -14.157 -4.847 8
-8.584 -13.662 -4.888 8
-8.323 -13.14 -4.895 8
-8.089 -12.673 -4.919 9
-7.875 -12.237 -4.947 9
-7.66 -11.812 -4.967 9
-7.458 -11.406 -4.986 8
-7.268 -11.028 -5.012 10
-7.087 -10.664 -5.036 11
-6.9 -10.299 -5.047 10
-6.724 -9.956 -5.062 25
-6.561 -9.63 -5.08 17
-6.21 -9.04 -4.858 9
0.0 -0.0 3.0 0
-22.07 -40.707 -4.913 6
-20.273 -37.075 -4.88 7
-18.717 -33.927 -4.833 6
-17.383 -31.248 -4.791 5
-16.237 -28.934 -4.753 5
-15.289 -27.022 -4.749 3
-14.407 -25.256 -4.722 5
-13.672 -23.765 -4.722 5
-12.993 -22.405 -4.715 19
-12.446 -21.275 -4.743 8
-11.894 -20.18 -4.746 8
-11.405 -19.191 -4.754 7
-10.96 -18.299 -4.767 6
-10.54 -17.454 -4.771 6
-10.168 -16.707 -4.791 7
-9.813 -15.993 -4.8 9
-9.492 -15.353 -4.823 6
-9.172 -14.72 -4.827 8
-8.892 -14.157 -4.847 8
-8.647 -13.66 -4.887 8
-8.386 -13.142 -4.897 9
-8.147 -12.669 -4.916 9
-7.933 -12.237 -4.947 8
-7.716 -11.809 -4.965 9
-7.511 -11.401 -4.983 8
-7.319 -11.024 -5.009 10
-7.139 -10.663 -5.035 11
-6.948 -10.294 -5.042 10
-6.77 -9.95 -5.058 15
-6.606 -9.625 -5.077 17
-6.255 -9.039 -4.857 10
0.0 -0.0 3.0 0
-22.28 -40.797 -4.93 4
-20.456 -37.139 -4.894 5
-18.898 -34.006 -4.851 5
-17.539 -31.298 -4.803 6
-16.385 -28.984 -4.766 5
-15.422 -27.058 -4.759 4
-14.523 -25.274 -4.727 5
-13.788 -23.791 -4.73 5
-13.103 -22.429 -4.723 8
-12.54 -21.278 -4.745 9
-11.987 -20.188 -4.749 8
-11.49 -19.19 -4.753 7
-11.046 -18.305 -4.77 6
-10.622 -17.459 -4.773 6
-10.243 -16.706 -4.79 8
-9.89 -16.0 -4.804 9
-9.562 -15.351 -4.822 8
-9.239 -14.72 -4.827 8
-8.956 -14.154 -4.845 8
-8.707 -13.655 -4.884 7
-8.446 -13.138 -4.894 8
-8.207 -12.668 -4.916 9
-7.988 -12.231 -4.943 9
-7.773 -11.81 -4.966 8
-7.567 -11.403 -4.984 8
-7.373 -11.023 -5.009 11
-7.185 -10.654 -5.028 10
-6.997 -10.291 -5.04 11
-6.819 -9.948 -5.056 13
-6.651 -9.621 -5.073 17
-6.3 -9.038 -4.857 11
0.0 -0.0 3.0 0
-22.491 -40.886 -4.947 5
-20.655 -37.229 -4.913 6
-19.077 -34.08 -4.868 5
-17.682 -31.323 -4.81 6
-16.519 -29.009 -4.773 5
-15.532 -27.052 -4.757 4
-14.644 -25.297 -4.734 5
-13.895 -23.8 -4.733 4
-13.208 -22.443 -4.728 6
-12.638 -21.287 -4.748 8
-12.078 -20.192 -4.751 8
-11.578 -19.195 -4.755 7
-11.128 -18.305 -4.77 6
-10.701 -17.46 -4.773 6
-10.318 -16.705 -4.79 7
-9.963 -16.0 -4.804 9
-9.633 -15.352 -4.822 8
-9.307 -14.719 -4.826 7
-9.025 -14.156 -4.847 8
-8.768 -13.65 -4.881 8
-8.505 -13.133 -4.891 9
-8.263 -12.662 -4.912 9
-8.045 -12.227 -4.941 8
-7.825 -11.802 -4.96 9
-7.619 -11.398 -4.981 7
-7.426 -11.022 -5.008 9
-7.239 -10.656 -5.03 11
-7.046 -10.288 -5.038 10
-6.865 -9.943 -5.052 12
-6.694 -9.614 -5.067 17
-6.351 -9.045 -4.863 13
0.0 -0.0 3.0 0
-22.709 -40.985 -4.967 5
-20.83 -37.274 -4.923 6
-19.251 -34.142 -4.882 5
-17.839 -31.373 -4.822 6
-16.65 -29.027 -4.778 5
-15.656 -27.07 -4.762 4
-14.767 -25.324 -4.742 6
-14.01 -23.822 -4.74 4
-13.316 -22.46 -4.734 7
-12.735 -21.292 -4.75 8
-12.17 -20.195 -4.752 8
-11.664 -19.197 -4.756 7
-11.212 -18.309 -4.772 6
-10.781 -17.46 -4.774 6
-10.396 -16.708 -4.791 6
-10.033 -15.994 -4.801 9
-9.705 -15.353 -4.823 8
-9.373 -14.714 -4.824 7
-9.091 -14.156 -4.847 7
-8.835 -13.653 -4.882 8
-8.565 -13.129 -4.888 9
-8.321 -12.657 -4.909 9
-8.102 -12.224 -4.939 8
-7.88 -11.799 -4.959 9
-7.672 -11.393 -4.977 9
-7.475 -11.014 -5.002 9
-7.288 -10.649 -5.025 11
-7.093 -10.283 -5.034 11
-6.913 -9.941 -5.05 11
-6.742 -9.612 -5.066 16
-6.394 -9.042 -4.86 28
0.0 -0.0 3.0 0
-22.927 -41.083 -4.986 4
-21.006 -37.318 -4.932 5
-19.424 -34.201 -4.896 6
-17.993 -31.415 -4.833 5
-16.799 -29.076 -4.791 5
-15.778 -27.083 -4.766 4
-14.886 -25.344 -4.748 5
-14.115 -23.827 -4.742 4
-13.419 -22.47 -4.737 7
-12.829 -21.294 -4.751 8
-12.267 -20.208 -4.757 8
-11.755 -19.204 -4.759 7
-11.294 -18.308 -4.771 6
-10.859 -17.459 -4.773 7
-10.476 -16.712 -4.793 6
-10.11 -16.0 -4.804 9
-9.779 -15.356 -4.824 9
-9.443 -14.716 -4.825 7
-9.155 -14.152 -4.845 8
-8.898 -13.65 -4.881 8
-8.628 -13.13 -4.889 8
-8.383 -12.659 -4.91 9
-8.157 -12.218 -4.935 8
-7.934 -11.793 -4.955 9
-7.726 -11.391 -4.976 8
-7.533 -11.019 -5.006 10
-7.336 -10.642 -5.02 11
-7.142 -10.279 -5.031 11
-6.957 -9.933 -5.044 15
-6.787 -9.607 -5.061 17
-6.443 -9.046 -4.864 22
0.0 -0.0 3.0 0
-23.146 -41.179 -5.004 5
-21.215 -37.419 -4.954 6
-19.587 -34.241 -4.905 6
-18.15 -31.462 -4.844 6
-16.943 -29.113 -4.801 5
-15.904 -27.103 -4.772 4
-15.006 -25.362 -4.754 5
-14.239 -23.862 -4.753 3
-13.519 -22.474 -4.738 7
-12.934 -21.312 -4.757 9
-12.36 -20.214 -4.759 8
-11.844 -19.209 -4.761 7
-11.382 -18.317 -4.775 6
-10.936 -17.456 -4.772 13
-10.553 -16.714 -4.794 7
-10.18 -15.993 -4.8 9
-9.849 -15.354 -4.823 8
-9.515 -14.72 -4.827 8
-9.218 -14.145 -4.841 7
-8.961 -13.647 -4.879 8
-8.688 -13.124 -4.886 9
-8.441 -12.655 -4.907 9
-8.215 -12.217 -4.934 8
-7.99 -11.79 -4.952 8
-7.781 -11.389 -4.975 8
-7.582 -11.011 -5.0 10
-7.388 -10.642 -5.019 12
-7.191 -10.276 -5.029 10
-7.005 -9.93 -5.041 31
-6.832 -9.602 -5.057 21
-6.487 -9.042 -4.86 17
0.0 -0.0 3.0 0
-23.364 -41.272 -5.022 5
-21.395 -37.469 -4.964 6
-19.747 -34.275 -4.913 7
-18.309 -31.51 -4.856 6
-17.095 -29.163 -4.814 5
-16.039 -27.136 -4.781 4
-15.129 -25.388 -4.762 5
-14.346 -23.868 -4.755 4
-13.625 -22.486 -4.742 7
-13.03 -21.316 -4.758 9
-12.454 -20.22 -4.762 9
-11.932 -19.213 -4.763 7
-11.463 -18.313 -4.773 6
-11.028 -17.475 -4.78 5
-10.629 -16.712 -4.793 7
-10.258 -15.998 -4.803 9
-9.919 -15.351 -4.822 8
-9.583 -14.718 -4.826 8
-9.29 -14.154 -4.845 8
-9.02 -13.638 -4.874 8
-8.749 -13.122 -4.884 9
-8.503 -12.656 -4.908 9
-8.274 -12.216 -4.933 9
-8.045 -11.787 -4.95 9
-7.835 -11.386 -4.973 8
-7.634 -11.006 -4.997 10
-7.435 -10.632 -5.012 11
-7.241 -10.272 -5.026 12
-7.052 -9.924 -5.037 33
-6.876 -9.595 -5.051 17
-6.532 -9.04 -4.859 15
-25.86 -45.776 -5.072 5
-23.592 -41.381 -5.044 5
-21.596 -37.552 -4.982 6
-19.911 -34.315 -4.922 6
-18.473 -31.567 -4.87 7
-17.233 -29.19 -4.822 6
-16.174 -27.169 -4.791 4
-15.257 -25.419 -4.771 5
-14.448 -23.865 -4.754 3
-13.733 -22.501 -4.748 7
-13.129 -21.323 -4.761 10
-12.55 -20.228 -4.765 8
-12.023 -19.22 -4.765 8
-11.549 -18.317 -4.775 6
-11.108 -17.475 -4.78 6
