# .PCD v0.7 - Point Cloud Data file format
VERSION 0.7
FIELDS x y z intensity
SIZE 4 4 4 4
TYPE F F F F
COUNT 1 1 1 1
WIDTH 2057
HEIGHT 1
VIEWPOINT 0 0 0 1 0 0 0
POINTS 2057
DATA ascii
12.645 -8.058 -3.761 14
12.185 -7.737 -3.726 12
10.142 -8.4 1.519 33
10.418 -8.508 1.346 1
9.741 -7.843 1.333 17
9.189 -7.299 1.315 24
9.068 -7.106 1.228 13
9.409 -7.281 1.049 29
11.195 -8.553 0.547 11
10.12 -7.637 0.665 8
35.038 -26.14 -5.493 5
33.107 -24.419 -5.408 5
30.824 -22.502 -5.19 5
9.365 -6.763 0.404 45
9.261 -6.623 0.324 35
9.802 -6.943 0.053 0
9.61 -6.747 -0.004 19
9.575 -6.663 -0.107 23
11.534 -7.964 -0.884 21
11.584 -7.936 -1.044 27
11.649 -7.922 -1.212 16
11.678 -7.889 -1.373 31
11.74 -7.879 -1.549 21
11.84 -7.9 -1.747 22
17.268 -11.455 -4.158 7
16.647 -10.987 -4.135 7
16.057 -10.544 -4.112 9
15.513 -10.142 -4.101 11
15.02 -9.774 -4.101 17
14.404 -9.337 -4.036 12
13.846 -8.939 -3.984 18
13.199 -8.489 -3.874 15
12.572 -8.059 -3.762 15
12.131 -7.748 -3.735 12
10.029 -8.355 1.527 18
10.577 -8.689 1.311 26
9.899 -8.018 1.296 21
9.161 -7.321 1.31 23
9.266 -7.306 1.178 16
9.39 -7.311 1.041 26
9.462 -7.274 0.914 0
10.083 -7.657 0.659 25
34.843 -26.16 -5.5 5
32.847 -24.382 -5.395 5
30.591 -22.476 -5.181 5
9.292 -6.753 0.408 36
10.06 -7.241 0.074 18
25.585 -18.238 -4.742 5
9.622 -6.799 -0.027 13
9.492 -6.649 -0.1 32
11.509 -7.998 -0.901 21
11.565 -7.975 -1.063 13
11.659 -7.98 -1.243 1
11.694 -7.951 -1.407 1
11.724 -7.918 -1.572 20
11.799 -7.923 -1.76 21
17.18 -11.469 -4.167 7
16.563 -11.001 -4.144 7
15.978 -10.557 -4.121 7
15.426 -10.147 -4.105 20
14.943 -9.784 -4.108 19
14.336 -9.349 -4.045 11
13.791 -8.957 -3.998 14
13.115 -8.484 -3.871 10
12.498 -8.058 -3.762 15
12.071 -7.754 -3.74 14
9.651 -8.088 1.574 19
10.472 -8.653 1.318 26
10.204 -8.314 1.233 22
9.611 -7.727 1.216 35
9.216 -7.312 1.177 22
9.354 -7.328 1.036 29
9.383 -7.258 0.919 24
10.109 -7.725 0.638 11
34.643 -26.174 -5.505 4
32.585 -24.342 -5.382 5
30.363 -22.452 -5.172 5
10.239 -7.49 0.125 20
10.348 -7.497 -0.029 31
11.165 -8.011 -0.401 15
9.545 -6.789 -0.022 22
9.462 -6.671 -0.111 16
11.513 -8.053 -0.928 2
20.884 -14.494 -4.385 5
20.036 -13.802 -4.339 5
19.22 -13.152 -4.29 6
11.739 -7.98 -1.607 16
11.77 -7.954 -1.779 26
11.877 -7.979 -1.986 19
16.479 -11.014 -4.153 7
15.899 -10.571 -4.13 9
15.354 -10.162 -4.116 21
14.873 -9.798 -4.119 16
14.27 -9.363 -4.056 13
13.73 -8.971 -4.009 14
13.034 -8.482 -3.869 10
12.438 -8.066 -3.768 17
12.021 -7.767 -3.752 13
9.578 -8.074 1.576 23
9.961 -8.28 1.391 27
9.89 -8.107 1.277 26
9.338 -7.553 1.256 27
9.187 -7.333 1.172 26
9.334 -7.357 1.029 29
9.571 -7.451 0.863 61
10.103 -7.769 0.625 0
34.451 -26.195 -5.511 4
32.321 -24.298 -5.366 5
10.837 -8.064 0.065 0
10.359 -7.625 0.073 12
10.386 -7.572 -0.059 18
11.125 -8.034 -0.41 19
9.512 -6.809 -0.031 28
9.433 -6.694 -0.121 0
21.725 -15.295 -4.46 5
20.758 -14.499 -4.388 5
19.914 -13.807 -4.341 5
19.12 -13.168 -4.299 6
11.745 -8.035 -1.639 0
11.754 -7.994 -1.803 26
11.829 -7.997 -1.997 23
16.395 -11.027 -4.161 6
15.822 -10.586 -4.14 9
15.273 -10.171 -4.122 19
14.809 -9.816 -4.132 18
14.216 -9.384 -4.072 11
13.66 -8.978 -4.015 18
12.95 -8.477 -3.865 9
12.386 -8.079 -3.779 16
11.967 -7.777 -3.76 13
9.54 -8.088 1.574 26
9.765 -8.166 1.413 16
9.432 -7.777 1.347 22
9.351 -7.61 1.243 25
9.143 -7.342 1.169 26
9.318 -7.39 1.02 24
9.349 -7.323 0.9 38
9.288 -7.188 0.802 0
10.624 -8.13 0.358 0
10.691 -8.088 0.215 0
10.792 -8.083 0.058 20
10.593 -7.849 -0.013 37
10.454 -7.671 -0.099 57
11.098 -8.066 -0.424 0
9.507 -6.85 -0.05 29
22.623 -16.158 -4.534 7
21.593 -15.3 -4.462 5
20.641 -14.511 -4.394 5
19.806 -13.821 -4.349 5
19.007 -13.175 -4.303 6
18.254 -12.569 -4.256 5
11.759 -8.049 -1.836 14
11.806 -8.032 -2.019 20
11.907 -8.059 -2.233 19
15.743 -10.598 -4.149 9
15.193 -10.18 -4.128 13
14.707 -9.808 -4.126 19
14.148 -9.396 -4.08 15
13.596 -8.99 -4.024 15
12.869 -8.474 -3.862 10
12.319 -8.083 -3.782 15
11.907 -7.782 -3.765 11
9.564 -8.157 1.562 26
9.778 -8.224 1.401 22
9.356 -7.762 1.35 27
9.307 -7.619 1.241 24
9.126 -7.374 1.161 0
9.294 -7.417 1.013 26
9.289 -7.321 0.901 75
9.212 -7.174 0.807 2
10.53 -8.108 0.366 25
10.652 -8.111 0.207 22
10.746 -8.1 0.052 22
10.848 -8.09 -0.105 12
26.297 -19.422 -4.847 5
24.902 -18.216 -4.732 6
9.502 -6.891 -0.068 26
22.489 -16.166 -4.538 7
21.455 -15.301 -4.463 5
20.517 -14.518 -4.397 5
19.691 -13.829 -4.353 5
18.904 -13.187 -4.31 5
18.152 -12.578 -4.262 6
17.461 -12.027 -4.226 6
11.755 -8.048 -2.029 28
11.831 -8.057 -2.232 24
15.664 -10.611 -4.157 9
15.127 -10.199 -4.141 12
14.619 -9.809 -4.126 18
14.079 -9.407 -4.088 27
13.507 -8.985 -4.02 22
12.801 -8.48 -3.867 9
12.264 -8.094 -3.792 15
11.854 -7.793 -3.774 13
9.573 -8.212 1.552 21
9.689 -8.198 1.406 29
9.272 -7.738 1.355 27
9.287 -7.649 1.234 23
9.272 -7.538 1.121 1
9.902 -7.95 0.87 29
9.17 -7.272 0.915 25
10.092 -7.909 0.582 17
10.082 -7.811 0.462 30
10.619 -8.137 0.198 26
10.726 -8.136 0.039 3
27.669 -20.764 -4.971 5
26.11 -19.407 -4.841 5
24.74 -18.215 -4.732 6
9.451 -6.897 -0.071 27
22.339 -16.162 -4.537 7
21.329 -15.31 -4.467 5
20.401 -14.528 -4.403 5
19.573 -13.835 -4.356 5
18.788 -13.19 -4.311 6
18.054 -12.59 -4.269 6
17.374 -12.044 -4.237 6
11.797 -8.128 -2.079 19
11.826 -8.105 -2.263 35
11.886 -8.102 -2.465 15
15.046 -10.207 -4.147 19
14.545 -9.819 -4.134 15
14.013 -9.42 -4.098 19
13.437 -8.991 -4.025 23
12.714 -8.472 -3.861 13
12.188 -8.091 -3.789 24
11.8 -7.802 -3.782 14
9.555 -8.245 1.546 8
9.719 -8.272 1.392 18
9.249 -7.764 1.35 25
9.281 -7.691 1.224 27
9.245 -7.562 1.115 1
9.861 -7.967 0.865 21
9.236 -7.371 0.887 37
10.079 -7.948 0.57 15
10.007 -7.802 0.465 23
9.882 -7.62 0.376 14
29.252 -22.331 -5.128 5
27.481 -20.756 -4.967 6
25.938 -19.404 -4.84 6
24.578 -18.212 -4.73 6
9.427 -6.925 -0.083 19
22.199 -16.164 -4.537 7
21.201 -15.316 -4.47 5
20.278 -14.533 -4.405 5
19.465 -13.847 -4.363 5
18.688 -13.204 -4.319 5
17.953 -12.6 -4.275 6
17.274 -12.05 -4.24 5
11.805 -8.185 -2.115 3
11.793 -8.133 -2.282 25
11.844 -8.124 -2.479 17
14.972 -10.219 -4.155 22
14.475 -9.831 -4.143 16
11.142 -7.535 -2.678 2
13.351 -8.988 -4.022 16
12.625 -8.462 -3.852 15
12.149 -8.112 -3.807 17
11.744 -7.809 -3.788 13
9.951 -8.637 1.477 26
9.674 -8.282 1.39 25
9.28 -7.838 1.334 22
9.416 -7.849 1.188 43
9.975 -8.209 0.953 20
9.839 -7.999 0.857 27
9.793 -7.863 0.745 26
10.042 -7.967 0.564 0
9.926 -7.789 0.469 24
9.833 -7.63 0.373 28
29.035 -22.307 -5.119 5
27.284 -20.739 -4.961 5
25.764 -19.397 -4.837 5
24.413 -18.206 -4.728 6
9.434 -6.974 -0.105 17
22.071 -16.175 -4.542 7
21.066 -15.317 -4.471 5
20.161 -14.543 -4.41 5
19.35 -13.854 -4.366 5
18.578 -13.211 -4.323 6
17.861 -12.616 -4.284 6
17.184 -12.064 -4.249 6
16.566 -11.558 -4.222 6
11.806 -8.193 -2.32 18
11.808 -8.149 -2.496 28
11.893 -8.168 -2.719 15
14.405 -9.843 -4.152 17
11.059 -7.524 -2.67 2
13.26 -8.98 -4.016 17
12.557 -8.467 -3.856 14
12.094 -8.123 -3.816 22
11.687 -7.816 -3.795 14
9.968 -8.701 1.466 27
9.655 -8.315 1.384 23
9.277 -7.882 1.325 21
9.137 -7.664 1.231 29
9.466 -7.837 1.046 6
9.872 -8.075 0.836 11
9.771 -7.894 0.736 25
9.743 -7.779 0.622 0
9.836 -7.766 0.477 16
9.823 -7.671 0.359 27
28.828 -22.289 -5.112 5
27.091 -20.723 -4.955 5
25.593 -19.392 -4.835 6
24.249 -18.2 -4.726 7
9.444 -7.027 -0.129 10
21.922 -16.169 -4.54 7
20.938 -15.321 -4.473 5
20.048 -14.555 -4.416 5
19.242 -13.865 -4.372 5
18.479 -13.224 -4.33 5
17.769 -12.63 -4.292 6
17.097 -12.079 -4.258 6
16.481 -11.571 -4.231 7
11.81 -8.247 -2.356 1
11.79 -8.187 -2.522 21
11.832 -8.176 -2.725 32
11.177 -7.685 -2.583 2
10.98 -7.514 -2.663 2
11.193 -7.625 -2.957 0
12.447 -8.442 -3.836 55
12.027 -8.125 -3.818 21
11.64 -7.83 -3.806 17
9.864 -8.662 1.473 21
9.708 -8.41 1.365 10
9.32 -7.965 1.307 35
9.062 -7.646 1.235 29
9.43 -7.855 1.042 0
9.984 -8.216 0.799 13
9.746 -7.923 0.728 28
9.693 -7.788 0.619 30
9.82 -7.803 0.465 19
9.776 -7.683 0.355 27
28.616 -22.265 -5.104 5
26.895 -20.706 -4.948 5
25.407 -19.375 -4.828 5
24.091 -18.197 -4.724 6
22.88 -17.133 -4.628 6
21.791 -16.177 -4.543 8
20.807 -15.324 -4.474 5
19.925 -14.558 -4.418 5
19.131 -13.872 -4.376 5
18.373 -13.232 -4.335 6
17.665 -12.636 -4.296 6
17.008 -12.092 -4.265 6
16.386 -11.577 -4.234 6
15.812 -11.111 -4.215 7
11.791 -8.238 -2.557 18
11.805 -8.208 -2.747 43
11.127 -7.697 -2.592 6
10.894 -7.502 -2.653 3
11.101 -7.608 -2.944 2
12.412 -8.468 -3.857 34
11.967 -8.131 -3.823 20
11.568 -7.827 -3.804 22
9.83 -8.681 1.469 25
9.821 -8.558 1.336 24
9.542 -8.204 1.256 12
9.075 -7.704 1.221 27
10.453 -8.76 0.816 8
9.782 -8.099 0.83 25
9.797 -8.014 0.702 12
9.644 -7.796 0.616 23
9.764 -7.807 0.463 25
9.803 -7.753 0.33 2
28.401 -22.238 -5.094 6
26.709 -20.693 -4.943 6
25.23 -19.363 -4.823 6
23.93 -18.192 -4.722 6
22.725 -17.126 -4.625 6
21.655 -16.179 -4.544 7
20.686 -15.332 -4.478 5
19.812 -14.568 -4.423 5
19.017 -13.878 -4.379 5
18.264 -13.238 -4.338 5
17.571 -12.649 -4.303 6
16.915 -12.101 -4.271 6
16.307 -11.594 -4.245 7
15.738 -11.127 -4.226 6
11.794 -8.292 -2.593 2
11.775 -8.237 -2.767 33
11.068 -7.703 -2.597 5
10.821 -7.496 -2.649 4
11.021 -7.599 -2.937 2
12.326 -8.459 -3.85 39
11.909 -8.139 -3.83 24
11.53 -7.846 -3.82 14
9.834 -8.736 1.46 22
9.753 -8.55 1.338 21
9.592 -8.297 1.237 27
9.024 -7.707 1.221 31
10.423 -8.788 0.809 2
9.729 -8.105 0.828 21
35.586 -29.289 -5.399 29
9.622 -7.827 0.607 29
9.742 -7.838 0.453 26
30.135 -23.982 -5.258 4
28.201 -22.222 -5.088 6
26.52 -20.677 -4.937 6
25.051 -19.348 -4.817 6
23.776 -18.191 -4.721 6
22.58 -17.126 -4.625 7
21.522 -16.182 -4.546 7
20.552 -15.33 -4.477 5
19.693 -14.574 -4.426 5
18.918 -13.895 -4.388 5
18.161 -13.247 -4.343 5
17.473 -12.658 -4.308 6
16.819 -12.108 -4.275 6
16.219 -11.604 -4.251 7
15.657 -11.139 -4.234 6
15.114 -10.691 -4.211 9
11.775 -8.287 -2.803 19
11.012 -7.711 -2.602 4
10.753 -7.494 -2.647 6
10.939 -7.586 -2.927 2
11.181 -7.719 -3.251 2
11.849 -8.145 -3.835 27
11.476 -7.854 -3.827 12
9.776 -8.734 1.46 20
9.57 -8.438 1.36 23
9.57 -8.326 1.23 25
9.112 -7.828 1.193 27
10.124 -8.588 0.859 6
9.683 -8.116 0.825 29
35.299 -29.233 -5.383 22
9.615 -7.87 0.594 24
9.774 -7.913 0.429 0
29.916 -23.957 -5.249 4
27.987 -22.192 -5.077 5
26.334 -20.663 -4.932 5
24.891 -19.347 -4.817 6
23.615 -18.184 -4.719 6
22.438 -17.127 -4.625 7
21.389 -16.185 -4.547 7
20.428 -15.336 -4.48 5
19.583 -14.585 -4.431 5
18.802 -13.897 -4.389 5
18.058 -13.256 -4.348 6
17.381 -12.671 -4.316 6
16.741 -12.129 -4.288 6
16.137 -11.618 -4.259 7
15.577 -11.151 -4.242 8
15.038 -10.704 -4.22 10
11.783 -8.344 -2.843 5
10.96 -7.72 -2.609 4
10.677 -7.486 -2.641 5
10.859 -7.576 -2.919 2
11.093 -7.703 -3.238 2
11.779 -8.145 -3.834 28
11.423 -7.863 -3.835 13
9.741 -8.755 1.456 21
9.604 -8.518 1.344 24
9.434 -8.257 1.245 24
9.112 -7.876 1.182 30
9.896 -8.447 0.894 17
9.739 -8.213 0.799 45
10.095 -8.412 0.588 3
9.623 -7.925 0.577 14
31.866 -25.962 -5.436 11
29.685 -23.922 -5.237 4
27.8 -22.184 -5.074 6
26.152 -20.651 -4.927 6
24.724 -19.34 -4.814 6
23.468 -18.186 -4.719 6
22.291 -17.123 -4.624 6
21.256 -16.188 -4.548 7
20.304 -15.34 -4.482 5
19.471 -14.594 -4.436 5
18.697 -13.908 -4.395 5
17.959 -13.267 -4.354 6
17.287 -12.683 -4.322 6
16.652 -12.14 -4.294 6
16.055 -11.631 -4.268 7
15.496 -11.163 -4.249 6
14.962 -10.716 -4.228 10
14.457 -10.3 -4.212 10
10.901 -7.725 -2.613 4
10.595 -7.473 -2.631 4
10.783 -7.568 -2.913 2
11.004 -7.686 -3.224 2
11.692 -8.132 -3.823 10
11.378 -7.877 -3.847 16
9.698 -8.767 1.454 22
9.437 -8.419 1.363 23
9.371 -8.251 1.246 18
9.109 -7.92 1.172 25
9.819 -8.431 0.898 14
9.605 -8.15 0.816 30
34.85 -29.22 -5.379 23
9.585 -7.944 0.571 22
31.633 -25.934 -5.426 10
29.463 -23.894 -5.227 5
27.59 -22.156 -5.064 6
25.961 -20.63 -4.919 6
24.549 -19.325 -4.808 6
23.308 -18.177 -4.716 6
22.152 -17.126 -4.625 6
21.126 -16.192 -4.55 7
20.183 -15.346 -4.485 5
19.349 -14.596 -4.437 6
18.596 -13.921 -4.402 5
17.863 -13.28 -4.361 5
17.19 -12.691 -4.327 6
16.562 -12.151 -4.301 6
15.97 -11.642 -4.275 7
15.416 -11.174 -4.256 6
14.883 -10.725 -4.234 9
14.385 -10.313 -4.221 10
10.842 -7.731 -2.617 3
10.516 -7.463 -2.624 4
10.704 -7.557 -2.904 2
10.922 -7.674 -3.214 2
11.168 -7.813 -3.556 4
11.316 -7.88 -3.85 13
9.969 -9.065 1.402 13
9.37 -8.409 1.365 11
9.227 -8.173 1.263 18
9.135 -7.991 1.155 32
9.934 -8.581 0.86 19
9.564 -8.165 0.812 29
9.747 -8.223 0.642 26
9.741 -8.124 0.516 23
9.748 -8.042 0.387 27
29.243 -23.864 -5.217 4
27.395 -22.139 -5.058 6
25.794 -20.628 -4.918 6
24.386 -19.32 -4.806 6
23.155 -18.172 -4.714 7
21.996 -17.113 -4.619 8
20.994 -16.193 -4.551 7
20.062 -15.352 -4.487 5
19.237 -14.603 -4.441 5
18.479 -13.922 -4.402 4
17.758 -13.285 -4.364 5
17.095 -12.701 -4.333 6
16.472 -12.161 -4.307 6
15.889 -11.655 -4.283 6
15.33 -11.18 -4.261 6
14.805 -10.734 -4.24 9
11.156 -8.047 -2.634 4
10.786 -7.738 -2.622 3
10.459 -7.466 -2.626 5
10.622 -7.545 -2.895 2
10.839 -7.661 -3.204 2
11.079 -7.796 -3.542 4
11.18 -7.83 -3.807 14
9.66 -8.836 1.442 28
9.277 -8.375 1.372 24
9.205 -8.202 1.257 30
9.348 -8.226 1.101 31
9.776 -8.497 0.882 25
9.565 -8.216 0.799 11
9.7 -8.233 0.639 30
9.66 -8.107 0.522 29
9.68 -8.035 0.389 27
29.013 -23.825 -5.204 5
27.188 -22.111 -5.048 6
25.601 -20.603 -4.909 6
24.218 -19.308 -4.801 6
23.014 -18.177 -4.716 6
21.843 -17.103 -4.615 12
20.865 -16.197 -4.553 7
19.947 -15.361 -4.492 5
19.121 -14.609 -4.443 5
18.378 -13.934 -4.409 5
17.658 -13.295 -4.37 5
17.004 -12.713 -4.34 6
16.389 -12.175 -4.316 6
15.804 -11.666 -4.29 6
15.253 -11.194 -4.27 6
14.735 -10.75 -4.251 9
11.102 -8.057 -2.641 5
10.737 -7.749 -2.63 3
10.401 -7.47 -2.629 5
10.537 -7.529 -2.883 2
10.754 -7.646 -3.192 2
10.991 -7.779 -3.527 3
11.1 -7.819 -3.797 11
9.564 -8.798 1.449 18
9.314 -8.458 1.356 21
9.172 -8.221 1.253 19
9.278 -8.214 1.104 29
9.752 -8.528 0.874 19
9.572 -8.272 0.784 16
9.703 -8.288 0.624 31
9.622 -8.125 0.516 29
9.641 -8.053 0.383 36
28.796 -23.795 -5.193 4
26.997 -22.093 -5.041 6
25.432 -20.597 -4.906 5
24.068 -19.31 -4.802 6
22.849 -18.161 -4.709 6
21.705 -17.103 -4.615 23
20.736 -16.199 -4.554 8
19.821 -15.361 -4.492 5
19.012 -14.617 -4.448 5
18.265 -13.936 -4.41 5
17.556 -13.302 -4.373 5
16.907 -12.72 -4.344 6
16.297 -12.183 -4.32 6
15.722 -11.678 -4.297 6
15.176 -11.206 -4.277 6
14.659 -10.761 -4.258 9
11.045 -8.065 -2.647 4
10.672 -7.749 -2.63 4
10.355 -7.482 -2.638 5
10.473 -7.528 -2.881 3
10.673 -7.633 -3.181 2
10.909 -7.766 -3.516 3
11.03 -7.814 -3.793 9
9.506 -8.796 1.449 25
9.004 -8.225 1.401 13
9.129 -8.231 1.25 29
9.247 -8.236 1.099 29
9.773 -8.598 0.856 26
9.466 -8.231 0.795 22
9.656 -8.298 0.621 23
9.617 -8.17 0.502 29
9.648 -8.109 0.365 28
28.583 -23.767 -5.184 4
26.804 -22.074 -5.034 6
25.246 -20.576 -4.898 6
23.897 -19.295 -4.796 6
22.702 -18.16 -4.708 6
21.577 -17.11 -4.618 32
20.61 -16.203 -4.556 7
19.713 -15.375 -4.499 5
18.9 -14.623 -4.451 5
18.164 -13.947 -4.416 5
17.461 -13.313 -4.38 5
16.813 -12.729 -4.349 6
16.213 -12.197 -4.329 6
15.641 -11.69 -4.305 6
15.096 -11.216 -4.284 6
14.581 -10.769 -4.264 9
10.989 -8.072 -2.652 4
10.622 -7.76 -2.638 3
10.301 -7.487 -2.642 5
10.389 -7.512 -2.869 3
10.6 -7.625 -3.175 2
10.821 -7.748 -3.502 3
10.977 -7.822 -3.799 9
9.477 -8.821 1.445 28
8.916 -8.192 1.408 15
9.066 -8.224 1.252 28
9.295 -8.329 1.077 28
9.714 -8.597 0.856 21
9.416 -8.238 0.793 24
9.35 -8.084 0.682 26
9.701 -8.293 0.464 47
9.604 -8.123 0.361 32
28.382 -23.749 -5.177 5
26.613 -22.054 -5.027 6
25.059 -20.552 -4.889 6
23.735 -19.286 -4.792 6
22.559 -18.159 -4.708 6
21.442 -17.112 -4.619 36
20.479 -16.202 -4.555 7
19.587 -15.374 -4.498 5
18.789 -14.63 -4.454 5
18.058 -13.953 -4.419 5
17.365 -13.323 -4.385 6
16.722 -12.74 -4.355 6
16.124 -12.206 -4.334 6
15.556 -11.699 -4.311 7
15.022 -11.231 -4.293 6
14.508 -10.782 -4.272 9
10.929 -8.078 -2.656 4
10.57 -7.768 -2.644 4
10.252 -7.497 -2.649 4
10.32 -7.507 -2.865 4
10.527 -7.618 -3.169 2
10.742 -7.737 -3.492 3
10.924 -7.829 -3.805 7
9.46 -8.856 1.438 21
8.917 -8.242 1.398 21
9.038 -8.247 1.247 21
9.276 -8.361 1.07 10
9.546 -8.5 0.881 26
9.325 -8.208 0.801 26
9.244 -8.042 0.694 29
9.621 -8.275 0.47 4
9.7 -8.254 0.318 26
28.175 -23.724 -5.169 5
26.417 -22.03 -5.018 6
24.859 -20.517 -4.876 10
23.577 -19.279 -4.789 7
22.416 -18.159 -4.708 6
21.305 -17.111 -4.618 39
20.356 -16.208 -4.558 7
19.479 -15.386 -4.504 5
18.683 -14.64 -4.459 5
17.954 -13.961 -4.423 5
17.266 -13.332 -4.39 6
16.634 -12.753 -4.363 6
16.047 -12.224 -4.345 6
15.472 -11.708 -4.316 6
14.936 -11.236 -4.297 8
14.436 -10.794 -4.281 9
10.872 -8.085 -2.661 3
10.52 -7.779 -2.652 4
10.197 -7.502 -2.653 4
10.242 -7.494 -2.855 2
10.451 -7.608 -3.161 3
10.663 -7.724 -3.482 3
10.87 -7.836 -3.811 9
9.483 -8.929 1.426 21
8.837 -8.216 1.403 28
9.001 -8.263 1.244 21
9.253 -8.391 1.063 2
9.581 -8.583 0.86 25
9.294 -8.23 0.795 29
9.231 -8.079 0.683 27
31.194 -26.997 -5.254 25
9.765 -8.362 0.283 2
27.966 -23.695 -5.159 5
26.222 -22.005 -5.009 6
24.682 -20.5 -4.869 25
23.413 -19.266 -4.784 6
22.264 -18.15 -4.704 6
21.178 -17.117 -4.621 39
20.234 -16.213 -4.56 7
19.362 -15.391 -4.507 5
18.571 -14.644 -4.462 5
17.857 -13.973 -4.43 5
17.168 -13.339 -4.394 5
16.546 -12.765 -4.37 6
15.958 -12.232 -4.35 6
15.387 -11.717 -4.322 6
14.862 -11.25 -4.306 8
14.357 -10.801 -4.286 9
10.819 -8.094 -2.668 3
10.464 -7.785 -2.656 4
10.149 -7.511 -2.66 4
10.172 -7.487 -2.85 2
10.376 -7.598 -3.153 2
10.584 -7.712 -3.472 3
10.809 -7.836 -3.812 18
9.009 -8.533 1.495 5
8.824 -8.253 1.396 21
9.011 -8.321 1.231 29
9.303 -8.487 1.041 12
9.563 -8.618 0.851 17
9.285 -8.273 0.783 27
9.149 -8.057 0.69 24
30.956 -26.958 -5.242 37
29.696 -25.588 -5.314 5
27.746 -23.656 -5.145 5
26.033 -21.983 -5.001 6
24.527 -20.499 -4.869 32
23.258 -19.26 -4.781 7
22.124 -18.151 -4.704 6
21.044 -17.117 -4.621 38
20.106 -16.213 -4.56 7
19.248 -15.398 -4.51 5
18.463 -14.651 -4.465 5
17.75 -13.978 -4.432 5
17.072 -13.349 -4.4 6
16.45 -12.771 -4.373 6
15.872 -12.242 -4.356 6
15.312 -11.732 -4.331 6
14.779 -11.256 -4.31 8
14.285 -10.813 -4.293 9
10.756 -8.097 -2.669 3
10.415 -7.795 -2.663 4
10.097 -7.518 -2.665 4
10.097 -7.477 -2.842 2
10.292 -7.58 -3.138 2
10.503 -7.698 -3.459 3
10.733 -7.826 -3.803 8
8.97 -8.546 1.493 5
8.947 -8.417 1.364 19
8.986 -8.347 1.226 28
9.268 -8.506 1.036 0
9.656 -8.756 0.817 17
9.356 -8.387 0.753 38
9.232 -8.18 0.654 23
30.763 -26.956 -5.241 18
29.459 -25.543 -5.299 5
27.547 -23.633 -5.137 5
25.853 -21.968 -4.996 6
24.36 -20.489 -4.865 35
23.101 -19.25 -4.777 7
21.982 -18.149 -4.704 6
20.922 -17.126 -4.625 33
19.984 -16.217 -4.562 7
19.129 -15.399 -4.511 5
18.358 -14.66 -4.47 5
17.65 -13.986 -4.437 5
16.98 -13.36 -4.406 6
16.362 -12.783 -4.38 6
15.783 -12.25 -4.361 6
15.225 -11.738 -4.335 6
14.705 -11.269 -4.318 8
14.216 -10.827 -4.303 9
10.709 -8.11 -2.679 3
10.356 -7.798 -2.666 3
10.045 -7.524 -2.669 4
10.023 -7.466 -2.833 2
10.223 -7.574 -3.133 2
10.43 -7.69 -3.453 3
10.648 -7.81 -3.789 12
8.936 -8.563 1.49 18
8.901 -8.423 1.363 24
8.992 -8.402 1.214 19
0.0 -0.0 3.0 0
9.667 -8.818 0.801 20
9.625 -8.681 0.674 26
9.282 -8.275 0.627 25
30.559 -26.942 -5.237 20
29.235 -25.506 -5.287 6
27.345 -23.607 -5.128 5
25.665 -21.945 -4.987 6
24.203 -20.484 -4.863 33
22.941 -19.237 -4.772 6
21.843 -18.148 -4.703 6
20.801 -17.134 -4.628 23
19.865 -16.222 -4.564 7
19.025 -15.412 -4.517 6
18.25 -14.666 -4.473 5
17.55 -13.995 -4.441 5
16.882 -13.367 -4.409 5
16.275 -12.794 -4.387 6
15.703 -12.264 -4.369 6
15.149 -11.753 -4.344 6
14.632 -11.282 -4.327 7
14.135 -10.831 -4.306 9
10.658 -8.121 -2.686 4
10.307 -7.808 -2.673 4
9.997 -7.533 -2.677 4
9.945 -7.452 -2.822 2
10.145 -7.56 -3.122 2
10.349 -7.675 -3.44 3
10.573 -7.799 -3.779 9
8.933 -8.611 1.482 19
8.847 -8.422 1.363 26
8.958 -8.421 1.21 25
0.0 -0.0 3.0 0
9.596 -8.806 0.804 29
9.484 -8.606 0.694 22
9.229 -8.279 0.626 29
30.319 -26.896 -5.223 18
29.014 -25.47 -5.276 5
27.141 -23.577 -5.118 5
25.483 -21.927 -4.981 5
24.057 -20.489 -4.865 28
22.802 -19.242 -4.774 7
21.701 -18.144 -4.702 6
20.683 -17.145 -4.633 10
19.741 -16.223 -4.565 7
18.902 -15.411 -4.516 6
18.15 -14.679 -4.479 5
17.453 -14.005 -4.447 5
16.787 -13.375 -4.414 5
16.181 -12.801 -4.39 6
15.618 -12.273 -4.375 5
15.068 -11.763 -4.35 6
14.555 -11.293 -4.334 8
14.065 -10.845 -4.315 9
10.599 -8.125 -2.689 4
10.254 -7.816 -2.678 4
9.945 -7.539 -2.681 4
9.885 -7.452 -2.822 2
10.067 -7.547 -3.112 2
10.274 -7.663 -3.43 3
10.491 -7.784 -3.766 6
8.91 -8.639 1.477 14
8.816 -8.442 1.359 23
9.053 -8.561 1.18 18
0.0 -0.0 3.0 0
9.62 -8.883 0.785 23
9.521 -8.692 0.671 31
9.209 -8.312 0.617 23
30.119 -26.884 -5.219 19
28.799 -25.438 -5.265 6
26.954 -23.561 -5.113 5
25.301 -21.907 -4.973 6
23.912 -20.494 -4.867 13
22.645 -19.23 -4.769 7
21.559 -18.139 -4.699 6
20.538 -17.132 -4.628 7
19.628 -16.233 -4.57 7
18.798 -15.422 -4.522 6
18.037 -14.679 -4.479 5
17.344 -14.006 -4.447 5
16.694 -13.386 -4.42 6
16.091 -12.809 -4.395 6
15.529 -12.28 -4.379 6
14.984 -11.77 -4.355 6
14.472 -11.298 -4.337 8
13.993 -10.855 -4.322 9
10.548 -8.136 -2.697 4
10.208 -7.827 -2.687 4
9.891 -7.542 -2.684 4
9.811 -7.44 -2.813 1
9.998 -7.54 -3.106 2
10.199 -7.652 -3.421 3
10.413 -7.771 -3.755 6
8.856 -8.637 1.477 3
8.771 -8.449 1.358 2
9.024 -8.585 1.175 29
0.0 -0.0 3.0 0
9.544 -8.865 0.79 24
9.479 -8.706 0.667 30
9.866 -8.959 0.431 30
29.924 -26.876 -5.217 20
28.576 -25.399 -5.253 6
26.748 -23.527 -5.101 5
25.12 -21.887 -4.966 6
23.749 -20.482 -4.862 5
22.498 -19.225 -4.767 7
21.424 -18.139 -4.699 6
20.402 -17.126 -4.625 6
19.504 -16.232 -4.569 8
18.685 -15.427 -4.524 6
17.941 -14.693 -4.486 5
17.247 -14.015 -4.452 5
16.597 -13.391 -4.423 5
16.004 -12.819 -4.401 5
15.443 -12.289 -4.384 6
14.909 -11.783 -4.363 6
14.402 -11.312 -4.346 8
13.915 -10.861 -4.326 9
10.494 -8.144 -2.703 4
10.155 -7.834 -2.692 4
9.854 -7.56 -2.697 4
9.74 -7.43 -2.805 2
9.927 -7.53 -3.098 2
10.122 -7.638 -3.409 3
10.335 -7.758 -3.744 5
8.734 -8.568 1.489 6
8.768 -8.495 1.349 19
9.001 -8.614 1.169 26
9.561 -9.042 0.912 1
9.568 -8.942 0.771 16
9.509 -8.788 0.645 23
9.165 -8.373 0.599 0
29.718 -26.856 -5.211 18
28.344 -25.35 -5.237 5
26.548 -23.497 -5.091 5
24.945 -21.87 -4.96 6
23.572 -20.457 -4.853 5
22.342 -19.213 -4.762 7
21.279 -18.131 -4.696 6
20.282 -17.133 -4.628 6
19.383 -16.234 -4.57 7
18.567 -15.426 -4.524 6
17.83 -14.694 -4.487 5
17.15 -14.025 -4.457 5
16.511 -13.405 -4.431 5
15.917 -12.83 -4.407 6
15.364 -12.301 -4.391 6
14.825 -11.79 -4.367 6
14.325 -11.322 -4.353 8
13.849 -10.876 -4.336 9
10.444 -8.154 -2.71 4
10.106 -7.843 -2.698 4
9.805 -7.568 -2.703 4
9.695 -7.44 -2.813 4
9.861 -7.525 -3.093 2
10.05 -7.629 -3.401 3
10.26 -7.745 -3.733 4
32.928 -32.49 -2.729 7
8.763 -8.54 1.34 1
8.983 -8.648 1.162 27
9.533 -9.07 0.906 13
9.436 -8.873 0.788 18
9.476 -8.81 0.639 18
9.788 -8.998 0.42 16
29.507 -26.829 -5.203 11
28.137 -25.32 -5.227 5
26.351 -23.468 -5.081 5
24.764 -21.848 -4.952 5
23.407 -20.442 -4.847 5
22.201 -19.211 -4.762 7
21.141 -18.126 -4.694 6
20.153 -17.132 -4.628 6
19.271 -16.242 -4.574 8
18.469 -15.441 -4.531 5
17.726 -14.7 -4.49 5
17.048 -14.029 -4.459 5
16.416 -13.412 -4.434 6
15.83 -12.84 -4.413 6
15.281 -12.312 -4.398 6
14.75 -11.803 -4.376 6
14.249 -11.332 -4.359 8
13.777 -10.886 -4.343 9
10.393 -8.164 -2.717 4
10.056 -7.852 -2.705 4
9.757 -7.576 -2.709 4
9.692 -7.482 -2.846 4
9.787 -7.513 -3.084 2
9.978 -7.619 -3.393 3
10.185 -7.734 -3.723 4
8.774 -8.707 1.465 3
34.344 -33.671 -3.545 9
9.008 -8.723 1.146 1
9.628 -9.215 0.872 23
9.429 -8.919 0.776 23
9.393 -8.787 0.646 21
9.737 -9.006 0.418 15
29.236 -26.748 -5.178 8
27.927 -25.287 -5.216 5
26.167 -23.449 -5.074 5
24.596 -21.835 -4.947 6
23.242 -20.425 -4.841 5
22.051 -19.203 -4.758 7
21.01 -18.127 -4.695 6
20.026 -17.132 -4.628 6
19.148 -16.239 -4.572 8
18.353 -15.442 -4.531 5
17.618 -14.704 -4.492 5
16.948 -14.035 -4.463 5
16.324 -13.421 -4.439 4
15.737 -12.844 -4.416 6
15.199 -12.322 -4.404 6
14.672 -11.814 -4.382 6
14.175 -11.343 -4.366 8
13.708 -10.898 -4.351 9
10.34 -8.172 -2.722 4
10.01 -7.863 -2.712 4
9.711 -7.586 -2.716 4
9.692 -7.527 -2.881 4
9.716 -7.502 -3.075 2
9.904 -7.606 -3.382 3
10.113 -7.724 -3.714 3
9.279 -9.263 1.367 21
51.719 -51.005 -6.914 10
47.526 -46.299 -6.841 16
9.614 -9.257 0.863 21
9.358 -8.906 0.78 27
9.423 -8.868 0.624 24
9.702 -9.029 0.411 33
28.982 -26.68 -5.157 7
27.729 -25.264 -5.209 6
25.977 -23.424 -5.066 4
24.425 -21.819 -4.942 6
23.087 -20.416 -4.837 5
21.905 -19.195 -4.755 7
20.875 -18.125 -4.694 6
19.906 -17.136 -4.63 7
19.036 -16.246 -4.576 7
18.247 -15.449 -4.535 6
17.514 -14.709 -4.495 6
16.855 -14.045 -4.468 6
16.232 -13.429 -4.444 5
15.65 -12.853 -4.421 6
15.119 -12.334 -4.411 6
14.591 -11.821 -4.387 6
14.102 -11.353 -4.373 8
13.63 -10.903 -4.354 9
10.29 -8.182 -2.729 4
9.966 -7.876 -2.722 4
9.686 -7.611 -2.735 5
9.692 -7.572 -2.916 4
9.702 -7.535 -3.102 4
9.83 -7.594 -3.372 3
10.036 -7.709 -3.701 4
9.299 -9.337 1.354 9
33.792 -33.524 -3.516 18
47.212 -46.269 -6.835 24
9.548 -9.249 0.865 23
9.43 -9.029 0.749 17
9.758 -9.239 0.524 21
9.653 -9.039 0.408 27
28.793 -26.668 -5.153 7
27.509 -25.219 -5.194 5
25.796 -23.406 -5.059 5
24.254 -21.802 -4.935 6
22.931 -20.406 -4.833 5
21.762 -19.19 -4.753 7
20.746 -18.127 -4.694 6
19.778 -17.134 -4.628 7
18.916 -16.246 -4.575 8
18.135 -15.451 -4.536 5
17.413 -14.716 -4.498 6
16.759 -14.053 -4.472 5
16.135 -13.433 -4.446 5
15.563 -12.862 -4.426 6
15.034 -12.341 -4.415 6
14.516 -11.834 -4.395 6
14.029 -11.364 -4.38 8
13.564 -10.916 -4.363 8
10.233 -8.187 -2.733 4
9.914 -7.882 -2.727 4
9.694 -7.663 -2.775 6
9.695 -7.619 -2.953 4
9.704 -7.582 -3.139 4
9.764 -7.587 -3.366 3
9.959 -7.694 -3.689 4
9.237 -9.33 1.355 8
33.324 -33.255 -3.464 25
46.942 -46.279 -6.837 19
9.378 -9.139 0.89 26
9.348 -9.004 0.755 7
9.729 -9.268 0.517 24
9.659 -9.1 0.391 24
28.615 -26.668 -5.153 7
27.314 -25.196 -5.187 5
25.604 -23.376 -5.049 4
24.081 -21.782 -4.928 6
22.776 -20.395 -4.829 5
21.619 -19.184 -4.751 7
20.606 -18.117 -4.69 7
19.661 -17.139 -4.631 7
18.804 -16.252 -4.578 7
18.029 -15.458 -4.539 6
17.312 -14.723 -4.502 6
16.657 -14.055 -4.473 5
16.049 -13.445 -4.453 5
15.482 -12.875 -4.433 6
14.958 -12.355 -4.423 6
14.433 -11.839 -4.398 6
13.947 -11.367 -4.382 7
13.492 -10.925 -4.369 8
10.183 -8.196 -2.739 4
9.864 -7.89 -2.733 4
9.691 -7.707 -2.808 4
9.691 -7.661 -2.986 4
9.703 -7.626 -3.175 4
9.713 -7.591 -3.37 4
9.89 -7.686 -3.681 3
9.193 -9.339 1.353 0
28.106 -28.214 -2.484 9
46.578 -46.195 -6.819 18
9.302 -9.12 0.894 19
9.391 -9.1 0.731 19
9.759 -9.354 0.494 23
9.738 -9.23 0.353 0
28.446 -26.674 -5.155 6
27.121 -25.173 -5.179 5
25.401 -23.336 -5.035 13
23.91 -21.763 -4.921 5
22.607 -20.371 -4.82 5
21.479 -19.179 -4.749 7
20.481 -18.121 -4.692 6
19.538 -17.14 -4.631 6
18.693 -16.258 -4.581 7
17.92 -15.461 -4.541 5
17.211 -14.729 -4.505 5
16.566 -14.067 -4.479 5
15.958 -13.452 -4.457 5
15.392 -12.881 -4.437 6
14.867 -12.356 -4.425 6
14.358 -11.851 -4.405 6
13.879 -11.382 -4.392 8
13.42 -10.934 -4.375 8
10.132 -8.206 -2.746 5
9.812 -7.896 -2.737 4
9.687 -7.751 -2.841 4
9.696 -7.711 -3.025 4
9.699 -7.668 -3.21 4
9.709 -7.633 -3.405 4
9.811 -7.668 -3.666 3
26.942 -27.535 -1.855 28
27.46 -27.729 -2.39 24
28.149 -28.084 -2.969 14
9.257 -9.13 0.892 22
9.351 -9.117 0.727 34
9.831 -9.481 0.46 19
30.003 -28.614 -5.205 12
28.289 -26.691 -5.16 6
26.905 -25.128 -5.164 6
25.224 -23.318 -5.029 25
23.738 -21.741 -4.913 6
22.467 -20.372 -4.82 5
21.339 -19.175 -4.747 7
20.344 -18.114 -4.689 7
19.413 -17.138 -4.63 7
18.576 -16.258 -4.581 7
17.823 -15.474 -4.547 5
17.113 -14.738 -4.509 6
16.467 -14.071 -4.482 5
15.867 -13.46 -4.461 5
15.306 -12.888 -4.441 6
14.79 -12.369 -4.432 6
14.281 -11.86 -4.411 6
13.806 -11.393 -4.398 7
13.346 -10.94 -4.379 8
10.079 -8.212 -2.75 4
9.771 -7.911 -2.748 4
9.694 -7.803 -2.88 4
9.695 -7.757 -3.06 4
9.704 -7.717 -3.249 4
9.702 -7.673 -3.438 4
9.745 -7.661 -3.66 2
26.725 -27.473 -1.844 43
27.215 -27.645 -2.374 20
28.038 -28.141 -2.981 20
9.198 -9.126 0.893 28
9.322 -9.144 0.72 26
9.866 -9.572 0.435 3
29.806 -28.602 -5.201 16
28.135 -26.709 -5.166 5
26.715 -25.105 -5.157 5
25.041 -23.293 -5.02 25
23.58 -21.732 -4.91 6
22.313 -20.359 -4.815 5
21.2 -19.169 -4.745 7
20.219 -18.116 -4.69 6
19.291 -17.137 -4.63 7
18.46 -16.258 -4.581 7
17.708 -15.471 -4.546 6
17.009 -14.741 -4.511 6
16.374 -14.079 -4.486 5
15.779 -13.469 -4.466 5
15.219 -12.895 -4.445 6
14.706 -12.375 -4.436 6
14.203 -11.869 -4.417 6
13.73 -11.4 -4.403 7
13.28 -10.952 -4.388 8
10.029 -8.221 -2.757 4
9.722 -7.919 -2.754 4
9.69 -7.847 -2.913 4
9.688 -7.797 -3.092 4
9.702 -7.762 -3.285 4
9.706 -7.72 -3.478 4
9.71 -7.678 -3.675 4
26.635 -27.542 -1.856 35
27.076 -27.667 -2.378 19
27.498 -27.764 -2.901 23
9.159 -9.142 0.889 22
9.308 -9.185 0.71 25
31.824 -31.065 -5.324 13
29.647 -28.624 -5.208 12
27.972 -26.719 -5.169 5
26.514 -25.071 -5.146 5
24.857 -23.266 -5.011 30
23.425 -21.724 -4.907 5
22.162 -20.348 -4.811 5
21.058 -19.16 -4.741 7
20.083 -18.107 -4.686 6
19.163 -17.131 -4.627 6
18.354 -16.267 -4.586 7
17.605 -15.478 -4.549 6
16.909 -14.746 -4.513 5
16.284 -14.09 -4.492 5
15.69 -13.477 -4.471 5
15.141 -12.909 -4.453 6
14.627 -12.385 -4.442 6
14.123 -11.875 -4.42 7
13.66 -11.411 -4.41 7
13.211 -10.963 -4.394 8
9.97 -8.223 -2.758 4
9.684 -7.936 -2.766 5
9.686 -7.891 -2.946 6
9.695 -7.849 -3.132 4
9.7 -7.806 -3.322 3
9.704 -7.765 -3.515 4
9.711 -7.724 -3.714 4
26.541 -27.607 -1.868 25
26.838 -27.588 -2.362 22
27.1 -27.525 -2.851 33
9.128 -9.166 0.884 33
9.268 -9.201 0.706 17
31.625 -31.059 -5.322 13
28.768 -27.946 -5.013 2
27.813 -26.731 -5.172 5
26.319 -25.041 -5.136 5
24.672 -23.237 -5.001 25
23.257 -21.703 -4.899 5
22.02 -20.344 -4.809 5
20.919 -19.153 -4.738 8
19.962 -18.111 -4.688 6
19.047 -17.134 -4.629 6
18.244 -16.271 -4.587 7
17.5 -15.483 -4.552 6
16.808 -14.751 -4.516 5
16.183 -14.09 -4.492 6
15.608 -13.491 -4.478 5
15.055 -12.917 -4.457 6
14.55 -12.398 -4.449 6
14.051 -11.888 -4.429 6
13.587 -11.42 -4.416 7
13.139 -10.97 -4.4 8
9.923 -8.234 -2.766 1
9.688 -7.987 -2.803 6
9.684 -7.937 -2.981 6
9.693 -7.895 -3.168 4
9.637 -7.801 -3.317 2
9.71 -7.815 -3.557 4
9.711 -7.77 -3.754 3
26.3 -27.517 -1.852 35
26.612 -27.518 -2.349 37
26.9 -27.486 -2.842 24
9.149 -9.244 0.866 22
9.231 -9.22 0.701 30
31.264 -30.891 -5.277 10
28.828 -28.176 -5.079 4
27.662 -26.75 -5.178 7
26.136 -25.021 -5.13 5
24.497 -23.215 -4.994 26
23.097 -21.688 -4.894 6
21.847 -20.311 -4.797 7
20.781 -19.146 -4.736 7
19.84 -18.114 -4.689 6
18.926 -17.132 -4.628 7
18.128 -16.269 -4.586 7
17.395 -15.486 -4.553 6
16.711 -14.757 -4.519 5
16.096 -14.103 -4.498 5
15.514 -13.494 -4.48 5
14.966 -12.92 -4.46 6
14.469 -12.405 -4.454 6
13.977 -11.898 -4.435 6
13.516 -11.431 -4.424 7
13.073 -10.983 -4.408 7
9.875 -8.244 -2.773 0
9.68 -8.029 -2.834 4
9.696 -7.995 -3.024 4
9.691 -7.94 -3.204 4
9.315 -7.586 -3.143 3
9.705 -7.857 -3.593 4
9.711 -7.815 -3.793 4
26.169 -27.541 -1.856 32
26.416 -27.477 -2.341 29
26.7 -27.446 -2.834 35
9.074 -9.222 0.871 31
9.202 -9.247 0.694 30
30.988 -30.806 -5.255 10
28.629 -28.154 -5.073 9
27.503 -26.76 -5.181 8
25.945 -24.992 -5.12 5
24.325 -23.197 -4.987 26
22.923 -21.66 -4.883 6
21.702 -20.303 -4.794 17
20.648 -19.143 -4.734 7
19.71 -18.109 -4.687 6
18.813 -17.138 -4.63 7
18.014 -16.27 -4.587 8
17.292 -15.493 -4.556 6
16.61 -14.762 -4.521 6
15.998 -14.105 -4.5 5
15.424 -13.499 -4.483 6
14.886 -12.931 -4.466 6
14.395 -12.419 -4.462 6
13.899 -11.907 -4.44 6
13.443 -11.44 -4.429 7
13.005 -10.992 -4.414 8
12.592 -10.577 -4.406 9
9.689 -8.086 -2.875 4
9.682 -8.031 -3.052 6
9.644 -7.949 -3.211 3
9.253 -7.58 -3.138 3
9.707 -7.905 -3.633 4
9.711 -7.86 -3.833 4
26.015 -27.542 -1.856 43
26.27 -27.488 -2.343 38
26.621 -27.529 -2.852 19
9.222 -9.43 0.823 26
9.223 -9.325 0.675 24
30.771 -30.778 -5.247 16
28.355 -28.056 -5.045 18
27.352 -26.779 -5.187 7
25.754 -24.963 -5.111 5
24.153 -23.176 -4.98 25
22.77 -21.649 -4.88 5
21.567 -20.303 -4.794 25
20.518 -19.143 -4.734 7
19.584 -18.105 -4.685 6
18.692 -17.135 -4.629 7
17.904 -16.272 -4.588 7
17.19 -15.498 -4.559 6
16.516 -14.769 -4.525 5
15.908 -14.114 -4.504 5
15.342 -13.512 -4.49 6
14.802 -12.939 -4.47 6
14.311 -12.423 -4.465 6
13.822 -11.913 -4.444 6
13.373 -11.451 -4.436 7
12.933 -10.999 -4.419 8
12.525 -10.585 -4.412 8
9.686 -8.133 -2.909 4
9.685 -8.082 -3.09 6
9.399 -7.794 -3.089 5
9.191 -7.574 -3.133 4
9.341 -7.652 -3.421 3
9.711 -7.906 -3.872 4
25.93 -27.614 -1.869 31
26.181 -27.559 -2.357 39
26.447 -27.513 -2.848 37
9.234 -9.499 0.807 24
9.26 -9.419 0.652 24
30.701 -30.896 -5.279 15
28.201 -28.075 -5.051 22
27.202 -26.796 -5.192 9
25.566 -24.934 -5.102 5
23.979 -23.152 -4.972 24
22.608 -21.63 -4.873 5
21.417 -20.289 -4.788 27
20.378 -19.131 -4.73 7
19.463 -18.107 -4.686 6
18.574 -17.134 -4.629 7
17.797 -16.276 -4.59 8
17.085 -15.501 -4.56 6
16.416 -14.773 -4.527 5
15.821 -14.126 -4.511 5
15.254 -13.518 -4.493 5
14.719 -12.947 -4.475 6
14.235 -12.434 -4.471 6
13.748 -11.923 -4.45 6
13.295 -11.454 -4.438 7
12.867 -11.01 -4.427 8
12.458 -10.593 -4.417 8
9.684 -8.179 -2.943 4
9.682 -8.129 -3.125 5
9.356 -7.805 -3.098 4
9.129 -7.568 -3.128 3
9.276 -7.644 -3.414 3
9.71 -7.952 -3.912 4
25.864 -27.707 -1.885 42
26.016 -27.548 -2.355 38
9.352 -9.787 0.92 5
9.281 -9.606 0.782 20
9.255 -9.472 0.638 25
27.991 -28.342 -4.594 20
28.076 -28.123 -5.064 17
27.035 -26.796 -5.192 9
25.368 -24.895 -5.089 5
23.808 -23.131 -4.965 24
22.463 -21.626 -4.871 6
21.276 -20.282 -4.785 28
20.243 -19.125 -4.727 8
19.336 -18.103 -4.684 6
18.464 -17.141 -4.631 6
17.682 -16.273 -4.588 7
16.983 -15.505 -4.562 5
16.325 -14.783 -4.533 6
15.724 -14.126 -4.511 6
15.166 -13.525 -4.497 5
14.642 -12.96 -4.482 6
14.154 -12.441 -4.475 7
13.674 -11.933 -4.456 6
13.222 -11.462 -4.443 7
12.796 -11.017 -4.431 8
12.394 -10.602 -4.424 8
9.686 -8.231 -2.98 5
9.69 -8.185 -3.168 4
9.301 -7.806 -3.098 4
9.065 -7.56 -3.122 2
9.217 -7.64 -3.411 3
9.387 -7.733 -3.722 2
25.684 -27.676 -1.88 43
26.004 -27.699 -2.384 35
9.349 -9.843 0.908 2
9.249 -9.63 0.777 2
9.239 -9.513 0.628 0
27.272 -27.783 -4.444 24
27.919 -28.138 -5.069 15
26.857 -26.785 -5.189 11
25.184 -24.868 -5.08 5
23.643 -23.113 -4.958 22
22.305 -21.608 -4.865 5
21.139 -20.277 -4.783 27
20.108 -19.117 -4.724 8
19.21 -18.098 -4.682 6
18.352 -17.143 -4.633 7
17.583 -16.285 -4.594 8
16.878 -15.507 -4.563 5
16.222 -14.782 -4.532 6
15.629 -14.129 -4.512 5
15.081 -13.534 -4.502 5
14.559 -12.967 -4.487 6
14.075 -12.448 -4.48 6
13.602 -11.944 -4.463 7
13.155 -11.474 -4.451 7
12.73 -11.027 -4.438 8
12.329 -10.612 -4.431 8
9.68 -8.276 -3.013 0
9.687 -8.231 -3.203 4
9.25 -7.809 -3.101 4
9.006 -7.555 -3.118 2
9.152 -7.631 -3.403 3
9.301 -7.707 -3.699 3
25.642 -27.795 -1.901 41
25.86 -27.711 -2.386 36
9.314 -9.865 0.903 8
26.322 -27.573 -3.366 39
26.626 -27.581 -3.877 24
27.101 -27.778 -4.443 34
27.593 -27.981 -5.023 36
26.679 -26.772 -5.185 13
24.998 -24.838 -5.07 5
23.475 -23.092 -4.951 22
22.147 -21.589 -4.858 6
21.012 -20.282 -4.785 19
19.98 -19.114 -4.722 8
19.079 -18.087 -4.678 7
18.232 -17.139 -4.631 6
17.474 -16.285 -4.594 7
16.777 -15.511 -4.565 6
16.128 -14.79 -4.536 5
15.542 -14.139 -4.518 5
14.989 -13.535 -4.503 5
14.479 -12.976 -4.492 6
13.991 -12.451 -4.481 7
13.525 -11.95 -4.467 6
13.082 -11.481 -4.456 7
12.659 -11.033 -4.442 8
12.265 -10.621 -4.437 7
11.899 -10.235 -4.437 9
9.688 -8.282 -3.241 4
9.207 -7.819 -3.109 4
8.945 -7.548 -3.112 4
9.091 -7.625 -3.398 3
9.239 -7.7 -3.694 3
25.507 -27.813 -1.904 31
25.776 -27.786 -2.401 37
9.289 -9.898 0.896 8
26.172 -27.582 -3.368 32
26.493 -27.612 -3.884 27
26.921 -27.762 -4.439 21
27.383 -27.938 -5.011 19
26.497 -26.753 -5.179 13
24.818 -24.813 -5.062 5
23.308 -23.071 -4.944 17
21.995 -21.576 -4.853 5
20.886 -20.287 -4.787 10
19.846 -19.105 -4.719 8
18.967 -18.094 -4.681 6
18.123 -17.143 -4.633 7
17.367 -16.288 -4.595 7
16.678 -15.517 -4.568 6
16.034 -14.797 -4.539 6
15.456 -14.15 -4.523 5
14.912 -13.551 -4.512 5
14.393 -12.98 -4.494 6
13.915 -12.462 -4.488 7
13.448 -11.956 -4.471 6
13.015 -11.494 -4.464 7
12.599 -11.049 -4.453 7
12.203 -10.633 -4.445 8
11.838 -10.246 -4.444 9
9.706 -8.348 -3.291 3
9.161 -7.827 -3.115 4
8.892 -7.548 -3.112 3
9.029 -7.618 -3.392 3
9.172 -7.689 -3.684 3
25.475 -27.943 -1.927 35
25.638 -27.803 -2.404 41
25.818 -27.677 -2.883 25
26.027 -27.596 -3.371 25
26.336 -27.615 -3.885 21
26.71 -27.714 -4.426 20
27.138 -27.86 -4.989 20
26.311 -26.731 -5.172 11
24.638 -24.786 -5.053 5
23.136 -23.044 -4.935 15
21.841 -21.558 -4.847 5
20.732 -20.264 -4.778 5
19.72 -19.104 -4.718 8
18.847 -18.093 -4.68 6
18.008 -17.142 -4.632 6
17.258 -16.287 -4.595 7
16.577 -15.52 -4.569 5
15.941 -14.803 -4.542 6
15.364 -14.154 -4.526 6
14.817 -13.548 -4.51 6
14.313 -12.989 -4.499 6
13.842 -12.474 -4.495 7
13.383 -11.972 -4.481 6
12.946 -11.503 -4.47 5
12.525 -11.052 -4.454 8
12.134 -10.637 -4.448 9
11.775 -10.254 -4.45 9
10.092 -8.733 -3.581 4
9.109 -7.83 -3.117 4
8.838 -7.548 -3.112 4
8.97 -7.613 -3.388 3
9.115 -7.686 -3.681 3
25.391 -28.016 -1.94 35
25.503 -27.822 -2.408 34
25.65 -27.663 -2.88 37
25.893 -27.62 -3.376 26
26.16 -27.599 -3.881 22
26.519 -27.685 -4.418 25
26.929 -27.816 -4.976 20
26.119 -26.7 -5.163 10
24.467 -24.767 -5.047 5
22.977 -23.029 -4.929 12
21.69 -21.543 -4.841 5
20.584 -20.246 -4.772 5
19.589 -19.096 -4.715 7
18.725 -18.09 -4.679 6
17.894 -17.141 -4.632 6
17.152 -16.289 -4.596 7
16.473 -15.519 -4.569 6
15.844 -14.806 -4.544 5
15.278 -14.163 -4.531 6
14.738 -13.561 -4.517 5
14.236 -13.0 -4.505 7
13.759 -12.475 -4.496 6
13.303 -11.975 -4.483 6
12.876 -11.512 -4.476 7
12.462 -11.064 -4.463 8
12.07 -10.646 -4.454 8
11.71 -10.258 -4.453 9
9.954 -8.665 -3.53 22
9.061 -7.835 -3.121 4
8.799 -7.559 -3.121 4
8.906 -7.604 -3.381 3
9.048 -7.675 -3.672 3
25.313 -28.096 -1.954 41
25.478 -27.961 -2.435 40
25.675 -27.856 -2.921 35
25.818 -27.707 -3.397 34
26.092 -27.695 -3.905 33
26.348 -27.674 -4.415 22
26.707 -27.757 -4.959 32
25.918 -26.659 -5.15 9
24.288 -24.739 -5.038 5
22.814 -23.008 -4.922 13
21.538 -21.527 -4.835 6
20.462 -20.251 -4.774 5
19.461 -19.091 -4.713 7
18.608 -18.09 -4.679 6
17.78 -17.139 -4.631 7
17.051 -16.296 -4.599 7
16.377 -15.527 -4.573 6
15.748 -14.809 -4.545 5
15.184 -14.164 -4.531 5
14.648 -13.563 -4.518 5
14.151 -13.003 -4.508 6
13.683 -12.484 -4.501 8
13.24 -11.993 -4.494 6
12.803 -11.518 -4.48 7
12.394 -11.072 -4.468 8
12.008 -10.657 -4.462 8
11.652 -10.271 -4.462 10
9.862 -8.637 -3.509 27
9.012 -7.84 -3.125 4
8.751 -7.563 -3.125 4
8.848 -7.599 -3.376 3
8.989 -7.67 -3.668 3
25.218 -28.157 -1.965 44
25.396 -28.038 -2.45 39
25.584 -27.926 -2.936 37
25.721 -27.772 -3.412 37
26.003 -27.769 -3.924 26
26.265 -27.758 -4.438 31
26.52 -27.733 -4.952 23
25.712 -26.611 -5.136 11
24.115 -24.716 -5.031 5
22.667 -23.003 -4.921 22
21.396 -21.519 -4.832 6
20.32 -20.238 -4.768 5
19.339 -19.091 -4.713 7
18.491 -18.089 -4.678 6
17.672 -17.142 -4.632 6
16.945 -16.297 -4.6 7
16.273 -15.526 -4.572 5
15.663 -14.821 -4.552 5
15.098 -14.173 -4.536 6
14.57 -13.575 -4.525 5
14.074 -13.013 -4.513 6
13.611 -12.496 -4.508 8
13.166 -11.999 -4.498 7
12.739 -11.532 -4.489 7
12.326 -11.079 -4.473 8
11.947 -10.667 -4.469 7
11.592 -10.28 -4.469 9
9.832 -8.663 -3.528 24
8.971 -7.852 -3.135 5
8.709 -7.572 -3.131 4
8.789 -7.594 -3.372 3
8.928 -7.662 -3.661 3
25.139 -28.236 -1.979 41
25.289 -28.089 -2.46 41
25.43 -27.924 -2.935 32
25.624 -27.836 -3.426 32
25.889 -27.817 -3.936 32
26.126 -27.781 -4.444 31
26.329 -27.703 -4.944 32
25.526 -26.583 -5.127 13
23.931 -24.68 -5.019 4
22.515 -22.992 -4.917 24
21.243 -21.499 -4.825 5
20.189 -20.234 -4.767 5
19.206 -19.078 -4.708 7
18.372 -18.086 -4.677 6
17.563 -17.145 -4.633 7
16.842 -16.3 -4.601 7
16.178 -15.532 -4.575 6
15.564 -14.821 -4.552 6
15.009 -14.178 -4.538 5
14.485 -13.582 -4.529 6
13.991 -13.018 -4.516 6
13.533 -12.502 -4.512 9
13.09 -12.004 -4.501 6
12.664 -11.535 -4.491 7
12.263 -11.091 -4.481 8
11.888 -10.68 -4.478 8
11.532 -10.289 -4.476 9
9.78 -8.67 -3.533 20
8.923 -7.857 -3.138 4
8.661 -7.575 -3.134 4
8.731 -7.588 -3.367 3
8.867 -7.655 -3.654 3
24.999 -28.248 -1.981 41
25.204 -28.162 -2.474 44
25.397 -28.057 -2.964 40
25.573 -27.948 -3.452 37
25.733 -27.818 -3.936 34
25.923 -27.734 -4.431 44
26.146 -27.682 -4.938 23
25.354 -26.568 -5.123 13
23.748 -24.643 -5.007 5
22.356 -22.972 -4.91 22
21.101 -21.489 -4.821 5
20.048 -20.219 -4.761 5
19.087 -19.08 -4.709 7
18.253 -18.083 -4.676 6
17.453 -17.145 -4.633 6
16.734 -16.298 -4.6 7
16.077 -15.533 -4.576 6
15.474 -14.828 -4.555 6
14.923 -14.186 -4.543 6
14.399 -13.585 -4.53 5
13.906 -13.02 -4.517 6
13.457 -12.51 -4.517 10
13.022 -12.016 -4.509 5
12.6 -11.548 -4.499 7
12.193 -11.095 -4.484 8
11.821 -10.685 -4.482 8
11.472 -10.298 -4.482 9
9.74 -8.686 -3.546 24
8.877 -7.863 -3.144 4
8.616 -7.582 -3.14 4
8.673 -7.583 -3.363 3
8.805 -7.647 -3.648 3
24.914 -28.32 -1.994 51
25.153 -28.274 -2.496 39
25.311 -28.132 -2.98 40
25.459 -27.994 -3.463 37
25.659 -27.908 -3.958 36
25.867 -27.845 -4.461 34
25.937 -27.63 -4.923 21
25.177 -26.546 -5.116 10
23.578 -24.621 -5.0 5
22.215 -22.97 -4.909 12
20.956 -21.476 -4.817 5
19.91 -20.206 -4.756 5
18.958 -19.07 -4.705 8
18.135 -18.079 -4.674 7
17.345 -17.146 -4.634 7
16.636 -16.305 -4.603 7
15.988 -15.544 -4.581 6
15.386 -14.837 -4.56 6
14.835 -14.191 -4.545 5
14.32 -13.596 -4.536 6
13.835 -13.035 -4.526 6
13.379 -12.516 -4.52 13
12.943 -12.018 -4.51 7
12.525 -11.55 -4.501 7
12.13 -11.106 -4.491 8
11.76 -10.695 -4.489 8
11.412 -10.307 -4.489 9
9.709 -8.712 -3.565 25
8.836 -7.875 -3.152 4
8.572 -7.587 -3.144 4
8.612 -7.574 -3.356 3
8.747 -7.641 -3.642 3
24.931 -28.508 -2.027 35
25.028 -28.303 -2.502 41
25.233 -28.215 -2.997 38
25.375 -28.072 -3.481 38
25.577 -27.989 -3.978 36
25.774 -27.916 -4.48 36
25.795 -27.649 -4.928 22
24.979 -26.501 -5.102 7
23.407 -24.594 -4.991 5
22.072 -22.966 -4.908 7
20.809 -21.46 -4.811 5
19.78 -20.201 -4.754 5
18.828 -19.059 -4.7 8
18.022 -18.08 -4.674 7
17.232 -17.142 -4.632 7
16.534 -16.307 -4.604 8
15.879 -15.536 -4.578 6
15.291 -14.838 -4.56 5
14.746 -14.196 -4.548 6
14.242 -13.607 -4.543 6
13.756 -13.042 -4.53 6
13.304 -12.523 -4.525 21
12.874 -12.029 -4.517 7
12.461 -11.563 -4.509 7
12.065 -11.114 -4.497 8
11.696 -10.703 -4.494 8
11.347 -10.311 -4.491 9
9.629 -8.692 -3.55 24
8.791 -7.882 -3.158 4
8.527 -7.593 -3.149 4
8.554 -7.568 -3.351 3
8.683 -7.631 -3.633 3
24.767 -28.491 -2.024 43
24.968 -28.405 -2.521 37
25.156 -28.3 -3.015 35
25.304 -28.165 -3.502 35
25.484 -28.059 -3.996 37
25.67 -27.975 -4.496 38
25.614 -27.625 -4.921 20
24.8 -26.475 -5.094 7
23.236 -24.567 -4.982 5
21.895 -22.924 -4.893 5
20.674 -21.453 -4.808 5
19.65 -20.195 -4.752 5
18.707 -19.057 -4.7 7
17.901 -18.071 -4.671 7
17.124 -17.143 -4.633 7
16.429 -16.306 -4.604 8
15.79 -15.546 -4.582 6
15.203 -14.846 -4.565 6
14.661 -14.203 -4.552 5
14.153 -13.607 -4.542 5
13.682 -13.053 -4.536 6
13.235 -12.536 -4.532 28
12.804 -12.038 -4.522 6
12.392 -11.57 -4.514 6
11.999 -11.123 -4.503 8
11.637 -10.715 -4.502 7
11.292 -10.324 -4.501 9
9.538 -8.663 -3.528 24
8.74 -7.884 -3.159 4
8.479 -7.596 -3.151 4
8.496 -7.562 -3.345 3
8.628 -7.627 -3.63 3
24.726 -28.614 -2.045 33
24.952 -28.559 -2.551 36
25.07 -28.374 -3.031 38
25.23 -28.253 -3.523 35
25.393 -28.131 -4.014 38
25.56 -28.027 -4.51 37
25.427 -27.594 -4.912 24
24.613 -26.439 -5.083 6
23.081 -24.556 -4.979 5
21.731 -22.896 -4.884 5
20.527 -21.436 -4.802 5
19.516 -20.183 -4.747 5
18.581 -19.047 -4.696 8
17.79 -18.074 -4.672 7
17.025 -17.151 -4.636 6
16.332 -16.313 -4.607 7
15.687 -15.543 -4.581 6
15.111 -14.849 -4.566 5
14.576 -14.209 -4.555 6
14.075 -13.617 -4.548 6
13.6 -13.056 -4.538 6
13.154 -12.538 -4.534 33
12.73 -12.044 -4.526 6
12.328 -11.582 -4.521 7
11.934 -11.131 -4.508 8
11.571 -10.72 -4.506 8
11.229 -10.331 -4.506 9
9.518 -8.698 -3.555 18
8.699 -7.894 -3.168 4
8.442 -7.609 -3.162 4
8.438 -7.555 -3.34 3
8.57 -7.621 -3.625 3
24.8 -28.873 -2.091 32
24.847 -28.611 -2.561 27
25.019 -28.49 -3.056 35
25.069 -28.245 -3.521 33
25.294 -28.194 -4.03 39
25.476 -28.108 -4.532 38
25.239 -27.559 -4.902 31
24.421 -26.398 -5.071 6
22.905 -24.522 -4.968 5
21.584 -22.883 -4.879 5
20.387 -21.424 -4.798 5
19.384 -20.173 -4.744 5
18.469 -19.052 -4.697 8
17.681 -18.077 -4.673 6
16.915 -17.148 -4.635 6
16.227 -16.311 -4.606 8
15.592 -15.547 -4.583 6
15.018 -14.852 -4.567 5
14.49 -14.215 -4.558 5
13.991 -13.622 -4.551 5
13.523 -13.065 -4.543 6
13.077 -12.542 -4.536 35
12.665 -12.056 -4.534 6
12.256 -11.586 -4.524 7
11.877 -11.146 -4.518 8
11.507 -10.727 -4.511 8
11.167 -10.336 -4.51 9
9.467 -8.704 -3.559 20
8.651 -7.898 -3.171 4
8.395 -7.612 -3.164 4
8.378 -7.546 -3.332 7
8.509 -7.612 -3.617 3
24.759 -28.998 -2.113 30
24.846 -28.783 -2.595 28
24.955 -28.589 -3.077 34
25.01 -28.351 -3.545 39
25.172 -28.23 -4.039 36
25.379 -28.174 -4.549 40
25.077 -27.553 -4.901 28
24.244 -26.369 -5.062 7
22.746 -24.504 -4.962 5
21.429 -22.862 -4.872 5
20.249 -21.413 -4.794 4
19.257 -20.168 -4.742 5
18.343 -19.041 -4.693 9
17.566 -18.073 -4.671 7
16.81 -17.15 -4.636 6
16.125 -16.311 -4.606 7
15.501 -15.553 -4.586 6
14.931 -14.859 -4.571 5
14.405 -14.221 -4.561 5
13.91 -13.629 -4.554 5
13.45 -13.075 -4.549 6
13.007 -12.554 -4.543 35
12.589 -12.06 -4.536 6
12.187 -11.593 -4.529 7
11.812 -11.155 -4.524 8
11.451 -10.74 -4.52 8
11.112 -10.348 -4.519 8
9.442 -8.734 -3.582 20
8.607 -7.907 -3.177 4
8.358 -7.624 -3.174 4
8.325 -7.545 -3.331 5
8.456 -7.61 -3.615 3
24.665 -29.061 -2.124 34
24.802 -28.906 -2.619 29
24.901 -28.701 -3.101 33
25.013 -28.528 -3.586 35
25.086 -28.307 -4.058 42
25.298 -28.258 -4.572 38
24.933 -27.565 -4.904 23
24.064 -26.337 -5.052 5
22.581 -24.479 -4.954 5
21.272 -22.837 -4.863 5
20.106 -21.396 -4.788 5
19.131 -20.163 -4.74 5
18.215 -19.028 -4.688 14
17.453 -18.071 -4.671 7
16.701 -17.146 -4.634 7
16.028 -16.316 -4.608 8
15.409 -15.56 -4.589 6
14.839 -14.86 -4.572 5
14.32 -14.226 -4.564 5
13.832 -13.638 -4.56 5
13.365 -13.076 -4.549 6
12.938 -12.565 -4.55 30
12.521 -12.069 -4.542 6
12.123 -11.604 -4.536 7
11.744 -11.16 -4.527 8
11.385 -10.744 -4.523 8
11.052 -10.356 -4.524 9
9.396 -8.745 -3.59 25
8.564 -7.915 -3.184 4
8.316 -7.632 -3.18 4
8.278 -7.547 -3.333 4
8.399 -7.603 -3.609 3
24.559 -29.112 -2.133 30
24.742 -29.012 -2.639 37
24.851 -28.819 -3.126 34
24.953 -28.634 -3.611 35
25.023 -28.411 -4.084 41
25.203 -28.327 -4.59 38
24.793 -27.58 -4.909 27
23.876 -26.295 -5.039 6
22.425 -24.463 -4.948 5
21.123 -22.819 -4.857 5
19.972 -21.387 -4.784 5
18.998 -20.148 -4.734 5
18.089 -19.017 -4.684 15
17.344 -18.072 -4.671 7
16.599 -17.151 -4.636 7
15.932 -16.321 -4.611 8
15.312 -15.56 -4.589 6
14.746 -14.862 -4.573 5
14.238 -14.233 -4.568 5
13.752 -13.645 -4.563 5
13.294 -13.088 -4.557 6
12.863 -12.572 -4.554 7
12.448 -12.074 -4.545 6
12.057 -11.613 -4.541 6
11.684 -11.172 -4.536 8
11.326 -10.755 -4.531 7
10.99 -10.361 -4.528 9
9.342 -8.748 -3.592 22
8.521 -7.924 -3.191 4
8.281 -7.646 -3.192 4
8.28 -7.594 -3.372 4
8.341 -7.596 -3.603 3
24.484 -29.199 -2.149 31
24.685 -29.119 -2.66 42
24.809 -28.946 -3.153 31
24.895 -28.743 -3.636 37
24.947 -28.499 -4.106 50
25.142 -28.434 -4.619 39
24.637 -27.578 -4.908 24
23.697 -26.261 -5.029 6
22.259 -24.433 -4.939 4
20.971 -22.799 -4.85 5
19.833 -21.372 -4.779 5
18.875 -20.145 -4.733 5
17.978 -19.019 -4.684 14
17.23 -18.066 -4.669 7
16.49 -17.146 -4.634 7
15.833 -16.323 -4.611 8
15.218 -15.562 -4.59 6
14.668 -14.876 -4.58 5
14.153 -14.239 -4.571 5
13.669 -13.648 -4.565 5
13.216 -13.092 -4.559 6
12.789 -12.577 -4.557 6
12.38 -12.084 -4.551 7
11.99 -11.621 -4.547 7
11.617 -11.177 -4.539 7
11.265 -10.764 -4.537 8
10.935 -10.373 -4.537 8
9.272 -8.736 -3.583 25
8.468 -7.922 -3.189 2
8.275 -7.687 -3.225 3
8.279 -7.638 -3.409 5
8.281 -7.587 -3.595 8
24.696 -29.629 -2.224 21
24.594 -29.189 -2.674 19
24.774 -29.082 -3.181 33
24.846 -28.864 -3.664 33
24.94 -28.667 -4.148 39
25.072 -28.531 -4.645 36
24.489 -27.584 -4.909 19
23.526 -26.235 -5.021 6
22.09 -24.4 -4.928 5
20.812 -22.768 -4.84 5
19.686 -21.348 -4.77 5
18.747 -20.135 -4.729 5
17.858 -19.013 -4.682 5
17.118 -18.063 -4.667 7
16.389 -17.149 -4.635 7
15.732 -16.321 -4.611 7
15.124 -15.565 -4.592 6
14.581 -14.882 -4.583 5
14.065 -14.24 -4.572 5
13.593 -13.659 -4.571 6
13.137 -13.097 -4.562 6
12.719 -12.588 -4.564 8
12.315 -12.096 -4.558 7
11.927 -11.631 -4.553 7
11.552 -11.183 -4.543 7
11.199 -10.767 -4.539 8
10.873 -10.378 -4.54 9
9.224 -8.744 -3.589 12
8.445 -7.949 -3.211 0
8.271 -7.73 -3.259 4
8.274 -7.681 -3.445 4
8.277 -7.628 -3.631 3
24.683 -29.793 -2.253 28
24.695 -29.488 -2.732 21
24.738 -29.218 -3.21 25
24.8 -28.988 -3.692 35
24.899 -28.798 -4.18 38
25.01 -28.638 -4.673 37
24.328 -27.574 -4.907 14
