# .PCD v0.7 - Point Cloud Data file format
VERSION 0.7
FIELDS x y z intensity
SIZE 4 4 4 4
TYPE F F F F
COUNT 1 1 1 1
WIDTH 2035
HEIGHT 1
VIEWPOINT 0 0 0 1 0 0 0
POINTS 2035
DATA ascii
-9.479 -8.829 0.799 5
-9.504 -8.753 0.655 5
-33.231 -30.28 -5.683 255
-32.282 -29.113 -5.901 17
0.0 -0.0 3.0 0
-26.945 -23.815 -5.2 4
-25.033 -21.902 -4.972 28
-23.644 -20.506 -4.871 29
-23.024 -19.785 -4.994 10
0.0 -0.0 3.0 0
-9.41 -7.949 -0.539 4
-9.418 -7.893 -0.681 5
-9.473 -7.876 -0.841 6
-9.573 -7.9 -1.025 3
-17.641 -14.456 -4.686 6
-17.001 -13.832 -4.667 3
-16.384 -13.243 -4.646 9
-15.785 -12.674 -4.615 7
-15.244 -12.165 -4.602 7
-14.738 -11.688 -4.591 9
-14.257 -11.243 -4.583 21
-13.805 -10.822 -4.578 12
-13.389 -10.44 -4.585 12
-11.56 -8.964 -3.755 9
-11.55 -8.91 -3.962 10
-11.586 -8.892 -4.201 32
-11.403 -8.706 -4.306 30
-10.952 -8.321 -4.233 14
0.0 -0.0 3.0 0
-9.494 -9.103 1.231 183
-9.501 -9.002 1.086 255
-9.515 -8.909 0.943 255
-9.504 -8.799 0.806 5
-9.509 -8.704 0.668 4
-9.517 -8.619 0.528 4
-9.509 -8.522 0.395 0
-30.238 -26.821 -5.715 3
-27.14 -23.839 -5.208 2
-25.22 -21.929 -4.981 24
-23.824 -20.533 -4.882 26
-23.158 -19.776 -4.99 10
-9.43 -7.984 -0.389 1
-9.41 -7.899 -0.517 5
-9.443 -7.864 -0.667 6
-9.509 -7.856 -0.832 5
-9.641 -7.907 -1.029 0
-17.748 -14.453 -4.685 5
-17.109 -13.834 -4.668 6
-16.491 -13.246 -4.648 8
-15.874 -12.666 -4.611 7
-15.326 -12.155 -4.595 8
-14.819 -11.68 -4.585 9
-14.336 -11.236 -4.579 30
-13.88 -10.815 -4.573 11
-13.454 -10.427 -4.576 18
-11.665 -8.991 -3.776 8
-11.478 -8.802 -3.877 12
-11.799 -9.004 -4.291 30
-11.473 -8.709 -4.307 25
-11.003 -8.312 -4.225 12
0.0 -0.0 3.0 0
-9.513 -9.067 1.238 25
-9.508 -8.956 1.096 255
-9.513 -8.854 0.956 255
-9.528 -8.768 0.814 4
-9.486 -8.631 0.687 3
-9.533 -8.581 0.539 6
-9.518 -8.478 0.408 4
0.0 -0.0 3.0 0
-27.36 -23.882 -5.223 1
-25.258 -21.824 -4.943 30
-23.984 -20.541 -4.885 30
-23.299 -19.771 -4.988 8
-9.413 -7.92 -0.362 4
-9.42 -7.857 -0.498 5
-9.47 -7.837 -0.654 5
-9.557 -7.846 -0.827 4
-18.621 -15.176 -4.733 6
-17.855 -14.449 -4.683 4
-17.203 -13.822 -4.662 7
-16.576 -13.232 -4.639 9
-15.964 -12.659 -4.607 7
-15.414 -12.15 -4.592 7
-14.903 -11.674 -4.581 9
-14.409 -11.224 -4.571 20
-13.952 -10.805 -4.566 11
-13.531 -10.423 -4.573 28
-11.653 -8.928 -3.728 9
-11.548 -8.804 -3.878 13
-11.928 -9.048 -4.327 42
-11.524 -8.696 -4.297 31
-11.063 -8.309 -4.223 14
0.0 -0.0 3.0 0
-9.523 -9.024 1.246 7
-9.51 -8.904 1.107 255
-9.532 -8.819 0.964 112
-9.561 -8.746 0.819 5
-9.476 -8.569 0.704 4
-9.566 -8.558 0.546 5
-9.531 -8.438 0.42 6
-9.521 -8.341 0.29 4
-9.529 -8.266 0.154 0
-25.451 -21.853 -4.954 16
-24.106 -20.516 -4.876 29
-9.44 -7.96 -0.216 0
-9.41 -7.867 -0.339 5
-9.444 -7.828 -0.485 6
-9.503 -7.815 -0.644 5
-9.62 -7.848 -0.828 1
-18.737 -15.174 -4.731 7
-17.948 -14.433 -4.674 5
-17.311 -13.822 -4.662 7
-16.674 -13.227 -4.637 9
-16.057 -12.654 -4.603 8
-15.494 -12.137 -4.584 8
-14.98 -11.663 -4.574 9
-14.486 -11.215 -4.564 10
-14.018 -10.79 -4.555 12
-13.596 -10.411 -4.564 33
-11.747 -8.947 -3.742 2
-11.755 -8.908 -3.959 1
-11.913 -8.984 -4.275 39
-11.562 -8.675 -4.279 32
-11.118 -8.302 -4.217 12
-75.43 -71.956 -9.688 18
-9.53 -8.977 1.255 1
-9.51 -8.852 1.119 255
-9.576 -8.807 0.967 6
-9.597 -8.725 0.825 0
-9.47 -8.512 0.719 4
-9.623 -8.556 0.547 0
-9.567 -8.417 0.427 5
-9.539 -8.305 0.302 6
-9.521 -8.208 0.174 4
-9.509 -8.114 0.047 0
-24.264 -20.521 -4.877 30
-9.419 -7.893 -0.189 3
-9.422 -7.828 -0.323 5
-9.465 -7.796 -0.471 5
-9.545 -7.8 -0.637 4
-19.669 -15.946 -4.777 7
-18.858 -15.177 -4.733 7
-18.061 -14.433 -4.674 5
-17.408 -13.812 -4.656 7
-16.763 -13.215 -4.63 8
-16.15 -12.648 -4.6 9
-15.585 -12.132 -4.581 7
-15.067 -11.658 -4.571 9
-14.568 -11.21 -4.561 9
-14.093 -10.783 -4.55 21
-13.67 -10.404 -4.559 32
-11.871 -8.986 -3.772 3
-11.597 -8.737 -3.826 14
-12.094 -9.066 -4.342 19
-11.561 -8.623 -4.235 19
-11.172 -8.295 -4.21 12
0.0 -0.0 3.0 0
-9.554 -8.947 1.261 0
-9.52 -8.808 1.128 87
-9.615 -8.789 0.971 0
-44.58 -40.286 -7.044 4
-9.468 -8.458 0.734 4
-33.287 -29.416 -5.435 27
-9.617 -8.41 0.429 0
-9.575 -8.285 0.308 5
-9.536 -8.17 0.187 6
-9.512 -8.065 0.064 4
-9.471 -7.96 -0.056 0
-9.416 -7.841 -0.168 4
-9.442 -7.795 -0.309 6
-9.497 -7.774 -0.461 5
-9.608 -7.801 -0.638 2
-19.802 -15.952 -4.78 8
-18.965 -15.167 -4.728 7
-18.178 -14.435 -4.675 13
-17.508 -13.805 -4.652 7
-16.855 -13.204 -4.624 7
-16.237 -12.638 -4.593 7
-15.665 -12.119 -4.573 7
-15.145 -11.646 -4.563 9
-14.645 -11.2 -4.554 10
-14.165 -10.771 -4.542 13
-13.743 -10.397 -4.554 29
-11.796 -8.877 -3.689 3
-11.674 -8.742 -3.83 2
-11.851 -8.832 -4.152 45
-11.565 -8.576 -4.196 13
-11.224 -8.285 -4.202 14
0.0 -0.0 3.0 0
0.0 -0.0 3.0 0
-9.567 -8.799 1.13 12
-50.404 -45.8 -7.574 27
-45.004 -40.425 -7.079 5
-9.471 -8.409 0.747 5
-33.336 -29.279 -5.396 10
-31.006 -26.946 -5.238 255
-9.622 -8.274 0.312 0
-9.566 -8.144 0.196 5
-9.529 -8.031 0.077 6
-9.438 -7.882 -0.026 2
-9.424 -7.799 -0.151 5
-9.46 -7.761 -0.294 6
-9.539 -7.759 -0.454 5
-20.641 -16.655 -4.766 3
-19.929 -15.954 -4.781 9
-19.075 -15.159 -4.724 6
-18.277 -14.422 -4.669 12
-17.608 -13.797 -4.648 7
-16.95 -13.196 -4.618 8
-16.336 -12.635 -4.592 8
-15.756 -12.114 -4.57 9
-15.226 -11.637 -4.557 9
-14.724 -11.192 -4.549 10
-14.249 -10.77 -4.541 10
-13.808 -10.383 -4.544 33
-11.847 -8.861 -3.678 9
-11.739 -8.738 -3.827 0
-12.136 -8.992 -4.282 30
-11.618 -8.565 -4.187 12
-11.282 -8.279 -4.197 13
0.0 -0.0 3.0 0
0.0 -0.0 3.0 0
-9.617 -8.792 1.131 1
0.0 -0.0 3.0 0
-45.483 -40.608 -7.125 4
-9.473 -8.361 0.76 5
-33.358 -29.119 -5.35 10
-31.068 -26.833 -5.204 19
-31.711 -27.099 -5.805 2
-9.625 -8.143 0.196 0
-9.559 -8.005 0.087 5
-9.426 -7.823 -0.003 4
-9.439 -7.762 -0.136 6
-9.495 -7.741 -0.286 5
-9.593 -7.753 -0.452 2
-20.749 -16.637 -4.758 3
-20.051 -15.95 -4.779 8
-19.195 -15.157 -4.723 6
-18.399 -14.428 -4.672 14
-17.708 -13.788 -4.643 7
-17.048 -13.189 -4.615 7
-16.418 -12.62 -4.583 7
-15.845 -12.107 -4.565 7
-15.31 -11.629 -4.552 9
-14.801 -11.181 -4.542 9
-14.322 -10.759 -4.533 11
-13.888 -10.38 -4.542 31
-11.959 -8.892 -3.701 0
-12.331 -9.125 -4.129 44
-12.269 -9.036 -4.318 21
-11.67 -8.554 -4.177 12
-11.336 -8.271 -4.19 13
0.0 -0.0 3.0 0
0.0 -0.0 3.0 0
-9.673 -8.791 1.131 0
0.0 -0.0 3.0 0
-45.934 -40.763 -7.163 3
-9.482 -8.317 0.772 5
-9.461 -8.208 0.646 1
-30.964 -26.579 -5.126 5
-31.796 -27.004 -5.774 3
-29.705 -24.977 -5.6 4
-9.445 -7.86 0.139 2
-9.428 -7.776 0.015 5
-9.462 -7.732 -0.124 6
-9.531 -7.721 -0.277 5
-9.652 -7.752 -0.452 0
-21.089 -16.803 -4.835 4
-20.176 -15.947 -4.778 8
-19.317 -15.158 -4.723 6
-18.489 -14.407 -4.66 24
-17.814 -13.784 -4.64 7
-17.143 -13.18 -4.609 8
-16.511 -12.612 -4.578 7
-15.928 -12.095 -4.558 7
-15.389 -11.616 -4.544 9
-14.887 -11.176 -4.539 9
-14.397 -10.749 -4.527 11
-13.959 -10.37 -4.535 28
-13.17 -9.734 -4.335 10
-11.991 -8.821 -3.892 83
-12.327 -9.026 -4.309 21
-11.726 -8.545 -4.17 12
-11.382 -8.257 -4.178 13
0.0 -0.0 3.0 0
0.0 -0.0 3.0 0
0.0 -0.0 3.0 0
0.0 -0.0 3.0 0
-46.391 -40.921 -7.203 4
-9.493 -8.276 0.782 5
-9.457 -8.154 0.662 5
-30.945 -26.399 -5.071 6
0.0 -0.0 3.0 0
-29.952 -25.028 -5.618 3
-9.435 -7.802 0.16 4
-9.442 -7.738 0.03 6
-9.488 -7.704 -0.113 5
-9.578 -7.71 -0.273 4
-20.975 -16.739 -4.453 4
-21.268 -16.838 -4.852 5
-20.298 -15.943 -4.776 8
-19.433 -15.153 -4.721 7
-18.595 -14.398 -4.655 26
-17.911 -13.772 -4.634 7
-17.245 -13.175 -4.607 9
-16.611 -12.609 -4.576 7
-16.016 -12.087 -4.553 7
-15.482 -11.615 -4.543 9
-14.963 -11.166 -4.531 10
-14.472 -10.74 -4.52 13
-14.033 -10.362 -4.529 28
-12.461 -9.155 -3.899 17
-12.435 -9.093 -4.104 42
-12.366 -9.002 -4.29 33
-11.782 -8.535 -4.162 18
-11.44 -8.251 -4.173 13
-74.124 -68.279 -9.039 27
-62.088 -56.455 -7.974 8
0.0 -0.0 3.0 0
0.0 -0.0 3.0 0
-46.839 -41.066 -7.239 7
-9.498 -8.231 0.795 5
-9.414 -8.068 0.687 4
-30.957 -26.247 -5.024 7
-30.933 -25.946 -5.43 4
-9.455 -7.851 0.297 1
-9.43 -7.75 0.179 5
-9.465 -7.708 0.041 6
-9.523 -7.684 -0.105 5
-9.641 -7.712 -0.273 1
0.0 -0.0 3.0 0
-21.401 -16.837 -4.851 5
-20.426 -15.942 -4.776 8
-19.55 -15.148 -4.718 7
-18.709 -14.395 -4.654 27
-18.008 -13.759 -4.627 7
-17.337 -13.163 -4.6 8
-16.701 -12.599 -4.57 7
-16.105 -12.079 -4.548 7
-15.56 -11.601 -4.534 9
-15.04 -11.154 -4.524 10
-14.539 -10.724 -4.509 15
-12.478 -9.159 -3.654 11
-12.484 -9.117 -3.87 44
-12.493 -9.081 -4.095 29
-12.406 -8.978 -4.27 28
-11.832 -8.522 -4.151 15
-11.494 -8.243 -4.166 14
0.0 -0.0 3.0 0
-62.089 -56.125 -7.91 46
0.0 -0.0 3.0 0
0.0 -0.0 3.0 0
-47.252 -41.179 -7.267 4
-9.497 -8.18 0.808 3
-9.47 -8.066 0.687 4
-30.97 -26.095 -4.978 5
-30.945 -25.794 -5.381 5
-9.433 -7.784 0.32 3
-9.444 -7.713 0.193 5
-9.49 -7.68 0.052 5
-9.57 -7.673 -0.1 4
-23.79 -18.909 -5.027 7
0.0 -0.0 3.0 0
-21.538 -16.837 -4.851 5
-20.548 -15.936 -4.772 8
-19.676 -15.149 -4.719 6
-18.817 -14.388 -4.65 22
-18.121 -13.758 -4.626 8
-17.439 -13.157 -4.596 8
-16.795 -12.59 -4.565 7
-16.194 -12.07 -4.542 8
-15.645 -11.593 -4.528 9
-15.123 -11.147 -4.519 10
-14.629 -10.725 -4.51 10
-12.473 -9.1 -3.612 32
-12.503 -9.076 -3.839 25
-12.83 -9.271 -4.243 35
-12.455 -8.96 -4.255 30
-11.893 -8.517 -4.146 15
-11.543 -8.23 -4.154 13
0.0 -0.0 3.0 0
-62.233 -55.924 -7.871 36
0.0 -0.0 3.0 0
0.0 -0.0 3.0 0
0.0 -0.0 3.0 0
-9.43 -8.072 0.837 5
-9.504 -8.046 0.693 4
-30.999 -25.958 -4.936 10
-9.471 -7.846 0.451 0
-9.434 -7.736 0.336 4
-9.463 -7.68 0.205 6
-9.519 -7.655 0.061 5
-9.626 -7.669 -0.099 1
-23.946 -18.913 -5.028 7
-22.772 -17.831 -4.939 1
-21.676 -16.837 -4.851 5
-20.682 -15.939 -4.774 7
-19.793 -15.143 -4.716 6
-18.926 -14.379 -4.646 27
-18.23 -13.754 -4.624 8
-17.531 -13.144 -4.589 8
-16.892 -12.584 -4.561 7
-16.28 -12.059 -4.535 7
-15.732 -11.585 -4.524 9
-15.203 -11.138 -4.512 10
-12.454 -9.074 -3.354 20
-12.48 -9.05 -3.575 36
-12.587 -9.083 -3.844 14
-12.975 -9.32 -4.281 20
-12.521 -8.955 -4.251 17
-11.961 -8.514 -4.144 14
-11.595 -8.22 -4.146 14
-63.538 -57.513 -7.141 14
0.0 -0.0 3.0 0
0.0 -0.0 3.0 0
0.0 -0.0 3.0 0
0.0 -0.0 3.0 0
-9.455 -8.045 0.844 5
-9.5 -7.992 0.708 4
-31.028 -25.822 -4.895 11
-9.445 -7.776 0.474 3
-9.444 -7.696 0.35 5
-9.489 -7.652 0.215 5
-9.569 -7.647 0.065 4
-24.838 -19.664 -4.945 9
-24.104 -18.918 -5.03 7
-22.9 -17.817 -4.933 6
-21.813 -16.837 -4.851 5
-20.814 -15.939 -4.774 7
-19.91 -15.136 -4.712 6
-19.028 -14.365 -4.638 28
-18.334 -13.745 -4.619 8
-17.633 -13.137 -4.585 9
-16.986 -12.575 -4.556 7
-16.372 -12.052 -4.531 7
-15.81 -11.571 -4.514 9
-12.455 -9.068 -3.116 1
-12.458 -9.021 -3.317 30
-12.547 -9.043 -3.57 18
-13.496 -9.68 -4.295 10
-13.001 -9.283 -4.253 21
-12.587 -8.949 -4.247 16
-12.019 -8.506 -4.138 15
-11.65 -8.211 -4.138 14
0.0 -0.0 3.0 0
0.0 -0.0 3.0 0
0.0 -0.0 3.0 0
0.0 -0.0 3.0 0
0.0 -0.0 3.0 0
-9.468 -8.007 0.855 4
-9.458 -7.908 0.732 4
-9.491 -7.849 0.6 0
-9.437 -7.721 0.491 4
-9.46 -7.661 0.362 6
-9.52 -7.629 0.223 5
-9.619 -7.638 0.068 2
-24.98 -19.651 -4.94 9
-24.272 -18.929 -5.035 8
-23.065 -17.832 -4.939 5
-21.96 -16.843 -4.854 5
-20.946 -15.938 -4.773 7
-20.03 -15.131 -4.71 6
-19.152 -14.368 -4.639 32
-18.441 -13.739 -4.615 7
-17.735 -13.13 -4.581 8
-17.08 -12.565 -4.55 7
-16.462 -12.043 -4.525 7
-15.901 -11.566 -4.511 9
-12.446 -9.006 -3.074 27
-12.494 -8.993 -3.297 23
-12.598 -9.025 -3.557 0
-13.285 -9.471 -4.137 15
-13.089 -9.291 -4.259 22
-12.653 -8.944 -4.243 22
-12.072 -8.495 -4.128 13
-11.704 -8.202 -4.13 13
0.0 -0.0 3.0 0
0.0 -0.0 3.0 0
0.0 -0.0 3.0 0
0.0 -0.0 3.0 0
0.0 -0.0 3.0 0
-9.569 -8.042 0.845 4
-9.411 -7.82 0.758 4
-9.458 -7.774 0.623 2
-9.447 -7.68 0.505 5
-9.479 -7.629 0.373 7
-9.561 -7.613 0.229 4
-9.687 -7.644 0.066 0
-25.132 -19.645 -4.937 10
-24.441 -18.94 -5.039 9
-23.212 -17.832 -4.939 5
-22.092 -16.836 -4.851 5
-21.078 -15.936 -4.773 7
-20.154 -15.127 -4.708 5
-19.274 -14.367 -4.639 31
-18.539 -13.724 -4.607 7
-17.831 -13.118 -4.573 8
-17.174 -12.556 -4.544 7
-16.551 -12.032 -4.518 7
-12.462 -9.008 -2.85 5
-12.452 -8.955 -3.04 26
-12.563 -8.988 -3.293 1
-13.043 -9.288 -3.748 11
-13.272 -9.405 -4.087 17
-13.046 -9.206 -4.192 20
-12.705 -8.927 -4.229 19
-12.125 -8.482 -4.118 32
-11.756 -8.191 -4.12 14
0.0 -0.0 3.0 0
0.0 -0.0 3.0 0
-64.771 -56.132 -8.931 8
0.0 -0.0 3.0 0
-49.954 -42.232 -7.53 4
-9.615 -8.032 0.848 5
-9.478 -7.828 0.755 5
-9.444 -7.714 0.642 4
-9.459 -7.642 0.517 6
-9.51 -7.606 0.381 5
-9.604 -7.6 0.234 3
-26.296 -20.618 -4.915 17
-25.275 -19.632 -4.932 8
-24.603 -18.944 -5.041 10
-23.371 -17.84 -4.943 5
-22.245 -16.846 -4.855 5
-21.21 -15.934 -4.772 7
-20.271 -15.119 -4.703 6
-19.386 -14.359 -4.635 32
-18.652 -13.72 -4.605 5
-17.936 -13.112 -4.57 9
-17.268 -12.545 -4.538 8
-16.64 -12.022 -4.512 7
-12.437 -8.934 -2.802 34
-12.494 -8.93 -3.024 19
-15.013 -10.675 -4.475 11
-13.081 -9.258 -3.727 9
-13.703 -9.653 -4.274 17
-13.14 -9.217 -4.201 22
-12.768 -8.919 -4.223 19
-12.178 -8.47 -4.107 19
-11.814 -8.184 -4.114 13
0.0 -0.0 3.0 0
-64.316 -56.12 -7.909 8
0.0 -0.0 3.0 0
0.0 -0.0 3.0 0
-50.426 -42.374 -7.565 3
-9.613 -7.981 0.861 5
-9.482 -7.783 0.768 3
-9.447 -7.669 0.655 5
-9.481 -7.612 0.527 7
-9.544 -7.585 0.388 5
-9.654 -7.591 0.237 0
-26.533 -20.674 -4.936 29
-25.443 -19.637 -4.934 10
-24.769 -18.951 -5.044 11
-23.519 -17.838 -4.942 5
-22.377 -16.837 -4.851 6
-21.343 -15.932 -4.77 7
-20.395 -15.114 -4.701 6
-19.507 -14.358 -4.634 31
-18.756 -13.711 -4.6 6
-18.032 -13.099 -4.563 9
-17.365 -12.537 -4.533 7
-12.437 -8.929 -2.58 2
-12.449 -8.887 -2.772 27
-15.607 -11.086 -4.478 10
-15.089 -10.663 -4.466 12
-13.142 -9.245 -3.717 7
-13.7 -9.592 -4.228 27
-13.256 -9.243 -4.221 37
-12.826 -8.906 -4.212 19
-12.248 -8.47 -4.107 12
-11.871 -8.177 -4.108 14
0.0 -0.0 3.0 0
0.0 -0.0 3.0 0
-66.577 -57.015 -9.119 7
0.0 -0.0 3.0 0
0.0 -0.0 3.0 0
-9.617 -7.935 0.874 5
-9.454 -7.712 0.789 4
-9.456 -7.629 0.667 5
-9.503 -7.582 0.536 5
-9.588 -7.572 0.393 4
-28.293 -22.107 -5.046 20
-26.741 -20.704 -4.947 17
-25.607 -19.638 -4.934 10
-24.942 -18.961 -5.049 18
-23.679 -17.845 -4.945 5
-22.528 -16.843 -4.854 6
-21.476 -15.929 -4.769 7
-20.522 -15.112 -4.7 6
-19.632 -14.357 -4.634 23
-18.863 -13.701 -4.595 7
-18.143 -13.098 -4.562 8
-17.466 -12.53 -4.529 8
-12.43 -8.868 -2.541 18
-12.49 -8.862 -2.755 16
-15.693 -11.079 -4.473 7
-15.165 -10.652 -4.458 13
-13.116 -9.171 -3.663 15
-13.829 -9.625 -4.253 19
-13.323 -9.235 -4.215 34
-12.883 -8.894 -4.202 24
-12.277 -8.44 -4.082 7
-11.929 -8.169 -4.102 13
0.0 -0.0 3.0 0
0.0 -0.0 3.0 0
0.0 -0.0 3.0 0
0.0 -0.0 3.0 0
0.0 -0.0 3.0 0
-9.568 -7.847 0.897 2
-9.454 -7.665 0.802 5
-9.481 -7.601 0.676 7
-9.543 -7.566 0.542 5
-9.643 -7.568 0.394 1
-28.628 -22.228 -5.09 20
-27.02 -20.786 -4.979 30
-25.776 -19.642 -4.936 9
-25.111 -18.968 -5.051 23
-23.833 -17.846 -4.946 5
-22.676 -16.846 -4.855 6
-21.599 -15.918 -4.764 7
-20.65 -15.109 -4.699 6
-19.76 -14.36 -4.635 13
-18.971 -13.692 -4.59 7
-18.24 -13.084 -4.554 8
-12.434 -8.864 -2.326 1
-12.441 -8.821 -2.512 28
-16.331 -11.515 -4.478 7
-15.752 -11.052 -4.454 15
-15.237 -10.637 -4.448 21
-13.353 -9.281 -3.743 7
-13.424 -9.287 -3.998 46
-13.34 -9.191 -4.181 25
-12.278 -8.426 -3.823 1
-12.291 -8.4 -4.049 10
-11.981 -8.158 -4.092 13
0.0 -0.0 3.0 0
0.0 -0.0 3.0 0
0.0 -0.0 3.0 0
0.0 -0.0 3.0 0
0.0 -0.0 3.0 0
-9.458 -7.71 0.934 4
-9.463 -7.625 0.814 5
-9.502 -7.571 0.685 7
-9.576 -7.546 0.548 4
-32.621 -25.438 -5.759 13
-28.711 -22.151 -5.062 17
-27.164 -20.765 -4.971 33
-25.947 -19.647 -4.938 8
-25.275 -18.97 -5.052 23
-23.999 -17.857 -4.95 5
-22.818 -16.842 -4.854 6
-21.745 -15.923 -4.766 7
-20.774 -15.103 -4.696 6
-19.882 -14.356 -4.633 5
-19.078 -13.683 -4.584 7
-18.342 -13.074 -4.548 8
-12.425 -8.802 -2.289 22
-12.485 -8.797 -2.497 22
-16.422 -11.507 -4.473 7
-15.854 -11.055 -4.457 10
-15.319 -10.629 -4.443 30
-13.299 -9.187 -3.675 11
-12.1 -8.321 -3.27 2
-12.233 -8.379 -3.546 2
-12.255 -8.362 -3.771 2
-12.425 -8.442 -4.084 15
-12.032 -8.146 -4.081 13
0.0 -0.0 3.0 0
0.0 -0.0 3.0 0
0.0 -0.0 3.0 0
-55.231 -45.858 -7.587 5
0.0 -0.0 3.0 0
-9.458 -7.662 0.947 5
-9.481 -7.592 0.823 7
-9.523 -7.541 0.695 5
-9.628 -7.539 0.55 2
-32.871 -25.472 -5.771 13
-29.209 -22.392 -5.15 20
-27.199 -20.66 -4.931 29
-26.125 -19.656 -4.941 6
-25.439 -18.971 -5.053 26
-24.157 -17.858 -4.951 5
-22.966 -16.844 -4.854 6
-21.875 -15.916 -4.763 8
-20.905 -15.101 -4.694 6
-19.989 -14.342 -4.626 5
-19.189 -13.674 -4.58 6
-12.466 -8.829 -2.098 0
-12.448 -8.763 -2.266 27
-12.607 -8.827 -2.516 2
-16.507 -11.495 -4.465 7
-15.937 -11.045 -4.45 10
-15.401 -10.62 -4.437 32
-13.236 -9.088 -3.603 10
-12.125 -8.288 -3.245 11
-12.234 -8.33 -3.508 2
-12.305 -8.346 -3.758 3
-12.483 -8.433 -4.076 14
-12.099 -8.144 -4.079 13
0.0 -0.0 3.0 0
0.0 -0.0 3.0 0
0.0 -0.0 3.0 0
0.0 -0.0 3.0 0
-9.47 -7.72 1.075 2
-9.46 -7.617 0.959 5
-9.502 -7.562 0.832 9
-9.52 -7.491 0.71 3
-9.702 -7.55 0.547 0
-33.137 -25.516 -5.786 12
-29.398 -22.394 -5.151 22
-27.212 -20.538 -4.884 34
-26.341 -19.692 -4.956 7
-25.616 -18.981 -5.057 25
-24.315 -17.86 -4.952 5
-23.115 -16.844 -4.854 6
-22.002 -15.906 -4.758 7
-21.033 -15.097 -4.692 6
-20.114 -14.339 -4.624 5
-19.303 -13.668 -4.576 6
-12.451 -8.762 -2.059 20
-12.483 -8.732 -2.247 20
-17.194 -11.963 -4.475 7
-16.596 -11.484 -4.458 9
-16.024 -11.036 -4.444 10
-15.474 -10.606 -4.426 31
-13.279 -9.062 -3.584 11
-12.147 -8.253 -3.219 16
-12.265 -8.301 -3.485 4
-12.508 -8.434 -3.83 2
-12.542 -8.423 -4.068 13
-12.154 -8.133 -4.07 20
0.0 -0.0 3.0 0
-84.889 -71.495 -10.897 14
0.0 -0.0 3.0 0
0.0 -0.0 3.0 0
-9.46 -7.665 1.089 5
-9.475 -7.582 0.968 8
-9.523 -7.532 0.84 6
-9.509 -7.437 0.726 4
-32.799 -25.362 -5.241 1
-33.401 -25.557 -5.8 12
-29.87 -22.61 -5.229 22
-27.312 -20.482 -4.862 31
-26.542 -19.714 -4.965 8
-25.786 -18.985 -5.059 23
-24.476 -17.863 -4.953 5
-23.258 -16.839 -4.852 6
-22.145 -15.907 -4.758 6
-21.167 -15.095 -4.691 6
-20.23 -14.33 -4.619 6
-19.405 -13.653 -4.568 6
-12.448 -8.705 -2.026 21
-12.533 -8.712 -2.235 6
-17.29 -11.955 -4.47 8
-16.684 -11.474 -4.451 9
-16.105 -11.023 -4.435 10
-15.489 -10.55 -4.387 5
-13.263 -8.996 -3.536 12
-12.178 -8.224 -3.197 50
-12.327 -8.293 -3.479 3
-13.067 -8.759 -4.093 12
-12.583 -8.402 -4.05 26
-12.209 -8.123 -4.061 14
0.0 -0.0 3.0 0
-84.605 -70.837 -10.769 19
0.0 -0.0 3.0 0
0.0 -0.0 3.0 0
-9.465 -7.622 1.1 6
-9.496 -7.552 0.976 13
-9.565 -7.519 0.844 5
-9.502 -7.384 0.742 4
-33.031 -25.38 -5.247 1
-33.659 -25.593 -5.812 10
-30.061 -22.61 -5.229 21
-27.586 -20.556 -4.891 32
-26.724 -19.722 -4.968 11
-25.961 -18.99 -5.061 23
-24.638 -17.866 -4.954 5
-23.404 -16.836 -4.851 5
-22.282 -15.902 -4.756 6
-21.292 -15.087 -4.687 6
-20.356 -14.327 -4.618 6
-12.461 -8.711 -1.828 0
-12.492 -8.681 -2.012 17
-12.567 -8.681 -2.216 4
-17.374 -11.937 -4.459 9
-16.772 -11.463 -4.444 7
-15.604 -10.614 -4.159 7
-15.509 -10.499 -4.352 2
-12.246 -8.256 -2.998 0
-12.193 -8.185 -3.168 57
-12.446 -8.324 -3.503 2
-13.197 -8.794 -4.121 51
-12.663 -8.406 -4.054 15
-12.263 -8.113 -4.053 14
0.0 -0.0 3.0 0
0.0 -0.0 3.0 0
0.0 -0.0 3.0 0
-9.536 -7.729 1.216 0
-9.473 -7.582 1.109 6
-9.525 -7.529 0.983 7
-9.605 -7.503 0.849 4
-9.501 -7.337 0.757 5
-33.25 -25.388 -5.249 1
-33.93 -25.635 -5.827 8
-30.195 -22.566 -5.213 19
-28.09 -20.798 -4.984 17
-26.916 -19.737 -4.974 14
-26.138 -18.998 -5.064 21
-24.803 -17.87 -4.956 5
-23.559 -16.838 -4.852 6
-22.413 -15.892 -4.751 7
-21.42 -15.08 -4.684 6
-20.47 -14.314 -4.611 5
-12.385 -8.603 -1.769 21
-12.639 -8.727 -2.038 9
-18.156 -12.462 -4.488 7
-17.47 -11.928 -4.453 12
-16.861 -11.451 -4.436 10
-15.547 -10.509 -4.089 25
-15.523 -10.444 -4.313 2
-12.328 -8.26 -3.002 29
-12.193 -8.135 -3.13 27
-12.465 -8.287 -3.474 2
-13.245 -8.773 -4.105 27
-12.704 -8.384 -4.035 31
-12.321 -8.105 -4.045 13
0.0 -0.0 3.0 0
0.0 -0.0 3.0 0
0.0 -0.0 3.0 0
-9.532 -7.679 1.227 1
-9.493 -7.552 1.117 14
-9.552 -7.503 0.989 5
-9.656 -7.497 0.85 2
-9.531 -7.314 0.764 5
-33.517 -25.431 -5.263 2
-34.202 -25.677 -5.841 6
-30.448 -22.611 -5.23 21
-28.308 -20.825 -4.994 17
-27.089 -19.736 -4.974 22
-26.319 -19.007 -5.068 16
-24.965 -17.871 -4.957 5
-23.709 -16.836 -4.851 6
-22.559 -15.893 -4.752 7
-21.549 -15.073 -4.68 6
-20.599 -14.313 -4.61 5
-12.463 -8.601 -1.768 27
-12.62 -8.658 -1.999 1
-18.248 -12.446 -4.478 7
-17.563 -11.916 -4.446 17
-16.949 -11.44 -4.429 8
-15.532 -10.435 -4.038 44
-15.558 -10.404 -4.285 2
-12.31 -8.198 -2.956 38
-12.275 -8.141 -3.135 16
-13.314 -8.798 -3.874 15
-13.306 -8.762 -4.095 37
-12.778 -8.384 -4.035 19
-12.379 -8.096 -4.038 14
0.0 -0.0 3.0 0
-83.724 -68.868 -10.387 14
0.0 -0.0 3.0 0
-9.53 -7.632 1.238 1
-9.517 -7.524 1.124 9
-9.591 -7.487 0.994 5
-44.963 -34.687 -6.946 4
-9.588 -7.313 0.764 4
-33.743 -25.441 -5.266 2
-34.487 -25.726 -5.858 5
-30.686 -22.642 -5.241 29
-28.676 -20.961 -5.046 29
-27.266 -19.738 -4.975 27
-26.504 -19.016 -5.072 15
-25.127 -17.871 -4.957 4
-23.862 -16.836 -4.851 5
-22.694 -15.885 -4.748 8
-21.687 -15.072 -4.68 6
-20.719 -14.303 -4.605 5
-12.487 -8.563 -1.747 28
-19.069 -13.0 -4.505 7
-18.347 -12.434 -4.471 7
-17.656 -11.904 -4.438 27
-15.595 -10.46 -3.792 11
-15.533 -10.371 -3.995 46
-15.597 -10.365 -4.258 1
-12.315 -8.152 -2.923 27
-12.33 -8.128 -3.125 17
-13.504 -8.87 -3.93 43
-13.351 -8.74 -4.077 44
-12.84 -8.375 -4.028 13
-12.44 -8.089 -4.031 14
0.0 -0.0 3.0 0
0.0 -0.0 3.0 0
0.0 -0.0 3.0 0
-9.544 -7.596 1.246 2
-9.543 -7.499 1.13 6
-9.642 -7.482 0.995 3
-45.388 -34.797 -6.978 4
-9.756 -7.394 0.74 9
-33.96 -25.444 -5.267 2
-34.836 -25.821 -5.891 8
-30.909 -22.661 -5.248 23
-28.828 -20.937 -5.037 30
-27.443 -19.738 -4.975 29
-26.676 -19.016 -5.072 13
-25.296 -17.874 -4.958 4
-24.021 -16.838 -4.852 6
-22.831 -15.878 -4.744 8
-21.816 -15.064 -4.675 6
-20.842 -14.296 -4.601 5
-12.556 -8.555 -1.742 17
-19.182 -12.993 -4.501 7
-18.439 -12.417 -4.461 7
-17.756 -11.895 -4.433 31
-15.548 -10.363 -3.73 25
-15.556 -10.321 -3.962 47
-15.66 -10.343 -4.242 1
-12.314 -8.102 -2.886 7
-12.388 -8.117 -3.117 15
-13.789 -9.003 -4.034 38
-13.423 -8.736 -4.074 39
-12.902 -8.367 -4.021 15
-12.494 -8.078 -4.022 14
0.0 -0.0 3.0 0
0.0 -0.0 3.0 0
0.0 -0.0 3.0 0
-9.567 -7.569 1.253 5
-9.578 -7.481 1.135 5
-9.703 -7.482 0.995 0
-45.846 -34.93 -7.016 4
-9.717 -7.318 0.763 1
-34.225 -25.48 -5.279 2
-35.062 -25.824 -5.892 3
-30.94 -22.538 -5.203 24
-29.034 -20.951 -5.042 29
-27.627 -19.742 -4.976 31
-26.88 -19.038 -5.081 10
-25.456 -17.871 -4.957 5
-24.172 -16.834 -4.85 5
-21.65 -14.959 -4.296 2
-21.945 -15.055 -4.671 6
-12.482 -8.507 -1.523 22
-20.114 -13.617 -4.548 6
-19.282 -12.977 -4.492 7
-18.537 -12.403 -4.453 7
-15.612 -10.393 -3.494 0
-15.536 -10.289 -3.682 45
-15.581 -10.274 -3.93 48
-15.716 -10.317 -4.224 1
-12.344 -8.071 -2.864 6
-12.44 -8.102 -3.105 0
-13.983 -9.076 -4.091 38
-13.483 -8.723 -4.064 39
-12.961 -8.356 -4.011 13
-12.549 -8.067 -4.013 13
0.0 -0.0 3.0 0
0.0 -0.0 3.0 0
-9.591 -7.645 1.375 0
-9.609 -7.556 1.255 1
-9.626 -7.472 1.137 4
-51.553 -39.508 -7.586 4
-46.305 -35.06 -7.053 3
0.0 -0.0 3.0 0
-34.456 -25.489 -5.282 1
-31.502 -23.054 -4.938 3
-31.008 -22.443 -5.169 14
-29.149 -20.898 -5.022 19
-27.805 -19.741 -4.976 34
-27.072 -19.05 -5.086 10
-25.631 -17.877 -4.959 4
-24.338 -16.84 -4.853 5
-21.715 -14.906 -4.27 143
-22.077 -15.048 -4.667 6
-12.484 -8.453 -1.494 22
-20.245 -13.618 -4.549 6
-19.389 -12.965 -4.486 8
-18.642 -12.394 -4.447 7
-15.562 -10.294 -3.432 20
-15.542 -10.229 -3.643 47
-15.625 -10.238 -3.906 46
-15.845 -10.337 -4.238 0
-12.418 -8.07 -2.863 6
-13.48 -8.727 -3.576 9
-14.048 -9.063 -4.081 19
-13.525 -8.699 -4.044 43
-13.016 -8.343 -4.001 12
-12.607 -8.057 -4.004 14
0.0 -0.0 3.0 0
0.0 -0.0 3.0 0
-9.601 -7.607 1.383 4
-9.676 -7.562 1.254 2
-9.687 -7.474 1.137 2
-52.116 -39.693 -7.636 5
-46.765 -35.187 -7.09 4
0.0 -0.0 3.0 0
-34.731 -25.53 -5.295 1
-31.346 -22.794 -4.848 6
-31.127 -22.385 -5.147 14
-29.256 -20.84 -5.0 14
-28.011 -19.759 -4.983 32
-25.363 -17.731 -4.526 3
-25.808 -17.884 -4.962 5
-24.482 -16.83 -4.848 6
-21.748 -14.832 -4.234 255
-22.216 -15.045 -4.666 7
-12.514 -8.419 -1.476 19
-20.376 -13.618 -4.549 3
-19.495 -12.953 -4.479 7
-18.747 -12.385 -4.441 7
-15.536 -10.212 -3.381 35
-15.56 -10.176 -3.609 48
-15.681 -10.211 -3.887 39
-14.487 -9.392 -3.577 5
-12.469 -8.054 -2.851 0
-14.06 -9.047 -3.817 30
-14.125 -9.059 -4.078 19
-13.555 -8.666 -4.018 20
-13.082 -8.336 -3.995 13
-12.665 -8.047 -3.995 14
0.0 -0.0 3.0 0
-9.594 -7.662 1.511 0
-9.621 -7.577 1.389 5
-64.679 -50.246 -8.6 28
0.0 -0.0 3.0 0
-52.696 -39.886 -7.687 6
-47.249 -35.329 -7.13 3
-42.716 -31.566 -6.651 5
-31.594 -23.076 -4.498 2
-31.255 -22.582 -4.776 10
-31.159 -22.264 -5.103 12
-29.53 -20.899 -5.022 16
-28.215 -19.774 -4.989 30
-25.378 -17.627 -4.482 255
-25.984 -17.888 -4.964 5
-24.646 -16.832 -4.849 6
-21.739 -14.729 -4.184 89
-12.485 -8.399 -1.28 1
-12.579 -8.407 -1.47 3
-20.485 -13.602 -4.54 3
-19.608 -12.945 -4.474 8
-15.625 -10.256 -3.163 9
-15.532 -10.144 -3.339 49
-15.588 -10.13 -3.579 49
-15.759 -10.198 -3.879 26
-14.481 -9.331 -3.533 8
-15.31 -9.828 -4.141 10
-14.597 -9.335 -4.034 27
-14.184 -9.042 -4.064 47
-13.587 -8.635 -3.993 11
-13.144 -8.327 -3.987 12
-12.719 -8.036 -3.985 13
0.0 -0.0 3.0 0
-9.595 -7.617 1.519 1
-9.662 -7.564 1.392 0
0.0 -0.0 3.0 0
0.0 -0.0 3.0 0
-53.209 -40.024 -7.725 9
-47.715 -35.454 -7.166 4
-43.211 -31.73 -6.701 10
-31.389 -22.781 -4.402 6
-31.195 -22.395 -4.711 12
-31.137 -22.105 -5.045 14
-29.785 -20.943 -5.039 15
-28.409 -19.781 -4.992 30
0.0 -0.0 3.0 0
-26.138 -17.877 -4.96 4
-21.803 -14.794 -3.898 18
-21.694 -14.604 -4.123 47
-12.501 -8.356 -1.257 26
-21.477 -14.261 -4.583 6
-20.588 -13.582 -4.528 4
-19.719 -12.934 -4.467 8
-15.55 -10.142 -3.094 20
-15.53 -10.079 -3.298 45
-15.621 -10.088 -3.552 47
-15.85 -10.193 -3.875 1
-14.786 -9.469 -3.63 0
-14.573 -9.298 -3.755 3
-14.791 -9.402 -4.085 33
-14.189 -8.992 -4.025 42
-13.644 -8.62 -3.981 11
-13.209 -8.319 -3.981 16
-12.777 -8.026 -3.977 22
0.0 -0.0 3.0 0
-9.605 -7.58 1.527 58
-11.638 -9.057 1.075 0
0.0 -0.0 3.0 0
0.0 -0.0 3.0 0
-53.703 -40.147 -7.757 6
-12.831 -9.475 0.283 1
-43.563 -31.787 -6.718 18
-31.296 -22.569 -4.333 5
-31.166 -22.231 -4.655 13
-31.146 -21.969 -4.996 15
-29.663 -20.722 -4.954 6
-25.498 -17.638 -4.126 0
0.0 -0.0 3.0 0
-25.275 -17.174 -4.646 1
-21.809 -14.701 -3.855 37
-21.681 -14.499 -4.072 59
-12.531 -8.321 -1.24 35
-21.604 -14.252 -4.578 6
-20.701 -13.567 -4.52 4
-19.826 -12.92 -4.459 9
-15.526 -10.061 -3.045 38
-15.535 -10.018 -3.26 44
-15.674 -10.058 -3.532 43
-17.041 -10.89 -4.345 8
-14.698 -9.353 -3.549 8
-14.434 -9.153 -3.65 4
-14.226 -8.989 -3.773 39
-14.298 -9.006 -4.036 34
-13.707 -8.609 -3.971 11
-13.268 -8.308 -3.971 15
-12.832 -8.014 -3.967 14
-9.596 -7.64 1.653 0
-9.64 -7.562 1.53 2
-11.703 -9.053 1.076 5
0.0 -0.0 3.0 0
0.0 -0.0 3.0 0
-54.38 -40.399 -7.825 5
-12.813 -9.402 0.304 3
-31.447 -22.801 -3.971 15
-31.219 -22.37 -4.269 18
-31.143 -22.071 -4.6 14
-31.158 -21.835 -4.947 15
-30.277 -21.014 -5.067 19
0.0 -0.0 3.0 0
0.0 -0.0 3.0 0
-25.379 -17.132 -4.628 1
-21.822 -14.613 -3.814 11
-21.69 -14.41 -4.028 58
-12.57 -8.293 -1.225 14
-21.735 -14.245 -4.574 5
-20.823 -13.559 -4.516 5
-19.949 -12.917 -4.457 8
-15.531 -10.0 -3.008 54
-15.546 -9.961 -3.224 44
-15.739 -10.036 -3.518 36
-17.131 -10.879 -4.338 8
-14.675 -9.281 -3.499 24
-14.411 -9.083 -3.599 21
-14.175 -8.901 -3.707 24
-14.35 -8.985 -4.02 36
-13.77 -8.597 -3.962 9
-13.327 -8.296 -3.961 23
-12.896 -8.008 -3.961 14
-9.615 -7.61 1.658 8
-9.697 -7.562 1.53 0
-83.237 -64.002 -10.604 32
0.0 -0.0 3.0 0
0.0 -0.0 3.0 0
-54.82 -40.474 -7.845 10
0.0 -0.0 3.0 0
-31.322 -22.567 -3.899 25
-31.173 -22.195 -4.211 19
-31.144 -21.93 -4.551 16
-31.181 -21.711 -4.902 17
-30.579 -21.086 -5.094 20
0.0 -0.0 3.0 0
-25.339 -17.145 -4.278 24
0.0 -0.0 3.0 0
0.0 -0.0 3.0 0
-12.542 -8.278 -1.037 8
-12.637 -8.283 -1.22 1
-21.869 -14.239 -4.571 6
-20.942 -13.548 -4.51 7
-20.059 -12.904 -4.45 8
-15.544 -9.944 -2.975 59
-15.562 -9.908 -3.191 45
-15.84 -10.037 -3.518 12
-17.219 -10.866 -4.329 10
-14.782 -9.291 -3.506 17
-14.467 -9.062 -3.584 20
-14.179 -8.85 -3.669 21
-14.399 -8.961 -4.001 48
-13.837 -8.588 -3.954 9
-13.392 -8.288 -3.954 17
-12.954 -7.997 -3.952 15
-9.625 -7.574 1.665 4
-11.552 -8.955 1.259 1
-11.684 -8.93 1.102 1
0.0 -0.0 3.0 0
0.0 -0.0 3.0 0
-54.969 -40.331 -7.807 22
-12.761 -9.246 0.349 4
-31.259 -22.378 -3.842 13
-31.148 -22.034 -4.159 255
-30.997 -21.686 -4.467 13
-31.195 -21.579 -4.854 11
-30.759 -21.072 -5.089 27
0.0 -0.0 3.0 0
-25.349 -17.039 -4.233 36
-25.218 -16.801 -4.48 0
0.0 -0.0 3.0 0
-12.545 -8.226 -1.012 21
-21.667 -14.108 -4.188 36
-21.996 -14.229 -4.566 6
-21.054 -13.532 -4.501 7
-20.176 -12.895 -4.445 8
-15.561 -9.891 -2.943 59
-15.589 -9.861 -3.162 56
-17.952 -11.303 -4.34 8
-17.306 -10.853 -4.32 10
-14.813 -9.252 -3.479 27
-14.332 -8.922 -3.482 4
-14.698 -9.119 -3.871 21
-14.473 -8.953 -3.995 41
-13.903 -8.578 -3.946 13
-13.448 -8.274 -3.943 19
-13.018 -7.991 -3.946 14
-9.678 -7.57 1.665 0
-11.556 -8.905 1.269 13
-11.73 -8.911 1.106 0
0.0 -0.0 3.0 0
-57.64 -42.593 -7.62 7
-12.681 -9.246 0.523 3
-13.1 -9.433 0.295 2
-31.205 -22.198 -3.787 9
-31.142 -21.889 -4.112 255
-30.987 -21.539 -4.417 13
-31.134 -21.397 -4.788 12
-30.871 -21.011 -5.065 10
0.0 -0.0 3.0 0
-25.365 -16.938 -4.19 17
0.0 -0.0 3.0 0
0.0 -0.0 3.0 0
-12.573 -8.19 -0.994 19
-21.678 -14.022 -4.145 49
-22.128 -14.22 -4.561 6
-21.18 -13.524 -4.496 6
-20.287 -12.882 -4.437 8
-15.583 -9.841 -2.913 61
-15.602 -9.807 -3.128 61
-18.057 -11.297 -4.336 7
-17.394 -10.84 -4.311 10
-14.885 -9.239 -3.47 21
-14.724 -9.109 -3.618 18
-14.669 -9.045 -3.816 34
-14.547 -8.945 -3.989 37
-13.976 -8.572 -3.941 12
-13.519 -8.269 -3.939 13
-13.076 -7.98 -3.937 14
-32.325 -25.138 -1.432 26
0.0 -0.0 3.0 0
-11.68 -8.82 1.125 2
0.0 -0.0 3.0 0
-58.408 -42.895 -7.695 5
-11.586 -8.396 0.75 0
-13.226 -9.463 0.286 9
-31.17 -22.032 -3.736 37
-31.148 -21.753 -4.068 255
-12.497 -8.631 0.028 15
-31.166 -21.28 -4.745 15
-30.867 -20.871 -5.012 10
0.0 -0.0 3.0 0
0.0 -0.0 3.0 0
-25.291 -16.628 -4.403 88
-12.549 -8.184 -0.816 7
-12.615 -8.163 -0.981 2
-21.646 -13.909 -4.087 62
-22.265 -14.215 -4.558 6
-21.293 -13.507 -4.487 6
-20.404 -12.872 -4.432 8
-15.616 -9.798 -2.887 60
-15.618 -9.754 -3.095 59
-18.159 -11.288 -4.331 4
-17.479 -10.823 -4.3 11
-14.958 -9.226 -3.46 29
-14.783 -9.09 -3.604 18
-14.693 -9.005 -3.785 17
-14.539 -8.886 -3.943 21
-14.042 -8.561 -3.933 10
-13.578 -8.257 -3.928 12
-13.134 -7.969 -3.928 14
-32.284 -24.96 -1.401 27
-11.757 -8.953 1.26 0
-11.602 -8.709 1.149 13
0.0 -0.0 3.0 0
-59.55 -43.463 -7.836 7
-11.632 -8.376 0.756 8
-31.233 -22.206 -3.367 3
-31.166 -21.889 -3.692 19
-31.163 -21.624 -4.026 255
-12.477 -8.561 0.052 21
-12.668 -8.593 -0.128 1
-31.105 -20.894 -5.02 5
0.0 -0.0 3.0 0
-12.587 -8.295 -0.521 11
-25.319 -16.536 -4.362 255
-12.561 -8.138 -0.795 21
-21.659 -13.922 -3.79 51
-21.653 -13.822 -4.043 56
-22.397 -14.205 -4.553 6
-21.416 -13.496 -4.481 6
-20.518 -12.86 -4.424 9
-15.667 -9.766 -2.868 46
-15.637 -9.703 -3.063 58
-18.268 -11.284 -4.328 4
-17.553 -10.801 -4.286 22
-15.014 -9.203 -3.444 24
-14.848 -9.073 -3.592 13
-14.456 -8.805 -3.635 59
-14.645 -8.897 -3.951 38
-14.109 -8.551 -3.924 10
-13.64 -8.246 -3.919 12
-13.191 -7.958 -3.918 13
-32.246 -24.784 -1.37 26
-32.138 -24.327 -1.729 25
-11.593 -8.649 1.162 1
0.0 -0.0 3.0 0
-60.824 -44.117 -8.0 12
-12.731 -9.11 0.559 1
-31.2 -22.042 -3.32 2
-31.165 -21.748 -3.649 4
-31.211 -21.517 -3.991 87
-12.602 -8.59 0.042 12
-12.706 -8.563 -0.117 6
-31.497 -21.018 -5.068 17
0.0 -0.0 3.0 0
-12.625 -8.265 -0.508 19
-25.369 -16.46 -4.328 18
-12.589 -8.102 -0.778 26
-21.691 -13.851 -3.756 61
-21.665 -13.738 -4.0 62
-22.522 -14.19 -4.545 6
-21.542 -13.487 -4.476 7
-20.636 -12.849 -4.419 8
-15.757 -9.759 -2.864 39
-15.65 -9.648 -3.029 48
-18.358 -11.267 -4.317 4
-17.647 -10.79 -4.278 12
-15.137 -9.221 -3.456 21
-14.821 -9.0 -3.539 16
-14.724 -8.913 -3.717 21
-14.71 -8.883 -3.94 47
-14.172 -8.538 -3.914 10
-13.709 -8.239 -3.913 12
-13.252 -7.949 -3.91 14
-32.204 -24.606 -1.339 26
-32.098 -24.153 -1.695 26
-11.759 -8.719 1.147 12
-12.94 -9.457 0.817 0
-31.521 -22.722 -2.665 4
-11.919 -8.475 0.729 10
-12.908 -9.061 0.402 7
-13.462 -9.334 0.146 0
-31.228 -21.39 -3.95 18
-31.303 -21.2 -4.3 22
-12.721 -8.517 -0.1 31
-12.765 -8.462 -0.248 7
-25.587 -16.792 -3.784 2
-12.673 -8.241 -0.498 1
-12.577 -8.106 -0.609 6
-12.633 -8.077 -0.766 11
-21.729 -13.783 -3.722 42
-21.694 -13.665 -3.963 64
-22.637 -14.169 -4.534 2
-21.665 -13.474 -4.469 6
-20.75 -12.836 -4.411 8
-15.867 -9.764 -2.867 33
-15.672 -9.599 -2.998 50
-18.444 -11.247 -4.304 4
-17.735 -10.775 -4.268 15
-15.171 -9.184 -3.431 23
-14.71 -8.878 -3.45 16
-14.913 -8.973 -3.762 25
-14.857 -8.918 -3.967 33
-14.239 -8.527 -3.905 11
-13.774 -8.229 -3.905 13
-13.31 -7.938 -3.9 14
-32.17 -24.437 -1.309 24
-32.058 -23.978 -1.661 24
0.0 -0.0 3.0 0
-11.664 -8.472 1.044 1
-31.395 -22.49 -2.607 2
-12.194 -8.615 0.691 3
-11.859 -8.272 0.628 3
-13.475 -9.284 0.162 12
-31.138 -21.191 -3.885 11
-13.01 -8.753 -0.014 2
-12.785 -8.504 -0.095 31
-12.836 -8.453 -0.245 1
-12.765 -8.322 -0.362 0
-12.691 -8.198 -0.48 12
-12.605 -8.069 -0.593 57
-21.961 -13.947 -3.504 21
-21.774 -13.72 -3.692 0
-21.726 -13.594 -3.927 68
0.0 -0.0 3.0 0
-21.785 -13.459 -4.461 6
-20.868 -12.824 -4.404 9
-15.665 -9.576 -2.754 0
-15.71 -9.56 -2.974 38
-18.543 -11.236 -4.296 3
-17.826 -10.762 -4.259 20
-15.266 -9.183 -3.43 26
-14.755 -8.85 -3.43 20
-14.709 -8.796 -3.628 4
-14.931 -8.908 -3.96 19
-14.305 -8.516 -3.896 11
-13.833 -8.216 -3.894 14
-13.378 -7.931 -3.895 14
-32.126 -24.26 -1.278 25
-32.013 -23.803 -1.627 25
0.0 -0.0 3.0 0
-11.795 -8.515 1.034 18
-12.058 -8.585 0.859 3
-12.935 -9.083 0.566 26
-12.268 -8.503 0.562 41
-11.335 -7.759 0.628 1
-31.196 -21.093 -3.853 11
-13.225 -8.84 -0.044 20
-12.745 -8.421 -0.065 28
-12.52 -8.19 -0.144 10
-12.783 -8.278 -0.345 14
-12.564 -8.062 -0.422 16
-12.636 -8.036 -0.578 31
-22.016 -13.888 -3.476 32
0.0 -0.0 3.0 0
-21.773 -13.534 -3.896 40
-21.944 -13.553 -4.206 32
-21.904 -13.444 -4.452 6
-20.986 -12.812 -4.397 8
-15.725 -9.55 -2.738 4
-15.777 -9.539 -2.961 10
-18.606 -11.201 -4.274 3
-17.917 -10.749 -4.25 23
-15.332 -9.165 -3.417 7
-14.839 -8.845 -3.426 18
-15.538 -9.235 -3.959 31
-14.98 -8.883 -3.94 32
-14.365 -8.501 -3.884 10
-13.901 -8.209 -3.888 12
-13.442 -7.924 -3.888 15
-32.082 -24.084 -1.247 24
-31.977 -23.634 -1.594 25
0.0 -0.0 3.0 0
-11.737 -8.421 1.056 3
-11.871 -8.398 0.906 0
-12.986 -9.061 0.572 26
-12.005 -8.268 0.629 11
-11.373 -7.735 0.635 16
-31.339 -21.052 -3.84 15
-13.218 -8.777 -0.022 28
-12.805 -8.405 -0.059 28
-12.511 -8.131 -0.121 17
-12.508 -8.047 -0.251 13
-12.575 -8.015 -0.402 24
-12.654 -7.993 -0.559 40
-22.11 -13.855 -3.461 28
0.0 -0.0 3.0 0
-21.844 -13.488 -3.872 17
-22.028 -13.515 -4.186 40
-22.044 -13.441 -4.45 6
-21.104 -12.799 -4.389 9
-15.809 -9.538 -2.731 15
-19.451 -11.684 -4.301 35
-18.162 -10.864 -4.055 21
-18.018 -10.74 -4.244 24
-15.466 -9.187 -3.433 23
-14.888 -8.819 -3.408 23
-15.144 -8.945 -3.741 58
-15.074 -8.884 -3.941 39
-14.438 -8.493 -3.878 11
-13.957 -8.193 -3.875 12
-13.506 -7.915 -3.881 14
-32.043 -23.914 -1.217 26
-31.944 -23.469 -1.562 24
-11.955 -8.653 1.161 3
-11.772 -8.395 1.062 0
-11.865 -8.342 0.92 3
-13.102 -9.084 0.566 13
-12.611 -8.63 0.525 21
-11.43 -7.724 0.639 9
-13.333 -8.898 0.109 10
-13.246 -8.739 -0.009 24
-12.899 -8.41 -0.061 30
-12.552 -8.103 -0.11 19
-12.516 -7.998 -0.231 36
-12.738 -8.065 -0.423 16
-12.688 -7.961 -0.544 12
-22.211 -13.824 -3.446 24
0.0 -0.0 3.0 0
-21.881 -13.42 -3.838 23
-22.122 -13.482 -4.168 34
-22.174 -13.43 -4.445 7
-21.225 -12.788 -4.383 9
-15.879 -9.517 -2.719 17
-19.555 -11.671 -4.293 33
-18.175 -10.802 -4.015 29
-18.113 -10.727 -4.236 17
-15.506 -9.153 -3.409 22
-14.927 -8.787 -3.384 21
-15.686 -9.209 -3.939 40
-15.126 -8.861 -3.923 40
-14.502 -8.48 -3.867 10
-14.023 -8.183 -3.866 12
-13.57 -7.907 -3.874 14
-31.999 -23.741 -1.186 24
-11.765 -8.592 1.33 3
-11.839 -8.517 1.19 20
-11.856 -8.402 1.06 0
-12.039 -8.412 0.903 5
-13.267 -9.141 0.551 29
-12.243 -8.324 0.613 58
-11.462 -7.695 0.647 7
-13.342 -8.846 0.126 17
-13.321 -8.731 -0.006 22
-12.894 -8.351 -0.04 21
-12.447 -7.981 -0.064 20
-12.562 -7.974 -0.222 18
-12.769 -8.03 -0.409 15
0.0 -0.0 3.0 0
-22.321 -13.799 -3.435 26
-22.011 -13.502 -3.585 2
-21.985 -13.393 -3.824 35
-22.232 -13.458 -4.156 8
-22.308 -13.422 -4.44 7
-21.343 -12.774 -4.375 9
-20.489 -12.201 -4.331 7
-19.669 -11.663 -4.288 34
-18.25 -10.776 -3.998 8
-18.204 -10.713 -4.226 13
-15.533 -9.111 -3.379 17
-14.998 -8.774 -3.374 19
-15.83 -9.236 -3.96 40
-15.2 -8.851 -3.915 36
-14.574 -8.472 -3.86 11
-14.088 -8.173 -3.858 13
-13.631 -7.897 -3.865 14
-31.975 -23.583 -1.158 24
-11.61 -8.428 1.362 9
-11.816 -8.448 1.204 1
-11.962 -8.425 1.055 16
-12.124 -8.418 0.901 11
-13.38 -9.16 0.546 25
-11.513 -7.778 0.77 6
-13.058 -8.71 0.337 22
-13.37 -8.807 0.138 26
-13.392 -8.72 -0.002 16
-13.037 -8.388 -0.053 28
-12.47 -7.943 -0.049 21
-26.478 -16.694 -3.745 0
-12.706 -7.937 -0.369 8
0.0 -0.0 3.0 0
-22.429 -13.773 -3.423 25
-22.091 -13.46 -3.565 47
-22.095 -13.37 -3.812 44
-22.445 -13.497 -4.176 3
-22.451 -13.417 -4.437 5
-21.461 -12.76 -4.367 10
-20.612 -12.193 -4.326 7
-19.78 -11.652 -4.281 30
-18.722 -10.983 -4.133 16
-18.292 -10.696 -4.214 16
-15.628 -9.109 -3.378 17
-16.602 -9.651 -4.012 4
-15.906 -9.223 -3.95 20
-15.265 -8.835 -3.902 36
-14.644 -8.461 -3.852 11
-14.153 -8.163 -3.849 12
-13.692 -7.887 -3.856 13
-31.93 -23.412 -1.128 25
-11.516 -8.309 1.385 0
-11.427 -8.121 1.274 4
-12.143 -8.5 1.038 10
-12.14 -8.376 0.912 14
-12.228 -8.318 0.771 1
-11.488 -7.712 0.789 8
-11.349 -7.521 0.701 2
-13.257 -8.675 0.181 9
-13.397 -8.665 0.016 20
-12.429 -7.944 0.109 11
-12.46 -7.884 -0.026 5
-26.7 -16.721 -3.756 0
-12.714 -7.888 -0.348 29
0.0 -0.0 3.0 0
-22.546 -13.751 -3.412 24
-22.201 -13.435 -3.553 42
-22.211 -13.349 -3.802 45
-22.592 -13.494 -4.175 2
-22.582 -13.406 -4.431 5
-21.58 -12.745 -4.358 9
-20.725 -12.179 -4.318 7
-19.888 -11.639 -4.273 34
-19.113 -11.14 -4.234 7
-18.387 -10.682 -4.205 26
-15.743 -9.118 -3.384 27
-15.316 -8.848 -3.429 2
-15.959 -9.197 -3.93 35
-15.33 -8.818 -3.89 39
-14.711 -8.449 -3.842 11
-14.212 -8.149 -3.838 12
-13.747 -7.872 -3.843 14
-31.891 -23.245 -1.099 25
-11.714 -8.402 1.367 9
-11.626 -8.212 1.254 15
-11.876 -8.261 1.093 6
-12.044 -8.259 0.941 8
-12.182 -8.234 0.794 15
-11.115 -7.412 0.875 14
-11.245 -7.403 0.737 1
-12.04 -7.827 0.457 38
-12.261 -7.878 0.288 5
-12.412 -7.881 0.132 20
-12.48 -7.843 -0.011 18
-26.903 -16.735 -3.761 0
-12.717 -7.837 -0.327 42
0.0 -0.0 3.0 0
-22.67 -13.733 -3.404 23
-22.321 -13.417 -3.544 39
-22.328 -13.329 -3.791 40
-22.713 -13.475 -4.165 1
-22.722 -13.399 -4.427 6
-21.701 -12.731 -4.35 9
-20.845 -12.168 -4.311 7
-19.993 -11.623 -4.263 33
-19.21 -11.124 -4.224 8
-18.484 -10.67 -4.197 28
-15.842 -9.116 -3.383 15
-15.273 -8.768 -3.37 2
-15.547 -8.905 -3.71 22
-15.417 -8.815 -3.887 26
-14.781 -8.438 -3.833 11
-14.271 -8.134 -3.825 16
-13.811 -7.863 -3.835 14
-11.541 -8.362 1.525 1
-11.506 -8.202 1.406 8
-10.847 -7.615 1.381 16
-11.803 -8.16 1.116 1
-12.063 -8.219 0.951 0
-11.895 -7.989 0.859 0
-11.51 -7.627 0.813 7
-11.281 -7.379 0.744 4
-11.668 -7.536 0.551 44
-12.376 -7.899 0.28 2
-12.491 -7.878 0.133 25
-12.466 -7.782 0.013 32
-27.112 -16.751 -3.768 1
-12.744 -7.8 -0.311 10
0.0 -0.0 3.0 0
-22.794 -13.715 -3.395 22
-22.414 -13.382 -3.527 0
-22.454 -13.314 -3.784 36
-22.937 -13.515 -4.186 4
-22.85 -13.383 -4.418 7
-21.827 -12.719 -4.344 9
-20.952 -12.15 -4.301 7
-20.104 -11.611 -4.255 36
-19.299 -11.103 -4.21 14
-18.576 -10.654 -4.186 29
-15.937 -9.113 -3.381 16
-15.269 -8.711 -3.329 12
-15.642 -8.903 -3.709 19
-15.469 -8.79 -3.868 41
-14.847 -8.425 -3.823 11
-14.34 -8.125 -3.818 13
-13.878 -7.855 -3.829 21
-11.416 -8.223 1.55 13
-31.274 -22.163 -1.308 23
-11.117 -7.757 1.351 11
-10.857 -7.459 1.278 17
0.0 -0.0 3.0 0
0.0 -0.0 3.0 0
-11.617 -7.648 0.807 8
-11.222 -7.292 0.771 19
-12.057 -7.735 0.487 6
-12.419 -7.873 0.289 9
-12.657 -7.929 0.114 21
-12.425 -7.705 0.042 28
-27.368 -16.795 -3.785 1
0.0 -0.0 3.0 0
0.0 -0.0 3.0 0
-22.918 -13.696 -3.387 22
0.0 -0.0 3.0 0
-22.588 -13.303 -3.778 32
-23.052 -13.491 -4.173 2
-22.977 -13.367 -4.41 7
-21.952 -12.707 -4.336 9
-21.065 -12.135 -4.291 7
-20.216 -11.599 -4.248 40
-19.436 -11.109 -4.214 7
-18.677 -10.643 -4.179 27
-16.033 -9.11 -3.379 16
-15.324 -8.687 -3.312 15
-15.789 -8.931 -3.73 36
-15.55 -8.783 -3.862 36
-14.917 -8.414 -3.814 11
-14.399 -8.11 -3.805 12
-13.936 -7.843 -3.818 15
-31.401 -22.484 -0.965 19
-10.913 -7.687 1.506 8
-10.941 -7.587 1.387 19
-10.882 -7.431 1.284 24
-11.906 -8.01 1.003 2
-11.347 -7.524 0.984 13
-11.204 -7.328 0.899 22
-11.394 -7.357 0.751 8
-12.424 -7.919 0.427 1
-12.438 -7.833 0.303 42
-12.543 -7.805 0.159 9
-12.421 -7.65 0.064 22
-27.636 -16.844 -3.805 2
0.0 -0.0 3.0 0
0.0 -0.0 3.0 0
-23.053 -13.683 -3.38 21
0.0 -0.0 3.0 0
-22.732 -13.296 -3.775 29
-23.146 -13.454 -4.154 39
-23.115 -13.357 -4.404 6
-22.077 -12.693 -4.329 9
-21.179 -12.119 -4.282 7
-20.327 -11.586 -4.24 29
-19.532 -11.091 -4.203 7
-18.775 -10.63 -4.17 25
-16.086 -9.081 -3.358 19
-15.572 -8.773 -3.374 12
-15.802 -8.883 -3.694 39
-15.625 -8.771 -3.853 29
-14.987 -8.403 -3.805 11
-14.467 -8.1 -3.797 12
-13.991 -7.828 -3.805 20
-31.323 -22.296 -0.931 21
-12.215 -8.553 1.337 0
-10.931 -7.534 1.399 25
-10.983 -7.452 1.28 9
-11.235 -7.512 1.127 6
-11.308 -7.451 1.004 2
-11.27 -7.324 0.9 28
-11.587 -7.432 0.728 0
-11.484 -7.271 0.638 0
-12.55 -7.851 0.297 10
-12.606 -7.791 0.164 12
-12.503 -7.649 0.064 28
-12.794 -7.745 -0.129 3
0.0 -0.0 3.0 0
0.0 -0.0 3.0 0
-23.19 -13.67 -3.374 21
0.0 -0.0 3.0 0
-22.869 -13.285 -3.769 31
-23.304 -13.455 -4.154 16
-23.249 -13.344 -4.397 6
-22.206 -12.682 -4.322 8
-21.295 -12.104 -4.273 7
-20.449 -11.578 -4.235 8
-19.642 -11.081 -4.196 7
-18.88 -10.62 -4.163 25
-16.188 -9.081 -3.358 26
-15.667 -8.77 -3.372 13
-16.044 -8.963 -3.754 21
-15.687 -8.752 -3.838 30
-15.05 -8.388 -3.792 11
-14.529 -8.087 -3.786 12
-14.058 -7.82 -3.798 20
-13.598 -9.622 1.303 0
-11.088 -7.716 1.5 1
-11.189 -7.664 1.371 10
-11.249 -7.586 1.249 30
-11.288 -7.499 1.13 18
-11.308 -7.402 1.017 18
-11.243 -7.26 0.918 18
-12.636 -8.052 0.538 3
-11.511 -7.24 0.648 7
-12.729 -7.91 0.276 28
-12.631 -7.755 0.177 22
-12.475 -7.579 0.091 7
-12.817 -7.706 -0.114 41
0.0 -0.0 3.0 0
0.0 -0.0 3.0 0
-23.339 -13.663 -3.371 19
0.0 -0.0 3.0 0
-23.023 -13.283 -3.768 25
-23.482 -13.465 -4.16 15
-23.384 -13.33 -4.389 7
-22.332 -12.668 -4.314 8
-21.412 -12.089 -4.264 7
-20.557 -11.563 -4.225 7
-19.752 -11.069 -4.189 7
-16.862 -9.424 -3.356 1
-16.297 -9.083 -3.36 15
-15.735 -8.753 -3.359 16
-16.021 -8.895 -3.703 20
-15.719 -8.716 -3.809 23
-15.12 -8.376 -3.783 10
-14.595 -8.076 -3.776 12
-14.116 -7.807 -3.786 21
-13.603 -9.568 1.313 19
-11.025 -7.627 1.518 6
-11.159 -7.597 1.385 9
-11.044 -7.401 1.291 2
-11.919 -7.868 1.038 9
-11.51 -7.486 0.994 2
-11.429 -7.332 0.898 2
-12.218 -7.734 0.636 8
-12.45 -7.778 0.473 28
-13.137 -8.108 0.208 17
-12.64 -7.707 0.195 22
-13.589 -8.2 -0.147 0
-12.84 -7.667 -0.098 25
0.0 -0.0 3.0 0
0.0 -0.0 3.0 0
-23.483 -13.654 -3.367 18
0.0 -0.0 3.0 0
-23.197 -13.292 -3.773 27
-23.648 -13.468 -4.161 11
-23.525 -13.32 -4.383 7
-22.461 -12.655 -4.306 9
-21.523 -12.071 -4.253 7
-19.908 -11.123 -3.95 20
-19.852 -11.052 -4.177 8
-19.09 -10.6 -4.15 12
-16.347 -9.053 -3.339 18
-16.071 -8.883 -3.454 15
-16.406 -9.051 -3.821 34
-15.754 -8.682 -3.783 13
-15.193 -8.365 -3.774 12
-14.67 -8.069 -3.771 12
-14.174 -7.793 -3.774 21
-10.939 -7.649 1.651 3
-11.067 -7.61 1.521 8
-11.01 -7.45 1.416 16
-11.089 -7.385 1.295 17
-12.072 -7.919 1.026 6
-11.749 -7.593 0.965 6
-13.716 -8.741 0.494 3
-11.905 -7.486 0.711 3
-12.086 -7.501 0.563 1
-13.18 -8.081 0.218 20
-12.632 -7.65 0.216 12
-13.515 -8.099 -0.109 3
-12.879 -7.637 -0.086 5
0.0 -0.0 3.0 0
0.0 -0.0 3.0 0
-23.642 -13.651 -3.365 17
0.0 -0.0 3.0 0
-23.352 -13.289 -3.771 30
-23.827 -13.476 -4.166 11
-23.653 -13.3 -4.373 7
-22.59 -12.642 -4.299 8
-21.643 -12.056 -4.244 7
-19.985 -11.092 -3.931 255
-19.959 -11.039 -4.169 7
-19.185 -10.583 -4.138 9
-16.386 -9.016 -3.313 16
-16.117 -8.852 -3.431 5
-16.195 -8.879 -3.691 28
-15.818 -8.664 -3.769 13
-15.263 -8.353 -3.764 11
-14.739 -8.059 -3.762 13
-14.238 -7.782 -3.765 21
-10.925 -7.593 1.661 27
-11.024 -7.534 1.536 27
-11.013 -7.405 1.426 18
-11.356 -7.515 1.265 12
-11.495 -7.493 1.132 13
-11.719 -7.525 0.984 8
-11.849 -7.502 0.849 36
-11.808 -7.376 0.745 9
-11.594 -7.147 0.678 7
-13.347 -8.128 0.201 25
-12.61 -7.584 0.239 22
-35.681 -21.238 -5.153 25
-12.746 -7.507 -0.033 18
0.0 -0.0 3.0 0
-30.388 -17.566 -4.821 7
-23.811 -13.653 -3.366 15
0.0 -0.0 3.0 0
-23.503 -13.282 -3.767 29
-23.992 -13.477 -4.166 9
-23.791 -13.287 -4.365 7
-22.719 -12.628 -4.291 9
-21.757 -12.038 -4.233 8
-20.041 -11.049 -3.904 42
-20.066 -11.024 -4.159 7
-17.201 -9.427 -3.359 1
-16.386 -8.958 -3.273 15
-16.205 -8.844 -3.426 5
-16.313 -8.889 -3.698 29
-15.89 -8.649 -3.758 13
-15.33 -8.339 -3.753 12
-14.804 -8.047 -3.752 13
-14.286 -7.763 -3.748 20
-10.96 -7.572 1.665 10
-11.026 -7.49 1.544 30
-11.566 -7.73 1.357 21
-11.886 -7.817 1.195 9
-11.757 -7.615 1.101 12
-11.685 -7.455 1.002 10
-11.625 -7.311 0.903 4
-11.644 -7.225 0.791 22
-11.741 -7.189 0.664 7
-13.313 -8.053 0.227 20
-12.628 -7.544 0.254 9
-35.88 -21.21 -5.142 22
-12.785 -7.478 -0.021 27
0.0 -0.0 3.0 0
0.0 -0.0 3.0 0
-23.994 -13.662 -3.371 8
0.0 -0.0 3.0 0
-23.658 -13.278 -3.765 27
-24.152 -13.472 -4.163 8
-23.926 -13.271 -4.356 8
-22.845 -12.612 -4.281 9
-21.881 -12.025 -4.225 7
-21.008 -11.505 -4.189 7
-20.176 -11.012 -4.151 7
-17.175 -9.351 -3.307 10
-16.502 -8.963 -3.276 20
-16.237 -8.805 -3.398 0
-16.64 -9.01 -3.79 30
-15.971 -8.64 -3.75 13
-15.396 -8.324 -3.741 11
-14.869 -8.034 -3.741 14
-14.354 -7.754 -3.741 19
-11.562 -7.941 1.6 8
-11.229 -7.581 1.526 30
-11.198 -7.438 1.419 10
-11.723 -7.661 1.231 9
-11.671 -7.51 1.128 3
-11.662 -7.392 1.019 14
-11.6 -7.248 0.922 1
-11.69 -7.206 0.797 18
-11.99 -7.292 0.631 4
-13.387 -8.042 0.231 21
-12.646 -7.504 0.269 27
-12.935 -7.594 0.085 15
-12.847 -7.462 -0.015 20
0.0 -0.0 3.0 0
0.0 -0.0 3.0 0
-24.214 -13.692 -3.384 1
0.0 -0.0 3.0 0
-23.813 -13.272 -3.762 27
-24.321 -13.474 -4.164 8
-24.058 -13.253 -4.346 8
-22.988 -12.604 -4.277 9
-22.005 -12.011 -4.217 5
-20.474 -11.137 -3.959 6
-20.279 -10.995 -4.14 7
-17.437 -9.431 -3.361 5
-16.565 -8.939 -3.259 18
-16.133 -8.693 -3.316 16
-16.444 -8.848 -3.667 29
-16.042 -8.625 -3.739 13
-15.473 -8.316 -3.734 12
-14.941 -8.025 -3.734 13
-14.424 -7.747 -3.735 23
-11.545 -7.882 1.61 5
-11.141 -7.476 1.547 20
-11.207 -7.397 1.428 26
-11.384 -7.392 1.293 25
-11.747 -7.511 1.127 13
-11.671 -7.35 1.031 3
-11.616 -7.211 0.932 0
-11.656 -7.137 0.818 14
-11.915 -7.199 0.661 5
-11.857 -7.074 0.564 2
-12.684 -7.474 0.28 6
-12.96 -7.556 0.1 42
-12.862 -7.419 0.003 20
-33.595 -19.194 -5.147 12
0.0 -0.0 3.0 0
-28.906 -16.231 -4.569 2
0.0 -0.0 3.0 0
-23.969 -13.265 -3.759 29
-24.484 -13.47 -4.162 8
-24.2 -13.239 -4.338 7
-23.121 -12.59 -4.269 9
-22.123 -11.994 -4.206 7
-21.226 -11.468 -4.166 7
-20.39 -10.981 -4.131 7
-17.498 -9.402 -3.342 15
-16.667 -8.936 -3.257 17
-16.301 -8.728 -3.341 4
-16.629 -8.892 -3.7 37
-16.12 -8.613 -3.729 12
-15.546 -8.304 -3.725 11
-15.02 -8.019 -3.729 12
-14.482 -7.733 -3.722 20
-11.538 -7.831 1.619 16
-11.11 -7.41 1.56 27
-11.195 -7.344 1.439 24
-11.569 -7.466 1.276 23
-11.656 -7.405 1.154 11
-12.429 -7.775 0.917 11
-13.736 -8.471 0.571 8
-11.692 -7.111 0.826 4
-11.854 -7.113 0.689 4
-13.371 -7.923 0.272 1
-12.509 -7.32 0.336 8
-12.999 -7.526 0.111 5
-12.924 -7.403 0.009 28
-33.803 -19.178 -5.141 11
0.0 -0.0 3.0 0
-29.051 -16.198 -4.553 1
0.0 -0.0 3.0 0
-24.117 -13.255 -3.754 27
-24.651 -13.467 -4.161 8
-24.339 -13.222 -4.329 8
-23.248 -12.572 -4.258 8
-22.247 -11.978 -4.197 7
-21.338 -11.451 -4.156 7
-20.493 -10.963 -4.12 8
-17.583 -9.385 -3.331 7
-16.75 -8.922 -3.247 16
-16.564 -8.812 -3.402 4
-16.871 -8.964 -3.755 45
-16.194 -8.6 -3.719 12
-15.616 -8.29 -3.713 11
-15.085 -8.006 -3.718 13
-14.546 -7.721 -3.712 20
-11.596 -7.823 1.621 3
-11.291 -7.485 1.545 38
-11.197 -7.299 1.448 26
-12.266 -7.866 1.184 0
-11.521 -7.272 1.187 12
-11.666 -7.251 1.057 0
-12.225 -7.489 0.853 10
-12.292 -7.426 0.73 1
-12.629 -7.527 0.554 0
-44.465 -26.17 -6.011 2
-12.376 -7.193 0.382 8
-36.961 -21.251 -5.158 21
-12.891 -7.333 0.037 25
-34.025 -19.168 -5.136 11
0.0 -0.0 3.0 0
-29.236 -16.187 -4.548 1
0.0 -0.0 3.0 0
-24.297 -13.259 -3.756 25
-24.811 -13.46 -4.157 10
-24.474 -13.204 -4.319 8
-23.378 -12.555 -4.249 9
-22.368 -11.962 -4.187 7
-20.587 -10.974 -3.857 76
