# .PCD v0.7 - Point Cloud Data file format
VERSION 0.7
FIELDS x y z intensity
SIZE 4 4 4 4
TYPE F F F F
COUNT 1 1 1 1
WIDTH 1999
HEIGHT 1
VIEWPOINT 0 0 0 1 0 0 0
POINTS 1999
DATA ascii
-0.233 -19.53 -4.497 9
-0.226 -18.765 -4.582 8
-0.215 -17.982 -4.633 7
-0.208 -17.276 -4.692 8
-0.198 -16.603 -4.742 7
-0.192 -15.961 -4.785 34
-0.184 -15.385 -4.839 7
-0.175 -14.815 -4.877 8
-0.171 -14.29 -4.921 9
-0.164 -13.821 -4.979 8
-0.16 -13.351 -5.022 7
-0.152 -12.859 -5.035 8
-0.149 -12.442 -5.08 10
-0.143 -12.027 -5.113 9
-0.139 -11.628 -5.142 11
-0.133 -11.255 -5.177 12
-0.13 -10.886 -5.203 12
-0.125 -10.527 -5.225 12
-0.12 -10.193 -5.254 12
-0.117 -9.867 -5.279 13
-0.112 -9.539 -5.292 42
-0.562 -37.332 -3.583 7
-0.503 -33.136 -3.441 17
-0.485 -32.033 -3.809 13
-0.456 -29.917 -3.907 6
-0.426 -28.027 -3.988 7
-0.403 -26.363 -4.064 5
-0.379 -24.879 -4.134 6
-0.358 -23.607 -4.217 5
-0.343 -22.412 -4.282 5
-0.325 -21.344 -4.349 9
-0.317 -20.4 -4.425 12
-0.299 -19.536 -4.499 10
-0.289 -18.772 -4.584 8
-0.276 -17.981 -4.633 7
-0.267 -17.271 -4.69 8
-0.256 -16.602 -4.742 7
-0.248 -15.965 -4.787 36
-0.238 -15.381 -4.837 7
-0.228 -14.811 -4.875 8
-0.222 -14.29 -4.921 9
-0.214 -13.821 -4.979 8
-0.208 -13.353 -5.023 7
-0.2 -12.862 -5.037 11
-0.195 -12.445 -5.082 10
-0.188 -12.023 -5.11 10
-0.183 -11.628 -5.142 10
-0.176 -11.257 -5.179 11
-0.172 -10.883 -5.201 11
-0.166 -10.53 -5.227 12
-0.16 -10.19 -5.251 12
-0.156 -9.863 -5.276 13
-0.151 -9.539 -5.292 42
-0.678 -37.345 -3.585 7
-0.606 -33.135 -3.441 14
-0.585 -32.02 -3.806 12
-0.551 -29.928 -3.909 6
-0.515 -28.029 -3.988 7
-0.488 -26.366 -4.065 5
-0.46 -24.881 -4.135 7
-0.435 -23.606 -4.217 5
-0.417 -22.419 -4.284 5
-0.396 -21.339 -4.348 9
-0.385 -20.407 -4.428 9
-0.364 -19.535 -4.499 9
-0.353 -18.774 -4.585 8
-0.338 -17.991 -4.637 5
-0.327 -17.274 -4.691 8
-0.313 -16.597 -4.739 7
-0.304 -15.961 -4.784 36
-0.292 -15.384 -4.838 5
-0.281 -14.818 -4.879 8
-0.273 -14.296 -4.925 9
-0.264 -13.823 -4.981 8
-0.257 -13.35 -5.021 8
-0.247 -12.868 -5.041 7
-0.241 -12.445 -5.082 10
-0.233 -12.029 -5.114 10
-0.227 -11.63 -5.144 10
-0.219 -11.254 -5.177 13
-0.214 -10.885 -5.203 12
-0.207 -10.53 -5.227 12
-0.2 -10.195 -5.256 13
-0.195 -9.863 -5.276 14
-0.189 -9.539 -5.292 39
-0.793 -37.356 -3.587 8
-0.709 -33.148 -3.443 14
-0.685 -32.041 -3.811 14
-0.645 -29.938 -3.912 7
-0.604 -28.036 -3.99 7
-0.573 -26.372 -4.066 5
-0.54 -24.876 -4.133 7
-0.512 -23.604 -4.216 5
-0.49 -22.421 -4.285 5
-0.466 -21.334 -4.346 10
-0.453 -20.414 -4.43 10
-0.43 -19.542 -4.501 10
-0.417 -18.777 -4.586 8
-0.399 -17.99 -4.636 7
-0.386 -17.277 -4.692 8
-0.371 -16.604 -4.742 7
-0.359 -15.96 -4.784 36
-0.346 -15.386 -4.84 7
-0.333 -14.817 -4.878 8
-0.324 -14.292 -4.922 9
-0.314 -13.822 -4.98 8
-0.306 -13.356 -5.025 7
-0.294 -12.861 -5.036 8
-0.287 -12.44 -5.079 10
-0.278 -12.026 -5.111 10
-0.271 -11.63 -5.144 10
-0.262 -11.253 -5.176 12
-0.256 -10.889 -5.205 12
-0.248 -10.532 -5.229 12
-0.24 -10.194 -5.255 13
-0.235 -9.868 -5.281 14
-0.227 -9.544 -5.297 42
-0.909 -37.372 -3.59 7
-0.812 -33.15 -3.444 17
-0.786 -32.042 -3.811 13
-0.74 -29.931 -3.91 6
-0.693 -28.026 -3.988 7
-0.657 -26.37 -4.066 5
-0.62 -24.882 -4.135 7
-0.589 -23.611 -4.218 5
-0.564 -22.419 -4.284 5
-0.537 -21.332 -4.345 11
-0.521 -20.412 -4.429 10
-0.496 -19.54 -4.501 8
-0.48 -18.78 -4.588 8
-0.46 -17.989 -4.636 8
-0.446 -17.276 -4.692 7
-0.429 -16.603 -4.742 8
-0.415 -15.961 -4.785 34
-0.401 -15.385 -4.839 8
-0.386 -14.819 -4.88 8
-0.376 -14.291 -4.922 8
-0.364 -13.822 -4.98 8
-0.354 -13.358 -5.027 7
-0.342 -12.867 -5.04 9
-0.333 -12.443 -5.08 10
-0.323 -12.028 -5.113 10
-0.315 -11.629 -5.143 11
-0.305 -11.256 -5.178 11
-0.298 -10.891 -5.207 12
-0.289 -10.528 -5.226 13
-0.28 -10.187 -5.249 12
-0.273 -9.861 -5.275 13
-0.265 -9.54 -5.293 42
-1.024 -37.374 -3.59 7
-0.916 -33.159 -3.445 15
-0.886 -32.044 -3.811 16
-0.834 -29.921 -3.908 6
-0.782 -28.031 -3.989 7
-0.742 -26.372 -4.066 5
-0.701 -24.891 -4.137 6
-0.666 -23.601 -4.216 5
-0.637 -22.422 -4.285 5
-0.607 -21.334 -4.346 12
-0.589 -20.406 -4.427 9
-0.561 -19.538 -4.5 9
-0.544 -18.778 -4.587 8
-0.522 -17.987 -4.635 7
-0.505 -17.278 -4.693 8
-0.486 -16.605 -4.743 7
-0.471 -15.964 -4.786 35
-0.455 -15.387 -4.84 7
-0.439 -14.814 -4.877 8
-0.427 -14.294 -4.923 9
-0.414 -13.824 -4.981 8
-0.403 -13.353 -5.023 8
-0.389 -12.869 -5.042 8
-0.38 -12.445 -5.082 10
-0.368 -12.027 -5.113 10
-0.359 -11.635 -5.147 10
-0.348 -11.258 -5.18 11
-0.34 -10.887 -5.204 12
-0.33 -10.531 -5.228 11
-0.32 -10.193 -5.254 11
-0.313 -9.87 -5.282 16
-0.303 -9.539 -5.293 44
-1.139 -37.375 -3.59 7
-1.019 -33.16 -3.446 15
-0.987 -32.05 -3.812 13
-0.929 -29.939 -3.912 6
-0.872 -28.044 -3.992 7
-0.826 -26.377 -4.068 5
-0.781 -24.893 -4.138 7
-0.742 -23.602 -4.216 5
-0.711 -22.423 -4.286 5
-0.678 -21.332 -4.345 13
-0.657 -20.412 -4.429 9
-0.627 -19.537 -4.5 9
-0.607 -18.78 -4.588 8
-0.583 -17.982 -4.633 6
-0.565 -17.277 -4.692 8
-0.544 -16.614 -4.747 7
-0.527 -15.962 -4.785 33
-0.509 -15.386 -4.84 7
-0.492 -14.82 -4.88 8
-0.478 -14.292 -4.922 9
-0.464 -13.822 -4.98 8
-0.452 -13.352 -5.023 8
-0.436 -12.865 -5.039 8
-0.426 -12.447 -5.083 10
-0.413 -12.029 -5.114 9
-0.403 -11.63 -5.144 10
-0.391 -11.257 -5.179 11
-0.382 -10.886 -5.203 12
-0.371 -10.533 -5.229 9
-0.36 -10.192 -5.253 11
-0.352 -9.866 -5.279 13
-0.341 -9.536 -5.29 42
-1.255 -37.39 -3.593 8
-1.123 -33.204 -3.454 13
-1.087 -32.062 -3.815 14
-1.024 -29.951 -3.915 6
-0.961 -28.049 -3.993 7
-0.911 -26.375 -4.067 5
-0.862 -24.898 -4.139 7
-0.819 -23.604 -4.216 5
-0.785 -22.425 -4.286 4
-0.748 -21.334 -4.346 14
-0.725 -20.41 -4.429 9
-0.693 -19.539 -4.5 9
-0.671 -18.774 -4.585 8
-0.644 -17.987 -4.635 7
-0.624 -17.282 -4.695 8
-0.602 -16.609 -4.745 8
-0.583 -15.965 -4.787 36
-0.564 -15.388 -4.841 7
-0.544 -14.819 -4.879 9
-0.529 -14.295 -4.924 8
-0.514 -13.825 -4.982 8
-0.5 -13.355 -5.024 7
-0.484 -12.863 -5.038 8
-0.472 -12.443 -5.081 9
-0.458 -12.035 -5.118 10
-0.447 -11.633 -5.145 11
-0.434 -11.256 -5.178 10
-0.424 -10.885 -5.202 12
-0.412 -10.536 -5.231 10
-0.4 -10.198 -5.258 12
-0.391 -9.869 -5.281 13
-0.38 -9.541 -5.294 42
-1.371 -37.402 -3.595 7
-1.226 -33.205 -3.454 13
-1.188 -32.07 -3.817 14
-1.118 -29.952 -3.915 7
-1.05 -28.046 -3.993 7
-0.996 -26.387 -4.07 5
-0.943 -24.903 -4.141 7
-0.896 -23.605 -4.217 5
-0.858 -22.426 -4.287 5
-0.819 -21.332 -4.345 15
-0.794 -20.416 -4.431 9
-0.758 -19.54 -4.501 9
-0.735 -18.78 -4.588 8
-0.706 -17.989 -4.636 7
-0.683 -17.277 -4.692 8
-0.659 -16.614 -4.747 8
-0.639 -15.963 -4.786 33
-0.618 -15.39 -4.842 7
-0.597 -14.824 -4.882 8
-0.581 -14.293 -4.923 9
-0.564 -13.823 -4.981 8
-0.549 -13.357 -5.026 7
-0.531 -12.868 -5.041 8
-0.518 -12.445 -5.082 10
-0.503 -12.027 -5.112 10
-0.491 -11.629 -5.142 11
-0.477 -11.258 -5.18 11
-0.466 -10.894 -5.209 12
-0.453 -10.534 -5.23 10
-0.44 -10.196 -5.257 13
-0.43 -9.867 -5.279 13
-0.418 -9.544 -5.296 42
-1.486 -37.406 -3.596 7
-1.33 -33.224 -3.458 10
-1.289 -32.078 -3.818 15
-1.213 -29.956 -3.916 6
-1.14 -28.054 -3.995 7
-1.081 -26.388 -4.071 5
-1.023 -24.904 -4.141 7
-0.973 -23.594 -4.214 5
-0.932 -22.435 -4.289 5
-0.89 -21.337 -4.347 16
-0.862 -20.413 -4.43 9
-0.824 -19.542 -4.501 9
-0.798 -18.781 -4.588 8
-0.767 -17.991 -4.637 7
-0.743 -17.286 -4.696 8
-0.717 -16.613 -4.747 8
-0.695 -15.965 -4.787 36
-0.672 -15.385 -4.839 7
-0.65 -14.822 -4.881 8
-0.632 -14.295 -4.924 9
-0.614 -13.832 -4.986 8
-0.598 -13.355 -5.025 8
-0.578 -12.864 -5.038 8
-0.565 -12.447 -5.083 10
-0.548 -12.029 -5.114 10
-0.535 -11.637 -5.148 11
-0.52 -11.257 -5.178 11
-0.508 -10.892 -5.208 11
-0.493 -10.533 -5.23 12
-0.48 -10.196 -5.256 12
-0.469 -9.866 -5.279 13
-0.456 -9.545 -5.297 36
-1.602 -37.413 -3.597 7
-1.435 -33.255 -3.464 10
-1.39 -32.089 -3.821 13
-1.307 -29.948 -3.914 7
-1.23 -28.063 -3.997 7
-1.165 -26.388 -4.071 5
-1.104 -24.909 -4.142 6
-1.05 -23.592 -4.213 5
-1.006 -22.436 -4.29 5
-0.96 -21.331 -4.345 22
-0.93 -20.417 -4.431 9
-0.89 -19.543 -4.502 9
-0.862 -18.783 -4.589 8
-0.829 -17.993 -4.638 8
-0.803 -17.28 -4.693 8
-0.774 -16.607 -4.744 8
-0.751 -15.966 -4.787 37
-0.727 -15.393 -4.843 8
-0.703 -14.82 -4.88 9
-0.683 -14.296 -4.925 8
-0.664 -13.823 -4.981 7
-0.647 -13.36 -5.028 7
-0.626 -12.873 -5.044 13
-0.611 -12.449 -5.084 10
-0.593 -12.031 -5.115 9
-0.579 -11.632 -5.145 11
-0.563 -11.256 -5.178 11
-0.55 -10.891 -5.207 11
-0.535 -10.538 -5.233 10
-0.521 -10.204 -5.263 13
-0.508 -9.865 -5.278 14
-0.494 -9.541 -5.294 42
-1.718 -37.424 -3.599 8
-1.539 -33.274 -3.468 12
-1.491 -32.097 -3.822 14
-1.403 -29.96 -3.917 6
-1.319 -28.059 -3.996 6
-1.25 -26.4 -4.074 5
-1.185 -24.913 -4.144 7
-1.127 -23.604 -4.217 5
-1.08 -22.437 -4.29 5
-1.031 -21.335 -4.346 24
-0.998 -20.418 -4.432 9
-0.956 -19.544 -4.502 12
-0.925 -18.776 -4.586 8
-0.891 -17.998 -4.64 7
-0.862 -17.281 -4.694 7
-0.832 -16.608 -4.744 8
-0.807 -15.968 -4.788 34
-0.781 -15.388 -4.841 7
-0.755 -14.822 -4.881 8
-0.735 -14.298 -4.926 9
-0.714 -13.832 -4.986 8
-0.696 -13.362 -5.029 7
-0.673 -12.864 -5.038 21
-0.657 -12.447 -5.083 10
-0.638 -12.029 -5.114 10
-0.623 -11.637 -5.148 10
-0.606 -11.261 -5.181 12
-0.591 -10.887 -5.204 12
-0.576 -10.54 -5.235 12
-0.56 -10.199 -5.259 13
-0.548 -9.867 -5.28 14
-0.533 -9.549 -5.301 38
-1.834 -37.438 -3.601 8
-1.643 -33.282 -3.469 15
-1.592 -32.1 -3.823 14
-1.498 -29.967 -3.919 6
-1.409 -28.071 -3.999 7
-1.335 -26.4 -4.074 5
-1.265 -24.913 -4.144 7
-1.204 -23.608 -4.218 5
-1.154 -22.441 -4.292 5
-1.102 -21.339 -4.348 24
-1.066 -20.419 -4.432 9
-1.021 -19.541 -4.501 14
-0.989 -18.777 -4.586 7
-0.952 -17.995 -4.638 6
-0.922 -17.279 -4.693 8
-0.89 -16.609 -4.745 7
-0.863 -15.972 -4.79 33
-0.835 -15.389 -4.841 8
-0.808 -14.82 -4.88 8
-0.786 -14.299 -4.926 9
-0.764 -13.827 -4.983 8
-0.745 -13.36 -5.028 7
-0.721 -12.869 -5.042 20
-0.703 -12.449 -5.084 9
-0.683 -12.028 -5.113 10
-0.667 -11.635 -5.147 10
-0.649 -11.259 -5.18 13
-0.634 -10.891 -5.207 11
-0.617 -10.535 -5.231 12
-0.6 -10.198 -5.258 11
-0.587 -9.872 -5.284 13
-0.571 -9.548 -5.3 43
-1.95 -37.444 -3.602 8
-1.746 -33.272 -3.467 13
-1.693 -32.103 -3.824 13
-1.593 -29.975 -3.92 6
-1.498 -28.074 -4.0 6
-1.42 -26.392 -4.072 5
-1.346 -24.917 -4.145 6
-1.281 -23.604 -4.217 5
-1.227 -22.442 -4.292 5
-1.172 -21.34 -4.348 25
-1.134 -20.413 -4.43 9
-1.087 -19.542 -4.501 15
-1.053 -18.778 -4.587 8
-1.014 -17.996 -4.639 8
-0.981 -17.28 -4.693 8
-0.947 -16.607 -4.744 7
-0.918 -15.967 -4.788 33
-0.89 -15.391 -4.842 8
-0.861 -14.818 -4.879 9
-0.837 -14.297 -4.925 8
-0.814 -13.824 -4.981 8
-0.793 -13.354 -5.024 7
-0.768 -12.87 -5.042 12
-0.75 -12.447 -5.083 10
-0.728 -12.029 -5.114 10
-0.711 -11.631 -5.144 10
-0.692 -11.258 -5.179 12
-0.676 -10.896 -5.21 11
-0.658 -10.543 -5.237 12
-0.641 -10.202 -5.262 13
-0.626 -9.867 -5.28 13
-0.609 -9.543 -5.296 43
-2.067 -37.47 -3.607 7
-1.851 -33.286 -3.47 16
-1.794 -32.106 -3.824 13
-1.688 -29.985 -3.923 6
-1.588 -28.077 -4.0 5
-1.505 -26.399 -4.074 5
-1.427 -24.921 -4.146 6
-1.358 -23.604 -4.217 5
-1.301 -22.438 -4.29 5
-1.243 -21.34 -4.348 22
-1.203 -20.42 -4.432 10
-1.153 -19.549 -4.504 13
-1.117 -18.782 -4.588 8
-1.075 -17.989 -4.636 7
-1.041 -17.283 -4.695 8
-1.005 -16.607 -4.744 7
-0.974 -15.968 -4.788 34
-0.944 -15.388 -4.841 7
-0.914 -14.822 -4.881 8
-0.889 -14.298 -4.926 8
-0.864 -13.83 -4.984 8
-0.842 -13.359 -5.027 7
-0.815 -12.865 -5.039 26
-0.796 -12.445 -5.082 10
-0.774 -12.034 -5.117 10
-0.755 -11.638 -5.149 10
-0.735 -11.259 -5.18 12
-0.718 -10.894 -5.209 10
-0.699 -10.542 -5.236 13
-0.681 -10.201 -5.26 12
-0.665 -9.872 -5.284 13
-0.648 -9.545 -5.297 43
-2.183 -37.464 -3.606 8
-1.954 -33.273 -3.468 20
-1.895 -32.12 -3.827 13
-1.783 -29.991 -3.924 6
-1.678 -28.08 -4.001 7
-1.59 -26.398 -4.073 5
-1.507 -24.916 -4.145 6
-1.436 -23.615 -4.22 5
-1.375 -22.448 -4.294 5
-1.314 -21.34 -4.348 31
-1.271 -20.417 -4.431 10
-1.219 -19.546 -4.503 31
-1.181 -18.783 -4.589 8
-1.137 -18.0 -4.641 8
-1.101 -17.284 -4.695 8
-1.063 -16.612 -4.746 7
-1.03 -15.968 -4.788 35
-0.999 -15.396 -4.845 8
-0.967 -14.823 -4.882 8
-0.94 -14.299 -4.926 8
-0.914 -13.823 -4.981 8
-0.891 -13.357 -5.026 8
-0.863 -12.866 -5.04 19
-0.842 -12.449 -5.085 10
-0.819 -12.032 -5.116 10
-0.799 -11.633 -5.146 11
-0.778 -11.254 -5.176 12
-0.76 -10.893 -5.208 12
-0.74 -10.543 -5.237 11
-0.721 -10.203 -5.262 13
-0.704 -9.87 -5.282 13
-0.687 -9.553 -5.304 37
-2.3 -37.48 -3.609 7
-2.058 -33.283 -3.47 16
-1.997 -32.129 -3.829 13
-1.878 -29.99 -3.924 6
-1.769 -28.114 -4.01 6
-1.675 -26.413 -4.077 4
-1.589 -24.923 -4.147 6
-1.513 -23.618 -4.221 5
-1.449 -22.444 -4.293 5
-1.385 -21.343 -4.349 32
-1.339 -20.421 -4.432 9
-1.284 -19.534 -4.499 41
-1.244 -18.779 -4.587 8
-1.199 -18.0 -4.641 7
-1.161 -17.289 -4.697 8
-1.121 -16.613 -4.747 8
-1.086 -15.969 -4.788 31
-1.053 -15.393 -4.843 7
-1.019 -14.817 -4.878 7
-0.992 -14.3 -4.927 9
-0.964 -13.828 -4.983 8
-0.94 -13.358 -5.026 7
-0.911 -12.867 -5.04 12
-0.889 -12.447 -5.083 10
-0.864 -12.033 -5.116 10
-0.843 -11.634 -5.146 10
-0.821 -11.261 -5.182 12
-0.802 -10.894 -5.209 11
-0.781 -10.544 -5.238 14
-0.761 -10.201 -5.261 13
-0.744 -9.875 -5.286 13
-0.724 -9.545 -5.298 46
-2.417 -37.497 -3.612 7
-2.161 -33.272 -3.467 12
-2.098 -32.139 -3.831 14
-1.974 -30.003 -3.927 6
-1.722 -26.044 -3.493 2
-1.76 -26.411 -4.077 4
-1.67 -24.934 -4.15 6
-1.591 -23.625 -4.223 5
-1.523 -22.447 -4.294 5
-1.456 -21.347 -4.35 32
-1.407 -20.42 -4.432 10
-1.35 -19.538 -4.5 39
-1.308 -18.787 -4.59 8
-1.26 -17.997 -4.639 8
-1.22 -17.289 -4.697 8
-1.179 -16.616 -4.748 8
-1.143 -15.97 -4.789 38
-1.107 -15.394 -4.843 8
-1.072 -14.818 -4.879 8
-1.043 -14.297 -4.925 8
-1.015 -13.829 -4.984 8
-0.989 -13.362 -5.029 7
-0.958 -12.868 -5.041 25
-0.935 -12.448 -5.084 10
-0.909 -12.034 -5.117 9
-0.887 -11.636 -5.147 10
-0.864 -11.259 -5.18 12
-0.844 -10.892 -5.208 12
-0.822 -10.543 -5.237 12
-0.801 -10.202 -5.261 12
-0.783 -9.876 -5.287 14
-0.763 -9.549 -5.301 43
-2.313 -34.251 -3.039 7
-2.266 -33.286 -3.47 17
-2.201 -32.164 -3.837 18
-1.815 -26.327 -3.078 21
-1.785 -25.744 -3.419 5
-1.846 -26.425 -4.081 4
-1.751 -24.936 -4.15 6
-1.668 -23.636 -4.226 5
-1.598 -22.454 -4.296 5
-1.527 -21.346 -4.35 32
-1.476 -20.423 -4.434 9
-1.416 -19.538 -4.5 25
-1.373 -18.794 -4.593 8
-1.322 -18.0 -4.641 7
-1.28 -17.285 -4.696 8
-1.237 -16.609 -4.745 8
-1.199 -15.97 -4.789 35
-1.162 -15.397 -4.845 8
-1.125 -14.818 -4.879 8
-1.094 -14.294 -4.923 8
-1.065 -13.826 -4.982 8
-1.038 -13.367 -5.031 7
-1.006 -12.869 -5.041 8
-0.981 -12.446 -5.082 10
-0.954 -12.028 -5.113 9
-0.931 -11.633 -5.146 10
-0.907 -11.26 -5.181 12
-0.886 -10.89 -5.206 12
-0.864 -10.544 -5.238 11
-0.841 -10.2 -5.26 11
-0.822 -9.871 -5.283 13
-0.801 -9.548 -5.3 40
-2.426 -34.342 -3.055 36
-2.368 -33.267 -3.466 15
-2.303 -32.172 -3.838 15
-1.887 -26.165 -3.041 16
-1.849 -25.506 -3.359 18
-1.931 -26.42 -4.079 5
-1.833 -24.95 -4.154 7
-1.745 -23.631 -4.225 5
-1.671 -22.45 -4.294 5
-1.598 -21.349 -4.351 32
-1.545 -20.426 -4.435 9
-1.482 -19.541 -4.501 11
-1.436 -18.789 -4.591 8
-1.384 -18.0 -4.641 7
-1.34 -17.289 -4.697 8
-1.295 -16.616 -4.748 8
-1.255 -15.973 -4.791 39
-1.216 -15.394 -4.844 8
-1.178 -14.819 -4.879 8
-1.146 -14.302 -4.928 9
-1.115 -13.83 -4.985 8
-1.086 -13.356 -5.025 7
-1.053 -12.866 -5.04 8
-1.028 -12.453 -5.087 10
-1.0 -12.036 -5.118 10
-0.976 -11.638 -5.149 11
-0.95 -11.255 -5.177 11
-0.928 -10.894 -5.209 10
-0.905 -10.545 -5.238 10
-0.882 -10.201 -5.261 12
-0.862 -9.872 -5.284 13
-0.839 -9.546 -5.298 42
-2.523 -34.212 -3.033 26
-2.472 -33.271 -3.467 18
-2.405 -32.185 -3.841 18
-1.933 -25.666 -2.925 9
-1.92 -25.361 -3.323 31
-2.017 -26.434 -4.083 3
-1.914 -24.948 -4.154 6
-1.823 -23.641 -4.228 5
-1.746 -22.46 -4.298 5
-1.668 -21.341 -4.348 32
-1.613 -20.422 -4.433 9
-1.549 -19.559 -4.508 9
-1.5 -18.786 -4.59 8
-1.445 -18.0 -4.641 7
-1.399 -17.288 -4.697 8
-1.353 -16.613 -4.747 8
-1.311 -15.97 -4.789 38
-1.272 -15.405 -4.849 7
-1.231 -14.822 -4.881 8
-1.198 -14.298 -4.926 9
-1.165 -13.83 -4.985 8
-1.136 -13.361 -5.028 7
-1.101 -12.87 -5.042 8
-1.074 -12.447 -5.083 10
-1.045 -12.03 -5.114 10
-1.02 -11.635 -5.147 9
-0.994 -11.259 -5.18 12
-0.97 -10.891 -5.207 11
-0.945 -10.539 -5.234 13
-0.922 -10.199 -5.259 12
-0.901 -9.873 -5.284 13
-0.878 -9.553 -5.304 43
-2.621 -34.119 -3.016 29
-2.574 -33.248 -3.463 15
-2.507 -32.193 -3.843 13
-1.999 -25.482 -2.883 32
-1.995 -25.286 -3.304 42
-2.101 -26.423 -4.08 4
-1.995 -24.946 -4.153 6
-1.901 -23.647 -4.229 6
-1.82 -22.454 -4.296 6
-1.739 -21.34 -4.348 31
-1.681 -20.421 -4.433 9
-1.615 -19.554 -4.506 9
-1.564 -18.788 -4.591 8
-1.507 -18.0 -4.64 8
-1.459 -17.288 -4.697 8
-1.41 -16.613 -4.747 8
-1.367 -15.973 -4.791 40
-1.326 -15.402 -4.847 8
-1.284 -14.819 -4.879 8
-1.249 -14.295 -4.924 9
-1.216 -13.831 -4.985 8
-1.185 -13.364 -5.03 7
-1.148 -12.871 -5.042 8
-1.121 -12.45 -5.085 10
-1.09 -12.03 -5.114 10
-1.064 -11.635 -5.147 10
-1.037 -11.266 -5.185 12
-1.012 -10.892 -5.208 10
-0.987 -10.54 -5.235 11
-0.962 -10.203 -5.262 12
-0.941 -9.877 -5.288 16
-0.917 -9.551 -5.302 42
-2.719 -34.013 -2.997 29
-2.677 -33.236 -3.46 15
-2.609 -32.202 -3.845 13
-2.076 -25.425 -2.87 44
-2.072 -25.241 -3.293 47
-2.093 -25.296 -3.778 0
-2.075 -24.944 -4.153 6
-1.979 -23.649 -4.23 6
-1.894 -22.464 -4.299 4
-1.81 -21.338 -4.347 30
-1.75 -20.43 -4.436 8
-1.681 -19.557 -4.507 9
-1.628 -18.791 -4.592 7
-1.57 -18.01 -4.645 8
-1.519 -17.291 -4.698 8
-1.468 -16.612 -4.746 7
-1.423 -15.969 -4.788 39
-1.381 -15.401 -4.847 8
-1.337 -14.826 -4.883 8
-1.3 -14.295 -4.924 9
-1.266 -13.831 -4.985 8
-1.233 -13.357 -5.026 7
-1.196 -12.867 -5.04 8
-1.168 -12.455 -5.088 10
-1.135 -12.027 -5.113 8
-1.108 -11.636 -5.148 10
-1.08 -11.26 -5.181 12
-1.054 -10.89 -5.206 11
-1.028 -10.541 -5.236 11
-1.002 -10.201 -5.261 13
-0.979 -9.872 -5.283 14
-0.955 -9.552 -5.303 39
-2.826 -34.04 -3.002 36
-2.784 -33.271 -3.467 23
-2.71 -32.201 -3.845 14
-2.153 -25.388 -2.861 38
-2.151 -25.215 -3.287 49
-2.171 -25.251 -3.766 4
-2.157 -24.945 -4.153 6
-2.056 -23.646 -4.229 6
-1.969 -22.466 -4.3 4
-1.882 -21.351 -4.352 30
-1.819 -20.433 -4.437 6
-1.747 -19.556 -4.507 9
-1.693 -18.797 -4.594 7
-1.631 -17.998 -4.64 7
-1.579 -17.29 -4.698 8
-1.527 -16.619 -4.75 7
-1.48 -15.972 -4.79 37
-1.435 -15.394 -4.843 7
-1.39 -14.821 -4.881 8
-1.352 -14.298 -4.926 8
-1.316 -13.831 -4.985 8
-1.283 -13.361 -5.028 8
-1.243 -12.867 -5.04 8
-1.213 -12.448 -5.084 9
-1.181 -12.034 -5.117 10
-1.152 -11.633 -5.145 11
-1.123 -11.26 -5.181 12
-1.097 -10.893 -5.209 11
-1.069 -10.541 -5.236 11
-1.042 -10.201 -5.261 11
-1.019 -9.873 -5.284 13
-0.993 -9.549 -5.301 40
-2.932 -34.039 -3.002 29
-2.884 -33.22 -3.457 35
-2.812 -32.209 -3.846 13
-2.233 -25.381 -2.86 37
-2.23 -25.197 -3.282 51
-2.25 -25.229 -3.76 0
-2.238 -24.954 -4.156 7
-2.134 -23.652 -4.231 6
-2.043 -22.471 -4.301 4
-1.953 -21.357 -4.354 32
-1.886 -20.42 -4.432 6
-1.814 -19.558 -4.508 9
-1.758 -18.803 -4.597 7
-1.693 -18.004 -4.642 7
-1.639 -17.289 -4.697 7
-1.584 -16.614 -4.747 7
-1.537 -15.982 -4.795 9
-1.49 -15.4 -4.847 8
-1.443 -14.821 -4.881 8
-1.403 -14.295 -4.924 9
-1.366 -13.823 -4.981 8
-1.332 -13.364 -5.03 7
-1.291 -12.864 -5.038 8
-1.26 -12.451 -5.086 10
-1.226 -12.031 -5.115 9
-1.196 -11.633 -5.146 11
-1.167 -11.264 -5.184 10
-1.139 -10.894 -5.209 9
-1.11 -10.542 -5.237 12
-1.082 -10.199 -5.259 11
-1.059 -9.876 -5.287 12
-1.032 -9.556 -5.307 41
-3.034 -33.998 -2.995 29
-2.991 -33.254 -3.464 40
-2.414 -26.686 -2.672 5
-2.313 -25.374 -2.858 43
-2.309 -25.183 -3.279 52
-2.33 -25.211 -3.755 0
-2.32 -24.954 -4.156 7
-2.212 -23.653 -4.231 6
-2.118 -22.477 -4.303 5
-2.025 -21.367 -4.357 29
-1.955 -20.422 -4.433 8
-1.88 -19.556 -4.507 9
-1.821 -18.798 -4.595 7
-1.755 -18.002 -4.642 8
-1.699 -17.292 -4.699 8
-1.643 -16.617 -4.749 8
-1.592 -15.974 -4.791 9
-1.544 -15.396 -4.845 7
-1.496 -14.824 -4.882 8
-1.455 -14.294 -4.923 9
-1.416 -13.823 -4.981 8
-1.38 -13.357 -5.026 8
-1.338 -12.864 -5.038 8
-1.307 -12.455 -5.088 9
-1.272 -12.031 -5.115 9
-1.241 -11.64 -5.15 10
-1.209 -11.255 -5.177 11
-1.181 -10.895 -5.21 11
-1.152 -10.542 -5.237 13
-1.122 -10.196 -5.257 12
-1.097 -9.871 -5.283 13
-0.96 -8.567 -4.448 11
-3.148 -34.096 -3.012 27
-3.087 -33.166 -3.447 37
-2.496 -26.662 -2.667 10
-2.394 -25.37 -2.857 49
-2.389 -25.172 -3.276 53
-2.408 -25.173 -3.745 0
-2.402 -24.967 -4.159 7
-2.29 -23.661 -4.234 6
-2.193 -22.486 -4.306 5
-2.097 -21.371 -4.359 32
-2.024 -20.431 -4.436 9
-1.946 -19.562 -4.509 9
-1.885 -18.797 -4.594 7
-1.816 -18.001 -4.641 7
-1.759 -17.291 -4.698 8
-1.701 -16.619 -4.75 8
-1.648 -15.973 -4.791 9
-1.599 -15.399 -4.846 4
-1.549 -14.816 -4.878 8
-1.507 -14.294 -4.923 9
-1.467 -13.829 -4.984 7
-1.43 -13.36 -5.027 8
-1.386 -12.867 -5.04 10
-1.353 -12.448 -5.084 10
-1.317 -12.031 -5.115 10
-1.285 -11.633 -5.146 11
-1.253 -11.261 -5.182 11
-1.223 -10.891 -5.207 11
-1.193 -10.543 -5.237 12
-1.163 -10.197 -5.257 12
-1.137 -9.871 -5.283 13
-0.986 -8.49 -4.38 12
-3.254 -34.089 -3.011 30
-3.186 -33.118 -3.438 40
-2.567 -26.53 -2.639 1
-2.474 -25.364 -2.856 53
-2.468 -25.156 -3.272 56
-2.614 -26.435 -4.083 1
-2.483 -24.964 -4.158 7
-2.367 -23.658 -4.233 5
-2.268 -22.487 -4.306 5
-2.169 -21.38 -4.362 28
-2.094 -20.436 -4.438 19
-2.012 -19.556 -4.507 8
-1.95 -18.801 -4.596 5
-1.879 -18.007 -4.643 7
-1.819 -17.292 -4.699 8
-1.759 -16.622 -4.751 8
-1.705 -15.976 -4.792 9
-1.654 -15.401 -4.847 6
-1.602 -14.822 -4.881 8
-1.558 -14.293 -4.923 9
-1.517 -13.822 -4.98 8
-1.478 -13.356 -5.025 8
-1.434 -12.87 -5.042 9
-1.4 -12.451 -5.086 9
-1.363 -12.035 -5.117 10
-1.329 -11.633 -5.146 10
-1.296 -11.262 -5.182 12
-1.266 -10.895 -5.21 11
-1.234 -10.543 -5.237 11
-1.204 -10.2 -5.26 12
-1.176 -9.872 -5.283 12
-1.009 -8.401 -4.303 11
-3.342 -33.911 -2.979 15
-3.293 -33.151 -3.444 37
-2.637 -26.39 -2.609 1
-2.554 -25.356 -2.854 55
-2.547 -25.141 -3.268 56
-2.574 -25.208 -3.755 1
-2.565 -24.972 -4.161 6
-2.445 -23.662 -4.234 5
-2.342 -22.483 -4.305 4
-2.242 -21.393 -4.366 25
-2.162 -20.429 -4.436 22
-2.079 -19.562 -4.509 8
-2.013 -18.792 -4.593 5
-1.941 -18.005 -4.643 7
-1.879 -17.291 -4.698 7
-1.818 -16.627 -4.753 8
-1.762 -15.978 -4.793 9
-1.708 -15.396 -4.845 6
-1.655 -14.818 -4.879 7
-1.61 -14.296 -4.924 9
-1.568 -13.825 -4.982 8
-1.528 -13.356 -5.025 8
-1.482 -12.867 -5.04 8
-1.446 -12.447 -5.083 10
-1.408 -12.031 -5.115 10
-1.374 -11.64 -5.15 10
-1.34 -11.262 -5.182 11
-1.308 -10.892 -5.207 11
-1.275 -10.54 -5.234 11
-1.243 -10.197 -5.258 12
-1.051 -8.535 -4.162 10
-1.032 -8.314 -4.227 10
-3.464 -34.073 -3.008 35
-3.389 -33.079 -3.43 38
-2.704 -26.226 -2.575 8
-2.634 -25.353 -2.853 54
-2.627 -25.133 -3.266 57
-2.649 -25.151 -3.739 2
-2.647 -24.975 -4.161 7
-2.524 -23.674 -4.238 6
-2.418 -22.496 -4.309 5
-2.313 -21.386 -4.364 23
-2.23 -20.423 -4.433 32
-2.146 -19.57 -4.512 9
-2.077 -18.787 -4.59 5
-2.003 -18.003 -4.642 7
-1.939 -17.292 -4.699 8
-1.876 -16.625 -4.753 8
-1.818 -15.98 -4.794 9
-1.764 -15.402 -4.848 8
-1.708 -14.817 -4.878 7
-1.662 -14.295 -4.924 9
-1.618 -13.82 -4.979 8
-1.577 -13.355 -5.024 7
-1.529 -12.866 -5.04 8
-1.493 -12.45 -5.085 10
-1.453 -12.03 -5.115 10
-1.418 -11.633 -5.145 10
-1.383 -11.261 -5.182 12
-1.35 -10.891 -5.207 11
-1.317 -10.54 -5.235 12
-1.284 -10.2 -5.26 12
-1.073 -8.442 -4.084 10
-1.052 -8.206 -4.133 9
-3.565 -34.024 -2.999 18
-3.491 -33.057 -3.426 33
-2.78 -26.167 -2.562 9
-2.715 -25.352 -2.853 55
-2.707 -25.13 -3.266 57
-2.745 -25.28 -3.774 14
-2.729 -24.979 -4.163 5
-2.603 -23.678 -4.239 6
-2.491 -22.488 -4.307 6
-2.384 -21.39 -4.365 24
-2.298 -20.416 -4.431 26
-2.212 -19.567 -4.511 9
-2.141 -18.788 -4.591 7
-2.067 -18.019 -4.649 7
-1.999 -17.294 -4.7 7
-1.934 -16.623 -4.752 8
-1.875 -15.982 -4.795 9
-1.818 -15.397 -4.845 8
-1.761 -14.813 -4.876 7
-1.714 -14.297 -4.925 9
-1.668 -13.823 -4.981 8
-1.626 -13.354 -5.024 6
-1.578 -12.872 -5.043 7
-1.54 -12.449 -5.085 10
-1.499 -12.033 -5.117 11
-1.462 -11.633 -5.145 10
-1.426 -11.261 -5.182 12
-1.393 -10.894 -5.21 11
-1.358 -10.54 -5.235 11
-1.11 -8.549 -3.923 0
-1.095 -8.351 -4.007 12
-1.075 -8.132 -4.069 11
-3.677 -34.083 -3.01 38
-3.604 -33.144 -3.443 30
-2.857 -26.116 -2.551 10
-2.795 -25.347 -2.852 54
-2.789 -25.137 -3.267 56
-2.822 -25.237 -3.762 3
-2.811 -24.986 -4.165 6
-2.681 -23.678 -4.239 6
-2.567 -22.5 -4.311 5
-2.457 -21.398 -4.368 23
-2.367 -20.425 -4.434 12
-2.279 -19.568 -4.512 9
-2.205 -18.785 -4.59 7
-2.127 -18.006 -4.643 7
-2.059 -17.292 -4.699 7
-1.993 -16.625 -4.753 7
-1.931 -15.98 -4.794 8
-1.873 -15.399 -4.846 8
-1.814 -14.811 -4.875 7
-1.765 -14.296 -4.924 8
-1.72 -13.828 -4.984 7
-1.675 -13.357 -5.025 6
-1.625 -12.868 -5.041 8
-1.586 -12.449 -5.084 10
-1.544 -12.029 -5.114 9
-1.507 -11.635 -5.147 10
-1.469 -11.26 -5.181 11
-1.435 -10.894 -5.209 11
-1.399 -10.537 -5.232 12
-1.137 -8.497 -3.881 10
-1.119 -8.278 -3.946 9
-1.097 -8.051 -3.999 12
-3.781 -34.064 -3.006 35
-3.701 -33.082 -3.431 37
-2.935 -26.072 -2.542 11
-2.876 -25.351 -2.853 44
-2.87 -25.14 -3.268 56
-2.906 -25.256 -3.767 9
-2.893 -24.985 -4.164 6
-2.76 -23.689 -4.242 6
-2.643 -22.506 -4.313 5
-2.529 -21.402 -4.369 23
-2.438 -20.44 -4.44 10
-2.346 -19.572 -4.513 9
-2.27 -18.789 -4.591 8
-2.19 -18.011 -4.645 7
-2.12 -17.293 -4.699 7
-2.051 -16.623 -4.752 8
-1.987 -15.975 -4.791 9
-1.928 -15.397 -4.845 8
-1.868 -14.816 -4.878 7
-1.817 -14.291 -4.921 9
-1.77 -13.824 -4.981 8
-1.724 -13.355 -5.025 7
-1.673 -12.867 -5.04 9
-1.632 -12.444 -5.081 9
-1.589 -12.028 -5.113 10
-1.551 -11.635 -5.147 10
-1.512 -11.253 -5.176 11
-1.477 -10.894 -5.209 10
-1.441 -10.539 -5.234 10
-1.159 -8.41 -3.811 12
-1.142 -8.205 -3.885 8
-1.119 -7.973 -3.931 7
-3.884 -34.03 -3.0 29
-3.807 -33.094 -3.433 31
-3.015 -26.052 -2.537 20
-2.958 -25.361 -2.855 1
-2.952 -25.151 -3.271 55
-2.988 -25.255 -3.767 15
-2.975 -24.991 -4.166 6
-2.838 -23.688 -4.242 5
-2.717 -22.506 -4.313 5
-2.601 -21.409 -4.372 19
-2.508 -20.451 -4.444 9
-2.413 -19.577 -4.515 9
-2.334 -18.79 -4.592 8
-2.252 -18.012 -4.645 7
-2.18 -17.294 -4.7 7
-2.109 -16.624 -4.752 9
-2.044 -15.979 -4.794 9
-1.983 -15.395 -4.844 7
-1.921 -14.814 -4.877 7
-1.868 -14.289 -4.92 8
-1.821 -13.829 -4.984 7
-1.773 -13.354 -5.024 8
-1.721 -12.869 -5.041 8
-1.68 -12.45 -5.085 10
-1.634 -12.024 -5.11 10
-1.596 -11.634 -5.146 10
-1.557 -11.262 -5.183 12
-1.519 -10.89 -5.206 11
-1.2 -8.537 -3.67 4
-1.181 -8.334 -3.749 12
-1.162 -8.117 -3.811 10
-1.378 -9.543 -5.296 26
-3.999 -34.104 -3.013 39
-3.914 -33.126 -3.439 44
-3.093 -26.008 -2.528 13
0.0 -0.0 3.0 0
-3.035 -25.165 -3.274 55
-3.091 -25.426 -3.813 4
-3.058 -25.001 -4.169 6
-2.917 -23.694 -4.244 6
-2.793 -22.513 -4.315 6
-2.674 -21.417 -4.374 18
-2.577 -20.448 -4.442 10
-2.479 -19.573 -4.513 9
-2.399 -18.79 -4.592 7
-2.314 -18.009 -4.644 8
-2.24 -17.295 -4.7 8
-2.167 -16.618 -4.749 7
-2.101 -15.981 -4.795 9
-2.038 -15.397 -4.845 7
-1.975 -14.82 -4.88 8
-1.921 -14.294 -4.923 9
-1.871 -13.827 -4.983 5
-1.822 -13.349 -5.021 8
-1.769 -12.865 -5.039 8
-1.727 -12.45 -5.085 10
-1.681 -12.03 -5.114 10
-1.64 -11.633 -5.146 10
-1.6 -11.258 -5.18 11
-1.562 -10.889 -5.206 10
-1.224 -8.466 -3.614 12
-1.203 -8.254 -3.684 8
-1.182 -8.033 -3.74 10
-1.417 -9.546 -5.299 38
-4.121 -34.236 -3.037 29
-4.028 -33.2 -3.453 40
-3.171 -25.975 -2.521 12
-3.124 -25.386 -2.861 1
-3.118 -25.179 -3.278 55
-3.147 -25.218 -3.757 21
-3.14 -25.003 -4.17 6
-2.995 -23.697 -4.245 6
-2.868 -22.513 -4.315 5
-2.746 -21.42 -4.375 15
-2.647 -20.452 -4.444 9
-2.545 -19.57 -4.512 9
-2.463 -18.791 -4.592 8
-2.376 -18.009 -4.644 7
-2.301 -17.296 -4.701 7
-2.226 -16.623 -4.751 8
-2.157 -15.979 -4.793 9
-2.094 -15.402 -4.848 7
-2.028 -14.821 -4.881 7
-1.973 -14.296 -4.924 8
-1.921 -13.819 -4.978 4
-1.872 -13.351 -5.022 8
-1.816 -12.859 -5.036 7
-1.773 -12.445 -5.082 10
-1.727 -12.032 -5.116 10
-1.685 -11.633 -5.145 10
-1.643 -11.258 -5.179 10
-1.604 -10.889 -5.205 11
-1.245 -8.387 -3.553 9
-1.223 -8.171 -3.616 9
-1.204 -7.963 -3.682 7
-1.455 -9.543 -5.295 39
-4.211 -34.095 -3.012 5
-4.137 -33.238 -3.461 40
-3.251 -25.949 -2.516 12
0.0 -0.0 3.0 0
-3.201 -25.196 -3.282 50
-3.228 -25.211 -3.755 2
-3.223 -25.009 -4.171 6
-3.074 -23.699 -4.246 6
-2.944 -22.522 -4.318 5
-2.816 -21.405 -4.37 31
-2.715 -20.447 -4.442 8
-2.613 -19.581 -4.516 9
-2.529 -18.795 -4.594 8
-2.439 -18.009 -4.644 7
-2.361 -17.292 -4.699 8
-2.284 -16.62 -4.75 8
-2.214 -15.976 -4.792 9
-2.15 -15.41 -4.852 7
-2.083 -14.826 -4.883 7
-2.024 -14.291 -4.921 8
-1.971 -13.817 -4.977 8
-1.921 -13.353 -5.023 8
-1.865 -12.868 -5.041 8
-1.82 -12.446 -5.083 8
-1.772 -12.028 -5.113 10
-1.728 -11.628 -5.142 10
-1.687 -11.26 -5.181 10
-1.288 -8.515 -3.417 9
-1.265 -8.297 -3.482 6
-1.241 -8.078 -3.541 8
-1.235 -7.96 -3.679 0
-1.494 -9.546 -5.298 40
-4.346 -34.321 -3.052 2
-4.255 -33.346 -3.482 32
-3.33 -25.925 -2.511 15
0.0 -0.0 3.0 0
-3.285 -25.213 -3.286 53
-3.342 -25.451 -3.82 3
-3.305 -25.011 -4.172 6
-3.153 -23.709 -4.249 6
-3.019 -22.521 -4.318 5
-2.888 -21.407 -4.371 32
-2.785 -20.45 -4.443 10
-2.68 -19.577 -4.515 9
-2.593 -18.795 -4.594 8
-2.501 -18.006 -4.643 8
-2.421 -17.293 -4.699 8
-2.342 -16.617 -4.749 8
-2.27 -15.977 -4.792 9
-2.204 -15.4 -4.847 8
-2.136 -14.823 -4.882 7
-2.077 -14.295 -4.924 8
-2.023 -13.826 -4.982 8
-1.97 -13.351 -5.022 8
-1.912 -12.86 -5.036 8
-1.866 -12.445 -5.082 9
-1.818 -12.03 -5.114 9
-1.773 -11.63 -5.144 10
-1.73 -11.259 -5.18 12
-1.318 -8.497 -3.403 8
-1.284 -8.212 -3.416 8
-1.26 -7.995 -3.474 12
-1.571 -9.867 -5.279 13
-1.533 -9.545 -5.297 38
-4.926 -37.969 -3.695 6
-4.363 -33.365 -3.485 23
-3.41 -25.906 -2.507 15
0.0 -0.0 3.0 0
-3.369 -25.234 -3.292 54
-3.399 -25.261 -3.769 10
-3.389 -25.027 -4.176 6
-3.233 -23.719 -4.252 6
-3.095 -22.531 -4.321 5
-2.961 -21.413 -4.373 33
-2.854 -20.453 -4.444 9
-2.746 -19.576 -4.515 9
-2.658 -18.794 -4.593 7
-2.563 -18.006 -4.643 7
-2.482 -17.293 -4.699 8
-2.4 -16.614 -4.747 8
-2.327 -15.974 -4.791 9
-2.26 -15.408 -4.851 8
-2.19 -14.828 -4.884 8
-2.13 -14.3 -4.926 8
-2.074 -13.823 -4.981 8
-2.02 -13.349 -5.021 7
-1.96 -12.858 -5.035 6
-1.914 -12.45 -5.085 9
-1.863 -12.028 -5.113 9
-1.818 -11.629 -5.143 10
-1.774 -11.258 -5.18 11
-1.352 -8.499 -3.405 5
-1.316 -8.212 -3.416 2
-1.284 -7.942 -3.431 6
-1.611 -9.873 -5.284 15
-1.571 -9.545 -5.297 39
-5.052 -38.017 -3.703 7
-4.47 -33.379 -3.488 28
-3.489 -25.885 -2.502 15
0.0 -0.0 3.0 0
-3.453 -25.255 -3.297 55
-3.486 -25.297 -3.778 17
-3.473 -25.036 -4.179 6
-3.312 -23.724 -4.253 6
-3.17 -22.529 -4.32 5
-3.034 -21.419 -4.375 16
-2.925 -20.459 -4.447 9
-2.815 -19.587 -4.519 9
-2.722 -18.791 -4.592 8
-2.626 -18.009 -4.644 8
-2.542 -17.293 -4.699 8
-2.459 -16.614 -4.747 8
-2.384 -15.978 -4.793 9
-2.314 -15.402 -4.848 8
-2.243 -14.825 -4.883 8
-2.181 -14.294 -4.923 8
-2.125 -13.828 -4.983 7
-2.069 -13.35 -5.022 7
-2.008 -12.863 -5.038 8
-1.961 -12.448 -5.084 9
-1.909 -12.03 -5.114 10
-1.863 -11.631 -5.144 8
-1.816 -11.253 -5.176 11
-1.773 -10.885 -5.202 11
-1.364 -8.305 -3.489 5
-1.315 -7.942 -3.431 4
-1.651 -9.872 -5.283 14
-1.61 -9.544 -5.297 36
-5.171 -38.021 -3.704 6
-4.579 -33.404 -3.493 23
-3.571 -25.881 -2.501 15
0.0 -0.0 3.0 0
-3.536 -25.26 -3.298 55
-3.573 -25.324 -3.786 11
-3.554 -25.03 -4.177 6
-3.392 -23.733 -4.256 6
-3.247 -22.539 -4.323 5
-3.107 -21.429 -4.379 15
-2.994 -20.458 -4.446 9
-2.881 -19.582 -4.517 9
-2.788 -18.797 -4.595 8
-2.689 -18.009 -4.644 8
-2.603 -17.293 -4.699 8
-2.518 -16.614 -4.747 8
-2.44 -15.97 -4.789 9
-2.371 -15.413 -4.853 8
-2.297 -14.829 -4.885 7
-2.233 -14.295 -4.924 8
-2.175 -13.823 -4.98 7
-2.119 -13.349 -5.021 7
-2.057 -12.864 -5.038 7
-2.008 -12.447 -5.083 9
-1.955 -12.028 -5.113 10
-1.907 -11.629 -5.143 8
-1.86 -11.252 -5.175 12
-1.817 -10.89 -5.206 12
-1.434 -8.527 -3.662 0
-1.348 -7.948 -3.436 1
-1.69 -9.868 -5.28 14
-1.649 -9.544 -5.296 38
-5.292 -38.028 -3.705 7
-4.687 -33.417 -3.496 28
-3.652 -25.871 -2.499 15
0.0 -0.0 3.0 0
-3.619 -25.272 -3.301 55
-3.656 -25.329 -3.787 16
-3.638 -25.042 -4.181 6
-3.471 -23.738 -4.257 6
-3.324 -22.552 -4.327 5
-3.183 -21.45 -4.386 12
-3.064 -20.464 -4.448 9
-2.949 -19.588 -4.519 9
-2.852 -18.792 -4.593 8
-2.751 -18.008 -4.644 8
-2.664 -17.297 -4.701 8
-2.577 -16.618 -4.749 8
-2.497 -15.975 -4.792 9
-2.426 -15.41 -4.852 8
-2.351 -14.827 -4.884 8
-2.286 -14.295 -4.924 8
-2.226 -13.82 -4.979 7
-2.168 -13.35 -5.021 7
-2.106 -12.869 -5.041 8
-2.054 -12.444 -5.081 10
-2.0 -12.023 -5.11 9
-1.952 -11.631 -5.144 9
-1.904 -11.254 -5.176 12
-1.859 -10.888 -5.205 12
-1.813 -10.532 -5.229 11
-1.482 -8.536 -3.913 3
-1.395 -7.96 -3.679 5
-1.687 -9.542 -5.295 40
-5.416 -38.067 -3.712 6
-4.794 -33.43 -3.498 23
-3.733 -25.86 -2.497 15
0.0 -0.0 3.0 0
-3.703 -25.284 -3.304 55
-3.741 -25.345 -3.791 15
-3.722 -25.054 -4.184 6
-3.55 -23.739 -4.258 5
-3.399 -22.549 -4.327 5
-3.256 -21.456 -4.388 12
-3.134 -20.466 -4.449 9
-3.015 -19.583 -4.517 9
-2.916 -18.792 -4.592 8
-2.815 -18.014 -4.647 8
-2.724 -17.296 -4.701 8
-2.636 -16.618 -4.749 8
-2.554 -15.971 -4.79 9
-2.481 -15.406 -4.85 8
-2.405 -14.83 -4.885 8
-2.339 -14.3 -4.926 8
-2.277 -13.823 -4.981 7
-2.217 -13.344 -5.018 7
-2.154 -12.869 -5.042 7
-2.102 -12.446 -5.083 9
-2.048 -12.035 -5.117 10
-1.997 -11.632 -5.145 9
-1.947 -11.252 -5.175 11
-1.901 -10.884 -5.201 12
-1.855 -10.534 -5.23 11
-1.811 -10.196 -5.256 14
-1.509 -8.415 -4.061 0
-1.486 -8.216 -4.142 1
-5.54 -38.098 -3.718 6
-4.902 -33.447 -3.502 22
-3.815 -25.856 -2.496 12
0.0 -0.0 3.0 0
-3.786 -25.292 -3.306 54
-3.826 -25.36 -3.795 15
-3.806 -25.062 -4.186 6
-3.631 -23.751 -4.261 5
-3.475 -22.554 -4.328 4
-3.327 -21.449 -4.386 11
-3.205 -20.476 -4.453 10
-3.084 -19.592 -4.521 9
-2.982 -18.797 -4.595 8
-2.878 -18.017 -4.648 8
-2.786 -17.299 -4.702 5
-2.695 -16.621 -4.75 8
-2.611 -15.974 -4.791 9
-2.537 -15.41 -4.852 7
-2.457 -14.821 -4.88 8
-2.389 -14.29 -4.921 8
-2.328 -13.821 -4.98 7
-2.267 -13.348 -5.02 7
-2.203 -12.87 -5.042 7
-2.148 -12.444 -5.081 9
-2.092 -12.026 -5.112 8
-2.041 -11.627 -5.141 7
-1.991 -11.253 -5.176 10
-1.944 -10.885 -5.203 13
-1.896 -10.53 -5.227 13
-1.851 -10.192 -5.253 13
-1.556 -8.484 -4.119 5
-1.476 -7.98 -3.937 4
-5.664 -38.124 -3.722 7
-5.01 -33.455 -3.503 22
-3.888 -25.79 -2.482 2
-4.001 -26.337 -3.08 0
-3.869 -25.296 -3.307 55
-3.91 -25.368 -3.797 15
-3.889 -25.061 -4.186 7
-3.71 -23.751 -4.261 6
-3.554 -22.574 -4.335 4
-3.402 -21.462 -4.39 10
-3.275 -20.477 -4.453 9
-3.151 -19.591 -4.52 9
-3.048 -18.804 -4.597 7
-2.94 -18.013 -4.646 7
-2.847 -17.302 -4.703 7
-2.753 -16.616 -4.748 8
-2.668 -15.974 -4.791 9
-2.592 -15.406 -4.85 8
-2.512 -14.828 -4.884 8
-2.443 -14.297 -4.925 9
-2.378 -13.818 -4.978 7
-2.317 -13.348 -5.02 7
-2.251 -12.871 -5.043 7
-2.196 -12.445 -5.082 9
-2.139 -12.031 -5.115 10
-2.086 -11.625 -5.14 7
-2.035 -11.252 -5.175 11
-1.987 -10.887 -5.204 11
-1.938 -10.531 -5.228 13
-1.892 -10.193 -5.254 12
-1.849 -9.864 -5.277 14
-1.549 -8.192 -4.121 4
-5.126 -33.786 -2.957 11
-5.116 -33.456 -3.503 19
-3.974 -25.814 -2.487 2
-3.95 -25.458 -2.877 1
-3.953 -25.311 -3.311 56
-3.995 -25.379 -3.8 15
-3.974 -25.076 -4.19 6
-3.791 -23.763 -4.265 5
-3.63 -22.578 -4.336 4
-3.475 -21.466 -4.391 11
-3.345 -20.479 -4.454 10
-3.219 -19.596 -4.522 10
-3.113 -18.802 -4.596 8
-3.003 -18.015 -4.647 8
-2.908 -17.304 -4.704 7
-2.812 -16.616 -4.748 8
-2.725 -15.973 -4.791 9
-2.647 -15.403 -4.848 7
-2.566 -14.828 -4.884 7
-2.495 -14.297 -4.925 9
-2.429 -13.818 -4.978 8
-2.365 -13.339 -5.015 8
-2.299 -12.869 -5.041 8
-2.243 -12.446 -5.082 9
-2.184 -12.028 -5.113 9
-2.131 -11.626 -5.14 7
-2.079 -11.253 -5.176 12
-2.029 -10.882 -5.2 10
-1.979 -10.526 -5.224 11
-1.933 -10.195 -5.256 13
-1.888 -9.862 -5.275 14
-1.656 -8.576 -4.455 2
-5.238 -33.825 -2.964 8
-5.225 -33.476 -3.507 28
-4.062 -25.848 -2.494 1
-4.033 -25.465 -2.879 1
-4.036 -25.315 -3.312 54
-4.08 -25.389 -3.803 15
-4.058 -25.087 -4.194 6
-3.871 -23.767 -4.266 6
-3.706 -22.575 -4.335 5
-3.547 -21.464 -4.391 10
-3.415 -20.48 -4.454 10
-3.288 -19.606 -4.526 20
-3.18 -18.811 -4.6 8
-3.067 -18.017 -4.648 7
-2.968 -17.3 -4.702 8
-2.871 -16.619 -4.75 8
-2.783 -15.973 -4.791 9
-2.702 -15.398 -4.846 7
-2.619 -14.823 -4.882 8
-2.546 -14.29 -4.921 9
-2.48 -13.818 -4.978 7
-2.416 -13.346 -5.019 7
-2.348 -12.873 -5.044 7
-2.289 -12.44 -5.079 9
-2.231 -12.029 -5.114 10
-2.176 -11.627 -5.141 5
-2.122 -11.251 -5.174 11
-2.073 -10.886 -5.203 11
-2.022 -10.531 -5.228 13
-1.973 -10.194 -5.255 12
-1.929 -9.867 -5.279 14
-1.882 -9.54 -5.293 38
-5.347 -33.841 -2.967 20
-5.333 -33.483 -3.508 20
-4.158 -25.932 -2.512 1
0.0 -0.0 3.0 0
-4.122 -25.333 -3.316 53
-4.165 -25.401 -3.806 15
-4.143 -25.098 -4.197 7
-3.95 -23.77 -4.267 5
-3.782 -22.579 -4.336 4
-3.62 -21.468 -4.392 10
-3.485 -20.481 -4.454 9
-3.352 -19.585 -4.518 37
-3.245 -18.809 -4.599 8
-3.13 -18.019 -4.649 7
-3.029 -17.298 -4.702 8
-2.93 -16.617 -4.749 8
-2.839 -15.969 -4.788 9
-2.758 -15.402 -4.848 7
-2.673 -14.823 -4.882 8
-2.599 -14.294 -4.923 9
-2.532 -13.819 -4.978 7
-2.465 -13.343 -5.017 8
-2.397 -12.873 -5.044 8
-2.337 -12.443 -5.081 10
-2.276 -12.023 -5.11 9
-2.22 -11.624 -5.14 6
-2.166 -11.249 -5.173 12
-2.115 -10.885 -5.202 10
-2.064 -10.532 -5.229 12
-2.014 -10.191 -5.253 12
-1.969 -9.865 -5.278 14
-1.92 -9.536 -5.289 37
-5.413 -33.587 -2.922 26
-5.441 -33.494 -3.511 20
-4.249 -25.978 -2.522 0
0.0 -0.0 3.0 0
-4.205 -25.34 -3.318 56
-4.253 -25.425 -3.813 16
-4.227 -25.104 -4.199 6
-4.032 -23.781 -4.271 6
-3.859 -22.583 -4.338 5
-3.695 -21.476 -4.395 10
-3.556 -20.485 -4.456 9
-3.42 -19.59 -4.52 41
-3.31 -18.807 -4.598 8
-3.193 -18.017 -4.648 7
-3.09 -17.301 -4.703 8
-2.99 -16.62 -4.75 8
-2.897 -15.975 -4.792 9
-2.813 -15.397 -4.845 7
-2.727 -14.819 -4.879 8
-2.652 -14.293 -4.923 9
-2.583 -13.822 -4.98 7
-2.515 -13.343 -5.017 8
-2.445 -12.873 -5.044 8
-2.384 -12.441 -5.079 9
-2.321 -12.02 -5.108 9
-2.266 -11.629 -5.143 10
-2.21 -11.253 -5.176 11
-2.158 -10.886 -5.203 11
-2.104 -10.524 -5.222 13
-2.054 -10.19 -5.252 11
-2.008 -9.861 -5.274 14
-1.959 -9.538 -5.291 30
-5.521 -33.594 -2.924 17
-5.551 -33.512 -3.514 28
-4.343 -26.042 -2.535 7
0.0 -0.0 3.0 0
-4.29 -25.354 -3.321 54
-4.339 -25.44 -3.817 16
-4.311 -25.111 -4.2 7
-4.113 -23.795 -4.275 5
-3.936 -22.593 -4.341 5
-3.768 -21.48 -4.396 10
-3.627 -20.489 -4.457 9
-3.487 -19.587 -4.519 32
-3.376 -18.811 -4.6 8
-3.257 -18.023 -4.65 7
-3.151 -17.295 -4.7 7
-3.049 -16.618 -4.749 8
-2.954 -15.97 -4.789 9
-2.867 -15.393 -4.843 8
-2.781 -14.819 -4.879 8
-2.704 -14.289 -4.921 9
-2.633 -13.812 -4.974 8
-2.564 -13.336 -5.013 8
-2.494 -12.874 -5.044 8
-2.432 -12.444 -5.082 9
-2.368 -12.025 -5.111 10
-2.311 -11.627 -5.141 10
-2.254 -11.25 -5.174 11
-2.201 -10.884 -5.201 11
-2.147 -10.528 -5.225 10
-2.096 -10.191 -5.253 12
-2.047 -9.859 -5.273 14
-1.998 -9.536 -5.289 37
-5.61 -33.495 -2.906 16
-5.659 -33.519 -3.515 22
-4.441 -26.129 -2.554 6
0.0 -0.0 3.0 0
-4.375 -25.364 -3.324 54
-4.425 -25.453 -3.82 17
-4.396 -25.117 -4.202 6
-4.193 -23.794 -4.275 5
-4.013 -22.592 -4.341 5
-3.84 -21.477 -4.395 10
-3.699 -20.501 -4.462 9
-3.554 -19.583 -4.517 14
-3.441 -18.809 -4.599 8
-3.318 -18.013 -4.646 7
-3.211 -17.293 -4.7 8
-3.108 -16.62 -4.75 7
-3.012 -15.972 -4.79 9
-2.923 -15.392 -4.843 7
-2.835 -14.822 -4.881 8
-2.756 -14.285 -4.918 8
-2.685 -13.818 -4.978 8
-2.615 -13.342 -5.017 8
-2.541 -12.867 -5.04 8
-2.479 -12.441 -5.079 9
-2.414 -12.025 -5.111 9
-2.356 -11.627 -5.141 10
-2.297 -11.248 -5.172 11
-2.243 -10.881 -5.2 11
-2.188 -10.526 -5.224 10
-2.136 -10.186 -5.248 12
-2.087 -9.858 -5.272 14
-2.037 -9.537 -5.29 35
-5.757 -33.735 -2.948 2
-5.764 -33.513 -3.514 21
-4.551 -26.278 -2.586 2
0.0 -0.0 3.0 0
-4.459 -25.374 -3.326 54
-4.509 -25.459 -3.822 18
-4.481 -25.126 -4.205 7
-4.275 -23.808 -4.279 5
-4.092 -22.611 -4.347 5
-3.915 -21.487 -4.399 10
-3.768 -20.493 -4.459 8
-3.625 -19.603 -4.525 10
-3.507 -18.813 -4.601 7
-3.382 -18.018 -4.648 7
-3.273 -17.294 -4.7 8
-3.167 -16.618 -4.749 8
-3.069 -15.974 -4.791 9
-2.979 -15.394 -4.844 7
-2.889 -14.817 -4.879 8
-2.809 -14.288 -4.92 8
-2.737 -13.818 -4.978 7
-2.665 -13.342 -5.017 8
-2.589 -12.863 -5.038 8
-2.525 -12.438 -5.077 9
-2.459 -12.018 -5.106 9
-2.4 -11.624 -5.139 10
-2.342 -11.248 -5.172 11
-2.286 -10.878 -5.197 11
-2.23 -10.527 -5.225 12
-2.177 -10.187 -5.249 13
-2.127 -9.859 -5.272 13
-2.076 -9.536 -5.289 34
-6.662 -38.326 -3.758 7
-5.876 -33.539 -3.519 22
-5.715 -32.395 -3.886 13
0.0 -0.0 3.0 0
-4.545 -25.391 -3.331 54
-4.596 -25.472 -3.825 19
-4.565 -25.128 -4.205 5
-4.356 -23.814 -4.281 6
-4.168 -22.61 -4.346 5
-3.99 -21.498 -4.402 8
-3.84 -20.501 -4.462 9
-3.695 -19.614 -4.529 8
-3.572 -18.81 -4.6 7
-3.445 -18.015 -4.647 7
-3.335 -17.3 -4.702 8
-3.228 -16.623 -4.752 8
-3.127 -15.976 -4.792 9
-3.036 -15.396 -4.845 7
-2.943 -14.816 -4.878 9
-2.862 -14.29 -4.921 8
-2.787 -13.814 -4.975 8
-2.714 -13.338 -5.014 7
-2.637 -12.86 -5.036 8
-2.575 -12.447 -5.083 10
-2.506 -12.022 -5.109 10
-2.446 -11.628 -5.142 11
-2.384 -11.243 -5.168 11
-2.328 -10.876 -5.196 12
-2.273 -10.528 -5.226 12
-2.218 -10.188 -5.25 11
-2.166 -9.854 -5.268 13
-2.115 -9.534 -5.287 34
-6.792 -38.377 -3.767 6
-5.989 -33.571 -3.526 23
-5.819 -32.397 -3.886 13
0.0 -0.0 3.0 0
-4.63 -25.4 -3.333 54
-4.682 -25.485 -3.829 20
-4.651 -25.144 -4.21 6
-4.437 -23.82 -4.282 6
-4.245 -22.612 -4.347 4
-4.064 -21.497 -4.402 9
-3.911 -20.505 -4.463 9
-3.763 -19.614 -4.529 9
-3.639 -18.819 -4.603 8
-3.509 -18.02 -4.649 5
-3.395 -17.293 -4.7 8
-3.286 -16.618 -4.749 8
-3.185 -15.974 -4.791 9
-3.092 -15.398 -4.846 8
-2.997 -14.818 -4.879 8
-2.914 -14.286 -4.919 9
-2.838 -13.809 -4.973 8
-2.764 -13.337 -5.014 8
-2.686 -12.863 -5.038 9
-2.621 -12.441 -5.079 9
-2.551 -12.015 -5.104 9
-2.491 -11.625 -5.14 9
-2.429 -11.246 -5.171 11
-2.373 -10.883 -5.201 11
-2.314 -10.525 -5.223 11
-2.257 -10.18 -5.243 12
-2.207 -9.855 -5.269 13
-2.153 -9.532 -5.286 29
-6.918 -38.399 -3.771 6
-6.092 -33.545 -3.521 31
-5.926 -32.41 -3.889 14
0.0 -0.0 3.0 0
-4.716 -25.417 -3.337 54
-4.769 -25.497 -3.832 21
-4.735 -25.145 -4.21 6
-4.518 -23.829 -4.285 6
-4.325 -22.63 -4.353 5
-4.139 -21.507 -4.406 8
-3.982 -20.508 -4.464 9
-3.831 -19.614 -4.529 9
-3.704 -18.815 -4.602 8
-3.574 -18.024 -4.651 7
-3.458 -17.298 -4.702 8
-3.344 -16.612 -4.746 8
-3.241 -15.969 -4.788 9
-3.146 -15.389 -4.841 7
-3.052 -14.82 -4.88 8
-2.967 -14.285 -4.918 8
-2.89 -13.812 -4.974 7
-2.813 -13.331 -5.01 7
-2.734 -12.86 -5.036 8
-2.669 -12.444 -5.081 9
-2.598 -12.019 -5.107 9
-2.535 -11.622 -5.138 10
-2.473 -11.243 -5.169 10
-2.415 -10.88 -5.199 12
-2.356 -10.523 -5.222 12
-2.299 -10.181 -5.244 15
-2.246 -9.852 -5.267 14
-2.193 -9.533 -5.287 34
-7.046 -38.428 -3.776 6
-6.207 -33.589 -3.529 23
-6.031 -32.412 -3.889 14
0.0 -0.0 3.0 0
-4.801 -25.425 -3.339 53
-4.855 -25.506 -3.834 22
-4.821 -25.153 -4.213 6
-4.598 -23.827 -4.285 6
-4.401 -22.628 -4.352 5
-4.212 -21.506 -4.405 9
-4.056 -20.526 -4.471 9
-3.901 -19.621 -4.532 8
-3.771 -18.819 -4.603 8
-3.636 -18.017 -4.648 6
-3.519 -17.295 -4.7 8
-3.405 -16.617 -4.749 8
-3.3 -15.973 -4.791 9
-3.202 -15.388 -4.84 8
-3.106 -14.818 -4.879 8
-3.02 -14.287 -4.919 8
-2.942 -13.814 -4.975 7
-2.865 -13.339 -5.015 8
-2.784 -12.862 -5.037 8
-2.716 -12.437 -5.077 9
-2.645 -12.018 -5.106 10
-2.581 -11.621 -5.137 11
-2.517 -11.244 -5.169 10
-2.458 -10.878 -5.197 11
-2.397 -10.52 -5.219 12
-2.34 -10.181 -5.244 13
-2.286 -9.85 -5.265 13
-2.232 -9.531 -5.285 34
-7.175 -38.465 -3.782 7
-6.322 -33.628 -3.537 23
-6.137 -32.421 -3.891 14
-4.883 -25.593 -2.909 6
-4.889 -25.445 -3.344 52
-4.944 -25.529 -3.841 23
-4.908 -25.169 -4.217 7
-4.681 -23.839 -4.288 6
-4.482 -22.648 -4.359 4
-4.288 -21.515 -4.408 8
-4.126 -20.521 -4.469 13
-3.969 -19.624 -4.533 9
-3.837 -18.819 -4.603 8
-3.7 -18.021 -4.649 7
-3.581 -17.299 -4.702 8
-3.465 -16.621 -4.75 8
-3.357 -15.971 -4.79 9
-3.259 -15.392 -4.843 7
-3.161 -14.82 -4.88 8
-3.072 -14.282 -4.917 9
-2.992 -13.809 -4.973 7
-2.915 -13.339 -5.015 8
-2.831 -12.855 -5.032 8
-2.764 -12.44 -5.078 9
-2.692 -12.022 -5.109 9
-2.626 -11.621 -5.137 10
-2.561 -11.241 -5.167 11
-2.501 -10.877 -5.197 12
-2.44 -10.524 -5.222 9
-2.38 -10.178 -5.242 12
-2.327 -9.854 -5.268 14
-2.27 -9.525 -5.28 35
-7.306 -38.513 -3.791 6
-6.433 -33.644 -3.54 22
-6.243 -32.425 -3.892 14
-4.97 -25.608 -2.912 34
-4.974 -25.453 -3.346 51
-5.031 -25.54 -3.844 25
-4.994 -25.182 -4.221 6
-4.765 -23.859 -4.294 6
-4.558 -22.643 -4.357 4
-4.362 -21.521 -4.41 8
-4.195 -20.512 -4.466 32
-4.039 -19.631 -4.535 9
-3.904 -18.825 -4.606 8
-3.764 -18.021 -4.649 6
-3.642 -17.296 -4.701 8
-3.525 -16.622 -4.751 7
-3.415 -15.972 -4.79 9
-3.315 -15.39 -4.842 7
-3.215 -14.818 -4.879 8
-3.125 -14.284 -4.918 9
-3.045 -13.811 -4.974 7
-2.967 -13.344 -5.018 7
-2.882 -12.863 -5.038 8
-2.811 -12.439 -5.078 10
-2.738 -12.018 -5.106 9
-2.671 -11.621 -5.137 10
-2.606 -11.243 -5.169 10
-2.544 -10.878 -5.197 11
-2.482 -10.524 -5.222 10
-2.421 -10.176 -5.241 13
-2.366 -9.848 -5.264 13
-2.31 -9.53 -5.284 30
-7.434 -38.538 -3.795 6
-6.537 -33.625 -3.536 35
-6.349 -32.429 -3.893 14
-5.057 -25.624 -2.916 0
-5.062 -25.473 -3.351 52
-5.116 -25.545 -3.845 32
-5.079 -25.185 -4.222 6
-4.846 -23.86 -4.295 6
-4.637 -22.655 -4.361 5
-4.437 -21.527 -4.412 10
-4.267 -20.518 -4.468 24
-4.107 -19.63 -4.535 8
-3.97 -18.825 -4.606 8
-3.828 -18.021 -4.649 7
-3.704 -17.3 -4.702 8
-3.585 -16.623 -4.751 7
-3.472 -15.966 -4.787 8
-3.371 -15.391 -4.842 7
-3.269 -14.817 -4.878 8
-3.178 -14.282 -4.917 8
-3.096 -13.81 -4.973 8
-3.015 -13.336 -5.013 8
-2.931 -12.863 -5.037 8
-2.859 -12.438 -5.077 10
-2.785 -12.02 -5.108 10
-2.716 -11.617 -5.135 9
-2.649 -11.24 -5.166 10
-2.588 -10.878 -5.197 11
-2.523 -10.518 -5.218 13
-2.462 -10.177 -5.241 12
-2.406 -9.849 -5.264 14
-2.349 -9.527 -5.282 37
-7.561 -38.562 -3.8 6
-6.655 -33.671 -3.545 22
-6.455 -32.433 -3.894 14
0.0 -0.0 3.0 0
-5.149 -25.492 -3.356 52
-5.201 -25.544 -3.845 42
-5.165 -25.193 -4.224 6
-4.927 -23.864 -4.296 6
-4.717 -22.667 -4.365 5
-4.513 -21.537 -4.416 9
-4.338 -20.52 -4.469 24
-4.176 -19.633 -4.536 8
-4.036 -18.825 -4.606 8
-3.892 -18.024 -4.651 7
-3.766 -17.3 -4.702 8
-3.645 -16.623 -4.751 8
-3.531 -15.974 -4.791 9
-3.427 -15.389 -4.841 7
-3.325 -14.821 -4.881 8
-3.231 -14.28 -4.916 9
-3.149 -13.815 -4.976 8
-3.065 -13.331 -5.01 7
-2.98 -12.865 -5.039 8
-2.907 -12.437 -5.077 10
-2.831 -12.02 -5.107 10
-2.763 -11.624 -5.139 10
-2.694 -11.24 -5.166 11
-2.629 -10.871 -5.192 11
-2.566 -10.521 -5.22 11
-2.504 -10.176 -5.241 12
-2.446 -9.846 -5.262 12
-2.388 -9.527 -5.282 33
-7.693 -38.604 -3.807 6
-6.768 -33.692 -3.549 17
-6.561 -32.437 -3.895 15
-5.397 -26.473 -3.112 2
-5.235 -25.499 -3.358 47
-5.282 -25.525 -3.839 49
-5.251 -25.199 -4.226 6
-5.01 -23.875 -4.299 6
-4.794 -22.668 -4.365 5
-4.587 -21.538 -4.416 10
-4.407 -20.511 -4.465 19
-4.245 -19.635 -4.537 9
-4.104 -18.831 -4.608 8
-3.957 -18.028 -4.652 7
-3.828 -17.3 -4.702 8
-3.706 -16.626 -4.753 8
-3.589 -15.971 -4.789 9
-3.484 -15.389 -4.841 7
-3.379 -14.818 -4.879 8
-3.283 -14.279 -4.915 9
-3.201 -13.817 -4.977 7
-3.116 -13.333 -5.011 7
-3.029 -12.864 -5.038 8
-2.954 -12.436 -5.076 9
-2.877 -12.016 -5.105 9
-2.807 -11.62 -5.136 9
-2.738 -11.24 -5.166 10
-2.672 -10.868 -5.189 11
-2.609 -10.524 -5.222 11
-2.545 -10.177 -5.241 12
-2.486 -9.843 -5.259 13
-2.427 -9.525 -5.28 35
-7.828 -38.662 -3.817 6
-6.883 -33.726 -3.556 19
-6.669 -32.447 -3.897 14
-5.435 -26.235 -3.057 9
-5.321 -25.506 -3.359 50
-5.367 -25.524 -3.839 11
-5.339 -25.214 -4.23 5
-5.091 -23.875 -4.299 6
-4.873 -22.672 -4.367 5
-4.663 -21.543 -4.418 7
-4.481 -20.523 -4.47 11
-4.316 -19.645 -4.541 9
-4.17 -18.829 -4.608 8
-4.02 -18.023 -4.65 8
-3.891 -17.303 -4.704 7
-3.766 -16.626 -4.753 8
-3.648 -15.975 -4.792 9
-3.542 -15.397 -4.845 7
-3.434 -14.819 -4.88 7
-3.337 -14.279 -4.915 9
-3.251 -13.808 -4.972 6
-3.167 -13.335 -5.012 7
-3.078 -12.862 -5.037 9
-3.0 -12.428 -5.071 10
-2.924 -12.018 -5.106 10
-2.853 -11.619 -5.136 10
-2.782 -11.239 -5.166 11
-2.716 -10.871 -5.192 11
-2.65 -10.518 -5.218 11
-2.587 -10.177 -5.241 10
-2.526 -9.844 -5.26 14
-2.466 -9.522 -5.277 32
-7.955 -38.677 -3.82 6
-6.99 -33.717 -3.554 30
-6.775 -32.45 -3.898 15
-5.532 -26.287 -3.069 9
-5.405 -25.505 -3.359 51
-5.468 -25.599 -3.859 2
-5.427 -25.228 -4.234 6
-5.176 -23.894 -4.305 6
-4.952 -22.68 -4.369 5
-4.737 -21.544 -4.418 9
-4.555 -20.536 -4.474 9
-4.384 -19.639 -4.539 9
-4.237 -18.832 -4.609 8
-4.086 -18.029 -4.653 7
-3.953 -17.303 -4.704 7
-3.824 -16.619 -4.75 8
-3.704 -15.968 -4.788 9
-3.599 -15.397 -4.845 8
-3.489 -14.817 -4.878 7
-3.39 -14.277 -4.914 9
-3.303 -13.806 -4.971 6
-3.217 -13.333 -5.011 7
-3.127 -12.861 -5.036 8
-3.05 -12.434 -5.075 9
-2.97 -12.014 -5.103 9
-2.897 -11.615 -5.133 9
