# .PCD v0.7 - Point Cloud Data file format
VERSION 0.7
FIELDS x y z intensity
SIZE 4 4 4 4
TYPE F F F F
COUNT 1 1 1 1
WIDTH 2247
HEIGHT 1
VIEWPOINT 0 0 0 1 0 0 0
POINTS 2247
DATA ascii
-89.896 -6.141 0.519 10
0.0 -0.0 3.0 0
0.0 -0.0 3.0 0
-126.393 -5.964 0.219 18
-58.7 -2.897 1.587 4
0.0 -0.0 3.0 0
-120.76 -7.908 -1.205 27
-100.377 -7.679 -1.257 12
-5.169 -0.458 2.736 3
-4.072 -0.411 2.753 4
-3.112 -0.353 2.779 2
-2.314 -0.292 2.81 1
-2.02 -0.28 2.811 0
-1.841 -0.278 2.805 2
-1.588 -0.259 2.812 9
-1.516 -0.266 2.8 2
-1.386 -0.259 2.798 2
-1.322 -0.262 2.788 2
-1.103 -0.231 2.806 8
-1.113 -0.246 2.786 14
0.0 -0.0 3.0 0
0.0 -0.0 3.0 0
0.0 -0.0 3.0 0
0.0 -0.0 3.0 0
-54.069 -10.514 0.379 14
0.0 -0.0 3.0 0
-55.961 -8.913 0.444 36
-56.613 -8.053 0.538 14
-57.715 -7.248 0.645 17
-59.284 -6.492 0.765 19
-63.909 -6.009 0.813 32
-66.407 -5.282 0.972 19
0.0 -0.0 3.0 0
0.0 -0.0 3.0 0
0.0 -0.0 3.0 0
0.0 -0.0 3.0 0
0.0 -0.0 3.0 0
0.0 -0.0 3.0 0
-121.266 -7.706 -1.097 24
0.0 -0.0 3.0 0
-5.015 -0.437 2.748 0
-4.033 -0.401 2.759 11
-2.724 -0.306 2.809 2
-2.291 -0.286 2.814 1
-2.02 -0.278 2.812 1
-1.826 -0.274 2.808 2
-1.584 -0.257 2.813 11
-1.516 -0.265 2.8 2
-1.409 -0.263 2.795 2
-1.31 -0.259 2.79 1
-1.111 -0.232 2.805 7
-1.117 -0.246 2.786 14
0.0 -0.0 3.0 0
0.0 -0.0 3.0 0
0.0 -0.0 3.0 0
0.0 -0.0 3.0 0
-54.096 -10.48 0.387 8
0.0 -0.0 3.0 0
0.0 -0.0 3.0 0
0.0 -0.0 3.0 0
-58.053 -7.228 0.652 16
-59.698 -6.464 0.774 18
-61.697 -5.715 0.92 6
-66.812 -5.205 1.002 19
-54.321 -3.495 1.588 7
0.0 -0.0 3.0 0
0.0 -0.0 3.0 0
0.0 -0.0 3.0 0
-60.064 -2.644 1.71 3
0.0 -0.0 3.0 0
-121.696 -7.505 -0.991 20
-4.883 -0.358 2.802 0
-5.0 -0.429 2.752 2
-3.056 -0.301 2.819 1
-2.808 -0.313 2.805 3
-2.37 -0.294 2.809 2
-2.032 -0.278 2.812 2
-1.81 -0.271 2.81 1
-1.588 -0.257 2.813 15
-1.528 -0.266 2.8 3
-1.405 -0.261 2.796 1
-1.334 -0.263 2.787 1
-1.146 -0.239 2.8 2
-1.133 -0.249 2.784 13
0.0 -0.0 3.0 0
0.0 -0.0 3.0 0
0.0 -0.0 3.0 0
0.0 -0.0 3.0 0
0.0 -0.0 3.0 0
0.0 -0.0 3.0 0
0.0 -0.0 3.0 0
-57.86 -8.121 0.517 27
-58.402 -7.212 0.657 14
-59.77 -6.404 0.795 9
-63.784 -5.823 0.881 31
-67.208 -5.13 1.031 18
-54.385 -3.397 1.628 7
0.0 -0.0 3.0 0
0.0 -0.0 3.0 0
0.0 -0.0 3.0 0
0.0 -0.0 3.0 0
0.0 -0.0 3.0 0
0.0 -0.0 3.0 0
-4.884 -0.351 2.805 3
-4.081 -0.345 2.801 2
-2.969 -0.289 2.826 2
-2.832 -0.313 2.804 4
-2.291 -0.283 2.817 3
-2.064 -0.281 2.81 1
-1.795 -0.267 2.813 1
-1.577 -0.255 2.815 17
-1.544 -0.268 2.798 2
-1.406 -0.261 2.796 1
-1.342 -0.264 2.786 1
-1.204 -0.251 2.79 2
-1.129 -0.247 2.785 11
0.0 -0.0 3.0 0
0.0 -0.0 3.0 0
0.0 -0.0 3.0 0
0.0 -0.0 3.0 0
0.0 -0.0 3.0 0
-55.97 -9.765 0.383 40
0.0 -0.0 3.0 0
0.0 -0.0 3.0 0
-58.782 -7.203 0.66 14
-59.892 -6.352 0.813 18
-63.688 -5.735 0.913 30
-67.615 -5.061 1.057 16
-54.527 -3.308 1.663 3
0.0 -0.0 3.0 0
0.0 -0.0 3.0 0
-99.662 -3.565 1.338 27
-124.852 -4.843 0.638 15
-61.65 -2.903 1.521 3
0.0 -0.0 3.0 0
-4.876 -0.343 2.81 12
-3.631 -0.303 2.825 1
-2.973 -0.287 2.828 2
-2.797 -0.307 2.808 4
-2.296 -0.282 2.817 2
-2.009 -0.273 2.816 0
-1.803 -0.267 2.813 1
-1.581 -0.254 2.815 16
-1.54 -0.267 2.799 1
-1.425 -0.263 2.794 1
-4.758 -0.935 2.243 1
-1.193 -0.248 2.792 3
-1.149 -0.252 2.781 9
0.0 -0.0 3.0 0
0.0 -0.0 3.0 0
0.0 -0.0 3.0 0
0.0 -0.0 3.0 0
0.0 -0.0 3.0 0
0.0 -0.0 3.0 0
0.0 -0.0 3.0 0
0.0 -0.0 3.0 0
-59.146 -7.196 0.662 15
-60.281 -6.332 0.82 17
-63.652 -5.657 0.941 39
-68.014 -4.995 1.082 19
0.0 -0.0 3.0 0
0.0 -0.0 3.0 0
-99.959 -3.666 1.368 18
-99.506 -3.275 1.473 31
-61.306 -2.221 1.917 32
0.0 -0.0 3.0 0
-8.646 -0.488 2.74 0
-4.865 -0.336 2.814 16
-3.755 -0.309 2.822 3
-3.001 -0.287 2.827 3
-2.634 -0.287 2.821 3
-2.264 -0.276 2.821 1
-2.006 -0.271 2.817 0
-1.834 -0.271 2.81 1
-1.577 -0.253 2.816 19
-1.552 -0.268 2.798 1
-1.468 -0.271 2.789 0
-7.059 -1.384 1.879 9
-1.193 -0.248 2.792 3
-1.164 -0.254 2.779 10
0.0 -0.0 3.0 0
0.0 -0.0 3.0 0
0.0 -0.0 3.0 0
0.0 -0.0 3.0 0
-55.983 -10.708 0.33 9
0.0 -0.0 3.0 0
-57.868 -8.996 0.42 27
0.0 -0.0 3.0 0
-59.509 -7.192 0.663 13
-60.661 -6.316 0.825 14
-62.376 -5.476 1.007 19
-68.452 -4.939 1.104 16
0.0 -0.0 3.0 0
0.0 -0.0 3.0 0
-99.814 -3.405 1.484 22
-99.365 -2.987 1.607 31
-4.849 -0.164 2.92 0
0.0 -0.0 3.0 0
-7.789 -0.428 2.773 0
-4.841 -0.329 2.818 17
-3.811 -0.31 2.821 7
-3.038 -0.287 2.828 2
-2.567 -0.277 2.827 2
-2.26 -0.274 2.822 1
-2.053 -0.276 2.814 1
-1.807 -0.266 2.814 0
-1.578 -0.252 2.817 20
-1.599 -0.275 2.793 0
-7.654 -1.409 1.9 4
-7.102 -1.39 1.874 8
-1.189 -0.246 2.793 4
-1.161 -0.253 2.78 10
0.0 -0.0 3.0 0
0.0 -0.0 3.0 0
0.0 -0.0 3.0 0
0.0 -0.0 3.0 0
-56.055 -10.694 0.334 12
0.0 -0.0 3.0 0
-57.909 -8.969 0.428 3
0.0 -0.0 3.0 0
-59.872 -7.192 0.663 13
-61.045 -6.304 0.829 14
-62.769 -5.448 1.017 26
-68.638 -4.87 1.131 47
-70.169 -3.92 1.416 4
-94.652 -4.004 1.3 10
-99.68 -3.15 1.598 20
-99.219 -2.7 1.741 31
-4.857 -0.152 2.926 1
-4.699 -0.193 2.902 0
-7.921 -0.424 2.775 87
-4.834 -0.322 2.821 18
-3.855 -0.309 2.821 5
-2.982 -0.28 2.832 3
-2.564 -0.275 2.828 2
-2.288 -0.276 2.821 2
-2.089 -0.28 2.811 0
-1.78 -0.261 2.817 0
-1.57 -0.25 2.818 19
-4.884 -0.839 2.368 15
-4.706 -0.864 2.325 0
-7.149 -1.397 1.869 9
-1.193 -0.247 2.793 7
-1.168 -0.254 2.779 6
0.0 -0.0 3.0 0
0.0 -0.0 3.0 0
0.0 -0.0 3.0 0
0.0 -0.0 3.0 0
0.0 -0.0 3.0 0
0.0 -0.0 3.0 0
0.0 -0.0 3.0 0
-59.716 -8.166 0.503 21
0.0 -0.0 3.0 0
-61.428 -6.296 0.832 13
-63.169 -5.425 1.025 19
-68.548 -4.788 1.162 36
-70.57 -3.845 1.446 16
0.0 -0.0 3.0 0
-4.826 -0.141 2.937 0
-99.072 -2.414 1.874 30
-4.854 -0.14 2.932 10
-4.727 -0.186 2.905 2
-4.935 -0.257 2.863 0
-4.571 -0.3 2.834 6
-3.609 -0.287 2.834 4
-2.978 -0.277 2.833 3
-2.588 -0.276 2.827 2
-2.316 -0.279 2.819 1
-3.539 -0.472 2.682 4
-3.355 -0.491 2.656 4
-1.57 -0.249 2.819 18
-4.693 -0.804 2.394 16
-4.667 -0.856 2.331 2
-7.197 -1.404 1.863 8
-1.197 -0.247 2.793 8
-1.165 -0.253 2.78 4
0.0 -0.0 3.0 0
0.0 -0.0 3.0 0
0.0 -0.0 3.0 0
0.0 -0.0 3.0 0
0.0 -0.0 3.0 0
-57.892 -9.946 0.335 32
0.0 -0.0 3.0 0
-59.788 -8.145 0.51 13
0.0 -0.0 3.0 0
-61.831 -6.294 0.833 16
-63.413 -5.395 1.036 43
-65.718 -4.525 1.263 3
-71.011 -3.78 1.473 16
-85.912 -3.333 1.585 8
-4.826 -0.129 2.942 2
-98.936 -2.129 2.007 28
-4.842 -0.129 2.937 9
-4.72 -0.178 2.909 10
-4.936 -0.252 2.866 1
-4.552 -0.294 2.837 7
-3.589 -0.282 2.837 4
-2.991 -0.276 2.834 2
-2.631 -0.279 2.826 1
-4.712 -0.564 2.634 34
-3.543 -0.471 2.683 5
-3.406 -0.497 2.652 4
-1.57 -0.249 2.819 15
-4.713 -0.806 2.393 25
-4.656 -0.852 2.334 18
-7.244 -1.411 1.857 8
-1.186 -0.245 2.795 8
-1.172 -0.255 2.779 3
0.0 -0.0 3.0 0
0.0 -0.0 3.0 0
0.0 -0.0 3.0 0
0.0 -0.0 3.0 0
0.0 -0.0 3.0 0
0.0 -0.0 3.0 0
0.0 -0.0 3.0 0
0.0 -0.0 3.0 0
-61.621 -7.291 0.631 25
-62.221 -6.296 0.832 15
-63.521 -5.358 1.05 15
-66.073 -4.491 1.276 5
-71.459 -3.723 1.496 17
-84.867 -3.161 1.658 10
-4.83 -0.119 2.947 12
-4.815 -0.09 2.958 1
-4.854 -0.118 2.942 5
-4.716 -0.171 2.913 21
-5.97 -0.298 2.842 3
-4.755 -0.304 2.831 21
-3.586 -0.28 2.838 2
-3.066 -0.282 2.831 2
-5.029 -0.532 2.668 27
-4.728 -0.564 2.634 25
-3.543 -0.469 2.683 5
-3.541 -0.515 2.639 3
-1.566 -0.248 2.82 14
-4.729 -0.807 2.392 24
-4.68 -0.856 2.332 31
-7.283 -1.417 1.853 8
-1.178 -0.243 2.796 8
-1.169 -0.254 2.78 4
0.0 -0.0 3.0 0
0.0 -0.0 3.0 0
0.0 -0.0 3.0 0
0.0 -0.0 3.0 0
0.0 -0.0 3.0 0
0.0 -0.0 3.0 0
-59.739 -9.146 0.377 7
0.0 -0.0 3.0 0
-61.668 -7.269 0.638 6
-62.598 -6.302 0.83 14
-63.831 -5.346 1.054 17
-68.335 -4.593 1.237 46
-71.911 -3.676 1.515 17
0.0 -0.0 3.0 0
-4.823 -0.108 2.952 32
-4.811 -0.076 2.965 2
-4.863 -0.108 2.947 5
-4.728 -0.165 2.916 31
-4.916 -0.241 2.872 19
-4.883 -0.309 2.829 33
-3.661 -0.283 2.837 0
-4.745 -0.434 2.739 38
-4.986 -0.525 2.672 25
-4.737 -0.563 2.634 30
-3.555 -0.47 2.683 4
-1.619 -0.235 2.836 0
-1.566 -0.248 2.82 11
-4.741 -0.808 2.391 32
-4.684 -0.855 2.332 45
-7.334 -1.425 1.846 8
-1.178 -0.243 2.796 8
-1.184 -0.257 2.776 5
0.0 -0.0 3.0 0
-134.806 -33.041 -3.422 21
-78.664 -17.795 -0.782 12
0.0 -0.0 3.0 0
0.0 -0.0 3.0 0
0.0 -0.0 3.0 0
-59.777 -9.135 0.381 17
0.0 -0.0 3.0 0
0.0 -0.0 3.0 0
-63.007 -6.316 0.825 13
-64.244 -5.347 1.054 14
-68.235 -4.543 1.256 29
-72.346 -3.638 1.53 16
-76.306 -2.647 1.877 4
-4.811 -0.099 2.956 39
-4.812 -0.063 2.971 22
-4.855 -0.098 2.952 16
-4.733 -0.159 2.919 33
-4.909 -0.236 2.875 15
-4.784 -0.299 2.834 21
-4.845 -0.372 2.785 18
-4.753 -0.433 2.74 41
-4.919 -0.516 2.678 23
-4.749 -0.563 2.635 32
-3.587 -0.473 2.681 3
-1.591 -0.231 2.838 0
-1.555 -0.245 2.822 9
-4.757 -0.81 2.39 28
-4.696 -0.856 2.331 40
-7.389 -1.434 1.838 8
-1.178 -0.243 2.797 10
-1.188 -0.258 2.776 3
0.0 -0.0 3.0 0
0.0 -0.0 3.0 0
0.0 -0.0 3.0 0
0.0 -0.0 3.0 0
0.0 -0.0 3.0 0
0.0 -0.0 3.0 0
0.0 -0.0 3.0 0
-61.611 -8.304 0.461 20
0.0 -0.0 3.0 0
-63.431 -6.336 0.818 13
-64.661 -5.355 1.051 14
-66.478 -4.392 1.314 17
-72.804 -3.613 1.54 15
0.0 -0.0 3.0 0
-4.799 -0.091 2.96 42
-4.804 -0.049 2.977 25
-4.851 -0.091 2.956 24
-4.741 -0.156 2.921 27
-4.921 -0.233 2.876 18
-4.704 -0.292 2.838 30
-4.797 -0.367 2.788 14
-4.75 -0.43 2.741 41
-4.907 -0.514 2.679 28
-4.749 -0.561 2.635 26
-3.615 -0.476 2.679 2
-1.603 -0.232 2.837 0
-1.555 -0.245 2.822 9
-4.765 -0.81 2.389 28
-4.704 -0.857 2.33 32
-7.451 -1.446 1.829 8
-1.182 -0.243 2.796 12
-1.203 -0.261 2.773 1
0.0 -0.0 3.0 0
0.0 -0.0 3.0 0
0.0 -0.0 3.0 0
0.0 -0.0 3.0 0
0.0 -0.0 3.0 0
0.0 -0.0 3.0 0
0.0 -0.0 3.0 0
-61.672 -8.301 0.462 7
0.0 -0.0 3.0 0
0.0 -0.0 3.0 0
-65.101 -5.372 1.045 13
-66.939 -4.396 1.312 20
-73.161 -3.593 1.548 18
-4.773 -0.157 2.933 0
-4.799 -0.084 2.963 31
-4.788 -0.034 2.984 39
-4.847 -0.084 2.959 30
-4.813 -0.154 2.922 27
-4.925 -0.231 2.877 27
-4.712 -0.291 2.839 30
-4.821 -0.367 2.788 16
-4.758 -0.43 2.742 37
-4.887 -0.51 2.681 33
-4.757 -0.562 2.635 20
-3.631 -0.477 2.678 1
-1.595 -0.23 2.839 0
-1.559 -0.245 2.822 8
-4.785 -0.813 2.387 23
-4.7 -0.856 2.331 2
-7.494 -1.454 1.823 8
-1.19 -0.245 2.795 12
-1.227 -0.266 2.769 0
0.0 -0.0 3.0 0
0.0 -0.0 3.0 0
0.0 -0.0 3.0 0
0.0 -0.0 3.0 0
0.0 -0.0 3.0 0
0.0 -0.0 3.0 0
0.0 -0.0 3.0 0
0.0 -0.0 3.0 0
-63.518 -7.422 0.589 33
0.0 -0.0 3.0 0
-65.517 -5.393 1.037 15
-67.347 -4.406 1.309 19
-56.777 -2.77 1.881 3
-4.785 -0.155 2.934 3
-4.807 -0.08 2.965 11
-4.78 -0.021 2.99 44
-4.751 -0.077 2.962 34
-4.845 -0.152 2.922 25
-4.885 -0.227 2.879 26
-4.72 -0.289 2.84 27
-4.885 -0.37 2.786 23
-4.758 -0.429 2.742 34
-4.836 -0.504 2.685 38
-4.781 -0.564 2.634 16
-4.84 -0.636 2.571 55
-1.615 -0.234 2.836 0
-1.555 -0.244 2.822 7
-1.702 -0.289 2.782 0
-4.696 -0.855 2.332 0
-7.549 -1.463 1.815 8
-1.19 -0.244 2.795 11
-1.227 -0.266 2.769 0
0.0 -0.0 3.0 0
0.0 -0.0 3.0 0
0.0 -0.0 3.0 0
0.0 -0.0 3.0 0
0.0 -0.0 3.0 0
0.0 -0.0 3.0 0
-61.667 -9.389 0.308 41
0.0 -0.0 3.0 0
0.0 -0.0 3.0 0
-65.36 -6.496 0.763 14
-65.936 -5.422 1.027 18
-67.818 -4.428 1.3 20
-56.626 -2.753 1.888 10
-4.773 -0.154 2.935 14
-4.795 -0.077 2.966 3
-4.784 -0.007 2.997 54
-4.731 -0.075 2.963 34
-4.897 -0.153 2.922 28
-4.837 -0.224 2.881 43
-4.732 -0.29 2.839 21
-4.901 -0.372 2.785 52
-4.71 -0.424 2.745 28
-4.752 -0.495 2.69 35
-4.801 -0.566 2.632 15
-5.002 -0.657 2.557 30
-1.619 -0.233 2.837 0
-1.602 -0.252 2.817 11
-1.71 -0.29 2.782 8
-1.707 -0.311 2.757 0
-7.595 -1.472 1.808 10
-1.186 -0.244 2.796 11
-1.215 -0.263 2.772 0
0.0 -0.0 3.0 0
0.0 -0.0 3.0 0
0.0 -0.0 3.0 0
0.0 -0.0 3.0 0
0.0 -0.0 3.0 0
0.0 -0.0 3.0 0
0.0 -0.0 3.0 0
0.0 -0.0 3.0 0
0.0 -0.0 3.0 0
-65.396 -6.5 0.762 15
-66.362 -5.457 1.014 15
-67.742 -4.424 1.302 16
-70.567 -3.431 1.614 4
-4.781 -0.154 2.935 13
-4.791 -0.077 2.966 3
-4.784 -0.006 2.997 57
-4.735 -0.075 2.963 33
-4.821 -0.15 2.924 22
-4.789 -0.222 2.882 18
-4.748 -0.29 2.839 15
-4.905 -0.372 2.785 59
-4.722 -0.425 2.745 31
-4.701 -0.489 2.694 29
-4.821 -0.568 2.631 36
-5.025 -0.66 2.555 23
-1.635 -0.236 2.835 0
-1.618 -0.254 2.815 12
-1.702 -0.289 2.782 11
-1.723 -0.314 2.755 2
-7.479 -1.449 1.826 5
-1.175 -0.241 2.798 10
-1.219 -0.264 2.77 1
0.0 -0.0 3.0 0
0.0 -0.0 3.0 0
0.0 -0.0 3.0 0
0.0 -0.0 3.0 0
0.0 -0.0 3.0 0
0.0 -0.0 3.0 0
0.0 -0.0 3.0 0
-63.519 -8.543 0.388 42
0.0 -0.0 3.0 0
0.0 -0.0 3.0 0
-66.8 -5.501 0.998 14
-68.125 -4.458 1.289 15
-4.849 -0.237 2.904 1
-4.785 -0.155 2.934 11
-4.787 -0.08 2.965 24
-4.776 -0.02 2.991 52
-4.763 -0.077 2.962 31
-4.773 -0.15 2.924 23
-4.861 -0.226 2.88 33
-4.792 -0.294 2.837 15
-4.901 -0.372 2.785 50
-4.726 -0.426 2.744 37
-4.717 -0.491 2.693 29
-4.805 -0.566 2.632 46
-5.01 -0.658 2.556 19
-1.658 -0.239 2.832 5
-1.626 -0.256 2.814 12
-1.706 -0.29 2.782 12
-1.723 -0.314 2.755 0
-1.192 -0.231 2.813 0
-1.171 -0.241 2.798 10
-1.227 -0.266 2.769 2
0.0 -0.0 3.0 0
0.0 -0.0 3.0 0
0.0 -0.0 3.0 0
0.0 -0.0 3.0 0
0.0 -0.0 3.0 0
0.0 -0.0 3.0 0
0.0 -0.0 3.0 0
0.0 -0.0 3.0 0
-65.363 -7.651 0.514 13
0.0 -0.0 3.0 0
-67.205 -5.55 0.98 13
-56.712 -3.727 1.569 3
-72.75 -3.577 1.555 28
-4.789 -0.158 2.933 35
-4.791 -0.084 2.963 40
-4.76 -0.034 2.984 44
-4.819 -0.082 2.96 39
-4.773 -0.152 2.922 23
-4.837 -0.226 2.88 31
-4.884 -0.301 2.833 17
-4.905 -0.373 2.785 44
-4.73 -0.427 2.743 33
-4.736 -0.494 2.691 30
-4.646 -0.548 2.644 17
-4.986 -0.656 2.558 14
-1.658 -0.239 2.832 9
-1.626 -0.256 2.814 15
-1.706 -0.29 2.781 14
-1.742 -0.317 2.752 0
-1.199 -0.232 2.812 0
-1.186 -0.244 2.796 10
-1.25 -0.27 2.765 2
0.0 -0.0 3.0 0
0.0 -0.0 3.0 0
0.0 -0.0 3.0 0
0.0 -0.0 3.0 0
0.0 -0.0 3.0 0
0.0 -0.0 3.0 0
0.0 -0.0 3.0 0
0.0 -0.0 3.0 0
-65.4 -7.671 0.507 16
0.0 -0.0 3.0 0
-67.645 -5.609 0.959 6
-69.003 -4.562 1.249 14
-70.934 -3.525 1.576 10
-4.769 -0.161 2.932 45
-4.791 -0.091 2.96 60
-4.76 -0.047 2.978 43
-4.859 -0.09 2.956 35
-4.773 -0.156 2.921 22
-4.833 -0.228 2.879 23
-4.996 -0.309 2.829 30
-4.885 -0.372 2.785 33
-4.746 -0.43 2.742 23
-4.792 -0.5 2.687 31
-4.622 -0.547 2.645 21
-1.659 -0.218 2.853 0
-1.654 -0.24 2.832 10
-1.641 -0.258 2.812 26
-1.698 -0.289 2.783 22
-1.73 -0.315 2.754 0
-1.184 -0.229 2.814 0
-1.232 -0.253 2.788 10
-1.353 -0.293 2.745 4
0.0 -0.0 3.0 0
0.0 -0.0 3.0 0
0.0 -0.0 3.0 0
0.0 -0.0 3.0 0
0.0 -0.0 3.0 0
0.0 -0.0 3.0 0
0.0 -0.0 3.0 0
0.0 -0.0 3.0 0
0.0 -0.0 3.0 0
-67.243 -6.746 0.677 33
0.0 -0.0 3.0 0
-69.479 -4.63 1.223 14
-71.451 -3.6 1.546 17
-4.757 -0.165 2.93 47
-4.803 -0.099 2.956 54
-4.756 -0.06 2.972 40
-4.851 -0.098 2.952 19
-4.801 -0.161 2.918 18
-4.885 -0.234 2.876 16
-5.055 -0.315 2.825 40
-4.893 -0.375 2.783 32
-4.769 -0.433 2.74 25
-4.855 -0.508 2.682 46
-4.63 -0.548 2.644 18
-1.651 -0.218 2.853 0
-1.658 -0.24 2.832 12
-1.649 -0.26 2.811 27
-1.698 -0.289 2.782 23
-7.327 -1.335 1.957 5
-1.199 -0.233 2.812 0
-1.317 -0.271 2.773 18
-1.323 -0.286 2.751 4
0.0 -0.0 3.0 0
0.0 -0.0 3.0 0
0.0 -0.0 3.0 0
0.0 -0.0 3.0 0
0.0 -0.0 3.0 0
0.0 -0.0 3.0 0
0.0 -0.0 3.0 0
-65.423 -8.864 0.29 40
0.0 -0.0 3.0 0
0.0 -0.0 3.0 0
-69.109 -5.796 0.89 40
-69.935 -4.706 1.193 16
-71.886 -3.682 1.512 17
-4.748 -0.17 2.928 40
-4.787 -0.108 2.952 44
-4.767 -0.074 2.965 35
-5.074 -0.112 2.945 33
-4.872 -0.168 2.914 16
-4.964 -0.241 2.872 18
-5.055 -0.318 2.823 43
-4.905 -0.378 2.782 31
-4.785 -0.436 2.738 24
-4.851 -0.51 2.681 49
-4.626 -0.549 2.644 15
-1.635 -0.216 2.854 2
-1.658 -0.24 2.832 18
-1.657 -0.261 2.81 27
-1.694 -0.288 2.783 25
-7.167 -1.307 1.979 6
-1.207 -0.234 2.81 0
-1.356 -0.279 2.766 17
-1.292 -0.28 2.757 5
0.0 -0.0 3.0 0
0.0 -0.0 3.0 0
0.0 -0.0 3.0 0
0.0 -0.0 3.0 0
0.0 -0.0 3.0 0
0.0 -0.0 3.0 0
0.0 -0.0 3.0 0
0.0 -0.0 3.0 0
0.0 -0.0 3.0 0
0.0 -0.0 3.0 0
0.0 -0.0 3.0 0
-70.405 -4.792 1.16 15
-72.385 -3.78 1.473 28
-4.748 -0.177 2.925 37
-4.786 -0.118 2.948 29
-4.835 -0.089 2.959 24
-5.13 -0.124 2.94 37
-5.08 -0.182 2.907 37
-4.996 -0.247 2.869 20
-5.071 -0.323 2.821 44
-4.912 -0.382 2.78 25
-4.832 -0.443 2.734 35
-4.95 -0.522 2.674 57
-4.638 -0.552 2.641 14
-1.639 -0.217 2.854 6
-1.65 -0.24 2.832 20
-1.653 -0.261 2.81 29
-1.694 -0.289 2.782 28
-1.73 -0.316 2.753 0
-1.226 -0.238 2.807 0
-1.383 -0.285 2.761 16
-1.288 -0.279 2.757 5
0.0 -0.0 3.0 0
0.0 -0.0 3.0 0
0.0 -0.0 3.0 0
0.0 -0.0 3.0 0
0.0 -0.0 3.0 0
0.0 -0.0 3.0 0
0.0 -0.0 3.0 0
0.0 -0.0 3.0 0
-67.243 -8.004 0.399 39
0.0 -0.0 3.0 0
0.0 -0.0 3.0 0
-70.875 -4.887 1.124 11
-72.344 -3.86 1.441 15
-4.74 -0.184 2.922 29
-4.794 -0.129 2.943 8
-4.855 -0.103 2.952 6
-5.09 -0.134 2.935 39
-5.08 -0.19 2.903 44
-5.012 -0.253 2.865 18
-4.983 -0.321 2.822 40
-4.904 -0.384 2.778 29
-4.82 -0.445 2.733 45
-4.858 -0.515 2.678 40
-4.629 -0.553 2.641 13
-1.631 -0.216 2.854 8
-1.65 -0.24 2.832 21
-1.66 -0.263 2.809 30
-1.69 -0.288 2.783 28
-1.711 -0.313 2.756 0
-1.284 -0.25 2.798 0
-1.441 -0.297 2.751 23
-1.28 -0.278 2.759 5
0.0 -0.0 3.0 0
0.0 -0.0 3.0 0
0.0 -0.0 3.0 0
0.0 -0.0 3.0 0
0.0 -0.0 3.0 0
0.0 -0.0 3.0 0
0.0 -0.0 3.0 0
0.0 -0.0 3.0 0
0.0 -0.0 3.0 0
-69.11 -7.094 0.557 39
0.0 -0.0 3.0 0
-71.336 -4.991 1.084 13
-72.778 -3.976 1.393 16
-4.751 -0.192 2.918 5
-4.786 -0.14 2.938 1
-4.85 -0.117 2.945 5
-4.882 -0.14 2.932 20
-5.059 -0.197 2.899 46
-5.039 -0.261 2.861 19
-4.914 -0.321 2.822 28
-4.872 -0.385 2.778 24
-4.836 -0.449 2.73 36
-4.751 -0.506 2.684 29
-4.665 -0.559 2.637 15
-1.635 -0.218 2.853 10
-1.642 -0.24 2.832 26
-1.653 -0.262 2.81 30
-1.686 -0.288 2.783 28
-6.717 -1.23 2.039 7
-1.374 -0.268 2.783 1
-1.475 -0.304 2.745 29
-1.268 -0.276 2.76 5
0.0 -0.0 3.0 0
0.0 -0.0 3.0 0
0.0 -0.0 3.0 0
0.0 -0.0 3.0 0
0.0 -0.0 3.0 0
0.0 -0.0 3.0 0
0.0 -0.0 3.0 0
0.0 -0.0 3.0 0
0.0 -0.0 3.0 0
0.0 -0.0 3.0 0
-17.063 -1.485 2.46 2
-71.804 -5.103 1.041 11
-73.27 -4.105 1.342 12
-4.747 -0.201 2.915 1
-82.035 -2.592 1.846 19
-4.858 -0.131 2.939 5
-4.877 -0.151 2.926 25
-4.835 -0.197 2.899 35
-5.095 -0.27 2.856 40
-4.922 -0.326 2.819 27
-4.804 -0.383 2.779 23
-4.871 -0.455 2.726 34
-4.675 -0.5 2.688 26
-4.771 -0.575 2.627 5
-1.627 -0.217 2.853 15
-1.642 -0.241 2.831 27
-1.656 -0.263 2.809 30
-1.686 -0.288 2.783 28
-6.58 -1.207 2.057 6
-1.42 -0.277 2.776 1
-1.514 -0.313 2.738 24
-1.322 -0.287 2.75 11
0.0 -0.0 3.0 0
0.0 -0.0 3.0 0
0.0 -0.0 3.0 0
0.0 -0.0 3.0 0
0.0 -0.0 3.0 0
0.0 -0.0 3.0 0
0.0 -0.0 3.0 0
0.0 -0.0 3.0 0
0.0 -0.0 3.0 0
0.0 -0.0 3.0 0
-16.779 -1.477 2.462 2
-72.786 -5.262 0.98 24
-73.75 -4.243 1.286 15
-75.773 -3.352 1.577 5
-82.091 -2.8 1.753 40
-4.857 -0.144 2.933 1
-4.881 -0.163 2.921 31
-4.807 -0.205 2.896 42
-4.883 -0.266 2.859 29
-4.901 -0.331 2.817 25
-4.807 -0.389 2.776 33
-4.91 -0.463 2.722 28
-4.655 -0.501 2.687 25
-4.763 -0.576 2.626 0
-1.631 -0.218 2.853 19
-1.634 -0.24 2.832 27
-1.656 -0.264 2.808 30
-1.689 -0.29 2.782 28
-6.455 -1.186 2.073 7
-1.466 -0.287 2.768 2
-1.518 -0.314 2.737 26
-1.326 -0.288 2.749 13
0.0 -0.0 3.0 0
0.0 -0.0 3.0 0
0.0 -0.0 3.0 0
0.0 -0.0 3.0 0
0.0 -0.0 3.0 0
0.0 -0.0 3.0 0
0.0 -0.0 3.0 0
0.0 -0.0 3.0 0
-69.122 -8.429 0.261 14
0.0 -0.0 3.0 0
-16.534 -1.473 2.464 2
0.0 -0.0 3.0 0
-74.209 -4.389 1.227 13
-76.304 -3.531 1.501 19
-83.125 -3.048 1.643 9
-4.857 -0.159 2.926 3
-4.88 -0.176 2.914 28
-4.798 -0.214 2.891 39
-1.697 -0.095 2.95 1
-4.905 -0.337 2.813 25
-4.85 -0.397 2.771 36
-4.89 -0.465 2.721 20
-4.65 -0.504 2.685 22
-9.323 -1.134 2.264 20
-1.623 -0.218 2.853 21
-1.638 -0.241 2.831 28
-1.652 -0.264 2.808 29
-1.685 -0.29 2.782 27
-6.326 -1.164 2.09 7
-1.489 -0.292 2.764 3
-1.521 -0.315 2.736 30
-1.283 -0.28 2.757 7
0.0 -0.0 3.0 0
0.0 -0.0 3.0 0
0.0 -0.0 3.0 0
0.0 -0.0 3.0 0
0.0 -0.0 3.0 0
0.0 -0.0 3.0 0
0.0 -0.0 3.0 0
0.0 -0.0 3.0 0
0.0 -0.0 3.0 0
-14.155 -1.504 2.482 2
-16.293 -1.472 2.464 2
0.0 -0.0 3.0 0
-74.735 -4.548 1.162 15
-76.842 -3.719 1.421 32
-83.587 -3.283 1.538 15
-4.856 -0.172 2.92 20
-4.876 -0.188 2.908 24
-4.781 -0.223 2.887 25
-1.684 -0.097 2.949 2
-4.829 -0.338 2.813 29
-4.854 -0.402 2.768 40
-4.854 -0.466 2.72 13
-4.669 -0.51 2.681 15
-9.234 -1.129 2.267 11
-1.623 -0.219 2.852 22
-1.63 -0.241 2.831 28
-1.652 -0.265 2.808 28
-1.677 -0.29 2.782 27
-6.2 -1.144 2.107 8
-1.489 -0.292 2.763 5
-1.513 -0.314 2.736 28
-1.195 -0.261 2.773 6
0.0 -0.0 3.0 0
0.0 -0.0 3.0 0
0.0 -0.0 3.0 0
0.0 -0.0 3.0 0
0.0 -0.0 3.0 0
0.0 -0.0 3.0 0
0.0 -0.0 3.0 0
0.0 -0.0 3.0 0
0.0 -0.0 3.0 0
-13.974 -1.501 2.483 2
-16.124 -1.477 2.462 3
0.0 -0.0 3.0 0
-75.224 -4.713 1.096 14
-77.283 -3.911 1.34 16
-84.131 -3.527 1.43 15
-4.876 -0.187 2.913 18
-4.859 -0.199 2.903 18
-4.761 -0.232 2.882 34
-1.676 -0.099 2.947 3
-4.932 -0.352 2.805 24
-4.885 -0.411 2.763 43
-4.829 -0.469 2.718 13
-4.681 -0.515 2.678 23
-9.027 -1.111 2.279 11
-1.614 -0.219 2.852 26
-1.629 -0.242 2.83 29
-1.652 -0.265 2.807 28
-1.681 -0.291 2.781 28
-6.091 -1.126 2.12 8
-1.493 -0.294 2.762 7
-1.486 -0.309 2.741 21
-1.172 -0.256 2.777 10
0.0 -0.0 3.0 0
0.0 -0.0 3.0 0
0.0 -0.0 3.0 0
0.0 -0.0 3.0 0
0.0 -0.0 3.0 0
0.0 -0.0 3.0 0
0.0 -0.0 3.0 0
0.0 -0.0 3.0 0
-12.152 -1.517 2.507 0
-13.801 -1.498 2.484 2
-15.91 -1.478 2.462 2
-74.635 -5.827 0.763 29
-15.411 -0.994 2.598 1
-77.309 -4.088 1.265 8
-4.798 -0.214 2.905 0
-4.887 -0.201 2.906 35
-4.81 -0.21 2.898 11
-4.756 -0.242 2.877 32
-1.668 -0.102 2.946 3
-4.935 -0.359 2.801 16
-4.992 -0.425 2.754 37
-4.821 -0.472 2.716 16
-4.68 -0.519 2.676 25
-8.682 -1.074 2.302 9
-1.61 -0.22 2.852 27
-1.617 -0.241 2.831 27
-1.644 -0.266 2.807 28
-1.681 -0.292 2.78 28
-5.992 -1.111 2.132 8
-1.485 -0.293 2.763 9
-1.343 -0.279 2.766 24
-1.16 -0.254 2.779 7
0.0 -0.0 3.0 0
0.0 -0.0 3.0 0
0.0 -0.0 3.0 0
0.0 -0.0 3.0 0
0.0 -0.0 3.0 0
0.0 -0.0 3.0 0
0.0 -0.0 3.0 0
0.0 -0.0 3.0 0
-12.015 -1.513 2.508 2
-13.624 -1.496 2.485 2
-15.717 -1.483 2.46 3
0.0 -0.0 3.0 0
-13.809 -0.918 2.629 0
-15.464 -0.854 2.637 10
-4.794 -0.227 2.899 6
-4.886 -0.215 2.9 37
-4.754 -0.221 2.892 34
-4.756 -0.253 2.871 31
-1.676 -0.106 2.944 5
-1.682 -0.125 2.931 1
-5.071 -0.439 2.747 37
-4.828 -0.479 2.712 26
-4.683 -0.524 2.672 25
-8.673 -1.081 2.298 19
-1.61 -0.221 2.851 25
-1.558 -0.233 2.837 24
-1.639 -0.266 2.807 23
-1.681 -0.293 2.779 28
-5.976 -1.111 2.132 12
-1.493 -0.295 2.761 12
-1.339 -0.279 2.766 22
-1.141 -0.25 2.783 7
0.0 -0.0 3.0 0
0.0 -0.0 3.0 0
0.0 -0.0 3.0 0
0.0 -0.0 3.0 0
0.0 -0.0 3.0 0
0.0 -0.0 3.0 0
0.0 -0.0 3.0 0
0.0 -0.0 3.0 0
-11.894 -1.511 2.509 2
-13.535 -1.504 2.482 2
-15.543 -1.49 2.458 2
0.0 -0.0 3.0 0
-13.735 -0.941 2.62 20
-13.841 -0.797 2.662 0
-4.797 -0.24 2.893 3
-4.873 -0.228 2.894 44
-4.733 -0.232 2.887 34
-4.751 -0.264 2.866 30
-1.675 -0.109 2.942 4
-1.654 -0.126 2.93 3
-5.09 -0.448 2.742 36
-4.823 -0.484 2.709 24
-4.699 -0.531 2.668 24
-8.62 -1.082 2.297 4
-1.519 -0.21 2.859 25
-1.389 -0.209 2.854 34
-1.486 -0.242 2.825 29
-1.669 -0.292 2.78 26
-5.967 -1.112 2.131 9
-1.496 -0.296 2.76 13
-1.308 -0.274 2.77 19
-1.125 -0.247 2.785 10
0.0 -0.0 3.0 0
0.0 -0.0 3.0 0
0.0 -0.0 3.0 0
0.0 -0.0 3.0 0
0.0 -0.0 3.0 0
0.0 -0.0 3.0 0
0.0 -0.0 3.0 0
-10.528 -1.524 2.534 2
-11.757 -1.509 2.51 2
-13.342 -1.5 2.483 5
-15.358 -1.496 2.455 2
-76.48 -6.367 0.556 17
-13.668 -0.965 2.61 24
-13.815 -0.829 2.648 33
-16.229 -0.856 2.619 1
-4.813 -0.239 2.888 33
-4.732 -0.245 2.88 35
-4.802 -0.278 2.858 28
-1.667 -0.112 2.941 6
-1.618 -0.125 2.931 3
-5.097 -0.455 2.737 3
-4.822 -0.49 2.706 25
-4.876 -0.556 2.653 26
-8.559 -1.083 2.297 4
-1.495 -0.208 2.86 25
-1.408 -0.213 2.851 31
-1.412 -0.231 2.832 29
-1.664 -0.292 2.78 24
-5.892 -1.102 2.139 1
-1.484 -0.295 2.761 14
-1.242 -0.26 2.782 15
-1.117 -0.246 2.786 10
0.0 -0.0 3.0 0
0.0 -0.0 3.0 0
0.0 -0.0 3.0 0
0.0 -0.0 3.0 0
0.0 -0.0 3.0 0
0.0 -0.0 3.0 0
0.0 -0.0 3.0 0
-10.431 -1.522 2.535 2
-11.636 -1.508 2.51 2
-13.244 -1.508 2.481 4
-15.16 -1.501 2.454 2
0.0 -0.0 3.0 0
-13.642 -0.993 2.599 48
-15.421 -0.963 2.591 8
-16.202 -0.899 2.6 8
-4.768 -0.251 2.883 43
-4.723 -0.257 2.874 38
-4.825 -0.291 2.852 29
-1.667 -0.115 2.939 8
-1.562 -0.124 2.931 7
-1.544 -0.14 2.919 0
-4.817 -0.495 2.702 25
-4.935 -0.568 2.645 37
-8.131 -1.037 2.327 0
-1.507 -0.211 2.858 24
-1.424 -0.216 2.849 28
-1.403 -0.23 2.833 27
-1.566 -0.275 2.793 21
-5.837 -1.095 2.144 13
-1.476 -0.294 2.762 13
-1.215 -0.255 2.786 14
-1.056 -0.233 2.797 11
0.0 -0.0 3.0 0
0.0 -0.0 3.0 0
0.0 -0.0 3.0 0
0.0 -0.0 3.0 0
0.0 -0.0 3.0 0
-13.183 -2.384 2.361 6
-9.349 -1.532 2.561 0
-10.327 -1.519 2.536 2
-11.579 -1.516 2.507 5
-13.063 -1.508 2.481 4
-14.97 -1.507 2.451 2
-17.122 -1.49 2.428 6
-12.132 -0.91 2.633 5
-12.154 -0.79 2.665 6
-16.207 -0.944 2.58 8
-4.759 -0.264 2.877 42
-4.73 -0.27 2.868 31
-4.828 -0.302 2.846 13
-1.655 -0.118 2.937 7
-1.573 -0.128 2.929 8
-1.563 -0.144 2.917 2
-4.825 -0.503 2.698 23
-4.962 -0.576 2.64 14
-7.951 -1.022 2.336 0
-1.503 -0.211 2.858 15
-1.345 -0.206 2.856 21
-1.364 -0.225 2.836 17
-1.422 -0.251 2.811 33
-1.63 -0.307 2.76 4
-1.468 -0.293 2.762 13
-1.223 -0.257 2.784 14
-1.044 -0.231 2.799 12
0.0 -0.0 3.0 0
0.0 -0.0 3.0 0
0.0 -0.0 3.0 0
0.0 -0.0 3.0 0
0.0 -0.0 3.0 0
-13.184 -2.399 2.357 85
-9.261 -1.528 2.562 2
-10.226 -1.517 2.536 2
-11.469 -1.518 2.507 7
-12.949 -1.515 2.478 4
-14.78 -1.514 2.449 2
-17.023 -1.516 2.418 2
-12.066 -0.932 2.623 19
-12.147 -0.82 2.652 16
-16.0 -0.977 2.565 5
-4.758 -0.277 2.871 41
-4.749 -0.284 2.861 22
-4.847 -0.316 2.839 3
-1.65 -0.121 2.936 6
-1.601 -0.132 2.927 11
-1.547 -0.146 2.916 7
-1.584 -0.167 2.899 3
-4.969 -0.583 2.635 1
-7.768 -1.007 2.346 0
-1.451 -0.205 2.861 11
-1.341 -0.206 2.856 19
-1.277 -0.212 2.846 13
-1.425 -0.253 2.809 33
-1.622 -0.306 2.761 8
-1.46 -0.293 2.763 11
-1.145 -0.242 2.797 11
-1.044 -0.232 2.799 12
0.0 -0.0 3.0 0
0.0 -0.0 3.0 0
0.0 -0.0 3.0 0
0.0 -0.0 3.0 0
-11.842 -2.373 2.408 0
-13.177 -2.412 2.354 86
-9.176 -1.525 2.563 2
-10.137 -1.517 2.536 2
-11.352 -1.519 2.506 10
-12.8 -1.517 2.478 3
-14.61 -1.523 2.446 2
-10.482 -0.955 2.634 0
-12.012 -0.956 2.614 22
-16.205 -1.136 2.518 9
-15.885 -1.014 2.548 9
-4.757 -0.291 2.864 36
-4.76 -0.298 2.855 26
-4.818 -0.326 2.834 0
-1.65 -0.125 2.934 3
-1.585 -0.134 2.926 10
-1.539 -0.147 2.915 7
-1.576 -0.168 2.899 3
-1.589 -0.188 2.882 0
-7.596 -0.993 2.355 0
-1.423 -0.203 2.863 11
-1.305 -0.202 2.858 16
-1.277 -0.213 2.845 12
-1.429 -0.254 2.808 29
-1.622 -0.307 2.76 7
-1.445 -0.29 2.765 11
-1.083 -0.23 2.807 10
-1.044 -0.232 2.798 12
0.0 -0.0 3.0 0
0.0 -0.0 3.0 0
0.0 -0.0 3.0 0
0.0 -0.0 3.0 0
-11.792 -2.376 2.408 69
-8.314 -1.532 2.59 4
-9.099 -1.523 2.563 2
-10.071 -1.521 2.535 3
-11.243 -1.521 2.506 10
-12.658 -1.522 2.476 3
-14.416 -1.53 2.443 2
-10.464 -0.975 2.626 47
-11.981 -0.98 2.604 18
-10.571 -0.768 2.674 14
-15.81 -1.053 2.531 29
-4.768 -0.305 2.858 32
-4.771 -0.312 2.848 6
-9.527 -0.667 2.66 0
-1.634 -0.127 2.933 0
-1.568 -0.136 2.925 14
-1.534 -0.15 2.914 8
-1.548 -0.168 2.899 7
-1.58 -0.19 2.881 3
-7.456 -0.983 2.362 0
-1.375 -0.197 2.867 9
-1.257 -0.196 2.863 16
-1.25 -0.209 2.848 12
-1.3 -0.233 2.825 12
-1.559 -0.297 2.768 3
-1.413 -0.285 2.769 10
-1.079 -0.229 2.807 10
-1.051 -0.234 2.796 12
0.0 -0.0 3.0 0
0.0 -0.0 3.0 0
0.0 -0.0 3.0 0
-10.374 -2.284 2.473 0
-11.786 -2.387 2.405 86
-8.257 -1.531 2.59 3
-9.03 -1.523 2.563 2
-10.006 -1.525 2.534 5
-11.129 -1.523 2.505 7
-12.52 -1.527 2.474 4
-14.25 -1.539 2.44 2
-10.418 -0.992 2.619 109
-10.513 -0.885 2.642 5
-10.561 -0.796 2.662 8
-15.196 -1.055 2.53 39
-4.823 -0.323 2.85 26
-4.77 -0.325 2.841 2
-9.489 -0.689 2.649 10
-9.386 -0.748 2.602 10
-1.56 -0.139 2.923 13
-1.538 -0.152 2.912 12
-1.543 -0.17 2.898 7
-1.576 -0.191 2.88 6
-7.285 -0.97 2.37 0
-1.383 -0.201 2.865 11
-1.265 -0.198 2.861 16
-1.234 -0.207 2.849 15
-1.26 -0.227 2.829 11
-1.485 -0.284 2.778 11
-1.374 -0.278 2.775 9
-1.087 -0.232 2.806 10
-1.055 -0.236 2.795 13
0.0 -0.0 3.0 0
0.0 -0.0 3.0 0
0.0 -0.0 3.0 0
-10.177 -2.252 2.48 56
-7.598 -1.548 2.614 0
-8.196 -1.53 2.59 2
-8.957 -1.523 2.563 2
-9.909 -1.525 2.534 10
-11.024 -1.527 2.504 10
-12.414 -1.536 2.471 4
-14.08 -1.549 2.436 3
-10.384 -1.012 2.612 89
-10.47 -0.907 2.634 15
-15.887 -1.238 2.474 9
-15.149 -1.094 2.513 45
-4.806 -0.335 2.844 5
-12.581 -0.892 2.565 17
-9.438 -0.71 2.638 11
-9.372 -0.769 2.591 15
-1.552 -0.141 2.922 14
-1.538 -0.155 2.91 16
-1.551 -0.173 2.896 11
-1.56 -0.192 2.88 7
-7.149 -0.961 2.376 0
-1.442 -0.211 2.858 10
-1.28 -0.201 2.859 16
-1.241 -0.21 2.847 15
-1.245 -0.225 2.831 12
-1.415 -0.272 2.788 12
-1.347 -0.274 2.778 8
-1.086 -0.232 2.805 11
-1.058 -0.237 2.794 13
0.0 -0.0 3.0 0
0.0 -0.0 3.0 0
-9.409 -2.259 2.52 0
-10.081 -2.242 2.482 60
-7.542 -1.546 2.615 3
-8.147 -1.531 2.59 2
-8.896 -1.525 2.563 3
-9.815 -1.525 2.534 8
-10.946 -1.534 2.502 5
-12.264 -1.539 2.47 2
-13.826 -1.549 2.436 6
-10.357 -1.032 2.604 50
-10.428 -0.929 2.625 19
-15.819 -1.275 2.459 26
-15.005 -1.127 2.498 13
-4.833 -0.351 2.836 1
-9.532 -0.703 2.657 0
-9.412 -0.732 2.627 12
-9.33 -0.787 2.582 104
-1.567 -0.146 2.919 17
-1.557 -0.16 2.908 19
-1.539 -0.174 2.896 12
-1.547 -0.193 2.88 9
-1.576 -0.214 2.861 0
-1.591 -0.234 2.842 8
-1.327 -0.211 2.852 14
-1.245 -0.212 2.846 16
-1.225 -0.222 2.832 16
-1.364 -0.263 2.794 12
-1.323 -0.27 2.782 8
-1.09 -0.234 2.804 11
-1.062 -0.239 2.793 12
0.0 -0.0 3.0 0
0.0 -0.0 3.0 0
-9.41 -2.27 2.518 26
-10.07 -2.251 2.48 58
-7.493 -1.545 2.615 3
-8.082 -1.529 2.59 2
-8.897 -1.538 2.559 8
-9.769 -1.533 2.531 11
-10.816 -1.534 2.502 5
-12.115 -1.543 2.469 3
-13.751 -1.568 2.429 13
-10.351 -1.055 2.595 30
-10.469 -0.959 2.613 16
-15.234 -1.269 2.461 58
-14.009 -1.091 2.514 1
-12.728 -0.961 2.552 27
-9.49 -0.726 2.646 10
-9.394 -0.755 2.615 13
-9.295 -0.806 2.571 255
-1.583 -0.15 2.917 12
-1.541 -0.161 2.907 18
-1.542 -0.178 2.893 19
-1.551 -0.195 2.878 11
-1.567 -0.215 2.861 3
-1.634 -0.243 2.836 10
-1.323 -0.211 2.852 13
-1.26 -0.216 2.843 16
-1.228 -0.224 2.831 15
-1.332 -0.258 2.798 16
-1.284 -0.262 2.787 8
-1.086 -0.234 2.804 11
-1.065 -0.241 2.791 12
0.0 -0.0 3.0 0
0.0 -0.0 3.0 0
-9.373 -2.272 2.517 29
-6.938 -1.559 2.64 3
-7.44 -1.544 2.615 3
-8.025 -1.53 2.59 2
-8.8 -1.534 2.56 17
-9.676 -1.534 2.531 14
-10.734 -1.541 2.499 7
-11.992 -1.55 2.466 8
-8.872 -1.031 2.625 2
-8.837 -0.921 2.647 0
-10.458 -0.984 2.602 20
-8.873 -0.764 2.676 17
-12.774 -1.031 2.541 6
-12.541 -0.982 2.542 12
-9.443 -0.748 2.635 11
-9.375 -0.778 2.604 12
-9.142 -0.814 2.567 255
-1.594 -0.155 2.914 10
-1.529 -0.162 2.906 20
-1.538 -0.179 2.892 21
-1.547 -0.197 2.877 12
-1.519 -0.21 2.864 6
-1.638 -0.245 2.835 13
-1.358 -0.218 2.847 25
-1.256 -0.216 2.843 16
-1.232 -0.226 2.83 14
-1.266 -0.246 2.808 12
-1.238 -0.254 2.794 11
-1.097 -0.237 2.801 11
-1.069 -0.242 2.789 12
0.0 -0.0 3.0 0
-8.952 -2.341 2.545 0
-9.339 -2.274 2.517 32
-6.897 -1.559 2.64 3
-7.391 -1.544 2.615 3
-7.972 -1.531 2.59 3
-8.747 -1.538 2.559 5
-9.575 -1.534 2.531 7
-10.637 -1.546 2.498 6
-11.886 -1.559 2.463 4
-8.803 -1.041 2.621 21
-8.827 -0.94 2.639 19
-10.435 -1.009 2.593 14
-8.863 -0.787 2.666 4
-12.759 -1.066 2.525 49
-9.53 -0.774 2.639 1
-9.413 -0.772 2.623 11
-9.353 -0.8 2.592 20
-8.761 -0.802 2.574 255
-1.594 -0.158 2.912 5
-1.528 -0.165 2.905 19
-1.533 -0.182 2.891 20
-1.534 -0.197 2.877 19
-1.507 -0.211 2.863 7
-1.586 -0.239 2.839 13
-1.377 -0.223 2.844 27
-1.275 -0.221 2.839 16
-1.232 -0.227 2.829 15
-1.238 -0.242 2.811 13
-1.284 -0.264 2.786 10
-1.105 -0.239 2.799 11
-1.069 -0.243 2.789 12
-7.99 -2.243 2.604 0
-8.911 -2.34 2.545 41
-6.418 -1.57 2.666 1
-6.848 -1.557 2.641 3
-7.342 -1.543 2.615 3
-7.962 -1.541 2.587 4
-8.697 -1.543 2.557 17
-9.517 -1.541 2.529 6
-10.523 -1.549 2.497 6
-11.752 -1.565 2.461 8
-8.764 -1.056 2.616 15
-8.788 -0.957 2.633 24
-8.865 -0.88 2.645 9
-13.995 -1.28 2.457 2
-12.711 -1.098 2.511 16
-9.483 -0.798 2.628 10
-9.398 -0.798 2.611 12
-9.31 -0.821 2.581 67
-8.675 -0.815 2.567 255
-8.578 -0.871 2.517 8
-1.544 -0.17 2.902 19
-1.533 -0.184 2.889 20
-1.522 -0.199 2.876 22
-1.499 -0.212 2.862 8
-1.566 -0.238 2.839 18
-1.396 -0.228 2.84 26
-1.306 -0.228 2.834 21
-1.243 -0.23 2.826 16
-1.219 -0.24 2.813 14
-1.287 -0.267 2.784 11
-1.104 -0.24 2.798 12
-1.072 -0.245 2.787 12
-7.979 -2.25 2.603 2
-8.881 -2.343 2.544 75
-6.389 -1.572 2.666 3
-6.807 -1.556 2.641 3
-7.293 -1.543 2.615 3
-7.908 -1.542 2.587 20
-8.604 -1.54 2.558 5
-9.447 -1.546 2.527 8
-10.445 -1.556 2.494 12
-11.642 -1.574 2.458 8
-8.742 -1.072 2.61 15
-8.742 -0.973 2.627 20
-8.859 -0.901 2.636 9
-12.956 -1.22 2.482 2
-12.52 -1.117 2.503 7
-9.441 -0.821 2.617 11
-9.376 -0.821 2.599 14
-9.292 -0.845 2.57 255
-8.669 -0.835 2.556 255
-8.115 -0.842 2.533 1
-1.527 -0.172 2.901 14
-1.521 -0.186 2.888 20
-1.51 -0.199 2.875 21
-1.51 -0.216 2.86 12
-1.557 -0.239 2.839 23
-1.443 -0.238 2.833 23
-1.317 -0.231 2.832 23
-1.246 -0.232 2.825 16
-1.218 -0.241 2.812 16
-1.279 -0.266 2.785 13
-1.108 -0.242 2.797 12
-1.072 -0.245 2.787 12
-7.973 -2.257 2.602 79
-8.882 -2.354 2.542 64
-6.341 -1.568 2.667 2
-6.77 -1.557 2.641 3
-7.244 -1.543 2.615 3
-7.871 -1.547 2.585 3
-8.578 -1.55 2.556 14
-9.357 -1.548 2.527 9
-10.339 -1.561 2.493 6
-7.153 -0.983 2.662 0
-8.719 -1.089 2.604 19
-8.724 -0.992 2.619 18
-8.9 -0.929 2.625 1
-12.61 -1.222 2.481 7
-9.54 -0.878 2.609 1
-9.418 -0.846 2.606 11
-9.357 -0.846 2.587 25
-8.708 -0.815 2.585 44
-8.654 -0.856 2.545 77
-7.93 -0.84 2.534 0
-1.558 -0.179 2.897 10
-1.516 -0.187 2.887 23
-1.497 -0.2 2.875 24
-1.486 -0.215 2.861 14
-1.557 -0.242 2.837 21
-1.517 -0.252 2.824 21
-1.321 -0.234 2.83 24
-1.258 -0.236 2.822 18
-1.222 -0.242 2.811 16
-1.282 -0.268 2.783 13
-1.111 -0.244 2.795 11
-1.075 -0.247 2.785 13
-7.978 -2.268 2.6 79
-5.93 -1.579 2.693 3
-6.3 -1.566 2.667 2
-6.725 -1.556 2.641 3
-7.257 -1.556 2.612 19
-7.806 -1.547 2.586 19
-8.489 -1.549 2.556 9
-9.271 -1.55 2.526 7
-10.237 -1.565 2.491 9
-7.139 -0.995 2.657 1
-8.717 -1.108 2.597 18
-8.697 -1.01 2.612 33
-7.204 -0.77 2.689 4
-12.065 -1.203 2.489 3
-9.481 -0.9 2.599 9
-9.403 -0.872 2.593 12
-9.306 -0.868 2.577 35
-8.674 -0.835 2.575 43
-8.604 -0.872 2.537 20
-7.737 -0.838 2.535 0
-1.574 -0.183 2.894 9
-1.532 -0.193 2.884 29
-1.481 -0.201 2.875 23
-1.498 -0.219 2.858 19
-1.529 -0.239 2.839 21
-1.525 -0.255 2.821 25
-1.324 -0.236 2.829 24
-1.292 -0.244 2.816 24
-1.237 -0.247 2.807 18
-1.297 -0.272 2.779 13
-1.126 -0.248 2.792 12
-1.083 -0.249 2.783 13
-7.976 -2.277 2.599 78
-5.901 -1.579 2.693 3
-6.271 -1.567 2.667 2
-6.684 -1.556 2.641 3
-7.196 -1.554 2.612 3
-7.768 -1.551 2.584 4
-8.462 -1.558 2.553 8
-9.233 -1.561 2.523 12
-10.158 -1.573 2.489 6
-7.184 -1.016 2.65 23
-8.714 -1.128 2.589 15
-8.698 -1.032 2.604 23
-7.21 -0.79 2.681 41
-11.66 -1.195 2.493 3
-9.438 -0.923 2.589 10
-9.38 -0.896 2.582 13
-9.144 -0.878 2.572 8
-8.675 -0.858 2.563 250
-8.128 -0.843 2.552 0
-7.56 -0.837 2.536 0
-1.542 -0.183 2.894 8
-1.531 -0.196 2.882 26
-1.473 -0.202 2.874 23
-1.497 -0.221 2.856 26
-1.513 -0.239 2.839 23
-1.508 -0.254 2.822 26
-1.343 -0.241 2.825 26
-1.308 -0.248 2.813 26
-1.275 -0.256 2.8 28
-1.258 -0.265 2.785 14
-1.126 -0.249 2.791 13
-1.079 -0.249 2.783 13
-5.519 -1.583 2.721 1
-5.872 -1.579 2.693 2
-6.226 -1.565 2.667 2
-6.639 -1.555 2.641 3
-7.154 -1.557 2.612 13
-7.698 -1.55 2.585 13
-8.369 -1.555 2.554 13
-9.139 -1.562 2.523 10
-10.084 -1.583 2.486 9
-7.118 -1.023 2.648 141
-7.182 -0.946 2.656 4
-8.691 -1.052 2.596 23
-7.195 -0.807 2.674 0
-9.534 -1.003 2.574 1
-9.419 -0.948 2.578 11
-9.349 -0.921 2.571 18
-8.688 -0.86 2.581 25
-8.644 -0.879 2.552 15
-7.895 -0.84 2.554 0
-7.41 -0.836 2.536 0
-1.541 -0.187 2.892 11
-1.527 -0.198 2.881 22
-1.472 -0.205 2.872 24
-1.481 -0.221 2.857 23
-1.504 -0.24 2.838 23
-1.52 -0.259 2.819 29
-1.351 -0.244 2.823 27
-1.311 -0.25 2.811 26
-1.287 -0.259 2.797 28
-1.254 -0.265 2.785 16
-1.137 -0.252 2.788 18
-1.082 -0.251 2.782 13
-5.505 -1.586 2.72 2
-5.816 -1.571 2.695 2
-6.185 -1.563 2.668 2
-6.64 -1.565 2.639 4
-7.136 -1.564 2.61 8
-7.68 -1.56 2.582 7
-8.323 -1.562 2.552 5
-9.085 -1.57 2.52 6
-10.001 -1.59 2.484 12
-7.088 -1.034 2.644 180
-7.171 -0.962 2.65 10
-7.217 -0.893 2.657 1
-12.639 -1.453 2.413 9
-9.487 -1.025 2.565 10
-9.396 -0.973 2.567 13
-9.318 -0.944 2.56 37
-8.677 -0.882 2.57 22
-8.609 -0.898 2.543 6
-7.733 -0.842 2.552 0
-7.261 -0.837 2.536 0
-1.545 -0.19 2.89 12
-1.546 -0.203 2.878 21
-1.456 -0.205 2.872 23
-1.468 -0.222 2.856 26
-1.488 -0.239 2.839 25
-1.519 -0.261 2.817 26
-1.378 -0.25 2.818 28
-1.318 -0.254 2.809 25
-1.286 -0.261 2.796 26
-1.261 -0.268 2.783 12
-1.148 -0.257 2.785 16
-1.089 -0.254 2.779 12
-5.465 -1.581 2.721 3
-5.79 -1.572 2.694 3
-6.152 -1.564 2.668 2
-6.603 -1.567 2.638 17
-7.063 -1.559 2.611 6
-7.595 -1.555 2.583 9
-8.253 -1.564 2.552 17
-9.015 -1.575 2.518 12
-9.899 -1.594 2.482 12
-7.062 -1.046 2.64 79
-7.173 -0.98 2.643 17
-7.214 -0.91 2.651 7
-12.178 -1.432 2.421 4
-9.444 -1.047 2.556 11
-9.377 -0.998 2.556 13
-9.231 -0.962 2.551 41
-8.674 -0.906 2.558 71
-8.062 -0.863 2.56 0
-7.54 -0.84 2.553 0
-1.53 -0.18 2.9 0
-1.548 -0.193 2.888 18
-1.545 -0.206 2.876 22
-1.448 -0.206 2.871 24
-1.468 -0.224 2.854 25
-1.484 -0.241 2.837 26
-1.511 -0.261 2.817 26
-1.385 -0.254 2.816 32
-1.345 -0.26 2.804 27
-1.317 -0.269 2.79 29
-1.288 -0.275 2.777 12
-1.163 -0.261 2.781 15
-1.085 -0.254 2.779 12
-5.432 -1.579 2.722 3
-5.757 -1.572 2.694 2
-6.111 -1.563 2.668 3
-6.573 -1.57 2.638 10
-7.034 -1.565 2.61 25
-7.573 -1.564 2.581 9
-8.191 -1.567 2.551 4
-8.925 -1.577 2.518 8
-9.813 -1.601 2.48 8
-7.047 -1.06 2.635 99
-7.103 -0.987 2.641 32
-7.255 -0.934 2.642 10
-9.532 -1.147 2.537 1
-9.416 -1.071 2.546 11
-9.345 -1.021 2.545 18
-8.692 -0.931 2.566 23
-8.619 -0.926 2.548 9
-7.888 -0.865 2.559 0
-7.383 -0.842 2.552 0
-1.538 -0.184 2.898 2
-1.528 -0.195 2.888 22
-1.545 -0.209 2.874 24
-1.439 -0.208 2.87 24
-1.467 -0.226 2.853 25
-1.475 -0.242 2.837 26
-1.565 -0.273 2.809 21
-1.388 -0.257 2.814 34
-1.341 -0.261 2.803 28
-1.32 -0.271 2.789 28
-1.257 -0.27 2.781 12
-1.178 -0.266 2.777 18
-1.088 -0.256 2.778 11
-5.403 -1.578 2.722 3
-5.728 -1.572 2.694 3
-6.128 -1.576 2.665 5
-6.509 -1.565 2.639 4
-6.988 -1.566 2.61 3
-7.492 -1.561 2.582 8
-8.133 -1.572 2.549 14
-8.882 -1.588 2.514 7
-9.762 -1.613 2.476 9
-7.045 -1.076 2.63 48
-7.076 -1.001 2.636 36
-7.209 -0.946 2.637 12
-9.481 -1.166 2.529 9
-9.397 -1.094 2.535 12
-9.318 -1.046 2.534 29
-8.672 -0.954 2.555 16
-8.588 -0.946 2.538 2
-7.723 -0.868 2.557 0
-7.237 -0.844 2.551 0
-1.529 -0.187 2.896 7
-1.531 -0.198 2.885 23
-1.536 -0.212 2.873 36
-1.435 -0.21 2.869 23
-1.459 -0.228 2.852 26
-1.479 -0.245 2.835 26
-1.607 -0.282 2.802 22
-1.384 -0.257 2.813 33
-1.379 -0.27 2.796 24
-1.308 -0.27 2.789 17
-1.229 -0.266 2.785 15
-1.193 -0.27 2.774 16
-1.092 -0.257 2.776 11
-5.371 -1.576 2.722 3
-5.695 -1.571 2.695 3
-6.091 -1.576 2.665 4
-6.471 -1.566 2.638 14
-6.942 -1.568 2.609 7
-7.473 -1.57 2.579 17
-8.06 -1.573 2.549 4
-8.796 -1.591 2.514 15
-9.675 -1.62 2.474 13
-7.03 -1.089 2.625 33
-7.058 -1.015 2.631 14
-7.175 -0.961 2.631 8
-9.438 -1.187 2.521 10
-9.378 -1.119 2.525 12
-9.227 -1.062 2.527 41
-8.669 -0.979 2.544 37
-8.068 -0.912 2.555 0
-7.549 -0.87 2.557 0
-7.092 -0.845 2.55 0
-1.517 -0.189 2.895 9
-1.53 -0.202 2.883 26
-1.54 -0.215 2.871 40
-1.43 -0.212 2.867 21
-1.458 -0.231 2.85 23
-1.47 -0.246 2.834 25
-1.626 -0.288 2.798 22
-1.383 -0.259 2.812 22
-1.402 -0.277 2.792 22
-1.4 -0.291 2.773 12
-1.213 -0.264 2.786 17
-1.223 -0.278 2.767 17
-1.091 -0.258 2.775 11
-5.338 -1.574 2.722 3
-5.654 -1.569 2.695 3
-6.053 -1.576 2.665 23
-6.484 -1.58 2.635 11
-6.912 -1.573 2.608 9
-7.4 -1.569 2.58 4
-8.029 -1.583 2.546 13
-8.718 -1.594 2.513 5
-9.557 -1.622 2.473 5
-7.027 -1.105 2.619 22
-7.051 -1.032 2.624 20
-7.247 -0.989 2.62 7
-9.41 -1.209 2.512 11
-9.35 -1.142 2.515 18
-8.696 -1.025 2.543 19
-8.61 -0.997 2.535 6
-7.867 -0.912 2.555 0
-7.372 -0.869 2.557 0
-6.946 -0.846 2.55 0
-1.524 -0.194 2.893 12
-1.534 -0.205 2.881 40
-1.535 -0.218 2.869 41
-1.367 -0.206 2.871 21
-1.387 -0.222 2.856 23
-1.466 -0.248 2.833 20
-1.626 -0.291 2.796 17
-1.379 -0.26 2.811 21
-1.401 -0.279 2.79 22
-1.446 -0.302 2.764 19
-1.217 -0.266 2.784 16
-1.188 -0.271 2.772 21
-1.091 -0.26 2.774 11
-5.313 -1.575 2.722 4
-5.656 -1.579 2.693 4
-6.039 -1.581 2.664 7
-6.419 -1.575 2.636 4
-5.917 -1.357 2.662 0
-7.366 -1.575 2.578 20
-7.947 -1.583 2.546 5
-8.683 -1.606 2.509 13
-5.574 -0.958 2.689 0
-7.013 -1.12 2.614 36
-7.04 -1.048 2.619 22
-7.185 -1.0 2.616 6
-9.394 -1.233 2.502 12
-9.322 -1.165 2.506 41
-8.68 -1.049 2.533 13
-8.507 -1.01 2.529 1
-7.701 -0.914 2.554 0
-7.238 -0.873 2.555 0
-6.805 -0.847 2.55 0
-1.523 -0.198 2.89 19
-1.529 -0.208 2.88 41
-1.527 -0.22 2.868 39
-1.366 -0.208 2.87 21
-1.379 -0.223 2.855 23
-1.359 -0.232 2.843 26
-1.598 -0.288 2.798 13
-1.386 -0.264 2.808 22
-1.397 -0.279 2.79 20
-1.403 -0.295 2.77 15
-1.201 -0.264 2.786 17
-1.188 -0.273 2.771 19
-1.102 -0.264 2.771 11
-5.284 -1.574 2.722 3
-5.619 -1.577 2.694 12
-5.983 -1.577 2.665 3
-6.382 -1.577 2.636 16
-6.817 -1.576 2.607 18
-7.32 -1.579 2.577 3
-7.917 -1.592 2.543 13
-8.597 -1.609 2.508 7
-5.54 -0.965 2.687 0
-7.026 -1.139 2.608 20
-7.033 -1.064 2.613 44
-9.448 -1.34 2.486 10
-9.375 -1.256 2.492 11
-9.263 -1.184 2.498 6
-8.665 -1.073 2.522 24
-8.048 -0.979 2.544 0
-7.488 -0.91 2.556 0
-7.084 -0.874 2.554 0
-6.683 -0.849 2.549 0
-1.515 -0.201 2.889 24
-1.529 -0.212 2.878 42
-1.514 -0.221 2.867 36
-1.366 -0.211 2.868 21
-1.382 -0.225 2.854 23
-1.363 -0.235 2.841 25
-1.386 -0.253 2.823 20
-1.382 -0.265 2.807 21
-1.4 -0.282 2.788 16
-1.375 -0.29 2.773 10
-1.193 -0.264 2.787 18
-1.206 -0.278 2.767 13
-1.128 -0.271 2.765 12
-5.262 -1.576 2.722 3
-5.605 -1.582 2.693 22
-5.949 -1.578 2.665 11
-6.368 -1.584 2.634 10
-6.799 -1.584 2.605 7
-7.266 -1.581 2.576 9
-7.835 -1.592 2.543 4
-5.517 -1.045 2.681 0
-5.557 -0.981 2.681 4
-5.537 -0.91 2.687 0
-7.034 -1.082 2.606 50
-5.558 -0.802 2.692 0
-9.351 -1.279 2.483 15
-8.689 -1.135 2.518 14
-8.618 -1.091 2.514 6
-7.85 -0.977 2.544 0
-7.366 -0.917 2.553 0
-6.943 -0.876 2.554 0
-6.562 -0.851 2.548 0
-1.514 -0.204 2.887 24
-1.532 -0.216 2.875 41
-1.521 -0.225 2.865 35
-1.345 -0.211 2.868 17
-1.358 -0.225 2.854 19
-1.382 -0.241 2.837 25
-1.343 -0.247 2.827 16
-1.373 -0.265 2.807 13
-1.403 -0.285 2.785 12
-1.336 -0.284 2.778 10
-1.185 -0.263 2.787 13
-1.283 -0.297 2.75 11
-1.166 -0.281 2.756 13
-5.268 -1.586 2.72 7
-5.591 -1.587 2.692 6
-5.935 -1.585 2.663 13
-6.314 -1.583 2.635 4
-6.737 -1.583 2.605 4
-7.247 -1.592 2.573 10
-7.804 -1.602 2.541 16
-5.542 -1.062 2.675 2
-5.519 -0.987 2.679 31
-5.542 -0.925 2.681 1
-7.039 -1.101 2.599 135
-5.544 -0.815 2.687 0
-9.327 -1.302 2.474 16
-8.681 -1.16 2.508 11
-8.42 -1.091 2.514 1
-7.684 -0.979 2.544 0
-7.216 -0.918 2.552 0
-6.801 -0.877 2.553 0
-1.515 -0.2 2.894 0
-1.51 -0.208 2.885 26
-1.527 -0.219 2.873 41
-1.533 -0.231 2.861 35
-1.329 -0.211 2.868 15
-1.322 -0.221 2.856 16
-1.338 -0.236 2.841 22
-1.287 -0.239 2.833 11
-1.369 -0.267 2.806 12
-1.387 -0.284 2.786 10
-1.204 -0.258 2.798 10
-1.172 -0.262 2.788 9
-1.313 -0.306 2.743 12
-1.162 -0.281 2.756 13
-5.227 -1.581 2.721 6
-5.55 -1.584 2.692 5
-5.894 -1.584 2.663 3
-6.273 -1.584 2.634 14
-6.711 -1.589 2.604 19
-7.17 -1.589 2.574 6
-7.73 -1.603 2.54 4
-5.496 -1.064 2.675 29
-5.474 -0.991 2.678 14
-5.552 -0.941 2.676 8
-7.044 -1.12 2.592 147
-5.541 -0.83 2.682 18
-9.303 -1.325 2.465 26
-8.665 -1.182 2.498 15
-8.024 -1.063 2.527 0
-7.519 -0.98 2.543 0
-7.07 -0.92 2.551 0
-6.671 -0.879 2.552 0
-1.53 -0.206 2.89 1
-1.509 -0.211 2.883 33
-1.523 -0.222 2.872 41
-1.524 -0.233 2.86 32
-1.324 -0.212 2.867 17
-1.318 -0.222 2.856 14
-1.31 -0.233 2.843 20
-1.271 -0.238 2.834 10
-1.341 -0.263 2.809 8
-1.379 -0.284 2.786 5
-1.185 -0.255 2.801 13
-1.168 -0.262 2.788 16
-1.324 -0.31 2.74 12
-1.161 -0.283 2.754 12
-5.19 -1.579 2.722 6
-5.517 -1.585 2.692 10
-5.852 -1.583 2.664 6
-6.262 -1.593 2.632 11
-6.677 -1.594 2.603 5
-7.139 -1.596 2.572 22
-7.695 -1.612 2.538 18
-5.459 -1.069 2.673 17
-5.452 -1.0 2.675 13
-5.51 -0.947 2.674 9
-5.558 -0.899 2.673 0
-5.531 -0.844 2.676 11
-8.694 -1.262 2.49 7
-8.618 -1.2 2.491 4
-7.858 -1.064 2.526 0
-7.353 -0.98 2.543 0
-6.925 -0.922 2.551 0
-6.542 -0.88 2.552 0
-1.53 -0.21 2.888 1
-1.512 -0.216 2.881 43
-1.526 -0.226 2.87 41
-1.515 -0.235 2.859 29
-1.265 -0.206 2.871 12
-1.246 -0.213 2.862 12
-1.29 -0.231 2.844 16
-1.24 -0.234 2.836 10
-1.197 -0.237 2.828 2
-1.243 -0.258 2.806 0
-1.203 -0.261 2.796 12
-1.171 -0.265 2.786 22
-1.376 -0.324 2.728 11
-1.21 -0.296 2.742 14
-5.18 -1.584 2.721 12
-5.491 -1.586 2.692 18
-5.823 -1.586 2.663 23
-6.209 -1.591 2.633 4
-6.619 -1.593 2.603 6
-7.097 -1.602 2.571 3
-7.629 -1.614 2.537 3
-5.444 -1.079 2.67 17
-5.421 -1.007 2.673 21
-5.452 -0.951 2.672 14
-5.579 -0.917 2.666 0
-5.54 -0.86 2.67 0
-8.627 -1.277 2.484 7
-8.25 -1.172 2.502 0
-7.665 -1.06 2.528 0
-7.207 -0.981 2.543 0
-6.795 -0.923 2.55 0
-6.215 -0.853 2.565 0
-1.529 -0.214 2.886 2
-1.507 -0.219 2.879 43
-1.525 -0.229 2.868 37
-1.53 -0.241 2.855 27
-1.253 -0.207 2.871 9
-1.226 -0.212 2.862 11
-1.211 -0.22 2.852 13
-1.204 -0.23 2.839 9
-1.196 -0.239 2.827 4
-1.188 -0.248 2.813 4
-1.199 -0.262 2.795 11
-1.163 -0.264 2.786 19
-1.513 -0.358 2.699 5
-1.293 -0.318 2.724 16
-5.158 -1.587 2.72 21
-5.469 -1.589 2.691 6
-5.816 -1.594 2.661 7
-6.167 -1.592 2.633 12
-6.593 -1.6 2.601 23
-7.039 -1.604 2.57 12
-7.583 -1.621 2.535 14
-5.422 -1.088 2.668 16
-5.411 -1.019 2.669 20
-5.446 -0.963 2.668 18
-5.553 -0.927 2.663 3
-9.3 -1.47 2.436 28
-8.413 -1.268 2.488 2
-8.021 -1.164 2.506 0
-7.511 -1.06 2.528 0
-7.057 -0.981 2.543 0
-6.653 -0.923 2.55 0
-6.152 -0.862 2.561 0
-1.52 -0.218 2.884 3
-1.511 -0.223 2.877 45
-1.52 -0.232 2.866 37
-1.534 -0.244 2.853 26
-1.248 -0.209 2.87 7
-1.233 -0.215 2.86 11
-1.203 -0.22 2.851 13
-1.184 -0.228 2.841 15
-1.192 -0.24 2.826 7
-1.184 -0.249 2.813 10
-1.191 -0.261 2.796 12
-1.166 -0.267 2.784 11
-1.406 -0.335 2.719 4
-1.334 -0.33 2.713 6
-5.156 -1.594 2.719 7
-5.428 -1.587 2.692 5
-5.771 -1.592 2.662 4
-6.145 -1.598 2.631 15
-6.547 -1.601 2.601 4
-7.024 -1.615 2.567 10
-7.544 -1.63 2.533 3
-5.4 -1.095 2.665 27
-5.397 -1.029 2.666 18
-5.459 -0.98 2.663 17
-5.586 -0.947 2.655 6
-8.688 -1.397 2.464 11
-8.019 -1.232 2.502 4
-7.839 -1.16 2.508 0
-7.337 -1.057 2.529 0
-6.916 -0.982 2.542 0
-6.543 -0.927 2.548 0
-5.912 -0.845 2.569 8
-1.508 -0.22 2.883 5
-1.506 -0.226 2.875 43
-1.524 -0.237 2.863 37
-1.537 -0.249 2.851 20
-1.251 -0.212 2.868 7
-1.241 -0.219 2.858 10
-1.21 -0.224 2.849 12
-1.191 -0.231 2.838 16
-1.195 -0.242 2.824 8
-1.175 -0.249 2.812 3
-1.186 -0.262 2.795 12
-1.208 -0.278 2.775 10
-1.306 -0.313 2.738 12
-1.326 -0.33 2.714 13
-5.108 -1.588 2.72 7
-5.403 -1.589 2.691 11
-5.733 -1.592 2.662 10
-6.103 -1.599 2.631 4
-6.509 -1.605 2.6 7
-6.95 -1.613 2.568 5
-7.482 -1.633 2.532 14
-5.401 -1.108 2.661 23
-5.386 -1.041 2.662 18
-5.519 -1.004 2.654 14
-5.575 -0.96 2.651 10
-8.684 -1.42 2.455 14
-7.829 -1.225 2.505 5
-7.67 -1.157 2.509 0
-7.187 -1.057 2.529 0
-6.79 -0.983 2.541 0
-6.315 -0.912 2.555 0
-5.906 -0.861 2.561 19
-1.507 -0.223 2.881 6
-1.505 -0.23 2.873 43
-1.523 -0.241 2.861 34
-1.54 -0.253 2.848 18
-1.255 -0.215 2.866 6
-1.244 -0.223 2.855 11
-1.213 -0.227 2.847 11
-1.194 -0.234 2.836 15
-1.187 -0.243 2.824 9
-1.179 -0.252 2.81 1
-1.205 -0.268 2.79 9
-1.211 -0.281 2.773 12
-1.294 -0.311 2.739 10
-1.329 -0.332 2.712 14
-5.078 -1.588 2.72 7
-5.377 -1.591 2.691 19
-5.719 -1.599 2.66 18
-6.062 -1.6 2.631 8
-6.482 -1.613 2.598 24
-6.916 -1.62 2.566 20
-7.232 -1.595 2.543 6
-5.394 -1.119 2.658 20
-5.372 -1.051 2.659 34
-5.508 -1.017 2.65 16
-5.521 -0.965 2.649 10
-8.652 -1.439 2.448 11
-7.652 -1.219 2.508 6
-7.488 -1.151 2.511 0
-7.046 -1.057 2.529 0
-6.648 -0.982 2.542 0
-6.15 -0.907 2.558 1
-5.91 -0.878 2.553 23
-1.502 -0.227 2.879 7
-1.504 -0.234 2.87 41
-1.522 -0.244 2.859 31
-1.539 -0.256 2.846 14
-1.258 -0.218 2.864 6
-1.243 -0.225 2.854 9
-1.225 -0.232 2.844 13
-1.194 -0.236 2.835 16
-1.19 -0.245 2.822 11
-1.174 -0.253 2.81 5
-1.173 -0.263 2.795 16
-1.203 -0.28 2.773 15
-1.282 -0.31 2.74 10
-1.329 -0.333 2.71 16
-5.053 -1.589 2.72 16
-5.37 -1.6 2.689 6
-5.677 -1.598 2.66 5
-6.039 -1.607 2.629 22
-6.432 -1.614 2.598 4
-6.885 -1.628 2.564 4
-7.349 -1.638 2.53 7
-5.392 -1.131 2.654 18
-5.361 -1.062 2.655 60
-5.454 -1.021 2.648 25
-5.526 -0.981 2.643 3
-8.529 -1.442 2.447 5
-7.482 -1.214 2.51 6
-7.331 -1.148 2.513 0
-6.912 -1.056 2.53 0
-6.53 -0.984 2.541 0
-5.914 -0.889 2.567 9
-5.903 -0.893 2.545 98
-1.505 -0.232 2.877 10
-1.5 -0.237 2.869 39
-1.517 -0.247 2.857 28
-1.542 -0.261 2.843 9
-1.269 -0.223 2.861 5
-1.243 -0.228 2.852 8
-1.228 -0.235 2.842 12
-1.201 -0.24 2.832 15
-1.185 -0.247 2.821 16
-1.174 -0.255 2.808 2
-1.165 -0.263 2.795 23
-1.21 -0.284 2.77 16
-1.285 -0.313 2.738 16
-1.298 -0.327 2.716 14
-5.054 -1.598 2.718 15
-5.333 -1.598 2.689 5
-5.648 -1.601 2.66 4
-5.997 -1.607 2.629 4
-6.386 -1.615 2.597 8
-6.827 -1.629 2.564 10
-7.357 -1.657 2.525 12
-5.385 -1.144 2.65 18
-5.354 -1.074 2.651 75
-5.428 -1.03 2.645 34
-5.586 -1.007 2.633 2
-8.19 -1.407 2.46 1
-7.333 -1.211 2.511 4
-7.177 -1.145 2.514 0
-6.77 -1.055 2.53 0
-6.322 -0.972 2.547 0
-5.903 -0.905 2.559 13
-5.881 -0.907 2.538 7
-1.497 -0.234 2.875 12
