# .PCD v0.7 - Point Cloud Data file format
VERSION 0.7
FIELDS x y z intensity
SIZE 4 4 4 4
TYPE F F F F
COUNT 1 1 1 1
WIDTH 1998
HEIGHT 1
VIEWPOINT 0 0 0 1 0 0 0
POINTS 1998
DATA ascii
-19.663 -8.371 -2.861 2
-19.951 -8.52 -3.19 5
-19.849 -8.502 -3.407 13
-19.04 -8.19 -3.399 15
-18.242 -7.881 -3.382 13
-17.52 -7.603 -3.38 15
-16.887 -7.365 -3.403 15
-15.716 -8.666 1.472 21
-16.426 -8.855 1.279 19
-14.001 -7.388 1.43 6
-13.101 -6.768 1.438 5
-14.079 -7.127 1.223 6
-12.91 -6.41 1.282 3
-12.838 -6.254 1.207 9
-13.643 -6.53 1.004 14
-14.337 -6.746 0.808 25
-14.081 -6.523 0.754 14
-14.436 -6.588 0.602 0
-16.591 -7.471 0.132 3
-34.176 -15.199 -3.141 27
-18.872 -8.302 -0.524 9
-18.92 -8.24 -0.669 10
-18.167 -7.846 -0.659 4
-18.265 -7.83 -0.819 39
-30.52 -13.008 -3.628 17
-31.908 -13.537 -4.198 5
-30.113 -12.727 -4.055 42
-28.461 -12.002 -3.929 6
-24.611 -10.362 -3.226 162
-20.297 -8.545 -2.339 2
-19.324 -8.139 -2.285 3
-19.404 -8.186 -2.521 1
-19.81 -8.374 -2.864 2
-20.081 -8.515 -3.187 6
-19.946 -8.487 -3.395 14
-19.115 -8.167 -3.381 15
-18.337 -7.872 -3.374 13
-17.609 -7.594 -3.372 14
-16.961 -7.353 -3.392 17
-15.747 -8.628 1.479 25
-16.296 -8.729 1.303 18
-16.25 -8.518 1.19 19
-13.807 -7.084 1.365 2
-12.647 -6.358 1.415 5
-12.577 -6.2 1.339 21
-12.892 -6.235 1.212 19
-14.276 -6.782 0.927 7
-14.226 -6.642 0.842 16
-14.221 -6.537 0.749 39
-14.446 -6.541 0.619 3
-16.63 -7.43 0.148 4
-18.768 -8.279 -0.345 3
-18.871 -8.235 -0.495 34
-31.398 -13.564 -3.039 6
-18.158 -7.779 -0.627 35
-18.336 -7.796 -0.803 15
-30.736 -12.994 -3.621 24
-32.132 -13.524 -4.191 4
-30.327 -12.716 -4.048 32
-28.641 -11.984 -3.919 7
-24.562 -10.262 -3.166 152
-20.428 -8.535 -2.333 4
-19.439 -8.126 -2.277 2
-19.555 -8.189 -2.523 2
-19.946 -8.372 -2.862 2
-20.217 -8.514 -3.186 7
-20.047 -8.472 -3.384 13
-19.21 -8.154 -3.37 14
-18.438 -7.864 -3.368 13
-17.698 -7.585 -3.365 14
-17.038 -7.342 -3.383 16
-15.276 -8.319 1.533 18
-16.204 -8.624 1.324 22
-13.266 -6.908 1.532 2
-13.317 -6.786 1.433 10
-13.153 -6.566 1.363 3
-12.588 -6.161 1.349 25
-12.886 -6.186 1.226 12
-13.195 -6.221 1.098 0
-14.279 -6.617 0.85 13
-14.537 -6.631 0.717 17
-14.536 -6.53 0.623 3
-16.629 -7.371 0.171 15
-18.115 -7.928 -0.203 16
-19.029 -8.237 -0.496 28
-18.075 -7.745 -0.448 14
-18.199 -7.734 -0.606 29
-30.334 -12.793 -3.24 18
-30.911 -12.963 -3.605 17
-32.357 -13.509 -4.183 4
-30.542 -12.705 -4.042 18
-28.834 -11.97 -3.911 6
-24.512 -10.161 -3.106 213
-20.551 -8.521 -2.324 3
-19.55 -8.112 -2.268 3
-19.698 -8.189 -2.524 2
-20.097 -8.374 -2.864 2
-20.365 -8.516 -3.187 5
-20.133 -8.45 -3.368 13
-19.309 -8.142 -3.361 16
-18.528 -7.852 -3.359 13
-17.781 -7.573 -3.354 14
-17.105 -7.326 -3.369 15
-15.295 -8.276 1.541 21
-16.301 -8.62 1.324 21
-15.594 -8.066 1.285 3
-12.712 -6.433 1.515 43
-12.895 -6.392 1.406 19
-12.714 -6.178 1.345 21
-12.898 -6.146 1.238 11
-14.001 -6.552 0.997 2
-14.718 -6.768 0.801 1
-14.598 -6.606 0.725 23
-14.597 -6.506 0.632 2
-16.653 -7.322 0.189 23
-18.178 -7.891 -0.188 17
-18.049 -7.749 -0.289 0
-18.076 -7.682 -0.42 35
-18.258 -7.695 -0.588 5
-30.553 -12.781 -3.234 18
-31.134 -12.95 -3.599 17
-32.582 -13.494 -4.175 4
-30.739 -12.685 -4.031 28
-29.014 -11.949 -3.899 7
-24.472 -10.066 -3.049 255
-20.671 -8.505 -2.314 3
-19.658 -8.095 -2.257 3
-19.824 -8.181 -2.518 2
-20.227 -8.369 -2.86 2
-20.519 -8.52 -3.19 4
-20.223 -8.43 -3.353 13
-19.408 -8.129 -3.351 15
-18.608 -7.835 -3.345 13
-17.866 -7.562 -3.345 14
-17.179 -7.314 -3.358 16
-15.314 -8.234 1.548 19
-15.323 -8.05 1.435 39
-15.581 -8.005 1.298 11
-13.238 -6.654 1.464 10
-12.913 -6.357 1.415 9
-13.094 -6.316 1.308 9
-12.91 -6.107 1.249 6
-14.022 -6.512 1.009 0
-16.048 -7.323 0.621 33
-14.583 -6.549 0.745 18
-14.524 -6.423 0.662 7
-16.692 -7.281 0.205 28
-18.832 -8.109 -0.276 25
-17.992 -7.661 -0.252 32
-18.146 -7.648 -0.405 5
-30.035 -12.555 -2.855 2
-30.761 -12.762 -3.225 24
-31.365 -12.94 -3.593 17
-32.804 -13.476 -4.165 5
-30.91 -12.653 -4.013 49
-29.208 -11.934 -3.89 7
-24.432 -9.972 -2.992 219
-20.795 -8.491 -2.306 3
-19.773 -8.081 -2.248 3
-19.953 -8.174 -2.513 2
-20.381 -8.372 -2.862 2
-20.681 -8.528 -3.196 4
-20.327 -8.416 -3.342 13
-19.508 -8.117 -3.341 13
-18.688 -7.818 -3.331 12
-17.956 -7.552 -3.337 14
-17.253 -7.3 -3.346 16
-15.621 -8.347 1.528 22
-15.151 -7.909 1.463 22
-15.568 -7.946 1.311 21
-13.364 -6.671 1.46 4
-13.189 -6.446 1.393 7
-12.898 -6.177 1.345 11
-12.939 -6.075 1.258 5
-16.427 -7.572 0.685 7
-16.122 -7.3 0.628 28
-14.68 -6.54 0.748 0
-14.585 -6.398 0.671 17
-16.734 -7.239 0.221 27
-17.897 -7.643 -0.088 8
-18.029 -7.614 -0.232 31
-18.332 -7.663 -0.412 26
-30.246 -12.539 -2.847 2
-30.932 -12.728 -3.208 18
-31.596 -12.928 -3.587 17
-32.985 -13.44 -4.146 7
-31.075 -12.618 -3.994 58
-29.399 -11.916 -3.88 7
-24.543 -9.938 -2.972 7
-24.326 -9.856 -3.159 27
-19.881 -8.064 -2.237 3
-20.093 -8.17 -2.511 1
-20.532 -8.373 -2.863 1
-20.846 -8.535 -3.201 4
-20.42 -8.396 -3.327 13
-19.607 -8.103 -3.331 14
-18.765 -7.799 -3.316 19
-18.045 -7.542 -3.328 14
-17.324 -7.286 -3.333 15
-15.379 -8.166 1.56 19
-15.19 -7.878 1.469 18
-15.768 -7.993 1.301 17
-13.309 -6.597 1.477 7
-12.915 -6.267 1.437 18
-13.799 -6.561 1.242 17
-13.141 -6.124 1.244 6
-16.328 -7.469 0.716 7
-16.17 -7.266 0.639 25
-14.726 -6.509 0.759 10
-16.377 -7.127 0.406 22
-16.806 -7.211 0.232 25
-17.901 -7.583 -0.064 33
-18.077 -7.571 -0.214 52
-18.362 -7.612 -0.389 29
-30.475 -12.529 -2.842 1
-31.162 -12.717 -3.202 18
-31.834 -12.918 -3.582 17
-32.764 -13.24 -4.04 3
-31.261 -12.591 -3.979 35
-29.586 -11.897 -3.869 7
-24.401 -9.803 -2.89 18
-21.213 -8.528 -2.329 9
-20.007 -8.053 -2.23 3
-20.237 -8.167 -2.509 1
-20.684 -8.373 -2.863 1
-21.066 -8.564 -3.222 4
-20.51 -8.376 -3.311 17
-19.695 -8.086 -3.318 14
-18.862 -7.789 -3.307 15
-18.123 -7.528 -3.317 15
-17.401 -7.274 -3.323 16
-15.485 -8.171 1.559 17
-15.205 -7.834 1.477 19
-15.876 -7.995 1.301 21
-15.641 -7.7 1.222 21
-12.89 -6.211 1.451 11
-13.88 -6.551 1.245 7
-13.203 -6.107 1.249 22
-16.355 -7.424 0.73 23
-16.204 -7.224 0.653 18
-16.707 -7.326 0.478 30
-16.393 -7.076 0.425 18
-16.884 -7.186 0.241 25
-16.469 -6.918 0.205 3
-18.048 -7.497 -0.182 22
-37.279 -15.327 -3.824 13
-30.69 -12.512 -2.834 2
-31.393 -12.704 -3.196 17
-32.069 -12.905 -3.576 16
-32.949 -13.205 -4.021 2
-31.484 -12.577 -3.972 13
-29.777 -11.877 -3.857 6
-24.312 -9.69 -2.823 38
-21.185 -8.451 -2.281 5
-20.122 -8.039 -2.22 3
-20.392 -8.169 -2.51 2
-21.126 -8.491 -2.945 5
-21.235 -8.572 -3.228 2
-20.618 -8.362 -3.301 14
-19.794 -8.072 -3.307 14
-18.942 -7.772 -3.293 13
-18.206 -7.514 -3.305 14
-17.479 -7.262 -3.313 16
-15.585 -8.172 1.559 18
-15.141 -7.751 1.493 24
-16.4 -8.203 1.256 2
-12.853 -6.284 1.549 1
-13.21 -6.32 1.424 9
-13.255 -6.211 1.336 19
-13.211 -6.065 1.261 2
-16.443 -7.407 0.735 14
-16.209 -7.17 0.67 28
-16.694 -7.262 0.5 29
-16.438 -7.038 0.439 28
-16.598 -7.007 0.31 9
-16.517 -6.881 0.22 9
-18.062 -7.44 -0.158 18
-37.569 -15.316 -3.819 12
-30.938 -12.507 -2.832 2
-31.62 -12.688 -3.188 17
-32.355 -12.912 -3.579 10
-33.247 -13.214 -4.026 2
-24.197 -9.587 -2.314 0
-24.267 -9.601 -2.543 49
-24.248 -9.588 -2.761 32
-21.186 -8.385 -2.24 4
-20.244 -8.025 -2.211 3
-20.536 -8.165 -2.508 2
-21.127 -8.429 -2.902 4
-21.402 -8.577 -3.232 3
-20.719 -8.344 -3.288 15
-19.901 -8.062 -3.298 14
-19.026 -7.755 -3.28 13
-18.288 -7.501 -3.294 15
-17.563 -7.252 -3.304 18
-15.645 -8.151 1.563 25
-15.642 -7.954 1.454 14
-16.947 -8.42 1.21 16
-13.35 -6.482 1.504 9
-13.163 -6.253 1.441 0
-12.881 -5.991 1.395 20
-13.218 -6.023 1.273 9
-16.39 -7.327 0.76 17
-16.536 -7.256 0.642 1
-17.765 -7.666 0.36 22
-16.563 -7.034 0.44 23
-16.65 -6.971 0.324 25
-18.988 -7.845 -0.17 18
-18.519 -7.564 -0.211 29
-18.395 -7.437 -0.311 1
-31.208 -12.51 -2.833 2
-31.858 -12.677 -3.183 17
-32.648 -12.92 -3.583 27
-33.947 -13.381 -4.115 4
-24.052 -9.451 -2.239 3
-24.199 -9.497 -2.483 44
-24.181 -9.484 -2.699 29
-21.285 -8.358 -2.223 3
-20.371 -8.013 -2.204 3
-20.695 -8.166 -2.508 1
-21.261 -8.42 -2.896 2
-21.593 -8.593 -3.243 4
-20.83 -8.331 -3.278 17
-19.996 -8.046 -3.286 14
-19.102 -7.736 -3.264 13
-18.363 -7.484 -3.28 15
-17.651 -7.244 -3.297 15
-15.66 -8.108 1.57 25
-15.585 -7.874 1.469 17
-16.953 -8.366 1.222 20
-13.566 -6.541 1.49 1
-13.775 -6.496 1.38 2
-12.963 -5.985 1.396 21
-13.226 -5.98 1.285 3
-16.315 -7.236 0.788 28
-16.647 -7.248 0.645 0
-17.637 -7.55 0.4 42
-16.586 -6.986 0.457 29
-16.659 -6.917 0.345 24
-19.011 -7.788 -0.147 22
-18.559 -7.517 -0.191 26
-18.41 -7.379 -0.285 1
-31.504 -12.522 -2.839 4
-32.092 -12.662 -3.175 16
-32.899 -12.91 -3.578 17
-34.221 -13.376 -4.112 8
-24.012 -9.358 -2.187 5
-24.134 -9.394 -2.423 34
-24.116 -9.383 -2.638 31
-21.413 -8.342 -2.213 3
-20.497 -8.001 -2.196 2
-21.125 -8.274 -2.581 4
-21.435 -8.427 -2.901 2
-21.756 -8.596 -3.245 7
-20.945 -8.319 -3.269 13
-20.095 -8.031 -3.275 14
-19.207 -7.727 -3.257 12
-18.452 -7.473 -3.271 15
-17.732 -7.233 -3.288 16
-16.149 -8.308 1.535 20
-15.353 -7.706 1.502 21
-15.824 -7.757 1.351 5
-15.724 -7.529 1.262 0
-13.816 -6.469 1.387 0
-12.887 -5.906 1.418 26
-13.255 -5.949 1.294 0
-16.264 -7.158 0.812 25
-16.71 -7.218 0.655 3
-17.741 -7.533 0.406 21
-16.62 -6.942 0.473 26
-16.48 -6.786 0.395 31
-18.114 -7.359 0.027 26
-18.881 -7.583 -0.219 23
-38.44 -15.276 -3.801 11
-31.793 -12.529 -2.842 5
-32.312 -12.64 -3.165 7
-33.149 -12.898 -3.572 16
-34.455 -13.354 -4.101 6
-24.023 -9.284 -2.146 4
-24.065 -9.29 -2.364 48
-24.054 -9.284 -2.578 49
-21.508 -8.313 -2.195 2
-20.619 -7.987 -2.187 3
-21.129 -8.213 -2.54 3
-21.598 -8.429 -2.902 2
-21.908 -8.594 -3.244 18
-21.056 -8.306 -3.259 15
-20.194 -8.017 -3.263 14
-19.312 -7.719 -3.251 13
-18.531 -7.457 -3.258 15
-17.819 -7.225 -3.28 15
-15.419 -7.882 1.61 12
-15.385 -7.672 1.509 30
-15.656 -7.622 1.38 22
-15.684 -7.457 1.278 25
-16.695 -7.761 1.065 19
-12.879 -5.859 1.43 16
-15.937 -7.097 0.965 27
-16.301 -7.119 0.824 15
-17.655 -7.565 0.542 23
-17.086 -7.196 0.522 10
-16.683 -6.911 0.485 30
-16.334 -6.67 0.44 29
-18.138 -7.306 0.048 30
-18.962 -7.55 -0.205 8
-38.753 -15.269 -3.798 10
-32.093 -12.539 -2.847 5
0.0 -0.0 3.0 0
-33.415 -12.89 -3.568 16
-34.674 -13.326 -4.085 6
-24.558 -9.412 -2.217 14
-23.999 -9.189 -2.305 48
-24.12 -9.234 -2.548 56
-21.624 -8.292 -2.181 2
-20.804 -7.995 -2.192 2
-21.274 -8.207 -2.535 1
-21.776 -8.435 -2.907 2
-22.039 -8.583 -3.236 17
-21.167 -8.291 -3.248 14
-20.29 -8.0 -3.25 14
-19.413 -7.709 -3.242 13
-18.616 -7.444 -3.247 15
-17.9 -7.213 -3.27 15
-15.478 -7.862 1.614 23
-15.445 -7.651 1.513 25
-15.695 -7.589 1.387 21
-15.738 -7.43 1.285 26
-16.779 -7.744 1.069 13
-12.875 -5.813 1.442 22
-13.759 -6.081 1.256 2
-16.272 -7.051 0.844 27
-19.117 -8.126 0.36 22
-17.091 -7.139 0.542 34
-16.69 -6.858 0.504 20
-16.345 -6.618 0.46 22
-18.699 -7.468 -0.017 32
-18.263 -7.209 -0.06 11
-39.052 -15.254 -3.791 9
-32.328 -12.522 -2.839 4
0.0 -0.0 3.0 0
-33.688 -12.885 -3.565 14
-34.908 -13.302 -4.073 17
-24.621 -9.356 -2.186 21
-23.936 -9.088 -2.247 59
-24.211 -9.193 -2.524 53
-21.741 -8.27 -2.167 2
-21.123 -8.055 -2.231 4
-21.437 -8.206 -2.535 1
-21.936 -8.434 -2.906 1
-22.159 -8.568 -3.225 18
-21.29 -8.28 -3.24 14
-20.396 -7.987 -3.24 14
-19.514 -7.698 -3.234 12
-18.702 -7.431 -3.235 15
-17.981 -7.201 -3.26 15
-15.588 -7.867 1.613 15
-15.562 -7.658 1.511 22
0.0 -0.0 3.0 0
-16.022 -7.512 1.266 22
-13.535 -6.201 1.454 2
-12.917 -5.789 1.449 36
-15.863 -6.957 1.005 24
-16.169 -6.951 0.875 25
-16.832 -7.097 0.694 1
-17.117 -7.091 0.558 19
-16.683 -6.798 0.526 26
-16.352 -6.565 0.48 21
-18.632 -7.378 0.019 25
-18.258 -7.145 -0.033 15
-39.369 -15.245 -3.787 10
-40.282 -15.467 -4.212 11
-33.577 -12.798 -3.242 2
-33.95 -12.873 -3.559 7
-35.153 -13.28 -4.061 16
-24.709 -9.31 -2.161 15
-23.998 -9.036 -2.217 39
-24.06 -9.061 -2.445 55
-21.862 -8.249 -2.155 2
-21.155 -8.004 -2.198 2
-21.608 -8.208 -2.536 1
-22.136 -8.448 -2.915 1
-22.272 -8.549 -3.212 15
-21.404 -8.266 -3.229 16
-20.488 -7.969 -3.226 15
-19.615 -7.687 -3.225 13
-18.78 -7.415 -3.222 15
-18.055 -7.186 -3.247 15
-15.74 -7.894 1.608 6
-15.597 -7.624 1.518 25
-16.125 -7.692 1.365 51
-15.906 -7.404 1.291 11
-13.542 -6.159 1.464 0
-12.898 -5.737 1.463 9
-15.953 -6.943 1.009 26
-16.213 -6.914 0.886 28
-16.825 -7.037 0.714 22
-17.096 -7.024 0.581 17
-16.717 -6.754 0.542 22
-16.705 -6.649 0.448 0
-18.579 -7.293 0.053 30
-18.264 -7.085 -0.008 12
-39.691 -15.235 -3.783 8
-40.608 -15.456 -4.207 11
-40.333 -15.239 -4.433 25
-37.699 -14.17 -4.22 4
-35.414 -13.264 -4.053 5
-24.848 -9.283 -2.146 8
-24.1 -8.998 -2.195 57
-24.125 -9.011 -2.414 2
-21.979 -8.226 -2.14 2
-21.318 -8.002 -2.196 1
-21.797 -8.217 -2.542 1
-22.31 -8.451 -2.917 2
-22.392 -8.533 -3.2 15
-21.505 -8.248 -3.215 16
-20.594 -7.956 -3.216 14
-19.706 -7.672 -3.213 13
-18.866 -7.402 -3.211 15
-18.139 -7.176 -3.238 16
-15.786 -7.866 1.613 1
-15.642 -7.597 1.523 25
-15.84 -7.504 1.405 21
-15.945 -7.37 1.299 17
-13.339 -6.023 1.498 2
-17.27 -7.624 0.957 32
-16.076 -6.942 1.009 18
-16.274 -6.886 0.895 29
-16.964 -7.038 0.713 23
-17.125 -6.978 0.597 1
-17.18 -6.883 0.495 18
-18.123 -7.152 0.255 29
-18.615 -7.244 0.073 23
-18.266 -7.025 0.018 5
-19.102 -7.267 -0.236 6
-40.939 -15.444 -4.202 11
-40.63 -15.217 -4.422 26
-37.977 -14.15 -4.21 4
-35.689 -13.251 -4.046 4
-24.958 -9.244 -2.124 8
-24.183 -8.953 -2.169 56
-24.296 -9.0 -2.408 0
-22.121 -8.213 -2.132 2
-21.482 -8.0 -2.195 2
-21.953 -8.212 -2.539 2
-22.5 -8.459 -2.923 2
-22.516 -8.518 -3.189 15
-21.609 -8.229 -3.201 17
-20.708 -7.945 -3.208 14
-19.8 -7.657 -3.201 13
-18.948 -7.386 -3.198 15
-18.223 -7.165 -3.228 14
-15.706 -7.777 1.629 9
-15.659 -7.554 1.532 23
-15.702 -7.388 1.43 19
-16.512 -7.578 1.25 15
-16.21 -7.266 1.188 16
-16.269 -7.128 1.09 4
-16.17 -6.929 1.013 19
-16.314 -6.847 0.907 27
-17.625 -7.252 0.644 23
-17.813 -7.198 0.521 18
-17.14 -6.808 0.522 23
-18.483 -7.231 0.224 31
-18.672 -7.203 0.09 31
-18.301 -6.976 0.039 0
-19.115 -7.209 -0.21 31
-18.91 -7.071 -0.297 1
-40.945 -15.199 -4.413 27
-38.245 -14.125 -4.197 4
-35.931 -13.225 -4.032 4
-25.094 -9.214 -2.108 9
-24.27 -8.909 -2.144 7
-24.387 -8.958 -2.382 0
-22.242 -8.191 -2.118 2
-21.653 -7.999 -2.195 1
-22.135 -8.216 -2.542 1
-22.675 -8.46 -2.924 1
-22.629 -8.498 -3.174 15
-21.699 -8.205 -3.183 17
-20.814 -7.931 -3.197 15
-19.908 -7.649 -3.194 13
-19.044 -7.376 -3.19 16
-18.304 -7.153 -3.218 14
-15.759 -7.753 1.633 22
-15.737 -7.542 1.534 26
-15.776 -7.372 1.433 14
-16.675 -7.599 1.246 14
-16.184 -7.201 1.205 23
-16.282 -7.08 1.103 13
-16.246 -6.907 1.019 31
-16.309 -6.791 0.924 7
-17.729 -7.235 0.649 10
-17.877 -7.163 0.533 25
-17.173 -6.763 0.538 29
-18.614 -7.219 0.229 26
-18.752 -7.17 0.103 21
-20.563 -7.769 -0.298 2
-19.181 -7.169 -0.192 6
-18.893 -7.002 -0.265 24
-41.276 -15.186 -4.407 28
-38.553 -14.113 -4.191 4
-36.181 -13.2 -4.019 4
-25.193 -9.172 -2.084 10
-24.382 -8.875 -2.124 3
-24.503 -8.926 -2.363 0
-22.384 -8.175 -2.108 2
-21.816 -7.995 -2.192 1
-22.302 -8.213 -2.54 1
-23.444 -8.681 -3.079 5
-22.76 -8.485 -3.164 16
-21.792 -8.182 -3.166 17
-20.924 -7.919 -3.187 15
-20.009 -7.637 -3.184 13
-19.133 -7.364 -3.179 15
-18.395 -7.144 -3.21 15
-15.704 -7.677 1.646 25
-15.814 -7.529 1.537 23
-16.122 -7.481 1.41 18
-16.645 -7.532 1.261 19
-15.928 -7.034 1.246 18
-16.245 -7.01 1.122 25
-16.318 -6.884 1.026 28
-16.26 -6.716 0.947 27
-17.744 -7.181 0.667 4
-17.937 -7.127 0.546 4
-17.645 -6.889 0.492 19
-18.615 -7.157 0.253 15
-18.75 -7.107 0.129 27
-19.545 -7.318 -0.106 12
-19.261 -7.134 -0.176 0
-18.932 -6.953 -0.242 18
-41.584 -15.163 -4.395 27
-38.839 -14.091 -4.18 5
-36.446 -13.18 -4.008 4
-25.11 -9.062 -2.023 5
-24.458 -8.826 -2.096 7
-24.568 -8.874 -2.332 0
-22.523 -8.159 -2.098 2
-21.998 -7.998 -2.194 1
-22.496 -8.22 -2.545 1
-23.788 -8.742 -3.121 37
-22.876 -8.465 -3.151 19
-21.896 -8.162 -3.151 18
-21.02 -7.9 -3.172 15
-20.107 -7.623 -3.173 13
-19.208 -7.345 -3.164 18
-18.479 -7.133 -3.201 14
-15.756 -7.653 1.651 24
-15.921 -7.529 1.537 21
-16.178 -7.456 1.415 20
-16.899 -7.591 1.247 22
-13.739 -6.024 1.498 3
-16.086 -6.889 1.154 21
-16.434 -6.878 1.028 24
-16.273 -6.667 0.962 21
-19.841 -7.964 0.412 3
-17.852 -7.033 0.578 8
-17.768 -6.878 0.497 32
-18.457 -7.034 0.3 27
-18.752 -7.044 0.154 4
-19.584 -7.268 -0.085 28
-41.313 -15.166 -3.752 7
-42.33 -15.406 -4.184 9
-41.908 -15.143 -4.386 26
-39.126 -14.069 -4.168 4
-36.688 -13.15 -3.992 4
-25.113 -8.983 -1.979 6
-24.559 -8.787 -2.073 9
-24.676 -8.839 -2.311 1
-22.67 -8.144 -2.089 2
-22.151 -7.988 -2.188 4
-22.708 -8.232 -2.553 1
-23.895 -8.714 -3.102 42
-22.996 -8.447 -3.137 16
-22.004 -8.144 -3.137 18
-21.119 -7.883 -3.159 15
-20.212 -7.612 -3.164 13
-19.311 -7.338 -3.157 15
-18.581 -7.128 -3.196 14
-15.664 -7.56 1.667 0
-16.096 -7.561 1.53 8
-16.017 -7.33 1.442 20
-16.552 -7.383 1.296 15
-17.468 -7.601 1.105 29
-16.443 -6.987 1.128 23
-17.016 -7.066 0.974 15
-16.309 -6.628 0.974 24
-19.66 -7.826 0.457 13
-17.901 -6.993 0.592 0
-17.794 -6.828 0.515 22
-18.455 -6.971 0.324 26
-18.478 -6.879 0.221 1
-19.386 -7.13 -0.026 21
-41.651 -15.152 -3.746 8
-42.807 -15.439 -4.199 8
-42.239 -15.125 -4.377 28
-39.261 -13.99 -4.128 2
-36.953 -13.127 -3.98 4
-25.078 -8.892 -1.929 4
-24.645 -8.741 -2.047 57
-24.696 -8.77 -2.27 66
-22.757 -8.108 -2.066 0
-22.367 -8.0 -2.196 2
-23.976 -8.625 -2.817 8
-24.046 -8.702 -3.094 35
-23.12 -8.43 -3.125 16
-22.115 -8.127 -3.124 18
-21.214 -7.864 -3.144 16
-20.309 -7.598 -3.153 14
-19.396 -7.323 -3.145 15
-18.666 -7.116 -3.186 14
-15.63 -7.495 1.678 20
-15.874 -7.407 1.56 0
-15.649 -7.113 1.488 19
-16.387 -7.256 1.325 15
-17.954 -7.755 1.066 16
-15.976 -6.737 1.195 19
-16.806 -6.923 1.015 15
-16.465 -6.637 0.971 19
-18.897 -7.459 0.576 3
-16.372 -6.341 0.817 1
-17.934 -6.822 0.517 18
-18.511 -6.93 0.34 14
-18.315 -6.758 0.27 19
-17.796 -6.486 0.247 0
-42.005 -15.141 -3.741 10
-43.106 -15.405 -4.183 7
-38.519 -13.667 -3.666 2
-38.239 -13.502 -3.88 9
-37.207 -13.098 -3.965 4
-25.072 -8.811 -1.884 8
-24.743 -8.699 -2.022 57
-24.753 -8.715 -2.237 1
-25.526 -9.018 -2.635 11
-22.557 -8.003 -2.197 3
-23.639 -8.436 -2.69 2
-24.182 -8.685 -3.081 41
-23.255 -8.417 -3.115 15
-22.227 -8.109 -3.111 18
-21.306 -7.843 -3.128 16
-20.396 -7.579 -3.138 14
-19.485 -7.31 -3.133 15
-18.753 -7.106 -3.177 13
-16.099 -7.67 1.647 18
-15.846 -7.344 1.572 21
-15.668 -7.072 1.497 21
-16.484 -7.247 1.327 11
-18.898 -8.101 0.98 24
-16.12 -6.746 1.192 33
-16.65 -6.804 1.049 29
-16.474 -6.586 0.986 26
-16.497 -6.457 0.902 1
-18.045 -6.928 0.614 39
-18.309 -6.903 0.488 29
-18.578 -6.894 0.354 5
-18.219 -6.661 0.309 33
-17.837 -6.441 0.266 20
-42.351 -15.125 -3.734 10
-43.629 -15.448 -4.204 13
-38.425 -13.508 -3.588 34
-38.234 -13.377 -3.816 39
-37.488 -13.078 -3.954 4
-35.185 -12.255 -3.793 8
-24.836 -8.655 -1.997 41
-26.495 -9.248 -2.557 1
-25.598 -8.967 -2.603 7
-22.717 -7.994 -2.192 0
-23.573 -8.345 -2.629 4
-24.259 -8.646 -3.054 40
-23.372 -8.396 -3.1 16
-22.331 -8.088 -3.095 18
-21.397 -7.823 -3.112 15
-20.501 -7.568 -3.128 14
-19.581 -7.299 -3.124 17
-18.837 -7.094 -3.166 14
-16.299 -7.715 1.64 20
-15.837 -7.291 1.583 18
-15.735 -7.052 1.501 20
-16.376 -7.148 1.35 23
-18.866 -8.028 0.998 24
-15.989 -6.639 1.221 27
-15.911 -6.451 1.15 4
-16.513 -6.547 0.998 22
-16.425 -6.374 0.929 14
-18.631 -7.091 0.558 2
-18.491 -6.91 0.485 24
-18.463 -6.789 0.394 11
-18.096 -6.556 0.351 26
-17.747 -6.35 0.305 19
-42.705 -15.11 -3.728 9
-43.756 -15.35 -4.158 11
-38.461 -13.396 -3.534 18
-38.236 -13.256 -3.754 42
-37.735 -13.045 -3.936 4
-35.425 -12.228 -3.778 8
-24.83 -8.577 -1.952 1
-27.418 -9.488 -2.701 14
-25.603 -8.894 -2.558 4
-25.622 -8.942 -2.807 30
-24.246 -8.515 -2.744 3
-24.333 -8.605 -3.025 21
-23.506 -8.381 -3.09 15
-22.449 -8.073 -3.083 18
-21.489 -7.801 -3.095 17
-20.595 -7.552 -3.115 13
-19.677 -7.287 -3.115 16
-18.921 -7.081 -3.155 18
-16.127 -7.585 1.663 24
-16.483 -7.538 1.535 22
-15.954 -7.101 1.491 32
-15.435 -6.688 1.456 2
-18.437 -7.786 1.059 26
-15.961 -6.575 1.238 22
-17.103 -6.878 1.028 16
-16.644 -6.545 0.999 15
-16.456 -6.332 0.943 23
-18.572 -7.007 0.587 17
-18.45 -6.834 0.513 18
0.0 -0.0 3.0 0
-18.05 -6.479 0.382 21
-17.701 -6.274 0.337 33
-43.059 -15.094 -3.72 10
-44.127 -15.336 -4.151 9
-38.653 -13.338 -3.505 18
-38.208 -13.123 -3.687 48
-38.012 -13.02 -3.923 4
-35.662 -12.198 -3.762 8
-25.994 -8.9 -2.138 29
-26.983 -9.257 -2.562 24
-25.557 -8.802 -2.5 5
-25.731 -8.906 -2.783 28
-24.01 -8.365 -2.642 1
-24.289 -8.523 -2.968 3
-23.619 -8.358 -3.073 16
-22.564 -8.056 -3.071 18
-21.595 -7.785 -3.083 14
-20.685 -7.534 -3.101 13
-19.759 -7.27 -3.1 16
-19.009 -7.07 -3.146 14
-16.237 -7.587 1.662 23
-16.386 -7.443 1.553 23
-16.232 -7.174 1.475 26
-15.46 -6.65 1.465 20
-18.085 -7.58 1.11 22
-15.925 -6.509 1.256 19
-17.626 -7.031 0.984 5
-16.838 -6.566 0.992 29
-16.52 -6.303 0.952 25
-18.423 -6.89 0.627 15
-18.383 -6.748 0.544 35
0.0 -0.0 3.0 0
-18.173 -6.463 0.389 24
-17.513 -6.15 0.389 20
-43.443 -15.086 -3.717 10
-44.501 -15.321 -4.144 10
-38.733 -13.24 -3.458 4
-38.209 -13.002 -3.625 47
-38.278 -12.991 -3.907 4
-35.91 -12.172 -3.747 8
-26.096 -8.855 -2.113 30
-27.019 -9.188 -2.521 27
-25.613 -8.747 -2.466 4
-25.836 -8.869 -2.759 30
-24.39 -8.429 -2.686 13
-24.569 -8.554 -2.99 12
-23.75 -8.341 -3.06 17
-22.679 -8.038 -3.057 19
-21.709 -7.772 -3.072 15
-20.775 -7.516 -3.087 14
-19.866 -7.263 -3.094 16
-19.097 -7.058 -3.136 14
-16.549 -7.684 1.645 21
-16.348 -7.376 1.566 20
-16.211 -7.115 1.488 22
-15.424 -6.586 1.479 23
-17.036 -7.087 1.233 1
-16.095 -6.528 1.251 11
-17.285 -6.84 1.039 15
-16.75 -6.477 1.02 4
-16.54 -6.256 0.967 22
-17.078 -6.331 0.82 0
-18.36 -6.679 0.569 9
-18.328 -6.557 0.483 10
-18.138 -6.391 0.418 18
-17.608 -6.126 0.4 24
-17.905 -6.159 0.258 24
-44.891 -15.308 -4.138 6
0.0 -0.0 3.0 0
-38.25 -12.893 -3.569 45
-38.566 -12.968 -3.895 4
-36.15 -12.142 -3.73 7
-26.187 -8.806 -2.084 30
-26.568 -8.956 -2.381 26
-25.729 -8.712 -2.444 3
-25.933 -8.828 -2.733 33
-24.33 -8.341 -2.626 7
-24.62 -8.505 -2.955 34
-23.867 -8.32 -3.045 17
-22.794 -8.02 -3.044 18
-21.8 -7.75 -3.055 15
-20.862 -7.497 -3.071 13
-19.962 -7.251 -3.084 16
-19.191 -7.05 -3.128 14
-16.579 -7.648 1.651 25
-16.552 -7.419 1.558 21
-16.731 -7.291 1.45 13
-15.534 -6.585 1.48 13
-15.805 -6.525 1.373 17
-16.309 -6.563 1.242 13
-17.453 -6.85 1.036 12
-16.636 -6.38 1.05 19
-16.723 -6.271 0.962 27
-17.188 -6.315 0.825 3
-17.198 -6.199 0.744 0
-18.058 -6.401 0.543 20
-18.137 -6.331 0.442 9
-17.663 -6.086 0.417 17
-17.855 -6.084 0.291 28
-48.614 -16.42 -4.657 2
0.0 -0.0 3.0 0
-38.269 -12.778 -3.511 56
-38.84 -12.938 -3.879 4
-36.406 -12.115 -3.716 8
-26.278 -8.757 -2.056 32
-26.565 -8.876 -2.333 20
-25.856 -8.679 -2.423 3
-26.042 -8.79 -2.709 33
-24.063 -8.182 -2.519 24
-24.682 -8.459 -2.923 3
-24.009 -8.306 -3.035 16
-22.905 -8.001 -3.029 19
-21.917 -7.737 -3.045 15
-20.955 -7.48 -3.057 14
-20.054 -7.238 -3.073 15
-19.279 -7.038 -3.118 14
-16.678 -7.644 1.652 25
-17.118 -7.62 1.519 16
-16.457 -7.122 1.486 18
-16.863 -7.096 1.362 11
-15.868 -6.5 1.379 18
-16.28 -6.499 1.259 24
-16.161 -6.291 1.196 26
-16.645 -6.329 1.065 11
-16.545 -6.151 1.002 1
-17.144 -6.244 0.85 16
-17.323 -6.188 0.748 1
-18.079 -6.349 0.563 17
-18.286 -6.322 0.446 5
-17.593 -6.005 0.451 23
-17.864 -6.028 0.316 28
-49.151 -16.442 -4.667 5
0.0 -0.0 3.0 0
-38.325 -12.675 -3.458 95
-39.125 -12.91 -3.864 4
-36.65 -12.084 -3.698 7
-26.364 -8.706 -2.026 32
-26.57 -8.798 -2.286 3
-26.013 -8.657 -2.409 3
-26.184 -8.765 -2.692 36
-24.087 -8.124 -2.48 43
-24.981 -8.495 -2.948 27
-24.14 -8.288 -3.021 17
-23.016 -7.981 -3.014 19
-22.02 -7.718 -3.03 15
-21.053 -7.464 -3.044 13
-20.15 -7.225 -3.063 15
-19.356 -7.023 -3.105 13
-16.912 -7.7 1.642 19
-17.054 -7.54 1.534 24
-16.473 -7.078 1.495 24
-16.393 -6.848 1.419 4
-15.864 -6.449 1.392 34
-16.329 -6.468 1.267 20
-16.228 -6.266 1.203 23
-16.671 -6.285 1.078 29
-16.486 -6.075 1.026 16
-17.086 -6.167 0.876 24
-17.212 -6.092 0.783 31
-18.07 -6.286 0.587 12
-18.206 -6.235 0.481 0
-17.569 -5.939 0.479 20
-17.922 -5.99 0.333 20
-49.549 -16.416 -4.655 9
0.0 -0.0 3.0 0
-38.388 -12.574 -3.407 7
-38.964 -12.735 -3.772 1
-36.921 -12.059 -3.684 8
-26.612 -8.707 -2.027 45
-26.855 -8.814 -2.296 36
-26.602 -8.776 -2.484 28
-26.288 -8.725 -2.666 37
-24.171 -8.086 -2.454 20
-24.77 -8.357 -2.851 3
-24.282 -8.273 -3.011 16
-23.124 -7.959 -2.998 21
-22.126 -7.702 -3.017 15
-21.15 -7.448 -3.031 14
-20.249 -7.214 -3.053 16
-19.439 -7.009 -3.093 13
-16.942 -7.664 1.649 22
-17.037 -7.481 1.546 27
-16.433 -7.012 1.51 22
-16.239 -6.733 1.445 14
-16.052 -6.476 1.385 26
-16.792 -6.598 1.232 12
-16.228 -6.214 1.218 29
-16.672 -6.232 1.095 25
-16.385 -5.985 1.055 30
-17.127 -6.126 0.891 5
-17.265 -6.055 0.796 0
-18.56 -6.396 0.545 4
-17.843 -6.053 0.555 18
-17.593 -5.89 0.5 15
-17.845 -5.906 0.371 22
-50.023 -16.411 -4.653 9
-39.411 -12.84 -3.262 3
-38.439 -12.47 -3.354 15
-38.926 -12.601 -3.7 2
-37.166 -12.026 -3.666 7
-26.789 -8.684 -2.014 45
-27.005 -8.783 -2.278 25
-26.577 -8.691 -2.43 11
-26.423 -8.695 -2.647 40
-24.789 -8.224 -2.547 20
-25.505 -8.536 -2.977 32
-24.414 -8.255 -2.998 16
-23.261 -7.948 -2.989 17
-22.235 -7.685 -3.005 15
-21.244 -7.431 -3.017 15
-20.342 -7.2 -3.042 16
-19.52 -6.995 -3.08 14
-16.921 -7.606 1.659 18
-16.544 -7.216 1.597 27
-15.967 -6.764 1.562 20
0.0 -0.0 3.0 0
-16.029 -6.418 1.4 22
-16.429 -6.404 1.284 18
-16.51 -6.27 1.202 28
-16.78 -6.219 1.099 9
-16.374 -5.928 1.074 26
-18.484 -6.552 0.744 9
-18.192 -6.32 0.7 19
0.0 -0.0 3.0 0
-18.018 -6.053 0.554 14
-18.004 -5.969 0.466 12
-17.839 -5.846 0.397 27
-50.517 -16.411 -4.653 9
-39.478 -12.736 -3.212 20
-38.634 -12.412 -3.324 19
-39.222 -12.575 -3.686 9
-37.415 -11.992 -3.647 7
-26.916 -8.645 -1.991 38
-27.014 -8.707 -2.231 16
-27.048 -8.767 -2.478 49
-26.494 -8.644 -2.613 35
-25.114 -8.264 -2.574 29
-25.519 -8.473 -2.933 35
-24.552 -8.238 -2.985 18
-23.386 -7.932 -2.977 16
-22.348 -7.67 -2.992 16
-21.341 -7.414 -3.004 15
-20.438 -7.187 -3.03 16
-19.614 -6.985 -3.072 14
-16.82 -7.511 1.676 21
-16.391 -7.1 1.62 23
-15.988 -6.725 1.571 20
-16.954 -6.927 1.401 14
-16.169 -6.423 1.399 16
-16.525 -6.39 1.288 18
-16.871 -6.354 1.178 22
-16.765 -6.16 1.117 12
-16.418 -5.892 1.086 26
-18.373 -6.453 0.778 10
-18.307 -6.3 0.707 29
0.0 -0.0 3.0 0
-17.895 -5.954 0.594 18
-18.02 -5.916 0.489 22
-17.844 -5.79 0.422 19
-51.014 -16.409 -4.652 9
-39.684 -12.676 -3.182 18
-38.854 -12.36 -3.298 24
-39.533 -12.553 -3.675 3
-37.686 -11.964 -3.632 7
-26.785 -8.523 -1.921 36
-27.003 -8.624 -2.182 36
-26.876 -8.634 -2.395 45
-26.617 -8.61 -2.591 36
-25.131 -8.201 -2.531 14
-25.63 -8.442 -2.911 41
-24.698 -8.223 -2.975 18
-23.498 -7.911 -2.961 15
-22.447 -7.649 -2.976 15
-21.442 -7.398 -2.991 16
-20.53 -7.172 -3.018 16
-19.698 -6.972 -3.06 15
-16.9 -7.498 1.678 17
-16.508 -7.102 1.619 17
-16.48 -6.883 1.537 20
-16.123 -6.538 1.491 24
-16.38 -6.457 1.39 20
-16.465 -6.315 1.308 12
-17.062 -6.371 1.173 18
-17.408 -6.341 1.061 7
-16.564 -5.891 1.086 26
-17.467 -6.078 0.907 19
-18.673 -6.366 0.683 22
0.0 -0.0 3.0 0
-17.997 -5.93 0.604 12
-18.104 -5.885 0.502 20
-17.849 -5.734 0.447 11
-51.513 -16.404 -4.649 7
-39.894 -12.617 -3.154 13
-39.112 -12.32 -3.277 21
-40.531 -12.744 -3.776 3
-37.928 -11.925 -3.61 7
-26.808 -8.45 -1.879 46
-26.879 -8.505 -2.111 22
-26.584 -8.465 -2.289 47
-26.803 -8.596 -2.582 41
-25.189 -8.151 -2.498 19
-25.658 -8.384 -2.87 29
-24.844 -8.208 -2.964 18
-23.623 -7.894 -2.949 14
-22.553 -7.63 -2.962 15
-21.55 -7.386 -2.981 14
-20.64 -7.164 -3.012 15
-19.785 -6.959 -3.049 14
-17.335 -7.641 1.653 28
-16.61 -7.099 1.62 19
-16.591 -6.88 1.538 19
-16.171 -6.509 1.497 19
-16.387 -6.41 1.402 23
-16.714 -6.359 1.296 21
-16.707 -6.187 1.226 14
-17.434 -6.296 1.075 7
-16.649 -5.868 1.093 28
-17.264 -5.952 0.95 30
-18.686 -6.311 0.703 17
-88.256 -29.271 -8.236 8
-17.968 -5.862 0.632 4
-18.249 -5.873 0.507 3
-57.949 -18.43 -5.206 9
-52.041 -16.406 -4.65 6
-40.184 -12.581 -3.136 9
-39.408 -12.29 -3.262 16
-40.881 -12.728 -3.768 2
-38.196 -11.893 -3.593 7
-26.912 -8.403 -1.851 48
-26.897 -8.433 -2.067 8
-26.621 -8.4 -2.249 55
-26.878 -8.544 -2.549 66
-25.396 -8.149 -2.497 23
-25.623 -8.305 -2.815 33
-24.979 -8.189 -2.95 18
-23.745 -7.877 -2.935 15
-22.662 -7.613 -2.948 14
-21.658 -7.372 -2.97 14
-20.732 -7.15 -2.999 16
-19.858 -6.941 -3.033 20
-17.123 -7.498 1.678 17
-17.179 -7.291 1.583 24
-16.502 -6.794 1.556 21
-16.203 -6.473 1.506 20
-16.653 -6.463 1.389 9
-16.695 -6.3 1.312 27
-17.308 -6.356 1.178 85
-17.382 -6.222 1.098 17
-16.634 -5.81 1.112 18
-16.327 -5.577 1.08 17
-18.676 -6.248 0.726 6
0.0 -0.0 3.0 0
-17.973 -5.805 0.655 8
-18.22 -5.805 0.536 0
-58.454 -18.403 -5.194 7
-52.597 -16.414 -4.654 5
-40.504 -12.553 -3.123 5
-39.734 -12.267 -3.25 14
-41.201 -12.702 -3.754 3
-38.445 -11.855 -3.571 7
-26.994 -8.349 -1.82 24
-26.866 -8.346 -2.015 36
-26.71 -8.353 -2.219 47
-26.926 -8.485 -2.51 36
-25.469 -8.104 -2.466 25
0.0 -0.0 3.0 0
-25.118 -8.17 -2.936 19
-23.875 -7.86 -2.923 16
-22.783 -7.599 -2.937 15
-21.769 -7.36 -2.96 14
-20.842 -7.141 -2.992 15
-19.974 -6.939 -3.032 13
-17.398 -7.569 1.665 29
-17.142 -7.226 1.595 25
-16.132 -6.595 1.598 16
-16.58 -6.574 1.482 22
-16.273 -6.266 1.438 15
-16.709 -6.255 1.324 27
-17.39 -6.332 1.184 12
-16.913 -6.001 1.165 4
-16.723 -5.788 1.119 21
-16.405 -5.552 1.088 19
-18.9 -6.261 0.721 3
-19.004 -6.18 0.628 8
-18.0 -5.756 0.674 0
0.0 -0.0 3.0 0
-59.176 -18.441 -5.211 3
-53.15 -16.417 -4.655 5
-48.421 -14.854 -4.245 4
-40.027 -12.233 -3.233 7
-41.529 -12.675 -3.739 3
-38.739 -11.829 -3.557 6
-36.304 -11.12 -3.42 10
-26.831 -8.257 -1.961 44
-26.836 -8.316 -2.196 65
-27.034 -8.445 -2.485 34
-25.578 -8.07 -2.443 21
-26.339 -8.399 -2.881 38
-25.256 -8.151 -2.922 19
-24.015 -7.848 -2.914 14
-22.9 -7.584 -2.925 15
-21.874 -7.345 -2.948 15
-20.938 -7.127 -2.98 16
-20.072 -6.929 -3.023 14
-17.105 -7.393 1.696 7
-17.219 -7.21 1.599 21
-16.411 -6.661 1.584 13
-16.208 -6.379 1.527 17
-16.238 -6.205 1.453 13
-16.734 -6.213 1.335 23
-16.574 -5.983 1.284 1
-16.762 -5.895 1.198 25
-16.985 -5.825 1.107 16
-16.419 -5.504 1.105 26
-21.103 -6.924 0.48 29
-19.013 -6.122 0.65 20
-77.726 -24.606 -6.941 6
0.0 -0.0 3.0 0
-18.07 -5.574 0.518 2
-53.832 -16.457 -4.674 11
-48.837 -14.828 -4.232 15
-40.346 -12.205 -3.219 3
-41.842 -12.642 -3.722 2
-39.007 -11.793 -3.537 7
-36.539 -11.084 -3.399 9
-26.988 -8.227 -1.943 48
-26.91 -8.263 -2.163 44
-27.152 -8.408 -2.46 28
-25.707 -8.042 -2.424 24
-26.49 -8.378 -2.867 26
-25.391 -8.131 -2.908 18
-24.163 -7.837 -2.906 16
-23.017 -7.568 -2.913 15
-21.971 -7.327 -2.933 15
-21.034 -7.113 -2.969 16
-20.159 -6.916 -3.012 10
-17.141 -7.361 1.702 30
-15.863 -6.596 1.718 0
-17.671 -7.121 1.486 20
-16.251 -6.348 1.534 21
-16.345 -6.195 1.455 22
-16.715 -6.154 1.351 19
-16.471 -5.895 1.31 26
-16.742 -5.836 1.216 28
-16.996 -5.775 1.124 24
-16.451 -5.462 1.119 24
-18.993 -6.171 0.754 9
-18.98 -6.05 0.677 13
0.0 -0.0 3.0 0
-20.997 -6.487 0.246 7
-18.066 -5.514 0.545 22
-54.283 -16.423 -4.658 15
-49.256 -14.801 -4.219 12
-40.737 -12.197 -3.215 2
-41.53 -12.422 -3.605 3
-39.283 -11.759 -3.518 6
-36.774 -11.047 -3.378 9
-27.081 -8.178 -1.914 25
-27.048 -8.229 -2.142 6
-27.271 -8.37 -2.436 28
-25.854 -8.019 -2.409 13
-26.193 -8.217 -2.753 24
-25.526 -8.111 -2.893 17
-24.3 -7.822 -2.894 16
-23.133 -7.552 -2.901 15
-22.071 -7.31 -2.919 17
-21.129 -7.098 -2.956 16
-20.246 -6.903 -3.001 10
-17.339 -7.397 1.696 34
-15.954 -6.588 1.719 4
-17.76 -7.105 1.49 21
-16.457 -6.38 1.527 48
-16.351 -6.149 1.467 28
-16.691 -6.095 1.367 17
-16.481 -5.848 1.323 15
-16.749 -5.786 1.231 19
-17.153 -5.775 1.123 20
-16.476 -5.418 1.134 20
-19.009 -6.116 0.774 10
-19.022 -6.003 0.696 7
0.0 -0.0 3.0 0
-20.92 -6.396 0.285 32
-18.058 -5.455 0.571 22
-54.868 -16.427 -4.66 17
-49.74 -14.791 -4.214 14
0.0 -0.0 3.0 0
0.0 -0.0 3.0 0
-39.582 -11.729 -3.502 7
-37.006 -11.009 -3.356 9
-27.237 -8.146 -1.895 21
-27.185 -8.195 -2.121 4
-27.379 -8.328 -2.408 37
-25.877 -7.958 -2.368 13
-26.018 -8.095 -2.668 31
-25.706 -8.103 -2.887 18
-24.437 -7.807 -2.883 16
-23.254 -7.537 -2.889 16
-22.183 -7.297 -2.909 15
-21.225 -7.084 -2.944 16
-20.329 -6.888 -2.988 11
-17.618 -7.467 1.683 28
-16.048 -6.582 1.721 0
-16.355 -6.497 1.619 16
-16.162 -6.219 1.564 18
-16.297 -6.081 1.484 23
-16.588 -6.008 1.39 24
-16.55 -5.823 1.33 18
-16.777 -5.744 1.244 13
-17.276 -5.762 1.128 16
-16.5 -5.375 1.149 25
-16.377 -5.217 1.101 0
-19.004 -5.937 0.721 2
-20.824 -6.392 0.417 1
-20.904 -6.325 0.315 23
-18.092 -5.408 0.592 14
-55.491 -16.438 -4.665 18
-50.24 -14.782 -4.21 14
0.0 -0.0 3.0 0
-42.007 -12.308 -3.544 24
-39.865 -11.694 -3.482 7
-37.245 -10.971 -3.334 8
-27.398 -8.116 -1.877 18
-27.251 -8.139 -2.086 9
-27.49 -8.287 -2.382 37
-26.001 -7.928 -2.347 25
-26.042 -8.036 -2.627 26
-25.855 -8.086 -2.875 20
-24.548 -7.784 -2.865 19
-23.367 -7.519 -2.875 12
-22.294 -7.283 -2.898 15
-21.328 -7.072 -2.934 15
-20.427 -6.878 -2.979 16
-17.286 -7.279 1.717 22
-17.287 -7.042 1.631 21
-16.049 -6.329 1.655 16
-16.182 -6.179 1.573 26
-16.246 -6.014 1.501 21
-16.684 -5.992 1.394 19
-16.469 -5.744 1.353 24
-16.764 -5.688 1.261 23
-17.453 -5.767 1.126 15
-17.051 -5.5 1.106 27
-19.048 -6.008 0.813 22
-20.216 -6.252 0.6 12
-20.534 -6.238 0.48 21
-20.815 -6.232 0.355 29
-62.762 -18.56 -5.264 3
-56.103 -16.443 -4.668 16
-50.726 -14.767 -4.202 17
-41.716 -12.104 -3.167 4
-43.255 -12.543 -3.669 2
-40.179 -11.667 -3.467 7
-37.503 -10.937 -3.315 9
-27.6 -8.097 -1.865 12
-28.401 -8.403 -2.251 1
-27.616 -8.251 -2.358 35
-26.163 -7.908 -2.334 21
-26.166 -8.007 -2.607 25
-25.975 -8.059 -2.855 23
-24.67 -7.763 -2.85 20
-23.487 -7.504 -2.862 16
-22.409 -7.271 -2.888 15
-21.438 -7.063 -2.926 16
-20.528 -6.87 -2.972 14
-17.304 -7.239 1.724 19
-17.375 -7.029 1.634 2
-16.095 -6.301 1.661 26
-16.09 -6.097 1.592 29
-16.188 -5.945 1.518 27
-16.648 -5.93 1.411 15
-16.753 -5.792 1.339 15
-16.762 -5.636 1.277 25
-16.997 -5.564 1.192 20
-17.121 -5.469 1.117 26
-19.154 -5.981 0.823 15
-20.198 -6.182 0.627 31
-20.345 -6.116 0.529 19
-20.775 -6.154 0.388 20
0.0 -0.0 3.0 0
-56.739 -16.45 -4.671 17
-51.234 -14.755 -4.197 16
-47.084 -13.517 -3.887 3
-43.615 -12.515 -3.655 5
-40.475 -11.633 -3.448 7
-37.799 -10.914 -3.301 14
-27.821 -8.083 -1.857 10
-28.403 -8.325 -2.202 5
-27.738 -8.212 -2.333 35
-26.254 -7.866 -2.306 21
-26.305 -7.982 -2.589 25
-26.114 -8.038 -2.84 25
-24.796 -7.744 -2.835 20
-23.604 -7.487 -2.849 15
-22.517 -7.256 -2.875 15
-21.537 -7.049 -2.915 15
-20.608 -6.853 -2.957 15
-17.339 -7.206 1.729 13
-17.329 -6.962 1.647 1
-16.572 -6.441 1.631 23
-16.125 -6.064 1.6 17
-16.271 -5.927 1.522 21
-16.969 -5.994 1.394 16
-16.732 -5.735 1.356 23
-16.786 -5.593 1.29 12
-16.995 -5.51 1.21 17
-17.26 -5.46 1.12 25
-17.152 -5.302 1.07 2
-20.157 -6.106 0.656 30
-20.415 -6.073 0.546 19
-20.456 -5.995 0.455 14
-64.272 -18.601 -5.282 6
-57.288 -16.43 -4.662 14
-51.712 -14.732 -4.186 14
-47.41 -13.465 -3.861 5
-43.951 -12.479 -3.635 8
-40.778 -11.599 -3.429 7
-38.015 -10.866 -3.273 11
-35.611 -10.246 -3.156 6
-28.496 -8.274 -2.17 4
-27.861 -8.174 -2.308 35
-26.356 -7.829 -2.281 26
-26.395 -7.943 -2.562 20
-26.248 -8.015 -2.824 24
-24.929 -7.726 -2.822 20
-23.72 -7.469 -2.835 15
-22.625 -7.24 -2.863 14
-21.65 -7.04 -2.907 16
-20.698 -6.841 -2.947 14
-18.006 -7.434 1.689 25
-18.291 -7.298 1.581 20
-16.48 -6.359 1.648 0
-16.204 -6.047 1.604 36
-16.205 -5.855 1.54 26
-16.956 -5.939 1.409 18
-16.662 -5.66 1.377 17
-16.78 -5.539 1.306 21
-16.929 -5.437 1.233 5
-17.235 -5.399 1.141 25
-17.047 -5.216 1.102 21
-18.909 -5.668 0.824 21
-19.959 -5.873 0.627 47
-20.61 -5.975 0.464 24
-65.023 -18.612 -5.287 3
-57.913 -16.429 -4.661 12
-52.233 -14.719 -4.179 13
-47.838 -13.44 -3.848 6
-44.201 -12.417 -3.602 7
-41.088 -11.565 -3.411 6
-37.885 -10.719 -3.189 14
-35.818 -10.203 -3.131 7
0.0 -0.0 3.0 0
-27.99 -8.137 -2.284 35
-26.472 -7.794 -2.257 24
-26.436 -7.89 -2.524 27
-26.372 -7.989 -2.804 26
-25.08 -7.714 -2.813 17
-23.844 -7.454 -2.823 16
-22.751 -7.231 -2.855 15
-21.753 -7.027 -2.896 13
-20.785 -6.827 -2.934 16
-17.152 -7.035 1.759 2
-18.301 -7.252 1.59 22
-17.833 -6.831 1.548 19
-16.104 -5.964 1.623 28
-16.205 -5.809 1.552 20
-16.859 -5.856 1.431 19
-16.403 -5.523 1.416 19
-16.729 -5.472 1.327 17
-16.82 -5.35 1.262 16
-17.187 -5.33 1.165 16
-16.98 -5.142 1.129 28
-18.863 -5.595 0.852 32
-19.692 -5.733 0.684 31
-20.676 -5.929 0.483 16
-65.843 -18.64 -5.299 3
-58.727 -16.476 -4.683 3
-52.777 -14.709 -4.174 4
-48.24 -13.406 -3.831 18
-44.607 -12.396 -3.591 4
-41.403 -11.532 -3.392 7
-37.793 -10.584 -3.111 14
-36.065 -10.173 -3.113 7
-28.056 -7.992 -1.994 1
-28.124 -8.1 -2.26 35
-26.649 -7.778 -2.246 25
-26.56 -7.86 -2.503 21
-26.488 -7.96 -2.783 21
-25.209 -7.695 -2.799 16
-23.961 -7.436 -2.81 15
-22.873 -7.22 -2.847 13
-21.855 -7.014 -2.886 13
-20.886 -6.818 -2.926 15
-16.994 -6.925 1.779 22
-18.408 -7.244 1.592 19
-17.862 -6.792 1.556 20
-16.082 -5.91 1.636 23
-16.15 -5.743 1.568 18
-16.966 -5.843 1.435 18
-16.487 -5.502 1.422 16
-16.703 -5.412 1.345 23
-16.886 -5.32 1.272 21
-17.242 -5.293 1.177 7
-17.016 -5.1 1.144 21
-18.942 -5.559 0.866 22
-19.734 -5.683 0.704 25
-20.753 -5.886 0.502 10
0.0 -0.0 3.0 0
-59.388 -16.476 -4.683 3
-53.398 -14.718 -4.178 5
-48.646 -13.37 -3.812 20
-44.959 -12.36 -3.572 4
-41.741 -11.503 -3.376 6
-37.94 -10.516 -3.071 10
-36.321 -10.143 -3.094 7
-28.041 -7.911 -1.943 17
-28.257 -8.064 -2.237 34
-26.826 -7.76 -2.234 25
-27.064 -7.941 -2.56 11
-26.615 -7.934 -2.764 24
-25.339 -7.675 -2.784 13
-24.081 -7.419 -2.797 17
-22.985 -7.205 -2.834 14
-21.954 -7.0 -2.874 11
-20.972 -6.804 -2.914 15
-16.981 -6.875 1.788 17
-18.325 -7.162 1.608 22
-17.894 -6.755 1.564 18
-16.195 -5.906 1.637 21
-16.304 -5.75 1.566 16
-16.941 -5.784 1.45 9
-16.393 -5.422 1.445 23
-16.992 -5.455 1.332 17
-16.875 -5.265 1.289 19
-16.805 -5.108 1.241 14
-17.15 -5.086 1.149 22
-19.04 -5.528 0.878 18
-19.99 -5.694 0.699 18
-20.735 -5.815 0.532 2
0.0 -0.0 3.0 0
-60.095 -16.486 -4.687 4
-53.95 -14.704 -4.172 4
-49.075 -13.339 -3.796 18
-45.312 -12.321 -3.551 4
-42.063 -11.469 -3.357 7
-38.061 -10.44 -3.028 20
-36.588 -10.115 -3.078 31
-34.359 -9.6 -2.999 6
-28.367 -8.02 -2.208 1
-26.927 -7.72 -2.207 28
-27.011 -7.858 -2.502 11
-26.719 -7.9 -2.74 35
-25.483 -7.66 -2.772 16
-24.231 -7.411 -2.79 13
-23.115 -7.196 -2.827 14
-22.083 -6.995 -2.87 16
-21.077 -6.796 -2.908 14
-16.993 -6.835 1.795 17
-17.595 -6.829 1.673 1
-17.653 -6.615 1.594 19
-16.289 -5.895 1.639 21
-16.775 -5.869 1.537 30
-16.84 -5.701 1.472 23
-16.544 -5.423 1.445 16
-16.496 -5.246 1.396 49
-16.769 -5.181 1.317 12
-16.848 -5.069 1.255 8
-17.285 -5.073 1.154 14
-19.066 -5.476 0.898 21
-19.76 -5.567 0.751 24
-20.345 -5.642 0.605 9
0.0 -0.0 3.0 0
-60.792 -16.488 -4.688 4
-54.53 -14.694 -4.167 5
-49.52 -13.309 -3.781 19
-45.684 -12.286 -3.532 4
-42.421 -11.443 -3.343 6
-38.368 -10.415 -3.013 15
-36.733 -10.053 -3.041 33
-34.567 -9.564 -2.976 7
-32.53 -9.111 -2.917 5
-27.029 -7.68 -2.18 30
-26.935 -7.77 -2.441 23
-26.861 -7.878 -2.724 30
-25.634 -7.646 -2.762 12
-24.377 -7.402 -2.783 16
-23.237 -7.184 -2.817 14
-22.192 -6.984 -2.86 15
-21.164 -6.781 -2.895 15
-18.432 -7.365 1.701 22
-17.563 -6.77 1.684 20
-17.535 -6.523 1.613 19
-16.469 -5.914 1.635 25
-16.764 -5.817 1.55 13
-16.859 -5.659 1.484 21
-16.34 -5.308 1.478 52
-16.298 -5.135 1.43 21
-16.876 -5.163 1.323 7
-16.795 -5.002 1.278 8
-17.61 -5.114 1.139 1
-19.126 -5.434 0.914 14
-19.556 -5.448 0.799 28
-20.433 -5.603 0.622 3
-69.541 -18.818 -5.378 10
-61.478 -16.483 -4.686 3
-55.187 -14.701 -4.17 7
-49.976 -13.281 -3.767 19
-46.079 -12.255 -3.516 4
-42.774 -11.412 -3.326 6
-38.522 -10.346 -2.973 24
-36.993 -10.021 -3.021 10
-34.786 -9.53 -2.955 6
-32.762 -9.091 -2.903 4
-27.338 -7.698 -2.192 29
-27.153 -7.766 -2.438 7
-26.977 -7.848 -2.702 40
-25.794 -7.634 -2.753 14
-24.516 -7.39 -2.773 13
-23.367 -7.174 -2.809 14
-22.302 -6.973 -2.851 15
-21.268 -6.773 -2.887 15
-18.472 -7.334 1.707 22
-17.549 -6.717 1.694 17
-17.573 -6.489 1.621 13
0.0 -0.0 3.0 0
-16.757 -5.768 1.562 23
-16.916 -5.63 1.492 8
-16.169 -5.206 1.507 23
-16.264 -5.076 1.448 24
-17.948 -5.437 1.234 16
-16.623 -4.899 1.313 13
-19.493 -5.601 0.962 15
-19.274 -5.416 0.921 25
-19.609 -5.402 0.817 21
-21.837 -5.919 0.488 15
-70.297 -18.803 -5.372 13
0.0 -0.0 3.0 0
-55.795 -14.692 -4.166 8
-50.46 -13.257 -3.755 18
-46.448 -12.215 -3.495 4
-43.128 -11.381 -3.309 6
-38.584 -10.254 -2.92 17
-37.317 -10.005 -3.011 11
-34.993 -9.492 -2.932 7
-32.959 -9.059 -2.883 4
-27.394 -7.645 -2.156 26
-27.227 -7.72 -2.406 27
-27.115 -7.824 -2.685 35
-25.949 -7.621 -2.743 16
-24.647 -7.375 -2.762 13
-23.496 -7.164 -2.801 20
-22.393 -6.955 -2.836 16
-21.358 -6.76 -2.876 15
-18.477 -7.288 1.715 18
-17.405 -6.616 1.714 23
-17.492 -6.412 1.637 15
-17.545 -6.203 1.568 22
-16.682 -5.694 1.58 27
-16.674 -5.501 1.526 5
-15.952 -5.089 1.541 24
-16.305 -5.04 1.459 22
-18.174 -5.45 1.229 11
-16.619 -4.848 1.331 19
-19.595 -5.569 0.973 16
-19.46 -5.408 0.924 27
-19.562 -5.328 0.848 21
-19.798 -5.305 0.748 0
0.0 -0.0 3.0 0
0.0 -0.0 3.0 0
-56.376 -14.673 -4.156 8
-50.94 -13.23 -3.741 17
-46.851 -12.182 -3.477 5
-43.493 -11.351 -3.292 7
-38.7 -10.174 -2.874 9
-37.558 -9.966 -2.988 11
-35.212 -9.457 -2.909 7
-33.168 -9.03 -2.864 5
-27.567 -7.623 -2.142 22
-27.676 -7.781 -2.448 13
-27.272 -7.805 -2.671 38
-26.112 -7.61 -2.734 14
-24.782 -7.361 -2.751 13
-23.615 -7.151 -2.791 13
-22.503 -6.944 -2.827 16
-21.452 -6.747 -2.865 15
-34.568 -13.545 0.612 7
-17.439 -6.583 1.72 3
-17.511 -6.373 1.645 14
-17.846 -6.262 1.554 18
-16.678 -5.646 1.592 20
-16.466 -5.385 1.557 14
-15.929 -5.035 1.556 21
-16.69 -5.11 1.438 21
-20.993 -6.232 0.975 19
-16.653 -4.807 1.345 9
-19.655 -5.527 0.988 26
-19.696 -5.413 0.922 2
-19.644 -5.289 0.863 22
-19.735 -5.227 0.781 3
0.0 -0.0 3.0 0
-63.797 -16.514 -4.701 7
-56.923 -14.642 -4.141 6
-51.428 -13.201 -3.726 21
-47.254 -12.147 -3.459 5
-43.824 -11.31 -3.269 7
-38.881 -10.112 -2.838 2
-37.767 -9.917 -2.959 12
-35.443 -9.425 -2.889 8
-31.199 -8.413 -2.463 25
-27.782 -7.613 -2.135 12
-27.337 -7.619 -2.335 29
-27.413 -7.782 -2.654 34
-26.248 -7.591 -2.72 13
-24.917 -7.347 -2.74 12
-23.744 -7.14 -2.782 13
-22.601 -6.929 -2.814 8
-21.552 -6.737 -2.856 14
-34.755 -13.53 0.614 12
-19.031 -7.134 1.613 0
-17.489 -6.319 1.657 14
-17.629 -6.137 1.583 1
-16.745 -5.623 1.598 21
-16.503 -5.351 1.566 8
-15.97 -5.002 1.566 19
-16.586 -5.029 1.462 23
-20.985 -6.167 0.996 22
-16.645 -4.754 1.363 8
-19.699 -5.478 1.006 12
-20.57 -5.59 0.854 17
-19.773 -5.263 0.874 1
-19.53 -5.112 0.83 0
0.0 -0.0 3.0 0
0.0 -0.0 3.0 0
-57.616 -14.645 -4.143 4
-51.836 -13.151 -3.701 10
-47.646 -12.108 -3.438 10
-44.162 -11.27 -3.247 6
-39.87 -10.257 -2.922 12
-37.878 -9.842 -2.914 20
-35.658 -9.387 -2.865 8
-31.242 -8.344 -2.419 16
-27.905 -7.578 -2.111 21
-27.339 -7.553 -2.289 38
-27.574 -7.763 -2.64 38
-26.403 -7.576 -2.709 14
-25.052 -7.333 -2.729 13
-23.874 -7.13 -2.774 14
-22.726 -6.922 -2.808 14
-21.649 -6.726 -2.847 17
-35.851 -13.865 0.555 29
-38.264 -14.246 0.231 28
-17.497 -6.275 1.666 17
-18.794 -6.492 1.501 19
-16.772 -5.585 1.607 25
-17.641 -5.669 1.481 23
-16.612 -5.156 1.522 22
-16.551 -4.97 1.481 15
-20.667 -6.012 1.046 22
-18.553 -5.243 1.195 2
-121.606 -33.449 -9.174 30
-20.562 -5.524 0.88 24
-20.664 -5.436 0.804 22
0.0 -0.0 3.0 0
0.0 -0.0 3.0 0
-65.135 -16.46 -4.676 4
-58.299 -14.641 -4.141 3
-52.467 -13.153 -3.702 4
-38.554 -9.684 -2.149 6
-38.659 -9.755 -2.407 2
-37.975 -9.662 -2.578 6
-37.961 -9.76 -2.864 15
-35.876 -9.349 -2.842 7
-33.788 -8.937 -2.803 5
-28.109 -7.563 -2.101 9
-27.553 -7.546 -2.284 25
-27.625 -7.714 -2.604 40
-26.551 -7.56 -2.697 17
-25.19 -7.319 -2.718 13
-23.97 -7.109 -2.757 13
-22.835 -6.91 -2.798 15
-21.732 -6.71 -2.833 15
-35.896 -13.793 0.568 49
-38.447 -14.215 0.237 27
-17.415 -6.2 1.682 23
-17.554 -6.016 1.611 40
-16.968 -5.605 1.603 45
-17.634 -5.618 1.495 26
-16.714 -5.139 1.526 5
-16.546 -4.921 1.496 11
-20.761 -5.978 1.057 21
-19.939 -5.575 1.08 19
-121.727 -33.112 -9.052 57
-20.61 -5.473 0.899 16
-20.69 -5.379 0.827 23
-83.875 -21.435 -6.099 5
0.0 -0.0 3.0 0
0.0 -0.0 3.0 0
-58.959 -14.628 -4.134 4
-38.589 -9.558 -1.87 4
-38.63 -9.589 -2.098 255
-44.886 -11.197 -3.207 6
-40.593 -10.214 -2.897 11
-38.059 -9.682 -2.817 12
-36.118 -9.317 -2.822 9
-33.989 -8.903 -2.782 5
-28.13 -7.499 -2.058 2
-27.569 -7.485 -2.241 28
-27.744 -7.683 -2.582 31
-26.684 -7.538 -2.681 14
-25.329 -7.306 -2.708 17
-24.088 -7.095 -2.745 14
-22.926 -6.892 -2.783 15
-21.836 -6.701 -2.825 16
-35.856 -13.688 0.586 51
-17.462 -6.412 1.754 2
-17.524 -6.192 1.684 26
-17.406 -5.919 1.633 18
-17.077 -5.594 1.605 67
-18.211 -5.751 1.459 20
-17.609 -5.364 1.462 19
-16.587 -4.884 1.507 3
-19.748 -5.628 1.171 6
-19.883 -5.499 1.107 17
-121.82 -32.767 -8.926 66
-20.697 -5.433 0.914 17
-20.746 -5.33 0.847 1
-83.805 -21.159 -5.981 20
0.0 -0.0 3.0 0
-66.873 -16.489 -4.689 3
-59.65 -14.619 -4.13 4
-38.614 -9.45 -1.815 24
-38.602 -9.469 -2.035 255
-45.225 -11.151 -3.181 6
-38.633 -9.613 -2.55 4
-38.399 -9.663 -2.806 26
-36.352 -9.281 -2.8 8
-34.183 -8.867 -2.758 4
-30.62 -8.087 -2.454 1
-27.779 -7.476 -2.235 24
-27.851 -7.649 -2.557 37
-26.846 -7.525 -2.671 14
-25.456 -7.289 -2.695 21
-24.195 -7.077 -2.731 10
-23.028 -6.878 -2.771 15
-21.933 -6.689 -2.815 15
-35.136 -13.326 0.65 10
-17.485 -6.376 1.761 17
-17.504 -6.14 1.695 26
-17.387 -5.867 1.646 26
-16.769 -5.447 1.642 1
-18.345 -5.742 1.461 20
-17.582 -5.307 1.478 26
-17.707 -5.163 1.421 16
-19.665 -5.547 1.198 6
-20.08 -5.494 1.108 16
-121.919 -32.425 -8.802 67
-20.688 -5.368 0.94 23
-97.798 -24.823 -7.029 28
-83.934 -20.933 -5.885 30
0.0 -0.0 3.0 0
0.0 -0.0 3.0 0
-60.234 -14.58 -4.111 3
-38.651 -9.344 -1.761 255
-38.577 -9.35 -1.971 255
-45.58 -11.108 -3.157 6
-38.366 -9.439 -2.45 4
-38.758 -9.649 -2.798 23
-36.56 -9.238 -2.772 7
-34.407 -8.837 -2.739 4
-31.424 -8.222 -2.546 12
-27.78 -7.41 -2.189 27
-28.064 -7.643 -2.553 38
-26.99 -7.507 -2.657 14
-25.583 -7.272 -2.681 19
-24.332 -7.068 -2.723 10
-23.129 -6.863 -2.759 14
-22.022 -6.675 -2.803 16
-34.983 -13.182 0.676 22
-17.473 -6.328 1.77 1
-17.613 -6.133 1.696 26
-17.629 -5.901 1.638 32
-16.798 -5.411 1.651 1
-18.501 -5.74 1.462 22
-17.616 -5.267 1.49 25
-17.737 -5.121 1.434 22
-19.981 -5.578 1.188 18
-20.155 -5.454 1.122 20
-121.875 -32.045 -8.664 56
-20.686 -5.304 0.964 16
-114.533 -28.72 -8.604 10
-84.174 -20.734 -5.801 13
0.0 -0.0 3.0 0
0.0 -0.0 3.0 0
-60.965 -14.573 -4.107 3
-38.621 -9.221 -1.699 255
-38.594 -9.241 -1.914 255
-45.973 -11.072 -3.138 6
-38.283 -9.312 -2.376 9
-38.914 -9.582 -2.758 21
-36.802 -9.202 -2.75 7
-34.6 -8.799 -2.714 4
-31.412 -8.143 -2.492 33
-27.982 -7.399 -2.181 23
-28.464 -7.688 -2.586 29
-27.126 -7.485 -2.641 13
-25.74 -7.262 -2.674 19
-24.45 -7.053 -2.711 15
-23.239 -6.851 -2.749 14
-22.133 -6.669 -2.797 17
-35.247 -13.196 0.673 40
-36.402 -13.092 0.455 5
-17.496 -6.048 1.715 20
-18.041 -5.992 1.617 5
-17.489 -5.587 1.607 22
-18.501 -5.69 1.475 19
-17.756 -5.259 1.492 20
-17.74 -5.071 1.45 10
-19.906 -5.498 1.214 25
-19.994 -5.352 1.157 12
-19.847 -5.159 1.122 2
-20.711 -5.248 0.986 15
-114.926 -28.466 -8.501 13
-84.495 -20.554 -5.725 14
0.0 -0.0 3.0 0
0.0 -0.0 3.0 0
-61.743 -14.572 -4.107 3
-38.599 -9.101 -1.637 255
-38.638 -9.138 -1.859 3
-46.327 -11.026 -3.112 6
-41.868 -10.068 -2.813 9
-38.869 -9.466 -2.688 12
-37.032 -9.163 -2.726 6
-34.828 -8.769 -2.695 5
-31.431 -8.071 -2.444 3
-28.078 -7.359 -2.153 28
-28.381 -7.602 -2.523 32
-27.285 -7.47 -2.629 13
-25.901 -7.253 -2.667 19
-24.56 -7.037 -2.698 15
-23.351 -6.839 -2.739 14
-22.234 -6.658 -2.788 12
-35.425 -13.177 0.677 40
-36.514 -13.042 0.465 10
-17.223 -5.91 1.744 17
-17.695 -5.831 1.654 19
-16.799 -5.322 1.673 1
-18.814 -5.734 1.464 22
-18.142 -5.323 1.474 21
-19.063 -5.395 1.351 5
-19.86 -5.427 1.237 23
0.0 -0.0 3.0 0
-19.855 -5.102 1.143 22
-20.728 -5.189 1.008 11
0.0 -0.0 3.0 0
-84.832 -20.376 -5.649 11
0.0 -0.0 3.0 0
0.0 -0.0 3.0 0
-62.432 -14.547 -4.095 4
-38.577 -8.982 -1.576 255
-50.696 -11.844 -3.297 16
-46.709 -10.984 -3.089 6
-42.195 -10.03 -2.791 10
-39.529 -9.521 -2.721 16
-37.308 -9.134 -2.708 11
-35.026 -8.731 -2.67 5
-32.91 -8.371 -2.647 4
-28.067 -7.291 -2.105 9
-28.473 -7.563 -2.495 24
-27.433 -7.451 -2.615 13
-26.065 -7.246 -2.662 13
-24.674 -7.02 -2.685 14
-23.453 -6.825 -2.727 14
-22.349 -6.652 -2.783 12
-35.637 -13.171 0.678 41
-36.762 -13.039 0.465 9
-17.207 -5.861 1.754 15
-17.414 -5.694 1.685 20
-17.711 -5.563 1.613 11
-19.508 -5.893 1.421 19
-18.191 -5.287 1.484 17
