# .PCD v0.7 - Point Cloud Data file format
VERSION 0.7
FIELDS x y z intensity
SIZE 4 4 4 4
TYPE F F F F
COUNT 1 1 1 1
WIDTH 2039
HEIGHT 1
VIEWPOINT 0 0 0 1 0 0 0
POINTS 2039
DATA ascii
-9.498 -10.705 0.132 255
-9.498 -10.602 -0.04 255
-9.495 -10.501 -0.21 255
-9.491 -10.396 -0.378 255
-20.46 -22.211 -4.648 3
-19.685 -21.169 -4.705 24
-19.059 -20.327 -4.803 24
-16.885 -17.851 -4.212 1
0.0 -0.0 3.0 0
-16.997 -17.674 -4.869 35
-16.302 -16.817 -4.842 7
-15.629 -15.994 -4.801 8
-15.041 -15.277 -4.784 7
-14.492 -14.61 -4.768 7
-14.002 -14.01 -4.766 7
-13.526 -13.437 -4.758 7
-13.075 -12.895 -4.748 9
-12.657 -12.397 -4.746 33
-12.275 -11.938 -4.753 8
-11.902 -11.498 -4.755 9
-11.553 -11.084 -4.761 9
-11.208 -10.683 -4.762 10
-10.895 -10.314 -4.772 37
-9.317 -8.763 -3.847 2
-9.325 -8.714 -4.057 5
-9.374 -8.702 -4.302 6
-9.325 -8.6 -4.476 6
-9.435 -11.132 1.037 255
-9.408 -10.98 0.866 7
-9.557 -11.038 0.654 7
-9.501 -10.858 0.493 255
-9.499 -10.748 0.32 255
-9.503 -10.645 0.148 255
-9.501 -10.54 -0.022 255
-9.497 -10.438 -0.191 255
-9.493 -10.333 -0.358 255
-20.475 -22.089 -4.606 4
-19.832 -21.192 -4.713 25
-19.174 -20.321 -4.801 27
-16.919 -17.774 -4.181 18
-16.738 -17.439 -4.403 0
-17.108 -17.676 -4.87 30
-16.408 -16.82 -4.843 6
-15.735 -16.001 -4.804 7
-15.135 -15.275 -4.783 7
-14.578 -14.605 -4.766 7
-14.087 -14.006 -4.764 6
-13.608 -13.435 -4.757 7
-13.148 -12.886 -4.743 9
-12.726 -12.387 -4.74 30
-12.34 -11.926 -4.745 9
-11.971 -11.493 -4.752 9
-11.615 -11.075 -4.755 9
-11.274 -10.68 -4.759 10
-10.954 -10.307 -4.767 35
-9.314 -8.708 -3.803 3
-9.345 -8.681 -4.03 5
-9.426 -8.697 -4.297 5
-9.391 -8.61 -4.484 4
-9.432 -11.062 1.049 255
-9.431 -10.941 0.873 7
-9.479 -10.882 0.687 6
-9.503 -10.795 0.508 255
-9.504 -10.687 0.335 255
-9.503 -10.578 0.166 255
-9.505 -10.48 -0.005 255
-9.499 -10.375 -0.172 255
-9.497 -10.274 -0.338 255
-19.897 -21.33 -4.345 223
-19.982 -21.219 -4.723 25
-19.298 -20.324 -4.802 27
0.0 -0.0 3.0 0
-16.757 -17.35 -4.365 0
-17.203 -17.663 -4.864 18
-16.506 -16.814 -4.84 6
-15.834 -15.999 -4.803 8
-15.231 -15.275 -4.783 8
-14.672 -14.606 -4.766 6
-14.174 -14.004 -4.763 7
-13.691 -13.431 -4.755 7
-13.221 -12.877 -4.737 9
-12.8 -12.381 -4.737 10
-12.413 -11.922 -4.742 9
-12.037 -11.485 -4.747 10
-11.68 -11.068 -4.75 9
-11.337 -10.674 -4.755 10
-9.352 -8.745 -3.59 1
-9.324 -8.664 -3.769 5
-9.368 -8.65 -4.004 5
-9.475 -8.69 -4.291 5
-9.445 -8.607 -4.482 7
-9.435 -10.999 1.061 255
-9.459 -10.907 0.88 6
-9.45 -10.783 0.708 2
-9.505 -10.731 0.522 255
-9.506 -10.624 0.351 255
-9.505 -10.515 0.182 255
-9.502 -10.412 0.015 255
-9.504 -10.315 -0.154 255
-9.502 -10.215 -0.319 255
-19.908 -21.21 -4.303 231
-20.129 -21.241 -4.731 24
-19.414 -20.318 -4.799 28
-16.884 -17.515 -4.077 7
-16.835 -17.321 -4.352 0
-17.312 -17.663 -4.864 16
-16.618 -16.821 -4.844 6
-15.932 -15.998 -4.803 8
-15.325 -15.273 -4.782 6
-14.761 -14.603 -4.764 7
-14.261 -14.002 -4.761 7
-13.771 -13.426 -4.751 8
-13.303 -12.875 -4.736 10
-12.877 -12.378 -4.735 9
-12.483 -11.915 -4.738 8
-12.111 -11.484 -4.746 17
-11.745 -11.061 -4.745 9
-11.404 -10.671 -4.753 10
-9.327 -8.669 -3.533 3
-9.341 -8.628 -3.741 5
-9.407 -8.632 -3.99 5
-9.493 -8.654 -4.262 5
-9.478 -8.587 -4.464 10
-9.437 -10.936 1.072 255
-9.497 -10.885 0.884 10
-9.415 -10.678 0.73 3
-9.507 -10.668 0.537 255
-9.507 -10.561 0.367 255
-9.512 -10.458 0.198 255
-9.511 -10.357 0.03 255
-9.505 -10.253 -0.135 255
-9.5 -10.15 -0.298 255
-19.949 -21.119 -4.272 13
-20.216 -21.199 -4.716 30
-19.546 -20.328 -4.803 28
-16.919 -17.441 -4.047 0
-16.848 -17.225 -4.312 1
-17.397 -17.637 -4.853 8
-16.724 -16.822 -4.844 6
-16.033 -15.998 -4.803 8
-15.418 -15.269 -4.78 6
-14.84 -14.588 -4.757 6
-14.343 -13.994 -4.757 6
-13.852 -13.419 -4.748 7
-13.381 -12.87 -4.733 9
-12.954 -12.375 -4.733 9
-12.553 -11.908 -4.733 8
-12.169 -11.469 -4.736 38
-11.815 -11.059 -4.743 9
-9.519 -8.853 -3.432 255
-9.334 -8.623 -3.498 5
-9.364 -8.596 -3.716 5
-9.453 -8.623 -3.982 4
-9.64 -8.736 -4.33 6
-9.545 -8.595 -4.472 5
-9.441 -10.875 1.082 255
-42.903 -48.875 -6.5 9
-9.403 -10.6 0.747 3
-9.508 -10.605 0.552 255
-9.509 -10.498 0.382 255
-9.51 -10.392 0.215 255
-9.504 -10.286 0.05 255
-9.506 -10.19 -0.115 255
-9.515 -10.101 -0.282 255
-21.144 -22.246 -4.66 3
-20.313 -21.167 -4.704 26
-19.665 -20.323 -4.801 29
0.0 -0.0 3.0 0
-16.869 -17.139 -4.275 1
-16.842 -16.967 -4.554 4
-16.833 -16.826 -4.846 6
-16.143 -16.006 -4.806 7
-15.512 -15.266 -4.778 7
-14.934 -14.589 -4.757 7
-14.428 -13.988 -4.754 7
-13.935 -13.415 -4.745 7
-13.452 -12.857 -4.725 9
-13.026 -12.365 -4.727 9
-12.629 -11.905 -4.731 10
-12.238 -11.462 -4.731 34
-11.88 -11.051 -4.738 10
-9.41 -8.698 -3.319 6
-9.345 -8.581 -3.466 5
-9.396 -8.573 -3.698 5
-9.512 -8.624 -3.984 2
-9.673 -8.714 -4.312 6
-9.591 -8.586 -4.463 5
-9.439 -10.809 1.094 255
0.0 -0.0 3.0 0
-9.391 -10.523 0.763 3
-9.507 -10.538 0.567 255
-9.51 -10.435 0.398 255
-9.514 -10.332 0.231 255
-9.513 -10.232 0.066 255
-9.512 -10.134 -0.098 255
-9.556 -10.082 -0.276 6
-21.901 -22.898 -4.885 13
-20.536 -21.266 -4.74 30
-19.798 -20.331 -4.805 29
0.0 -0.0 3.0 0
-16.884 -17.046 -4.235 1
-16.887 -16.905 -4.527 1
-16.945 -16.831 -4.848 6
-16.255 -16.016 -4.812 7
-15.604 -15.259 -4.775 7
-15.018 -14.579 -4.752 7
-14.518 -13.988 -4.754 6
-14.018 -13.411 -4.743 7
-13.536 -12.857 -4.725 9
-13.103 -12.362 -4.725 9
-12.694 -11.893 -4.723 9
-12.31 -11.458 -4.728 9
-11.948 -11.045 -4.734 9
-9.329 -8.571 -3.227 11
-9.365 -8.546 -3.44 6
-9.434 -8.557 -3.685 5
-10.286 -9.271 -4.508 15
-9.97 -8.927 -4.49 26
-9.643 -8.581 -4.459 4
-9.44 -10.745 1.105 255
-9.402 -10.582 0.943 3
-9.394 -10.463 0.776 4
-9.51 -10.479 0.581 255
-9.51 -10.372 0.414 255
-9.512 -10.267 0.249 255
-9.514 -10.17 0.084 255
-9.518 -10.077 -0.081 255
-9.596 -10.062 -0.269 3
-22.132 -22.996 -4.918 14
-20.787 -21.392 -4.786 27
-19.928 -20.338 -4.807 29
0.0 -0.0 3.0 0
-16.932 -16.986 -4.21 44
-16.921 -16.832 -4.494 0
-17.061 -16.838 -4.852 6
-16.36 -16.017 -4.812 7
-15.703 -15.26 -4.775 7
-15.105 -14.571 -4.748 7
-14.606 -13.984 -4.751 6
-14.098 -13.404 -4.739 8
-13.618 -12.853 -4.723 9
-13.175 -12.353 -4.719 12
-12.767 -11.887 -4.72 10
-12.382 -11.453 -4.725 9
-9.343 -8.584 -3.011 2
-9.345 -8.533 -3.2 6
-9.397 -8.524 -3.423 5
-9.485 -8.55 -3.68 3
-10.262 -9.193 -4.444 22
-9.996 -8.898 -4.466 15
-9.699 -8.58 -4.458 8
-9.438 -10.679 1.117 255
-9.439 -10.561 0.947 17
-9.403 -10.408 0.788 4
-9.513 -10.418 0.595 255
-9.508 -10.307 0.43 255
-9.518 -10.21 0.264 255
-9.517 -10.11 0.101 255
-9.556 -10.055 -0.074 6
-24.649 -25.685 -5.346 2
-22.259 -22.984 -4.914 11
-20.888 -21.362 -4.775 27
-20.053 -20.336 -4.806 29
0.0 -0.0 3.0 0
-16.965 -16.913 -4.179 199
-16.997 -16.803 -4.481 0
-17.168 -16.837 -4.851 7
-16.476 -16.03 -4.818 8
-15.806 -15.263 -4.777 6
-15.197 -14.568 -4.746 6
-14.694 -13.98 -4.749 7
-14.182 -13.399 -4.736 7
-13.697 -12.848 -4.72 9
-13.255 -12.35 -4.717 23
-12.843 -11.884 -4.718 8
-12.451 -11.446 -4.721 9
-9.338 -8.527 -2.971 4
-9.362 -8.495 -3.172 6
-9.426 -8.499 -3.404 5
-9.578 -8.582 -3.705 0
-10.431 -9.289 -4.522 13
-10.033 -8.877 -4.449 11
-9.735 -8.56 -4.441 10
-9.444 -10.621 1.127 255
-9.463 -10.524 0.954 255
-9.403 -10.346 0.801 4
-9.524 -10.367 0.607 255
-9.516 -10.252 0.444 255
-9.518 -10.148 0.281 255
-9.522 -10.054 0.117 255
-9.586 -10.024 -0.065 3
-24.827 -25.711 -5.354 3
-22.012 -22.587 -4.777 7
-21.089 -21.433 -4.801 23
-20.178 -20.336 -4.806 30
0.0 -0.0 3.0 0
-17.064 -16.904 -4.175 49
-17.079 -16.777 -4.47 1
-17.261 -16.823 -4.845 6
-16.572 -16.023 -4.815 7
-15.909 -15.266 -4.778 7
-15.293 -14.568 -4.746 6
-14.776 -13.971 -4.744 8
-14.268 -13.396 -4.734 7
-13.776 -12.841 -4.716 9
-13.327 -12.34 -4.711 29
-12.914 -11.875 -4.712 8
-9.362 -8.554 -2.77 1
-9.342 -8.479 -2.937 5
-9.388 -8.468 -3.152 6
-9.475 -8.49 -3.398 4
-10.247 -9.127 -4.131 17
-10.361 -9.171 -4.427 11
-10.083 -8.868 -4.441 11
-9.795 -8.562 -4.443 14
-9.444 -10.559 1.138 255
-9.463 -10.461 0.967 255
-9.415 -10.298 0.811 4
-9.554 -10.336 0.614 26
-9.516 -10.19 0.459 255
-9.525 -10.094 0.295 255
-9.56 -10.031 0.124 10
-20.04 -20.827 -3.368 3
-25.016 -25.746 -5.365 3
-22.646 -23.094 -4.952 12
-21.228 -21.439 -4.803 26
-20.306 -20.336 -4.806 25
0.0 -0.0 3.0 0
-17.066 -16.801 -4.132 8
-17.17 -16.761 -4.463 1
-17.358 -16.811 -4.839 6
-16.68 -16.026 -4.816 7
-16.011 -15.268 -4.779 7
-15.385 -14.564 -4.744 6
-14.854 -13.956 -4.736 7
-14.349 -13.388 -4.729 7
-9.329 -8.642 -2.193 6
-13.399 -12.331 -4.705 33
-12.987 -11.869 -4.708 8
-9.345 -8.486 -2.724 3
-9.358 -8.442 -2.911 5
-9.42 -8.444 -3.135 6
-9.541 -8.498 -3.403 1
-10.261 -9.083 -4.097 16
-10.534 -9.268 -4.505 23
-10.236 -8.949 -4.509 20
-9.857 -8.565 -4.446 43
-9.444 -10.496 1.149 255
-9.46 -10.395 0.979 255
-9.426 -10.247 0.822 4
-9.545 -10.265 0.63 14
-9.524 -10.136 0.473 255
-9.522 -10.028 0.313 255
-9.594 -10.005 0.131 4
-24.82 -25.635 -4.837 1
-25.209 -25.784 -5.378 2
-22.823 -23.13 -4.964 16
-21.272 -21.35 -4.771 24
-20.445 -20.348 -4.811 6
0.0 -0.0 3.0 0
-17.157 -16.784 -4.124 2
-17.263 -16.746 -4.456 1
-17.465 -16.809 -4.838 6
-16.783 -16.023 -4.815 8
-16.131 -15.286 -4.789 7
-15.478 -14.56 -4.742 7
-14.939 -13.948 -4.732 7
-14.432 -13.382 -4.726 7
-9.368 -8.625 -2.182 28
-13.477 -12.325 -4.701 33
-9.383 -8.523 -2.535 0
-9.346 -8.436 -2.69 5
-9.376 -8.406 -2.886 5
-9.462 -8.431 -3.125 5
-10.23 -9.056 -3.824 5
-10.263 -9.031 -4.056 18
-10.449 -9.139 -4.401 14
-10.289 -8.942 -4.503 22
-9.895 -8.549 -4.431 38
-9.441 -10.43 1.161 255
-9.454 -10.327 0.993 255
-9.441 -10.202 0.832 4
-9.553 -10.211 0.643 2
-9.526 -10.077 0.488 255
-9.554 -10.0 0.32 27
-20.036 -20.767 -2.955 11
-24.859 -25.517 -4.801 2
-25.394 -25.812 -5.387 3
-22.929 -23.093 -4.951 10
-21.378 -21.323 -4.761 25
0.0 -0.0 3.0 0
0.0 -0.0 3.0 0
-17.241 -16.761 -4.114 2
-17.351 -16.725 -4.447 1
-17.579 -16.812 -4.84 6
-16.885 -16.019 -4.813 8
-16.24 -15.292 -4.792 7
-15.573 -14.558 -4.741 7
-15.03 -13.945 -4.73 7
-14.522 -13.381 -4.725 7
-9.4 -8.599 -2.167 255
-13.554 -12.319 -4.698 33
-9.363 -8.452 -2.489 2
-9.356 -8.392 -2.66 5
-9.407 -8.382 -2.869 5
-9.51 -8.422 -3.119 3
-10.256 -9.024 -3.8 7
-10.289 -8.999 -4.031 17
-10.399 -9.041 -4.321 23
-10.328 -8.923 -4.487 28
-9.941 -8.538 -4.422 35
-9.44 -10.368 1.172 255
-9.456 -10.268 1.004 255
-9.461 -10.163 0.84 4
-9.498 -10.09 0.67 2
-9.53 -10.019 0.502 255
-9.591 -9.978 0.326 6
-25.05 -25.804 -4.399 1
-24.864 -25.365 -4.755 3
0.0 -0.0 3.0 0
-23.173 -23.193 -4.986 14
-21.537 -21.347 -4.77 24
0.0 -0.0 3.0 0
0.0 -0.0 3.0 0
-17.323 -16.735 -4.104 1
-17.425 -16.692 -4.432 1
-17.684 -16.807 -4.837 6
-16.986 -16.014 -4.811 8
-16.351 -15.301 -4.796 7
-15.655 -14.543 -4.733 31
-15.115 -13.938 -4.726 7
-9.331 -8.544 -1.933 1
-9.384 -8.532 -2.127 255
-13.629 -12.311 -4.692 21
-9.35 -8.389 -2.448 4
-9.376 -8.358 -2.638 6
-9.446 -8.366 -2.858 5
-9.601 -8.451 -3.14 0
-10.298 -9.006 -3.787 7
-10.165 -8.837 -3.904 12
-10.22 -8.833 -4.153 29
-10.373 -8.909 -4.475 19
-9.974 -8.516 -4.403 20
-9.438 -10.305 1.183 255
-9.454 -10.204 1.016 255
-9.487 -10.129 0.847 3
-9.453 -9.983 0.695 3
-9.553 -9.983 0.511 40
-20.036 -20.719 -2.552 32
-25.137 -25.736 -4.38 1
-24.885 -25.231 -4.714 35
-24.877 -24.974 -5.115 1
-23.345 -23.221 -4.996 15
-21.456 -21.134 -4.692 28
0.0 -0.0 3.0 0
0.0 -0.0 3.0 0
-17.41 -16.714 -4.095 1
-17.56 -16.715 -4.442 1
-17.761 -16.774 -4.822 3
-17.088 -16.01 -4.808 8
-16.458 -15.304 -4.798 7
-15.751 -14.541 -4.731 30
-15.207 -13.934 -4.724 7
-9.373 -8.529 -1.924 10
-9.382 -8.478 -2.094 255
-9.318 -8.364 -2.226 4
-9.362 -8.347 -2.42 5
-9.401 -8.33 -2.618 5
-9.497 -8.359 -2.853 4
-12.118 -10.602 -4.703 11
-10.324 -8.975 -3.763 24
-10.32 -8.918 -3.967 28
-10.264 -8.818 -4.141 26
-10.405 -8.883 -4.454 19
-9.996 -8.485 -4.376 19
-9.44 -10.246 1.193 255
-9.453 -10.142 1.029 255
-9.526 -10.11 0.851 2
-9.432 -9.9 0.714 3
-9.598 -9.969 0.514 3
0.0 -0.0 3.0 0
-25.107 -25.546 -4.325 3
-24.936 -25.126 -4.682 1
-24.9 -24.843 -5.072 9
-23.529 -23.259 -5.009 14
-21.49 -21.037 -4.657 26
0.0 -0.0 3.0 0
0.0 -0.0 3.0 0
-17.528 -16.722 -4.098 1
-17.636 -16.684 -4.428 2
-17.85 -16.752 -4.812 3
-17.178 -15.992 -4.8 8
-16.556 -15.299 -4.795 7
-15.844 -14.535 -4.728 30
-15.295 -13.928 -4.72 7
-9.395 -8.496 -1.905 255
-9.357 -8.403 -2.049 255
-9.296 -8.292 -2.182 11
-9.382 -8.313 -2.399 5
-9.438 -8.31 -2.605 5
-9.561 -8.364 -2.857 1
-12.176 -10.588 -4.693 26
-10.385 -8.973 -3.762 29
-10.208 -8.768 -3.851 23
-10.349 -8.837 -4.156 36
-10.452 -8.871 -4.444 40
-10.011 -8.447 -4.343 17
-9.441 -10.187 1.204 255
-9.453 -10.083 1.04 255
-9.418 -9.936 0.888 2
-9.405 -9.813 0.734 5
-32.119 -33.16 -5.268 24
0.0 -0.0 3.0 0
0.0 -0.0 3.0 0
-24.943 -24.978 -4.636 26
-24.981 -24.769 -5.048 2
-23.694 -23.276 -5.015 14
-21.913 -21.317 -4.759 29
0.0 -0.0 3.0 0
0.0 -0.0 3.0 0
-17.613 -16.697 -4.088 0
-17.775 -16.708 -4.439 2
-18.003 -16.79 -4.829 5
-17.272 -15.98 -4.794 8
-16.665 -15.303 -4.797 7
-15.943 -14.534 -4.728 28
-15.381 -13.919 -4.715 7
-9.384 -8.434 -1.869 255
-9.343 -8.338 -2.01 255
-9.296 -8.242 -2.15 255
-9.404 -8.282 -2.378 5
-9.485 -8.301 -2.599 4
-12.62 -10.973 -4.684 10
-12.243 -10.582 -4.688 34
-10.432 -8.96 -3.752 25
-10.406 -8.886 -3.942 24
-10.361 -8.796 -4.123 28
-10.497 -8.857 -4.432 42
-10.059 -8.438 -4.335 16
-9.441 -10.127 1.214 255
-9.454 -10.024 1.051 255
-9.416 -9.874 0.901 13
-9.419 -9.769 0.745 5
-32.39 -33.238 -5.287 24
0.0 -0.0 3.0 0
-25.004 -25.131 -4.206 1
-25.029 -24.91 -4.616 33
-25.131 -24.765 -5.047 2
-23.866 -23.299 -5.022 11
-22.061 -21.328 -4.763 33
0.0 -0.0 3.0 0
0.0 -0.0 3.0 0
-17.701 -16.675 -4.078 0
-17.86 -16.684 -4.428 5
-18.153 -16.824 -4.845 6
-17.376 -15.975 -4.791 8
-16.756 -15.29 -4.791 7
-16.036 -14.528 -4.725 31
-15.478 -13.919 -4.716 7
-9.37 -8.369 -1.832 255
-9.326 -8.271 -1.97 255
-9.287 -8.183 -2.113 255
-9.432 -8.255 -2.361 5
-9.54 -8.298 -2.597 2
-12.691 -10.967 -4.679 19
-12.31 -10.575 -4.683 39
-10.499 -8.963 -3.754 21
-10.375 -8.806 -3.88 29
-10.432 -8.804 -4.129 22
-10.526 -8.829 -4.408 37
-10.116 -8.436 -4.334 15
-9.442 -10.068 1.225 255
-9.457 -9.967 1.063 255
-9.47 -9.872 0.902 255
-9.422 -9.712 0.758 4
-32.657 -33.308 -5.305 22
0.0 -0.0 3.0 0
0.0 -0.0 3.0 0
-25.067 -24.795 -4.58 37
-25.398 -24.873 -5.082 3
-24.054 -23.337 -5.035 11
-22.18 -21.309 -4.756 29
0.0 -0.0 3.0 0
0.0 -0.0 3.0 0
-17.802 -16.666 -4.074 0
-17.962 -16.674 -4.424 2
-18.262 -16.818 -4.843 7
-17.485 -15.975 -4.791 8
-16.851 -15.281 -4.786 7
-16.149 -14.539 -4.73 30
-15.564 -13.909 -4.71 7
-9.355 -8.304 -1.794 255
-9.315 -8.209 -1.933 255
-9.269 -8.117 -2.072 255
-9.476 -8.243 -2.353 4
-13.151 -11.369 -4.668 34
-12.751 -10.953 -4.669 34
-12.372 -10.564 -4.675 40
-10.563 -8.963 -3.754 13
-10.463 -8.827 -3.897 32
-10.485 -8.795 -4.122 30
-10.581 -8.823 -4.403 43
-10.175 -8.437 -4.334 17
-9.444 -10.012 1.235 255
-9.457 -9.908 1.074 255
-9.476 -9.819 0.913 255
-9.427 -9.659 0.77 4
-32.916 -33.369 -5.32 22
-31.546 -31.639 -5.478 15
0.0 -0.0 3.0 0
-25.2 -24.773 -4.574 1
-25.543 -24.861 -5.078 4
-24.237 -23.369 -5.046 9
-22.531 -21.511 -4.829 31
0.0 -0.0 3.0 0
0.0 -0.0 3.0 0
-17.913 -16.665 -4.074 0
-18.214 -16.802 -4.481 5
-18.376 -16.818 -4.843 6
-17.588 -15.968 -4.788 6
-16.942 -15.267 -4.779 7
-16.246 -14.535 -4.728 30
-15.664 -13.911 -4.711 8
-9.332 -8.231 -1.752 255
-9.297 -8.143 -1.893 255
-9.288 -8.083 -2.051 85
-9.531 -8.239 -2.351 3
-13.221 -11.359 -4.662 39
-12.819 -10.944 -4.663 14
-12.442 -10.559 -4.672 41
-10.638 -8.973 -3.762 11
-10.488 -8.796 -3.872 27
-10.827 -9.029 -4.311 26
-10.629 -8.81 -4.393 39
-10.23 -8.432 -4.33 16
-9.444 -9.953 1.245 255
-9.454 -9.847 1.086 255
-9.475 -9.759 0.926 255
-9.438 -9.611 0.781 5
-33.433 -33.689 -5.4 17
-31.721 -31.621 -5.473 21
0.0 -0.0 3.0 0
0.0 -0.0 3.0 0
0.0 -0.0 3.0 0
-24.417 -23.397 -5.056 7
-22.83 -21.662 -4.884 27
0.0 -0.0 3.0 0
0.0 -0.0 3.0 0
-18.031 -16.67 -4.076 0
-18.246 -16.726 -4.447 4
-18.488 -16.815 -4.841 6
-17.701 -15.969 -4.789 8
-17.043 -15.263 -4.777 6
-16.342 -14.53 -4.726 34
-9.39 -8.288 -1.594 0
-9.333 -8.181 -1.724 255
-9.315 -8.108 -1.872 76
-9.379 -8.112 -2.069 9
-9.612 -8.258 -2.363 0
-13.293 -11.351 -4.657 37
-12.888 -10.936 -4.658 10
-12.509 -10.552 -4.666 42
-10.66 -8.938 -3.735 24
-10.546 -8.792 -3.869 28
-10.754 -8.915 -4.219 31
-10.668 -8.791 -4.376 22
-10.278 -8.423 -4.322 13
-9.449 -9.899 1.255 255
-9.462 -9.797 1.096 255
-9.475 -9.7 0.938 255
-9.445 -9.562 0.792 5
-33.786 -33.838 -5.437 8
-31.938 -31.644 -5.479 23
0.0 -0.0 3.0 0
0.0 -0.0 3.0 0
0.0 -0.0 3.0 0
-24.581 -23.408 -5.06 6
-22.97 -21.659 -4.883 28
0.0 -0.0 3.0 0
-18.182 -16.846 -3.806 0
-18.139 -16.665 -4.074 0
0.0 -0.0 3.0 0
-18.612 -16.821 -4.844 6
-17.802 -15.96 -4.784 8
-17.131 -15.245 -4.768 7
-16.436 -14.522 -4.721 32
-9.377 -8.225 -1.559 3
-9.38 -8.171 -1.717 6
-9.403 -8.135 -1.888 7
-9.501 -8.167 -2.103 4
-13.804 -11.788 -4.655 32
-13.369 -11.346 -4.653 36
-12.959 -10.93 -4.653 10
-12.573 -10.543 -4.66 41
-10.752 -8.961 -3.753 17
-10.604 -8.787 -3.865 19
-10.786 -8.888 -4.197 30
-10.748 -8.805 -4.388 37
-10.333 -8.418 -4.317 13
-9.462 -9.854 1.262 110
-9.461 -9.737 1.107 255
-9.479 -9.648 0.949 255
-9.461 -9.52 0.802 5
-38.202 -38.031 -6.482 3
-32.164 -31.674 -5.487 23
0.0 -0.0 3.0 0
0.0 -0.0 3.0 0
0.0 -0.0 3.0 0
-24.797 -23.467 -5.08 5
-23.07 -21.618 -4.868 32
-22.073 -20.507 -4.872 1
-18.284 -16.835 -3.802 0
-18.253 -16.664 -4.073 0
0.0 -0.0 3.0 0
-18.727 -16.818 -4.843 7
-17.914 -15.96 -4.784 7
-17.216 -15.225 -4.757 7
-16.539 -14.521 -4.721 20
-9.37 -8.167 -1.527 5
-9.395 -8.133 -1.696 6
-9.455 -8.129 -1.885 5
-9.579 -8.182 -2.113 1
-13.878 -11.778 -4.649 21
-13.442 -11.338 -4.648 35
-13.031 -10.922 -4.648 10
-12.641 -10.535 -4.654 40
-10.841 -8.981 -3.768 24
-10.867 -8.951 -3.994 3
-10.883 -8.915 -4.219 18
-10.804 -8.798 -4.383 29
-10.387 -8.412 -4.313 14
-9.497 -9.833 1.266 12
-9.462 -9.682 1.118 255
-9.481 -9.592 0.961 255
-9.473 -9.476 0.812 5
-9.502 -9.403 0.656 0
-32.362 -31.675 -5.487 25
0.0 -0.0 3.0 0
-26.136 -25.067 -4.664 1
0.0 -0.0 3.0 0
-24.999 -23.512 -5.096 5
-23.258 -21.658 -4.883 31
-22.184 -20.482 -4.862 10
-18.373 -16.81 -3.792 0
0.0 -0.0 3.0 0
0.0 -0.0 3.0 0
-18.847 -16.821 -4.844 7
-18.03 -15.963 -4.786 7
-17.312 -15.214 -4.752 6
-9.392 -8.194 -1.357 2
-9.382 -8.126 -1.504 6
-9.419 -8.103 -1.678 5
-9.502 -8.119 -1.878 5
-14.42 -12.242 -4.65 14
-13.961 -11.775 -4.647 11
-13.52 -11.335 -4.645 30
-13.105 -10.919 -4.645 12
-12.711 -10.529 -4.65 40
-10.864 -8.946 -3.741 31
0.0 -0.0 3.0 0
-11.229 -9.144 -4.404 20
-10.837 -8.774 -4.362 29
-10.436 -8.403 -4.305 14
-9.512 -9.792 1.273 3
-9.472 -9.634 1.127 255
-9.477 -9.53 0.974 255
-9.491 -9.436 0.821 4
-9.47 -9.314 0.678 2
-32.588 -31.704 -5.495 23
0.0 -0.0 3.0 0
-26.344 -25.112 -4.677 9
0.0 -0.0 3.0 0
-24.325 -22.736 -4.829 3
-23.389 -21.646 -4.879 33
-22.298 -20.458 -4.853 24
-18.466 -16.79 -3.784 0
0.0 -0.0 3.0 0
0.0 -0.0 3.0 0
-18.969 -16.823 -4.845 7
-18.134 -15.955 -4.782 7
-17.414 -15.208 -4.749 5
-9.378 -8.132 -1.324 4
-9.394 -8.086 -1.482 6
-9.453 -8.083 -1.667 5
-9.56 -8.117 -1.877 2
-14.504 -12.237 -4.647 9
-14.032 -11.763 -4.639 9
-13.587 -11.321 -4.636 30
-13.171 -10.906 -4.637 26
-12.778 -10.521 -4.644 37
-11.037 -9.034 -3.808 19
-10.943 -8.907 -3.959 7
-11.305 -9.152 -4.411 27
-10.904 -8.776 -4.364 30
-10.487 -8.395 -4.298 13
-9.522 -9.744 1.282 0
-9.468 -9.573 1.139 255
-9.481 -9.477 0.985 255
-9.517 -9.406 0.828 3
-9.454 -9.242 0.696 3
-32.846 -31.76 -5.51 27
0.0 -0.0 3.0 0
-26.371 -24.983 -4.638 4
0.0 -0.0 3.0 0
-25.372 -23.569 -5.115 6
-23.513 -21.624 -4.871 29
-22.427 -20.449 -4.849 26
-18.62 -16.825 -3.798 0
0.0 -0.0 3.0 0
0.0 -0.0 3.0 0
-19.081 -16.817 -4.842 6
-18.247 -15.953 -4.781 8
-9.401 -8.159 -1.157 1
-9.387 -8.088 -1.301 5
-9.417 -8.055 -1.465 6
-9.491 -8.064 -1.656 5
-15.093 -12.737 -4.653 7
-14.583 -12.228 -4.641 9
-14.112 -11.757 -4.635 8
-13.66 -11.313 -4.63 26
-13.236 -10.894 -4.628 33
-12.843 -10.51 -4.636 19
-11.057 -8.996 -3.779 23
-10.92 -8.836 -3.904 11
-11.293 -9.087 -4.359 21
-10.948 -8.761 -4.351 38
-10.536 -8.386 -4.289 14
0.0 -0.0 3.0 0
-9.468 -9.517 1.15 255
-9.479 -9.419 0.998 255
-9.552 -9.383 0.834 2
-9.451 -9.183 0.71 5
-33.105 -31.816 -5.525 27
0.0 -0.0 3.0 0
0.0 -0.0 3.0 0
0.0 -0.0 3.0 0
-25.535 -23.573 -5.117 4
-23.771 -21.726 -4.908 32
-22.578 -20.458 -4.853 27
-18.689 -16.78 -3.78 0
0.0 -0.0 3.0 0
0.0 -0.0 3.0 0
-19.203 -16.818 -4.843 6
-18.369 -15.96 -4.784 7
-9.387 -8.095 -1.125 4
-9.395 -8.045 -1.278 5
-9.451 -8.034 -1.454 6
-9.549 -8.063 -1.655 3
-15.177 -12.727 -4.647 9
-14.665 -12.221 -4.636 9
-14.187 -11.747 -4.629 9
-13.736 -11.306 -4.626 16
-13.305 -10.884 -4.621 34
-12.913 -10.504 -4.632 12
-11.113 -8.987 -3.772 18
-10.985 -8.835 -3.903 16
-11.165 -8.932 -4.233 30
-11.012 -8.76 -4.351 34
-10.585 -8.375 -4.281 14
0.0 -0.0 3.0 0
-9.472 -9.465 1.16 255
-9.482 -9.366 1.009 255
-9.459 -9.237 0.867 6
-9.449 -9.126 0.725 4
-33.356 -31.863 -5.538 27
-33.186 -31.371 -5.996 8
-27.157 -25.413 -4.77 1
0.0 -0.0 3.0 0
-25.185 -23.105 -4.956 4
-23.94 -21.745 -4.915 33
-22.736 -20.472 -4.859 26
-18.806 -16.781 -3.78 0
0.0 -0.0 3.0 0
0.0 -0.0 3.0 0
-19.322 -16.817 -4.842 6
-9.41 -8.124 -0.962 0
-9.387 -8.044 -1.099 5
-9.415 -8.012 -1.26 6
-9.486 -8.014 -1.442 5
-9.615 -8.068 -1.658 0
-15.263 -12.72 -4.643 9
-14.749 -12.215 -4.633 9
-14.267 -11.741 -4.625 9
-13.809 -11.297 -4.62 11
-13.377 -10.876 -4.616 36
-12.983 -10.497 -4.627 11
-11.096 -8.919 -3.721 28
-11.069 -8.849 -3.914 35
-11.429 -9.089 -4.36 22
-11.06 -8.747 -4.339 30
-10.634 -8.366 -4.272 13
0.0 -0.0 3.0 0
-9.478 -9.415 1.17 255
-9.488 -9.317 1.02 255
-9.462 -9.185 0.88 35
-9.443 -9.066 0.74 5
-33.636 -31.935 -5.557 26
-33.411 -31.391 -6.001 12
0.0 -0.0 3.0 0
0.0 -0.0 3.0 0
-25.966 -23.674 -5.152 5
-24.107 -21.76 -4.92 29
-22.891 -20.483 -4.863 27
-18.949 -16.802 -3.789 0
0.0 -0.0 3.0 0
0.0 -0.0 3.0 0
-19.452 -16.824 -4.845 6
-9.395 -8.06 -0.931 3
-9.4 -8.006 -1.079 5
-9.444 -7.985 -1.246 6
-9.532 -8.002 -1.435 5
-15.917 -13.273 -4.663 7
-15.346 -12.711 -4.637 7
-14.828 -12.205 -4.627 9
-14.342 -11.729 -4.617 34
-13.882 -11.287 -4.614 9
-13.449 -10.869 -4.61 33
-13.048 -10.486 -4.619 11
-11.269 -9.004 -3.785 20
-11.209 -8.909 -3.96 11
-11.214 -8.865 -4.179 24
-11.124 -8.746 -4.338 26
-10.688 -8.359 -4.266 12
0.0 -0.0 3.0 0
-9.475 -9.356 1.181 255
-9.491 -9.264 1.031 255
-9.493 -9.16 0.885 255
-9.446 -9.014 0.753 5
-33.942 -32.03 -5.582 23
-33.7 -31.47 -6.024 10
-27.217 -25.157 -4.691 1
0.0 -0.0 3.0 0
-26.154 -23.698 -5.16 5
-24.252 -21.755 -4.918 26
-23.032 -20.481 -4.862 26
0.0 -0.0 3.0 0
0.0 -0.0 3.0 0
0.0 -0.0 3.0 0
-9.416 -8.092 -0.774 0
-9.394 -8.009 -0.906 5
-9.417 -7.97 -1.061 6
-9.481 -7.967 -1.236 5
-9.595 -8.004 -1.437 1
-16.016 -13.273 -4.663 8
-15.435 -12.706 -4.634 9
-14.907 -12.194 -4.62 9
-14.416 -11.718 -4.61 36
-13.961 -11.282 -4.61 9
-13.517 -10.858 -4.603 33
-13.113 -10.475 -4.61 11
-11.294 -8.97 -3.759 2
-11.805 -9.326 -4.286 15
-11.413 -8.97 -4.263 43
-11.194 -8.749 -4.342 23
-10.74 -8.351 -4.259 14
0.0 -0.0 3.0 0
-9.478 -9.304 1.191 255
-9.482 -9.2 1.044 255
-9.499 -9.109 0.897 255
-9.454 -8.966 0.764 5
-34.324 -32.194 -5.626 26
-34.039 -31.592 -6.059 9
0.0 -0.0 3.0 0
0.0 -0.0 3.0 0
-26.344 -23.723 -5.168 4
-24.446 -21.792 -4.932 29
-23.193 -20.496 -4.868 28
0.0 -0.0 3.0 0
0.0 -0.0 3.0 0
0.0 -0.0 3.0 0
-9.406 -8.034 -0.746 3
-9.401 -7.965 -0.885 6
-9.445 -7.944 -1.048 5
-9.523 -7.953 -1.229 4
-16.719 -13.861 -4.683 7
-16.11 -13.268 -4.661 8
-15.519 -12.695 -4.628 8
-14.989 -12.186 -4.615 8
-14.494 -11.709 -4.604 9
-14.031 -11.269 -4.601 10
-13.595 -10.854 -4.6 28
-13.186 -10.47 -4.607 11
-11.791 -9.309 -4.015 7
-11.254 -8.838 -3.905 2
-11.289 -8.82 -4.142 16
-11.264 -8.752 -4.344 16
-10.786 -8.338 -4.249 15
0.0 -0.0 3.0 0
-9.477 -9.249 1.202 255
-9.496 -9.159 1.053 255
-9.507 -9.063 0.908 255
-9.459 -8.917 0.777 5
-36.403 -33.937 -6.093 15
-34.304 -31.644 -6.074 10
0.0 -0.0 3.0 0
-27.702 -25.032 -5.133 1
-26.55 -23.759 -5.181 4
-24.538 -21.738 -4.912 30
-23.358 -20.513 -4.874 26
0.0 -0.0 3.0 0
0.0 -0.0 3.0 0
0.0 -0.0 3.0 0
-9.396 -7.974 -0.718 4
-9.426 -7.936 -0.871 6
-9.476 -7.92 -1.035 5
-9.581 -7.95 -1.227 2
-16.815 -13.853 -4.679 6
-16.204 -13.262 -4.657 11
-15.611 -12.691 -4.626 9
-15.08 -12.184 -4.613 7
-14.586 -11.711 -4.605 9
-14.102 -11.256 -4.593 14
-13.658 -10.838 -4.589 25
-13.254 -10.461 -4.6 11
-11.39 -8.938 -3.735 12
-12.1 -9.446 -4.38 20
-11.617 -9.023 -4.306 36
-11.308 -8.736 -4.33 31
-10.843 -8.334 -4.245 17
0.0 -0.0 3.0 0
-9.479 -9.197 1.212 255
-9.495 -9.104 1.065 255
-9.512 -9.013 0.919 255
-9.469 -8.873 0.788 5
-9.506 -8.808 0.64 2
-33.151 -30.393 -5.715 5
-32.017 -29.052 -5.882 18
-28.051 -25.19 -5.185 4
-26.753 -23.793 -5.192 3
-24.806 -21.839 -4.949 32
-23.508 -20.515 -4.875 28
-22.896 -19.799 -4.999 4
0.0 -0.0 3.0 0
-9.412 -8.001 -0.562 2
-9.406 -7.932 -0.699 5
-9.442 -7.9 -0.853 6
-9.515 -7.903 -1.027 5
-17.546 -14.469 -4.693 6
-16.905 -13.841 -4.672 4
-16.299 -13.257 -4.654 8
-15.701 -12.685 -4.622 9
-15.159 -12.172 -4.606 9
-14.663 -11.701 -4.598 9
-14.181 -11.251 -4.589 21
-13.736 -10.833 -4.586 20
-13.325 -10.452 -4.594 11
-11.44 -8.924 -3.725 12
-11.309 -8.776 -3.856 19
-11.708 -9.04 -4.32 41
-11.344 -8.712 -4.311 49
-10.894 -8.325 -4.237 14
0.0 -0.0 3.0 0
-9.484 -9.148 1.222 255
-9.497 -9.052 1.076 255
-9.516 -8.964 0.931 255
-9.485 -8.835 0.797 5
-9.504 -8.753 0.655 5
-33.228 -30.277 -5.682 255
-32.276 -29.107 -5.899 18
0.0 -0.0 3.0 0
-26.957 -23.825 -5.204 4
-25.022 -21.891 -4.968 28
-23.641 -20.503 -4.87 30
-23.027 -19.787 -4.995 10
0.0 -0.0 3.0 0
-9.407 -7.946 -0.538 4
-9.418 -7.893 -0.681 5
-9.473 -7.876 -0.841 6
-9.567 -7.896 -1.023 3
-17.641 -14.456 -4.686 6
-17.016 -13.845 -4.674 3
-16.393 -13.25 -4.65 10
-15.785 -12.674 -4.615 8
-15.247 -12.167 -4.603 8
-14.741 -11.69 -4.592 9
-14.26 -11.244 -4.584 21
-13.811 -10.826 -4.581 12
-13.389 -10.44 -4.585 12
-11.557 -8.961 -3.753 8
-11.556 -8.915 -3.965 11
-11.586 -8.892 -4.201 32
-11.406 -8.709 -4.308 31
-10.949 -8.318 -4.231 14
0.0 -0.0 3.0 0
-9.497 -9.106 1.23 181
-9.501 -9.002 1.086 255
-9.515 -8.909 0.943 255
-9.501 -8.796 0.807 5
-9.511 -8.707 0.667 3
-9.52 -8.622 0.528 4
-9.497 -8.512 0.398 0
-30.259 -26.839 -5.72 3
-27.149 -23.846 -5.211 2
-25.223 -21.931 -4.982 24
-23.821 -20.53 -4.881 25
-23.158 -19.776 -4.99 10
-9.433 -7.987 -0.39 1
-9.407 -7.897 -0.516 5
-9.446 -7.867 -0.668 6
-9.515 -7.861 -0.834 5
-9.636 -7.902 -1.026 0
-17.748 -14.453 -4.685 5
-17.112 -13.835 -4.669 6
-16.488 -13.244 -4.647 8
-15.872 -12.665 -4.61 7
-15.323 -12.153 -4.594 8
-14.822 -11.682 -4.587 9
-14.333 -11.234 -4.577 30
-13.883 -10.817 -4.574 10
-13.457 -10.43 -4.578 18
-11.66 -8.987 -3.772 6
-11.475 -8.8 -3.875 13
-11.802 -9.005 -4.292 30
-11.47 -8.707 -4.306 25
-11.006 -8.314 -4.227 12
0.0 -0.0 3.0 0
-9.513 -9.067 1.238 25
-9.508 -8.956 1.096 255
-9.519 -8.86 0.955 255
-9.528 -8.768 0.814 4
-9.483 -8.628 0.688 3
-9.536 -8.583 0.539 6
-9.521 -8.481 0.407 4
0.0 -0.0 3.0 0
-27.371 -23.892 -5.227 1
-25.255 -21.821 -4.942 31
-23.981 -20.539 -4.884 30
-23.29 -19.764 -4.985 8
-9.418 -7.924 -0.364 4
-9.423 -7.86 -0.5 5
-9.467 -7.835 -0.654 5
-9.557 -7.846 -0.827 4
-18.618 -15.174 -4.731 6
-17.855 -14.449 -4.683 5
-17.209 -13.827 -4.664 7
-16.576 -13.232 -4.639 9
-15.964 -12.659 -4.607 7
-15.406 -12.143 -4.588 7
-14.9 -11.671 -4.579 9
-14.409 -11.224 -4.571 20
-13.949 -10.802 -4.564 11
-13.528 -10.422 -4.572 28
-11.65 -8.926 -3.726 8
-11.543 -8.799 -3.875 13
-11.922 -9.044 -4.323 43
-11.524 -8.696 -4.297 31
-11.058 -8.305 -4.219 14
0.0 -0.0 3.0 0
-9.526 -9.026 1.246 7
-9.51 -8.904 1.107 255
-9.532 -8.819 0.964 115
-9.564 -8.748 0.819 5
-9.476 -8.569 0.704 4
-9.566 -8.558 0.546 5
-9.531 -8.438 0.42 6
-9.521 -8.341 0.29 4
-9.529 -8.266 0.154 0
-25.451 -21.853 -4.954 16
-24.106 -20.516 -4.876 29
-9.443 -7.963 -0.217 0
-9.41 -7.867 -0.339 5
-9.438 -7.823 -0.483 6
-9.5 -7.812 -0.643 5
-9.617 -7.846 -0.827 1
-18.734 -15.172 -4.731 7
-17.951 -14.436 -4.676 6
-17.308 -13.82 -4.66 6
-16.668 -13.222 -4.634 9
-16.057 -12.654 -4.603 8
-15.497 -12.139 -4.585 9
-14.983 -11.665 -4.575 9
-14.489 -11.217 -4.566 10
-14.021 -10.793 -4.557 12
-13.602 -10.415 -4.567 33
-11.744 -8.944 -3.74 3
-11.827 -8.962 -4.002 2
-11.893 -8.969 -4.263 42
-11.559 -8.672 -4.277 32
-11.115 -8.3 -4.215 12
-75.407 -71.934 -9.684 18
-9.527 -8.974 1.256 1
-9.508 -8.849 1.119 255
-9.576 -8.807 0.967 6
-9.586 -8.715 0.827 0
-9.47 -8.512 0.719 4
-9.634 -8.566 0.544 0
-9.567 -8.417 0.427 5
-9.539 -8.305 0.302 6
-9.524 -8.21 0.173 4
-9.512 -8.116 0.046 0
-24.261 -20.519 -4.877 31
-9.416 -7.89 -0.188 3
-9.425 -7.83 -0.324 5
-9.468 -7.799 -0.472 5
-9.548 -7.802 -0.638 4
-19.672 -15.948 -4.778 7
-18.853 -15.172 -4.731 7
-18.067 -14.438 -4.677 5
-17.414 -13.818 -4.659 7
-16.76 -13.212 -4.628 8
-16.15 -12.648 -4.6 8
-15.579 -12.128 -4.578 7
-15.064 -11.656 -4.569 9
-14.568 -11.21 -4.561 9
-14.093 -10.783 -4.55 20
-13.667 -10.402 -4.557 33
-11.868 -8.984 -3.77 4
-11.594 -8.734 -3.824 14
-12.103 -9.073 -4.347 20
-11.561 -8.623 -4.235 19
-11.17 -8.292 -4.208 12
0.0 -0.0 3.0 0
-9.557 -8.95 1.26 0
-9.523 -8.811 1.127 89
-9.589 -8.765 0.976 0
-44.609 -40.312 -7.051 4
-9.468 -8.458 0.734 4
-33.29 -29.418 -5.436 27
-9.632 -8.422 0.425 0
-9.569 -8.279 0.31 5
-9.533 -8.167 0.188 6
-9.515 -8.068 0.063 4
-9.468 -7.958 -0.055 0
-9.419 -7.843 -0.169 4
-9.44 -7.794 -0.308 6
-9.491 -7.769 -0.459 5
-9.602 -7.797 -0.636 2
-19.808 -15.957 -4.783 8
-18.968 -15.169 -4.729 7
-18.172 -14.43 -4.673 13
-17.511 -13.807 -4.653 7
-16.861 -13.209 -4.626 7
-16.24 -12.639 -4.594 7
-15.668 -12.122 -4.575 7
-15.145 -11.646 -4.563 9
-14.645 -11.2 -4.554 10
-14.165 -10.771 -4.542 12
-13.743 -10.397 -4.554 30
-11.791 -8.873 -3.686 5
-11.662 -8.733 -3.823 3
-11.86 -8.839 -4.157 50
-11.556 -8.569 -4.191 12
-11.227 -8.287 -4.204 14
0.0 -0.0 3.0 0
0.0 -0.0 3.0 0
-9.57 -8.801 1.129 12
-50.407 -45.802 -7.574 25
-45.01 -40.43 -7.08 4
-9.471 -8.409 0.747 5
-33.33 -29.274 -5.394 11
-33.921 -29.479 -6.013 3
-9.622 -8.274 0.312 0
-9.571 -8.149 0.194 5
-9.529 -8.031 0.077 6
-9.429 -7.875 -0.023 2
-9.424 -7.799 -0.151 5
-9.469 -7.769 -0.298 6
-9.539 -7.759 -0.454 5
-20.641 -16.655 -4.766 3
-19.926 -15.951 -4.78 9
-19.075 -15.159 -4.724 6
-18.285 -14.43 -4.672 12
-17.611 -13.798 -4.649 7
-16.956 -13.2 -4.621 8
-16.331 -12.631 -4.589 8
-15.756 -12.114 -4.57 8
-15.229 -11.639 -4.558 9
-14.73 -11.196 -4.552 10
-14.246 -10.767 -4.539 11
-13.814 -10.388 -4.547 33
-11.847 -8.861 -3.678 9
-11.733 -8.734 -3.824 0
-12.139 -8.994 -4.284 30
-11.615 -8.563 -4.185 12
-11.279 -8.277 -4.195 13
0.0 -0.0 3.0 0
-65.982 -61.066 -8.87 21
-9.614 -8.79 1.132 1
-50.867 -45.944 -7.607 4
-45.471 -40.598 -7.122 4
-9.473 -8.361 0.76 5
-33.355 -29.116 -5.349 10
-34.212 -29.549 -6.034 3
-31.765 -27.145 -5.82 3
-9.622 -8.141 0.197 0
-9.553 -8.0 0.088 5
-9.423 -7.821 -0.002 4
-9.439 -7.762 -0.136 5
-9.495 -7.741 -0.286 5
-9.59 -7.75 -0.451 2
-20.749 -16.637 -4.758 3
-20.051 -15.95 -4.779 8
-19.198 -15.16 -4.724 6
-18.396 -14.425 -4.67 14
-17.711 -13.79 -4.644 7
-17.051 -13.191 -4.616 7
-16.421 -12.621 -4.584 7
-15.839 -12.103 -4.563 7
-15.31 -11.629 -4.552 9
-14.807 -11.185 -4.545 10
-14.322 -10.759 -4.533 10
-13.885 -10.378 -4.54 31
-11.951 -8.885 -3.696 1
-12.325 -9.12 -4.125 43
-12.272 -9.039 -4.32 21
-11.668 -8.552 -4.176 12
-11.331 -8.267 -4.187 13
-81.009 -75.496 -10.312 48
0.0 -0.0 3.0 0
-9.667 -8.786 1.132 0
0.0 -0.0 3.0 0
-45.931 -40.76 -7.163 4
-9.485 -8.32 0.771 5
-9.458 -8.205 0.647 1
-34.503 -29.617 -6.055 7
-32.05 -27.218 -5.844 4
-29.711 -24.982 -5.602 4
-9.448 -7.862 0.138 2
-9.428 -7.776 0.015 5
-9.459 -7.729 -0.123 6
-9.528 -7.718 -0.276 5
-9.658 -7.757 -0.454 0
-21.089 -16.803 -4.835 4
-20.173 -15.946 -4.777 7
-19.317 -15.158 -4.723 6
-18.489 -14.407 -4.66 24
-17.811 -13.781 -4.639 7
-17.149 -13.185 -4.612 8
-16.517 -12.617 -4.581 7
-15.922 -12.091 -4.555 7
-15.392 -11.618 -4.545 9
-14.89 -11.179 -4.54 9
-14.397 -10.749 -4.527 11
-13.959 -10.37 -4.535 29
-13.164 -9.729 -4.331 10
-11.991 -8.821 -3.892 85
-12.327 -9.026 -4.309 21
-11.726 -8.545 -4.17 12
-11.385 -8.26 -4.18 13
0.0 -0.0 3.0 0
-63.95 -58.492 -8.37 20
0.0 -0.0 3.0 0
0.0 -0.0 3.0 0
-46.397 -40.926 -7.204 3
-9.49 -8.274 0.783 5
-9.457 -8.154 0.662 5
-31.736 -27.074 -5.277 54
-32.308 -27.268 -5.86 5
-29.943 -25.02 -5.615 3
-9.429 -7.797 0.162 4
-9.442 -7.738 0.03 6
-9.491 -7.706 -0.113 5
-9.584 -7.715 -0.275 4
-20.966 -16.733 -4.45 4
-21.262 -16.834 -4.85 5
-20.301 -15.945 -4.777 8
-19.427 -15.148 -4.718 7
-18.598 -14.4 -4.657 27
-17.914 -13.774 -4.635 7
-17.242 -13.173 -4.605 8
-16.611 -12.609 -4.576 7
-16.016 -12.087 -4.553 7
-15.479 -11.612 -4.541 9
-14.96 -11.163 -4.53 10
-14.469 -10.737 -4.518 13
-14.033 -10.362 -4.529 28
-12.464 -9.157 -3.9 17
-12.432 -9.091 -4.102 42
-12.366 -9.002 -4.29 32
-11.779 -8.533 -4.16 17
-11.44 -8.251 -4.173 14
-74.119 -68.274 -9.038 26
-63.863 -58.07 -8.288 53
0.0 -0.0 3.0 0
0.0 -0.0 3.0 0
-46.845 -41.071 -7.24 7
-9.504 -8.236 0.793 5
-9.414 -8.068 0.687 4
-31.816 -26.975 -5.247 255
-32.475 -27.239 -5.85 3
-9.455 -7.851 0.297 1
-9.43 -7.75 0.179 5
-9.465 -7.708 0.041 6
-9.523 -7.684 -0.105 5
-9.641 -7.712 -0.273 1
0.0 -0.0 3.0 0
-21.401 -16.837 -4.851 5
-20.42 -15.938 -4.773 8
-19.547 -15.145 -4.717 6
-18.712 -14.398 -4.656 26
-18.014 -13.764 -4.629 7
-17.334 -13.16 -4.598 9
-16.704 -12.601 -4.572 7
-16.102 -12.077 -4.547 7
-15.563 -11.604 -4.536 9
-15.046 -11.159 -4.527 10
-14.545 -10.728 -4.512 15
-12.475 -9.156 -3.653 11
-12.481 -9.114 -3.868 44
-12.498 -9.085 -4.098 29
-12.406 -8.978 -4.27 28
-11.837 -8.526 -4.154 15
-11.491 -8.241 -4.164 14
0.0 -0.0 3.0 0
0.0 -0.0 3.0 0
0.0 -0.0 3.0 0
0.0 -0.0 3.0 0
-47.285 -41.207 -7.274 4
-9.5 -8.182 0.808 3
-9.47 -8.066 0.687 4
-31.765 -26.765 -5.183 6
-32.464 -27.061 -5.793 4
-9.442 -7.792 0.317 3
-9.444 -7.713 0.193 5
-9.49 -7.68 0.052 6
-9.567 -7.67 -0.099 4
-23.787 -18.907 -5.026 7
0.0 -0.0 3.0 0
-21.538 -16.837 -4.851 5
-20.548 -15.936 -4.772 8
-19.664 -15.139 -4.714 5
-18.817 -14.388 -4.65 23
-18.121 -13.758 -4.626 8
-17.433 -13.153 -4.594 9
-16.795 -12.59 -4.565 7
-16.191 -12.068 -4.541 7
-15.645 -11.593 -4.528 9
-15.129 -11.152 -4.522 10
-14.629 -10.725 -4.51 10
-12.467 -9.096 -3.608 33
-12.503 -9.076 -3.839 26
-12.824 -9.267 -4.24 35
-12.458 -8.962 -4.257 30
-11.893 -8.517 -4.146 15
-11.54 -8.228 -4.153 14
0.0 -0.0 3.0 0
0.0 -0.0 3.0 0
0.0 -0.0 3.0 0
0.0 -0.0 3.0 0
-47.827 -41.428 -7.329 3
-9.43 -8.072 0.837 5
-9.51 -8.05 0.692 4
-31.721 -26.563 -5.121 5
-9.471 -7.846 0.451 0
-9.431 -7.734 0.337 4
-9.46 -7.677 0.206 6
-9.522 -7.658 0.06 5
-9.632 -7.674 -0.101 1
-23.939 -18.908 -5.026 7
-22.76 -17.821 -4.935 1
-21.685 -16.845 -4.855 5
-20.679 -15.936 -4.772 8
-19.796 -15.145 -4.717 6
-18.926 -14.379 -4.646 27
-18.221 -13.747 -4.62 8
-17.534 -13.146 -4.59 8
-16.895 -12.586 -4.563 7
-16.289 -12.065 -4.539 7
-15.729 -11.583 -4.522 7
-15.197 -11.132 -4.509 10
-12.454 -9.074 -3.354 19
-12.48 -9.05 -3.575 35
-12.59 -9.084 -3.846 14
-12.975 -9.32 -4.281 21
-12.515 -8.951 -4.248 17
-11.961 -8.514 -4.144 14
-11.598 -8.222 -4.147 14
0.0 -0.0 3.0 0
0.0 -0.0 3.0 0
0.0 -0.0 3.0 0
0.0 -0.0 3.0 0
0.0 -0.0 3.0 0
-9.455 -8.045 0.844 5
-9.494 -7.987 0.71 4
-31.713 -26.392 -5.069 6
-9.451 -7.781 0.472 3
-9.444 -7.696 0.35 5
-9.489 -7.652 0.215 5
-9.56 -7.64 0.067 4
-24.835 -19.661 -4.944 9
-24.116 -18.927 -5.034 7
-22.906 -17.822 -4.935 5
-21.813 -16.837 -4.851 5
-20.814 -15.939 -4.774 7
-19.901 -15.129 -4.709 6
-19.035 -14.371 -4.641 28
-18.337 -13.748 -4.621 8
-17.63 -13.135 -4.584 9
-16.983 -12.573 -4.554 7
-16.375 -12.054 -4.532 7
-15.814 -11.573 -4.516 9
-12.458 -9.07 -3.118 1
-12.455 -9.02 -3.316 30
-12.547 -9.043 -3.57 18
-13.496 -9.68 -4.295 10
-13.004 -9.285 -4.254 21
-12.593 -8.954 -4.251 16
-12.019 -8.506 -4.138 15
-11.65 -8.211 -4.138 14
0.0 -0.0 3.0 0
0.0 -0.0 3.0 0
0.0 -0.0 3.0 0
0.0 -0.0 3.0 0
0.0 -0.0 3.0 0
-9.471 -8.009 0.854 4
-9.455 -7.906 0.733 4
-9.479 -7.839 0.603 0
-9.443 -7.726 0.49 4
-9.46 -7.661 0.362 6
-9.517 -7.627 0.224 5
-9.616 -7.636 0.069 2
-24.986 -19.656 -4.941 9
-24.275 -18.931 -5.036 7
-23.065 -17.832 -4.939 5
-21.954 -16.838 -4.852 5
-20.94 -15.933 -4.771 7
-20.033 -15.133 -4.71 6
-19.162 -14.375 -4.643 32
-18.441 -13.739 -4.615 7
-17.729 -13.125 -4.578 8
-17.08 -12.565 -4.55 7
-16.462 -12.043 -4.525 7
-15.898 -11.563 -4.509 7
-12.446 -9.006 -3.074 27
-12.5 -8.998 -3.3 23
-12.604 -9.03 -3.56 0
-13.279 -9.467 -4.134 15
-13.089 -9.291 -4.259 22
-12.65 -8.941 -4.241 22
-12.075 -8.497 -4.13 13
-11.701 -8.2 -4.128 13
0.0 -0.0 3.0 0
0.0 -0.0 3.0 0
0.0 -0.0 3.0 0
0.0 -0.0 3.0 0
0.0 -0.0 3.0 0
-9.572 -8.045 0.844 4
-9.408 -7.818 0.758 4
-9.458 -7.774 0.623 2
-9.447 -7.68 0.505 5
-9.482 -7.631 0.372 7
-9.552 -7.606 0.232 4
-9.684 -7.641 0.067 0
-25.129 -19.643 -4.936 10
-24.444 -18.941 -5.04 9
-23.212 -17.832 -4.939 5
-22.101 -16.843 -4.854 5
-21.078 -15.936 -4.773 7
-20.148 -15.123 -4.706 5
-19.274 -14.367 -4.639 31
-18.545 -13.729 -4.61 7
-17.837 -13.123 -4.576 8
-17.174 -12.556 -4.544 7
-16.554 -12.035 -4.52 7
-12.459 -9.005 -2.848 5
-12.458 -8.959 -3.043 27
-12.575 -8.996 -3.299 1
-13.04 -9.286 -3.747 10
-13.269 -9.404 -4.086 17
-13.043 -9.203 -4.19 20
-12.708 -8.929 -4.231 19
-12.122 -8.48 -4.116 31
-11.762 -8.195 -4.124 13
0.0 -0.0 3.0 0
0.0 -0.0 3.0 0
-64.762 -56.125 -8.93 7
0.0 -0.0 3.0 0
-49.981 -42.256 -7.536 3
-9.612 -8.029 0.849 5
-9.475 -7.826 0.756 6
-9.444 -7.714 0.642 4
-9.462 -7.645 0.516 6
-9.507 -7.603 0.382 5
-9.598 -7.595 0.236 3
-26.296 -20.618 -4.915 24
-25.281 -19.636 -4.934 9
-24.606 -18.946 -5.042 9
-23.368 -17.837 -4.942 5
-22.248 -16.847 -4.856 6
-21.214 -15.937 -4.773 7
-20.274 -15.121 -4.705 6
-19.389 -14.362 -4.636 31
-18.652 -13.72 -4.605 5
-17.936 -13.112 -4.57 9
-17.268 -12.545 -4.538 8
-16.643 -12.024 -4.514 7
-12.44 -8.937 -2.804 35
-12.491 -8.928 -3.022 19
-15.016 -10.677 -4.476 11
-13.081 -9.258 -3.727 10
-13.703 -9.653 -4.274 17
-13.134 -9.213 -4.198 22
-12.765 -8.917 -4.221 19
-12.172 -8.466 -4.103 19
-11.814 -8.184 -4.114 13
0.0 -0.0 3.0 0
-74.514 -65.018 -9.638 108
-65.669 -56.573 -9.025 7
0.0 -0.0 3.0 0
0.0 -0.0 3.0 0
-9.616 -7.983 0.861 5
-9.476 -7.778 0.77 3
-9.447 -7.669 0.655 5
-9.481 -7.612 0.527 7
-9.544 -7.585 0.388 5
-9.663 -7.598 0.234 1
-26.533 -20.674 -4.936 30
-25.437 -19.632 -4.932 10
-24.772 -18.953 -5.045 12
-23.513 -17.834 -4.94 5
-22.383 -16.842 -4.854 6
-21.337 -15.927 -4.768 7
-20.392 -15.113 -4.7 6
-19.504 -14.355 -4.633 31
-18.762 -13.715 -4.602 7
-18.035 -13.102 -4.564 9
-17.365 -12.537 -4.533 7
-12.434 -8.927 -2.578 2
-12.445 -8.885 -2.77 28
-15.613 -11.09 -4.481 10
-15.092 -10.666 -4.468 12
-13.139 -9.244 -3.716 7
-13.066 -9.148 -3.894 1
-13.253 -9.241 -4.22 37
-12.829 -8.909 -4.214 19
-12.245 -8.467 -4.105 12
-11.868 -8.175 -4.106 14
0.0 -0.0 3.0 0
0.0 -0.0 3.0 0
0.0 -0.0 3.0 0
0.0 -0.0 3.0 0
0.0 -0.0 3.0 0
-9.617 -7.935 0.874 5
-9.457 -7.715 0.788 4
-9.462 -7.634 0.666 5
-9.506 -7.584 0.536 5
-9.585 -7.569 0.394 4
-28.293 -22.107 -5.046 19
-26.738 -20.701 -4.946 17
-25.604 -19.636 -4.934 10
-24.942 -18.961 -5.049 16
-23.67 -17.838 -4.942 5
-22.531 -16.845 -4.855 6
-21.476 -15.929 -4.769 7
-20.522 -15.112 -4.7 6
-19.632 -14.357 -4.634 24
-18.863 -13.701 -4.595 7
-18.14 -13.095 -4.56 8
-17.463 -12.528 -4.528 8
-12.433 -8.871 -2.543 18
-12.493 -8.864 -2.756 16
-15.687 -11.075 -4.47 7
-15.168 -10.653 -4.459 13
-13.113 -9.169 -3.661 15
-13.829 -9.625 -4.253 19
-13.327 -9.237 -4.217 35
-12.88 -8.891 -4.2 24
-12.274 -8.438 -4.08 7
-11.926 -8.168 -4.1 13
0.0 -0.0 3.0 0
0.0 -0.0 3.0 0
0.0 -0.0 3.0 0
0.0 -0.0 3.0 0
0.0 -0.0 3.0 0
-9.575 -7.852 0.896 2
-9.454 -7.665 0.802 5
-9.481 -7.601 0.676 7
-9.543 -7.566 0.542 5
-9.646 -7.57 0.394 1
-28.625 -22.225 -5.089 20
-27.023 -20.789 -4.98 29
-25.776 -19.642 -4.936 9
-25.105 -18.963 -5.05 22
-23.833 -17.846 -4.946 5
-22.667 -16.838 -4.852 5
-21.596 -15.916 -4.763 7
-20.643 -15.105 -4.696 6
-19.757 -14.357 -4.634 13
-18.974 -13.694 -4.591 7
-18.24 -13.084 -4.554 8
-12.437 -8.867 -2.328 1
-12.444 -8.823 -2.513 28
-16.328 -11.513 -4.477 7
-15.755 -11.054 -4.456 15
-15.24 -10.639 -4.45 20
-13.347 -9.277 -3.74 7
-13.239 -9.159 -3.902 3
-13.343 -9.193 -4.183 26
-12.92 -8.867 -4.18 20
-12.297 -8.404 -4.052 8
-11.981 -8.158 -4.092 13
0.0 -0.0 3.0 0
-75.348 -64.593 -9.556 17
0.0 -0.0 3.0 0
0.0 -0.0 3.0 0
0.0 -0.0 3.0 0
-9.465 -7.715 0.933 4
-9.46 -7.623 0.814 5
-9.502 -7.571 0.685 7
-9.579 -7.548 0.548 5
-32.611 -25.431 -5.757 13
-28.711 -22.151 -5.062 17
-27.164 -20.765 -4.971 32
-25.95 -19.649 -4.939 8
-25.269 -18.966 -5.05 25
-23.996 -17.854 -4.949 5
-22.821 -16.845 -4.855 6
-21.732 -15.914 -4.762 7
-20.771 -15.101 -4.694 6
-19.873 -14.349 -4.63 5
-19.078 -13.683 -4.584 7
-18.345 -13.077 -4.55 8
-12.429 -8.805 -2.291 22
-12.485 -8.797 -2.497 22
-16.419 -11.505 -4.471 7
-15.854 -11.055 -4.457 10
-15.322 -10.631 -4.444 30
-13.309 -9.193 -3.679 11
-13.234 -9.1 -3.858 13
-12.239 -8.383 -3.549 2
-12.258 -8.363 -3.772 2
-12.425 -8.442 -4.084 15
-12.035 -8.148 -4.083 13
0.0 -0.0 3.0 0
-81.922 -69.816 -10.571 23
0.0 -0.0 3.0 0
0.0 -0.0 3.0 0
0.0 -0.0 3.0 0
-9.455 -7.66 0.948 5
-9.481 -7.592 0.823 7
-9.529 -7.545 0.693 5
-9.632 -7.542 0.549 3
-32.859 -25.463 -5.767 12
-29.202 -22.388 -5.148 20
-27.199 -20.66 -4.931 30
-26.128 -19.657 -4.942 6
-25.439 -18.971 -5.053 26
-24.154 -17.857 -4.95 5
-22.96 -16.839 -4.852 6
-21.872 -15.914 -4.762 8
-20.911 -15.105 -4.697 6
-19.989 -14.342 -4.626 6
-19.192 -13.677 -4.581 6
-12.46 -8.825 -2.095 0
-12.445 -8.761 -2.264 27
-12.597 -8.82 -2.511 2
-16.511 -11.498 -4.467 7
-15.937 -11.045 -4.45 10
-15.401 -10.62 -4.437 32
-13.236 -9.088 -3.603 10
-12.217 -8.35 -3.292 9
-12.225 -8.323 -3.503 2
-12.29 -8.335 -3.75 3
-12.474 -8.427 -4.071 14
-12.096 -8.142 -4.078 13
0.0 -0.0 3.0 0
0.0 -0.0 3.0 0
0.0 -0.0 3.0 0
0.0 -0.0 3.0 0
-9.47 -7.72 1.075 2
-9.464 -7.62 0.958 5
-9.499 -7.56 0.832 9
-9.52 -7.491 0.71 3
-9.709 -7.555 0.545 0
-33.143 -25.521 -5.788 12
-29.388 -22.387 -5.148 21
-27.212 -20.538 -4.884 33
-26.344 -19.693 -4.957 7
-25.613 -18.979 -5.056 26
-24.318 -17.862 -4.953 5
-23.109 -16.839 -4.852 6
-22.015 -15.915 -4.762 7
-21.033 -15.097 -4.692 6
-20.111 -14.337 -4.623 5
-19.3 -13.666 -4.575 6
-12.448 -8.761 -2.058 19
-12.486 -8.735 -2.248 19
-17.197 -11.965 -4.477 7
-16.596 -11.484 -4.458 7
-16.024 -11.036 -4.444 10
-15.474 -10.606 -4.426 31
-13.285 -9.066 -3.587 11
-12.156 -8.259 -3.224 12
-12.25 -8.291 -3.477 3
-12.524 -8.444 -3.838 2
-12.542 -8.423 -4.068 13
-12.157 -8.136 -4.073 19
0.0 -0.0 3.0 0
0.0 -0.0 3.0 0
0.0 -0.0 3.0 0
0.0 -0.0 3.0 0
-9.46 -7.665 1.089 5
-9.478 -7.584 0.968 7
-9.526 -7.534 0.84 6
-9.509 -7.437 0.726 4
-32.784 -25.35 -5.237 1
-33.404 -25.56 -5.801 11
-29.87 -22.61 -5.229 22
-27.305 -20.478 -4.861 32
-26.542 -19.714 -4.965 8
-25.783 -18.983 -5.058 23
-24.473 -17.861 -4.952 5
-23.258 -16.839 -4.852 5
-22.139 -15.902 -4.756 6
-21.161 -15.09 -4.689 6
-20.224 -14.326 -4.617 6
-19.411 -13.657 -4.57 6
-12.451 -8.707 -2.027 22
-12.53 -8.71 -2.233 6
-17.287 -11.952 -4.468 8
-16.684 -11.474 -4.451 8
-16.108 -11.025 -4.437 10
-15.492 -10.553 -4.389 5
-13.26 -8.994 -3.535 12
-12.147 -8.204 -3.182 19
-12.302 -8.277 -3.467 3
-13.14 -8.808 -4.132 27
-12.586 -8.403 -4.051 26
-12.209 -8.123 -4.061 14
0.0 -0.0 3.0 0
0.0 -0.0 3.0 0
0.0 -0.0 3.0 0
0.0 -0.0 3.0 0
-9.462 -7.619 1.1 5
-9.499 -7.554 0.976 12
-9.562 -7.516 0.845 5
-9.505 -7.387 0.742 4
-33.015 -25.368 -5.243 1
-33.653 -25.588 -5.811 10
-30.064 -22.612 -5.23 21
-27.58 -20.551 -4.889 31
-26.727 -19.725 -4.969 11
-25.964 -18.993 -5.062 24
-24.638 -17.866 -4.954 5
-23.401 -16.834 -4.85 5
-22.285 -15.904 -4.757 6
-21.289 -15.085 -4.686 6
-20.356 -14.327 -4.618 6
-12.458 -8.709 -1.827 0
-12.492 -8.681 -2.012 17
-12.57 -8.683 -2.217 4
-17.377 -11.939 -4.46 10
-16.772 -11.463 -4.444 7
-15.601 -10.612 -4.158 6
-15.506 -10.498 -4.351 2
-13.392 -9.028 -3.559 10
-12.175 -8.173 -3.158 19
-12.48 -8.346 -3.52 3
-13.197 -8.794 -4.121 51
-12.663 -8.406 -4.054 14
-12.263 -8.113 -4.053 14
0.0 -0.0 3.0 0
-78.847 -65.627 -9.757 13
0.0 -0.0 3.0 0
-9.555 -7.744 1.212 0
-9.476 -7.585 1.109 7
-9.519 -7.524 0.984 7
-9.602 -7.5 0.85 4
-9.504 -7.339 0.756 5
-33.263 -25.398 -5.252 2
-33.933 -25.638 -5.828 8
-30.195 -22.566 -5.213 19
-28.078 -20.789 -4.98 17
-26.916 -19.737 -4.974 14
-26.141 -19.0 -5.065 22
-24.803 -17.87 -4.956 5
-23.55 -16.832 -4.849 6
-22.416 -15.895 -4.753 7
-21.426 -15.085 -4.686 6
-20.473 -14.317 -4.612 5
-12.391 -8.607 -1.771 21
-12.639 -8.727 -2.038 9
-18.147 -12.456 -4.484 8
-17.467 -11.925 -4.452 12
-16.864 -11.453 -4.438 9
-15.547 -10.509 -4.089 25
-15.526 -10.446 -4.315 2
-12.344 -8.271 -3.01 27
-12.269 -8.187 -3.169 45
-13.22 -8.788 -3.866 20
-13.248 -8.776 -4.107 26
-12.701 -8.382 -4.033 30
-12.321 -8.105 -4.045 13
0.0 -0.0 3.0 0
0.0 -0.0 3.0 0
0.0 -0.0 3.0 0
-9.529 -7.676 1.228 1
-9.493 -7.552 1.117 14
-9.552 -7.503 0.989 5
-9.653 -7.494 0.851 2
-9.531 -7.314 0.764 5
-33.495 -25.414 -5.258 2
-34.215 -25.687 -5.845 5
-30.451 -22.613 -5.23 21
-28.308 -20.825 -4.994 17
-27.083 -19.732 -4.972 22
-26.316 -19.004 -5.067 16
-24.971 -17.875 -4.959 5
-23.709 -16.836 -4.851 6
-22.547 -15.884 -4.747 7
-21.549 -15.073 -4.68 6
-20.596 -14.31 -4.609 5
-12.463 -8.601 -1.768 27
-12.617 -8.656 -1.997 1
-18.245 -12.444 -4.477 7
-17.554 -11.91 -4.442 17
-16.952 -11.441 -4.43 7
-15.539 -10.439 -4.041 44
-15.558 -10.404 -4.285 2
-12.359 -8.231 -2.98 38
-12.3 -8.157 -3.147 46
-13.317 -8.8 -3.876 15
-13.309 -8.764 -4.097 36
-12.778 -8.384 -4.035 20
-12.379 -8.096 -4.038 14
0.0 -0.0 3.0 0
0.0 -0.0 3.0 0
0.0 -0.0 3.0 0
-9.527 -7.629 1.239 1
-9.513 -7.522 1.125 9
-9.594 -7.49 0.993 5
-44.963 -34.687 -6.946 4
-9.588 -7.313 0.764 4
-33.724 -25.427 -5.262 2
-34.493 -25.731 -5.86 4
-30.686 -22.642 -5.241 29
-28.676 -20.961 -5.046 29
-27.266 -19.738 -4.975 27
-26.501 -19.014 -5.071 15
-25.13 -17.873 -4.957 5
-23.862 -16.836 -4.851 6
-22.697 -15.887 -4.749 7
-21.684 -15.07 -4.678 6
-20.722 -14.305 -4.606 6
-12.484 -8.561 -1.746 28
-19.075 -13.004 -4.508 7
-18.343 -12.431 -4.469 7
-17.659 -11.906 -4.439 27
-15.591 -10.457 -3.791 11
-15.536 -10.373 -3.996 46
-15.6 -10.367 -4.259 1
-12.355 -8.178 -2.942 56
-12.321 -8.122 -3.12 48
-13.485 -8.858 -3.92 29
-13.351 -8.74 -4.077 45
-12.837 -8.374 -4.026 13
-12.44 -8.089 -4.031 14
0.0 -0.0 3.0 0
0.0 -0.0 3.0 0
0.0 -0.0 3.0 0
-9.551 -7.601 1.245 2
-9.543 -7.499 1.13 6
-9.642 -7.482 0.995 3
-45.397 -34.804 -6.98 4
-9.759 -7.396 0.739 10
-33.967 -25.448 -5.268 1
-34.839 -25.824 -5.892 8
-30.909 -22.661 -5.248 24
-28.828 -20.937 -5.037 30
-27.443 -19.738 -4.975 28
-26.682 -19.021 -5.074 14
-25.29 -17.87 -4.956 4
-24.021 -16.838 -4.852 6
-22.831 -15.878 -4.744 7
-21.819 -15.066 -4.677 6
-12.493 -8.569 -1.556 0
-12.556 -8.555 -1.742 16
-19.175 -12.989 -4.499 7
-18.442 -12.418 -4.462 7
-17.753 -11.894 -4.432 31
-15.554 -10.367 -3.732 26
-15.556 -10.321 -3.962 48
-15.663 -10.345 -4.244 1
-12.373 -8.14 -2.914 24
-12.345 -8.089 -3.096 15
-13.78 -8.998 -4.03 33
-13.423 -8.736 -4.074 39
-12.902 -8.367 -4.021 15
-12.491 -8.076 -4.02 14
0.0 -0.0 3.0 0
0.0 -0.0 3.0 0
0.0 -0.0 3.0 0
-9.564 -7.566 1.253 5
-9.578 -7.481 1.135 5
-9.706 -7.485 0.994 0
-45.862 -34.942 -7.019 3
-9.72 -7.32 0.762 1
-34.187 -25.451 -5.27 1
-35.094 -25.847 -5.9 3
-30.934 -22.534 -5.202 23
-29.034 -20.951 -5.042 28
-27.63 -19.745 -4.977 30
-26.874 -19.033 -5.079 10
-25.456 -17.871 -4.957 4
-24.175 -16.836 -4.851 5
-21.656 -14.964 -4.298 2
-21.945 -15.055 -4.671 6
-12.486 -8.508 -1.524 22
-20.121 -13.622 -4.551 6
-19.276 -12.973 -4.49 7
-18.54 -12.405 -4.454 7
-15.6 -10.385 -3.489 0
-15.539 -10.292 -3.684 45
-15.587 -10.278 -3.932 48
-15.716 -10.317 -4.224 1
-12.391 -8.102 -2.886 7
-12.356 -8.048 -3.064 1
-13.983 -9.076 -4.091 38
-13.483 -8.723 -4.064 38
-12.958 -8.354 -4.01 13
-12.552 -8.069 -4.014 14
0.0 -0.0 3.0 0
0.0 -0.0 3.0 0
-9.578 -7.635 1.377 0
-9.603 -7.551 1.257 1
-9.623 -7.47 1.137 4
-51.563 -39.515 -7.588 4
-46.296 -35.053 -7.051 3
-34.163 -25.566 -4.816 1
0.0 -0.0 3.0 0
-31.502 -23.054 -4.938 3
-31.002 -22.439 -5.167 14
-29.152 -20.9 -5.023 19
-27.811 -19.745 -4.978 34
-27.072 -19.05 -5.086 10
-25.638 -17.882 -4.962 5
-24.338 -16.84 -4.853 6
-21.718 -14.909 -4.272 157
-22.077 -15.048 -4.667 6
-12.481 -8.45 -1.493 22
-20.245 -13.618 -4.549 6
-19.389 -12.965 -4.486 8
-18.645 -12.396 -4.448 7
-15.559 -10.292 -3.431 21
-15.545 -10.231 -3.644 47
-15.628 -10.241 -3.907 47
-15.861 -10.347 -4.245 0
-12.461 -8.098 -2.884 3
-13.486 -8.73 -3.578 9
