# .PCD v0.7 - Point Cloud Data file format
VERSION 0.7
FIELDS x y z intensity
SIZE 4 4 4 4
TYPE F F F F
COUNT 1 1 1 1
WIDTH 2490
HEIGHT 1
VIEWPOINT 0 0 0 1 0 0 0
POINTS 2490
DATA ascii
0.097 -0.977 2.413 0
0.098 -0.977 2.39 0
0.0 -0.0 3.0 0
0.098 -0.965 2.349 0
0.0 -0.0 3.0 0
0.094 -0.906 2.342 0
0.0 -0.0 3.0 0
0.089 -0.849 2.337 0
0.0 -0.0 3.0 0
0.0 -0.0 3.0 0
0.0 -0.0 3.0 0
0.12 -1.35 2.762 0
0.125 -1.392 2.729 0
0.126 -1.396 2.703 0
0.125 -1.374 2.683 0
0.125 -1.364 2.66 0
0.122 -1.324 2.645 0
0.12 -1.287 2.631 0
0.122 -1.307 2.6 0
0.118 -1.254 2.592 0
0.119 -1.25 2.569 0
0.117 -1.221 2.556 0
0.114 -1.19 2.543 0
0.117 -1.204 2.513 0
0.11 -1.129 2.521 0
0.113 -1.15 2.488 0
0.109 -1.098 2.488 0
0.111 -1.11 2.459 0
0.105 -1.051 2.464 0
0.107 -1.056 2.439 0
0.104 -1.021 2.434 0
0.105 -1.021 2.41 0
0.101 -0.98 2.411 0
0.103 -0.987 2.383 0
0.0 -0.0 3.0 0
0.103 -0.971 2.345 0
0.0 -0.0 3.0 0
0.098 -0.909 2.339 0
0.0 -0.0 3.0 0
0.093 -0.854 2.333 0
0.0 -0.0 3.0 0
0.0 -0.0 3.0 0
0.0 -0.0 3.0 0
0.124 -1.338 2.764 0
0.131 -1.408 2.726 0
0.131 -1.399 2.703 0
0.128 -1.358 2.686 0
0.129 -1.356 2.662 0
0.127 -1.331 2.643 0
0.126 -1.305 2.626 0
0.125 -1.291 2.605 0
0.123 -1.265 2.589 0
0.125 -1.277 2.56 0
0.121 -1.22 2.556 0
0.118 -1.182 2.546 0
0.121 -1.204 2.513 0
0.114 -1.129 2.521 0
0.116 -1.138 2.493 0
0.112 -1.098 2.488 0
0.114 -1.107 2.46 0
0.11 -1.057 2.461 0
0.11 -1.051 2.441 0
0.107 -1.014 2.438 0
0.106 -1.001 2.422 0
0.103 -0.966 2.419 0
0.108 -1.007 2.371 0
0.0 -0.0 3.0 0
0.105 -0.958 2.354 0
0.0 -0.0 3.0 0
0.103 -0.925 2.328 0
0.0 -0.0 3.0 0
0.098 -0.863 2.326 0
0.0 -0.0 3.0 0
0.0 -0.0 3.0 0
0.0 -0.0 3.0 0
0.129 -1.353 2.761 0
0.136 -1.412 2.726 0
0.135 -1.395 2.704 0
0.133 -1.362 2.686 0
0.132 -1.348 2.664 0
0.131 -1.327 2.644 0
0.128 -1.29 2.63 0
0.13 -1.302 2.602 0
0.126 -1.246 2.595 0
0.125 -1.231 2.576 0
0.128 -1.246 2.546 0
0.121 -1.178 2.548 0
0.123 -1.181 2.523 0
0.119 -1.144 2.514 0
0.121 -1.146 2.49 0
0.118 -1.111 2.482 0
0.119 -1.116 2.455 0
0.115 -1.068 2.456 0
0.0 -0.0 3.0 0
0.111 -1.017 2.436 0
0.111 -1.01 2.417 0
0.108 -0.977 2.413 0
0.109 -0.976 2.39 0
0.0 -0.0 3.0 0
0.107 -0.948 2.361 0
0.0 -0.0 3.0 0
0.105 -0.912 2.338 0
0.0 -0.0 3.0 0
0.101 -0.86 2.328 0
0.0 -0.0 3.0 0
0.0 -0.0 3.0 0
0.0 -0.0 3.0 0
0.133 -1.352 2.762 0
0.139 -1.398 2.728 0
0.139 -1.394 2.704 0
0.137 -1.361 2.686 0
0.137 -1.355 2.662 0
0.137 -1.342 2.64 0
0.132 -1.29 2.63 0
0.133 -1.29 2.606 0
0.131 -1.261 2.59 0
0.134 -1.284 2.558 0
0.128 -1.212 2.559 0
0.125 -1.178 2.548 0
0.128 -1.196 2.517 0
0.123 -1.143 2.515 0
0.123 -1.135 2.495 0
0.121 -1.108 2.484 0
0.121 -1.095 2.466 0
0.119 -1.074 2.453 0
0.115 -1.034 2.45 0
0.113 -1.003 2.444 0
0.117 -1.035 2.403 0
0.112 -0.976 2.414 0
0.113 -0.983 2.386 0
0.0 -0.0 3.0 0
0.11 -0.944 2.363 0
0.0 -0.0 3.0 0
0.109 -0.915 2.335 0
0.0 -0.0 3.0 0
0.105 -0.866 2.323 0
0.0 -0.0 3.0 0
0.0 -0.0 3.0 0
0.0 -0.0 3.0 0
0.138 -1.36 2.76 0
0.145 -1.414 2.725 0
0.145 -1.409 2.701 0
0.143 -1.38 2.681 0
0.141 -1.347 2.664 0
0.14 -1.33 2.644 0
0.137 -1.289 2.63 0
0.139 -1.302 2.602 0
0.136 -1.264 2.589 0
0.139 -1.283 2.558 0
0.136 -1.245 2.547 0
0.13 -1.189 2.544 0
0.131 -1.185 2.521 0
0.127 -1.143 2.515 0
0.129 -1.149 2.489 0
0.126 -1.115 2.48 0
0.123 -1.081 2.473 0
0.123 -1.074 2.453 0
0.12 -1.043 2.445 0
0.117 -1.006 2.443 0
0.119 -1.016 2.413 0
0.116 -0.979 2.412 0
0.116 -0.976 2.39 0
0.0 -0.0 3.0 0
0.116 -0.964 2.35 0
0.0 -0.0 3.0 0
0.113 -0.924 2.329 0
0.0 -0.0 3.0 0
0.109 -0.869 2.321 0
0.0 -0.0 3.0 0
0.0 -0.0 3.0 0
0.0 -0.0 3.0 0
0.141 -1.344 2.763 0
0.15 -1.418 2.724 0
0.149 -1.401 2.702 0
0.146 -1.364 2.685 0
0.146 -1.358 2.661 0
0.144 -1.329 2.644 0
0.142 -1.297 2.628 0
0.144 -1.313 2.599 0
0.139 -1.256 2.592 0
0.141 -1.267 2.564 0
0.138 -1.226 2.554 0
0.132 -1.166 2.552 0
0.135 -1.184 2.522 0
0.128 -1.117 2.526 0
0.131 -1.134 2.495 0
0.13 -1.117 2.479 0
0.129 -1.101 2.463 0
0.126 -1.067 2.456 0
0.123 -1.033 2.451 0
0.121 -1.013 2.439 0
0.123 -1.02 2.411 0
0.118 -0.972 2.416 0
0.116 -0.948 2.407 0
0.0 -0.0 3.0 0
0.118 -0.944 2.364 0
0.0 -0.0 3.0 0
0.116 -0.918 2.333 0
0.0 -0.0 3.0 0
0.111 -0.859 2.329 0
0.0 -0.0 3.0 0
0.0 -0.0 3.0 0
0.0 -0.0 3.0 0
0.145 -1.339 2.764 0
0.153 -1.406 2.727 0
0.154 -1.405 2.701 0
0.15 -1.36 2.686 0
0.151 -1.358 2.661 0
0.148 -1.325 2.645 0
0.144 -1.281 2.633 0
0.148 -1.309 2.6 0
0.145 -1.271 2.587 0
0.144 -1.256 2.568 0
0.142 -1.222 2.555 0
0.138 -1.188 2.544 0
0.138 -1.18 2.523 0
0.135 -1.146 2.514 0
0.134 -1.127 2.498 0
0.133 -1.114 2.481 0
0.131 -1.087 2.47 0
0.131 -1.077 2.451 0
0.126 -1.029 2.453 0
0.126 -1.019 2.435 0
0.128 -1.027 2.407 0
0.123 -0.982 2.41 0
0.124 -0.985 2.384 0
0.0 -0.0 3.0 0
0.121 -0.943 2.364 0
0.0 -0.0 3.0 0
0.119 -0.914 2.336 0
0.0 -0.0 3.0 0
0.118 -0.891 2.304 0
0.0 -0.0 3.0 0
0.0 -0.0 3.0 0
0.0 -0.0 3.0 0
0.151 -1.359 2.76 0
0.156 -1.393 2.729 0
0.157 -1.396 2.703 0
0.155 -1.364 2.685 0
0.155 -1.358 2.662 0
0.154 -1.336 2.642 0
0.147 -1.272 2.635 0
0.152 -1.304 2.601 0
0.148 -1.259 2.591 0
0.148 -1.255 2.568 0
0.146 -1.225 2.554 0
0.141 -1.18 2.547 0
0.142 -1.179 2.524 0
0.138 -1.138 2.517 0
0.141 -1.151 2.487 0
0.137 -1.113 2.481 0
0.139 -1.115 2.456 0
0.134 -1.066 2.457 0
0.131 -1.035 2.449 0
0.129 -1.015 2.437 0
0.134 -1.043 2.398 0
0.126 -0.975 2.414 0
0.128 -0.984 2.385 0
0.0 -0.0 3.0 0
0.124 -0.939 2.366 0
0.0 -0.0 3.0 0
0.124 -0.92 2.332 0
0.0 -0.0 3.0 0
0.119 -0.871 2.319 0
0.0 -0.0 3.0 0
0.0 -0.0 3.0 0
0.0 -0.0 3.0 0
0.154 -1.346 2.763 1
0.162 -1.409 2.726 0
0.162 -1.4 2.702 0
0.16 -1.371 2.683 0
0.16 -1.365 2.66 0
0.156 -1.32 2.646 0
0.154 -1.291 2.63 0
0.155 -1.296 2.604 0
0.151 -1.247 2.595 0
0.157 -1.292 2.555 0
0.15 -1.224 2.554 0
0.147 -1.194 2.542 0
0.147 -1.183 2.522 0
0.142 -1.138 2.517 0
0.145 -1.148 2.489 0
0.139 -1.098 2.488 0
0.138 -1.082 2.472 0
0.137 -1.062 2.459 0
0.0 -0.0 3.0 0
0.133 -1.019 2.435 0
0.135 -1.026 2.408 0
0.131 -0.984 2.409 0
0.13 -0.971 2.393 0
0.0 -0.0 3.0 0
0.13 -0.955 2.356 0
0.0 -0.0 3.0 0
0.128 -0.923 2.329 0
0.0 -0.0 3.0 0
0.122 -0.865 2.324 0
0.0 -0.0 3.0 0
0.0 -0.0 3.0 0
0.0 -0.0 3.0 0
0.158 -1.346 2.763 0
0.165 -1.4 2.728 0
0.165 -1.391 2.704 0
0.164 -1.37 2.684 0
0.164 -1.36 2.661 0
0.162 -1.335 2.642 0
0.159 -1.299 2.628 0
0.16 -1.299 2.603 0
0.156 -1.258 2.591 0
0.159 -1.273 2.562 0
0.156 -1.236 2.55 0
0.15 -1.187 2.544 0
0.15 -1.175 2.525 0
0.145 -1.126 2.522 0
0.147 -1.136 2.494 0
0.146 -1.116 2.48 0
0.143 -1.085 2.471 0
0.14 -1.055 2.463 0
0.136 -1.02 2.457 0
0.137 -1.018 2.436 0
0.138 -1.018 2.412 0
0.137 -1.004 2.397 0
0.133 -0.971 2.393 0
0.0 -0.0 3.0 0
0.133 -0.949 2.36 0
0.0 -0.0 3.0 0
0.13 -0.913 2.336 0
0.0 -0.0 3.0 0
0.124 -0.855 2.332 0
0.0 -0.0 3.0 0
0.0 -0.0 3.0 0
0.0 -0.0 3.0 0
0.163 -1.354 2.761 1
0.171 -1.412 2.726 0
0.171 -1.403 2.702 0
0.167 -1.358 2.686 0
0.167 -1.345 2.665 0
0.167 -1.335 2.642 0
0.162 -1.29 2.63 0
0.165 -1.307 2.6 0
0.161 -1.261 2.59 0
0.162 -1.266 2.564 0
0.158 -1.223 2.555 0
0.154 -1.187 2.544 0
0.155 -1.182 2.522 0
0.149 -1.129 2.521 0
0.152 -1.143 2.491 0
0.149 -1.116 2.48 0
0.146 -1.085 2.471 0
0.144 -1.062 2.459 0
0.143 -1.042 2.446 0
0.141 -1.021 2.434 0
0.0 -0.0 3.0 0
0.136 -0.971 2.417 0
0.136 -0.963 2.398 0
0.0 -0.0 3.0 0
0.137 -0.954 2.356 0
0.0 -0.0 3.0 0
0.132 -0.906 2.342 0
0.0 -0.0 3.0 0
0.129 -0.867 2.322 0
0.0 -0.0 3.0 0
0.0 -0.0 3.0 0
0.0 -0.0 3.0 0
0.165 -1.337 2.764 1
0.175 -1.403 2.727 0
0.176 -1.402 2.702 0
0.172 -1.365 2.685 0
0.172 -1.352 2.663 0
0.169 -1.32 2.646 0
0.167 -1.294 2.629 0
0.169 -1.306 2.601 0
0.162 -1.242 2.596 0
0.172 -1.31 2.549 0
0.162 -1.223 2.555 0
0.156 -1.171 2.551 0
0.158 -1.174 2.526 0
0.153 -1.129 2.521 0
0.157 -1.153 2.487 0
0.153 -1.115 2.48 0
0.152 -1.099 2.464 0
0.148 -1.061 2.459 0
0.146 -1.041 2.447 0
0.146 -1.028 2.43 0
0.146 -1.024 2.409 0
0.14 -0.973 2.415 0
0.143 -0.986 2.384 0
0.0 -0.0 3.0 0
0.14 -0.948 2.361 0
0.127 -0.855 2.401 0
0.136 -0.909 2.339 0
0.0 -0.0 3.0 0
0.133 -0.87 2.321 0
0.0 -0.0 3.0 0
0.0 -0.0 3.0 0
0.0 -0.0 3.0 0
0.172 -1.36 2.76 1
0.179 -1.407 2.727 0
0.179 -1.398 2.703 0
0.176 -1.361 2.686 0
0.179 -1.37 2.658 0
0.174 -1.323 2.646 0
0.171 -1.297 2.628 0
0.173 -1.302 2.602 0
0.169 -1.26 2.591 0
0.172 -1.276 2.561 0
0.167 -1.223 2.555 0
0.162 -1.182 2.546 0
0.163 -1.181 2.523 0
0.157 -1.128 2.521 0
0.16 -1.146 2.49 0
0.156 -1.108 2.484 0
0.157 -1.106 2.461 0
0.153 -1.072 2.454 0
0.148 -1.03 2.452 0
0.147 -1.01 2.44 0
0.149 -1.017 2.413 0
0.144 -0.977 2.413 0
0.145 -0.976 2.39 0
0.0 -0.0 3.0 0
0.144 -0.951 2.358 0
0.132 -0.865 2.394 0
0.139 -0.903 2.344 0
0.0 -0.0 3.0 0
0.136 -0.873 2.318 0
0.0 -0.0 3.0 0
0.0 -0.0 3.0 0
0.0 -0.0 3.0 0
0.174 -1.344 2.763 1
0.184 -1.406 2.727 0
0.185 -1.405 2.701 0
0.182 -1.372 2.683 0
0.182 -1.366 2.659 0
0.178 -1.322 2.646 0
0.176 -1.297 2.628 0
0.177 -1.297 2.603 0
0.174 -1.268 2.588 0
0.173 -1.248 2.57 0
0.172 -1.23 2.552 0
0.166 -1.185 2.545 0
0.166 -1.176 2.525 0
0.164 -1.15 2.512 0
0.163 -1.134 2.495 0
0.158 -1.097 2.489 0
0.162 -1.112 2.458 0
0.157 -1.067 2.456 0
0.153 -1.036 2.449 0
0.152 -1.023 2.433 0
0.148 -0.989 2.429 0
0.15 -0.99 2.405 0
0.148 -0.972 2.392 0
0.0 -0.0 3.0 0
0.147 -0.947 2.361 0
0.0 -0.0 3.0 0
0.143 -0.905 2.342 0
0.0 -0.0 3.0 0
0.142 -0.888 2.306 0
0.0 -0.0 3.0 0
0.0 -0.0 3.0 0
0.0 -0.0 3.0 0
0.179 -1.348 2.762 1
0.187 -1.398 2.728 0
0.188 -1.396 2.703 0
0.184 -1.352 2.688 0
0.186 -1.362 2.661 0
0.183 -1.325 2.645 0
0.179 -1.288 2.631 0
0.181 -1.297 2.603 0
0.174 -1.237 2.598 0
0.181 -1.278 2.56 0
0.177 -1.237 2.55 0
0.169 -1.177 2.548 0
0.174 -1.199 2.516 0
0.165 -1.131 2.52 0
0.168 -1.141 2.492 0
0.165 -1.114 2.481 0
0.166 -1.112 2.458 0
0.159 -1.06 2.46 0
0.156 -1.029 2.453 0
0.157 -1.027 2.431 0
0.0 -0.0 3.0 0
0.154 -0.992 2.404 0
0.153 -0.978 2.389 0
0.0 -0.0 3.0 0
0.15 -0.944 2.363 0
0.0 -0.0 3.0 0
0.147 -0.908 2.341 0
0.0 -0.0 3.0 0
0.142 -0.862 2.326 0
0.0 -0.0 3.0 0
0.0 -0.0 3.0 0
0.0 -0.0 3.0 0
0.183 -1.343 2.763 1
0.193 -1.405 2.727 0
0.193 -1.4 2.702 0
0.187 -1.348 2.689 0
0.189 -1.35 2.663 0
0.186 -1.317 2.647 0
0.184 -1.296 2.628 0
0.185 -1.296 2.604 0
0.179 -1.244 2.596 0
0.186 -1.285 2.557 0
0.18 -1.229 2.553 0
0.177 -1.203 2.538 0
0.178 -1.198 2.516 0
0.168 -1.127 2.521 0
0.169 -1.126 2.499 0
0.168 -1.107 2.484 0
0.169 -1.107 2.46 0
0.164 -1.066 2.457 0
0.163 -1.053 2.44 0
0.159 -1.019 2.435 0
0.16 -1.02 2.411 0
0.156 -0.985 2.408 0
0.155 -0.972 2.393 0
0.0 -0.0 3.0 0
0.152 -0.937 2.368 0
0.0 -0.0 3.0 0
0.152 -0.921 2.331 0
0.0 -0.0 3.0 0
0.149 -0.884 2.309 0
0.0 -0.0 3.0 0
0.0 -0.0 3.0 0
0.0 -0.0 3.0 0
0.188 -1.351 2.762 1
0.198 -1.412 2.726 0
0.198 -1.399 2.703 0
0.194 -1.366 2.685 0
0.194 -1.357 2.662 0
0.191 -1.324 2.645 0
0.187 -1.287 2.631 0
0.189 -1.291 2.605 0
0.185 -1.254 2.592 0
0.189 -1.273 2.562 0
0.184 -1.228 2.553 0
0.176 -1.169 2.551 0
0.181 -1.19 2.519 0
0.175 -1.149 2.512 0
0.176 -1.14 2.492 0
0.171 -1.102 2.486 0
0.171 -1.097 2.465 0
0.167 -1.059 2.46 0
0.165 -1.039 2.448 0
0.163 -1.019 2.435 0
0.0 -0.0 3.0 0
0.157 -0.968 2.418 0
0.158 -0.964 2.398 0
0.0 -0.0 3.0 0
0.159 -0.956 2.355 0
0.0 -0.0 3.0 0
0.156 -0.92 2.332 0
0.0 -0.0 3.0 0
0.149 -0.868 2.322 0
0.0 -0.0 3.0 0
0.0 -0.0 3.0 0
0.0 -0.0 3.0 0
0.193 -1.354 2.761 1
0.202 -1.407 2.726 0
0.2 -1.383 2.706 0
0.198 -1.358 2.686 0
0.201 -1.371 2.658 0
0.196 -1.331 2.643 0
0.193 -1.298 2.628 0
0.194 -1.295 2.604 0
0.192 -1.273 2.586 0
0.192 -1.266 2.564 0
0.186 -1.217 2.557 0
0.182 -1.183 2.546 0
0.183 -1.182 2.522 0
0.178 -1.138 2.517 0
0.181 -1.15 2.488 0
0.178 -1.123 2.476 0
0.175 -1.096 2.466 0
0.173 -1.073 2.454 0
0.166 -1.025 2.455 0
0.168 -1.028 2.43 0
0.0 -0.0 3.0 0
0.165 -0.995 2.402 0
0.164 -0.978 2.389 0
0.154 -0.913 2.407 0
0.162 -0.952 2.358 0
0.0 -0.0 3.0 0
0.158 -0.914 2.336 0
0.0 -0.0 3.0 0
0.154 -0.874 2.317 0
0.0 -0.0 3.0 0
0.0 -0.0 3.0 0
0.0 -0.0 3.0 0
0.199 -1.368 2.759 1
0.205 -1.399 2.728 0
0.207 -1.402 2.702 0
0.202 -1.357 2.687 0
0.205 -1.368 2.659 0
0.2 -1.323 2.646 0
0.198 -1.302 2.627 0
0.197 -1.29 2.605 0
0.192 -1.246 2.595 0
0.199 -1.28 2.559 0
0.192 -1.224 2.555 0
0.184 -1.167 2.552 0
0.189 -1.192 2.518 0
0.182 -1.14 2.516 0
0.183 -1.138 2.493 0
0.181 -1.116 2.48 0
0.179 -1.096 2.466 0
0.175 -1.062 2.459 0
0.0 -0.0 3.0 0
0.171 -1.021 2.434 0
0.0 -0.0 3.0 0
0.169 -0.997 2.401 0
0.167 -0.977 2.39 0
0.0 -0.0 3.0 0
0.164 -0.942 2.365 0
0.0 -0.0 3.0 0
0.162 -0.916 2.335 0
0.0 -0.0 3.0 0
0.155 -0.861 2.327 0
0.0 -0.0 3.0 0
0.0 -0.0 3.0 0
0.0 -0.0 3.0 0
0.2 -1.349 2.762 1
0.211 -1.406 2.727 0
0.209 -1.389 2.705 0
0.209 -1.376 2.682 0
0.207 -1.352 2.663 0
0.203 -1.319 2.647 0
0.198 -1.278 2.633 0
0.204 -1.309 2.6 0
0.197 -1.253 2.593 0
0.199 -1.257 2.567 0
0.197 -1.234 2.551 0
0.189 -1.175 2.549 0
0.193 -1.192 2.518 0
0.184 -1.128 2.521 0
0.189 -1.149 2.488 0
0.182 -1.1 2.487 0
0.187 -1.12 2.454 0
0.178 -1.057 2.461 0
0.178 -1.048 2.443 0
0.17 -0.997 2.447 0
0.0 -0.0 3.0 0
0.167 -0.963 2.421 0
0.173 -0.986 2.384 0
0.0 -0.0 3.0 0
0.169 -0.948 2.361 0
0.0 -0.0 3.0 0
0.165 -0.913 2.337 0
0.0 -0.0 3.0 0
0.158 -0.861 2.327 0
0.0 -0.0 3.0 0
0.0 -0.0 3.0 0
0.0 -0.0 3.0 0
0.206 -1.356 2.761 1
0.216 -1.413 2.725 0
0.214 -1.389 2.705 0
0.211 -1.361 2.686 0
0.213 -1.363 2.66 0
0.209 -1.326 2.645 0
0.204 -1.285 2.632 0
0.208 -1.305 2.601 0
0.201 -1.249 2.594 0
0.214 -1.32 2.546 0
0.201 -1.23 2.552 0
0.194 -1.181 2.547 0
0.195 -1.18 2.523 0
0.19 -1.139 2.516 0
0.192 -1.145 2.49 0
0.187 -1.108 2.484 0
0.189 -1.105 2.461 0
0.183 -1.064 2.458 0
0.179 -1.037 2.449 0
0.179 -1.024 2.432 0
0.0 -0.0 3.0 0
0.176 -0.99 2.405 0
0.178 -0.996 2.377 0
0.0 -0.0 3.0 0
0.17 -0.938 2.367 0
0.0 -0.0 3.0 0
0.168 -0.909 2.34 0
0.0 -0.0 3.0 0
0.16 -0.851 2.335 0
0.0 -0.0 3.0 0
0.0 -0.0 3.0 0
0.0 -0.0 3.0 0
0.209 -1.351 2.762 1
0.219 -1.405 2.727 0
0.219 -1.396 2.703 0
0.216 -1.363 2.685 0
0.22 -1.377 2.657 0
0.212 -1.321 2.646 0
0.208 -1.284 2.632 0
0.212 -1.304 2.601 0
0.207 -1.259 2.591 0
0.206 -1.249 2.57 0
0.204 -1.222 2.555 0
0.197 -1.174 2.549 0
0.199 -1.176 2.525 0
0.191 -1.12 2.525 0
0.198 -1.155 2.486 0
0.191 -1.103 2.486 0
0.191 -1.098 2.465 0
0.185 -1.057 2.462 0
0.0 -0.0 3.0 0
0.183 -1.027 2.431 0
0.0 -0.0 3.0 0
0.18 -0.993 2.403 0
0.182 -0.996 2.378 0
0.0 -0.0 3.0 0
0.174 -0.937 2.368 0
0.0 -0.0 3.0 0
0.174 -0.921 2.331 0
0.0 -0.0 3.0 0
0.164 -0.854 2.333 0
0.0 -0.0 3.0 0
0.0 -0.0 3.0 0
0.0 -0.0 3.0 0
0.213 -1.347 2.763 1
0.224 -1.404 2.727 0
0.225 -1.403 2.702 0
0.219 -1.356 2.687 0
0.221 -1.357 2.662 0
0.217 -1.321 2.646 0
0.211 -1.28 2.633 0
0.217 -1.303 2.602 0
0.21 -1.251 2.594 0
0.21 -1.248 2.57 0
0.21 -1.232 2.552 0
0.203 -1.188 2.544 0
0.205 -1.19 2.519 0
0.198 -1.138 2.517 0
0.2 -1.144 2.491 0
0.196 -1.109 2.483 0
0.194 -1.09 2.469 0
0.191 -1.066 2.457 0
0.186 -1.033 2.451 0
0.182 -1.002 2.444 0
0.0 -0.0 3.0 0
0.181 -0.982 2.41 0
0.185 -0.992 2.38 0
0.0 -0.0 3.0 0
0.179 -0.944 2.363 0
0.0 -0.0 3.0 0
0.176 -0.914 2.336 0
0.0 -0.0 3.0 0
0.165 -0.844 2.341 0
0.0 -0.0 3.0 0
0.0 -0.0 3.0 0
0.0 -0.0 3.0 0
0.217 -1.346 2.763 1
0.231 -1.419 2.724 0
0.229 -1.398 2.703 0
0.226 -1.369 2.684 0
0.224 -1.353 2.663 0
0.221 -1.32 2.646 0
0.219 -1.302 2.627 0
0.221 -1.303 2.602 0
0.218 -1.273 2.586 0
0.222 -1.291 2.555 0
0.213 -1.228 2.553 0
0.205 -1.176 2.549 0
0.21 -1.193 2.518 0
0.2 -1.13 2.52 0
0.204 -1.143 2.491 0
0.197 -1.095 2.489 0
0.2 -1.104 2.462 0
0.195 -1.069 2.455 0
0.194 -1.053 2.44 0
0.188 -1.015 2.437 0
0.0 -0.0 3.0 0
0.184 -0.978 2.412 0
0.188 -0.988 2.383 0
0.0 -0.0 3.0 0
0.183 -0.946 2.362 0
0.0 -0.0 3.0 0
0.177 -0.901 2.345 0
0.0 -0.0 3.0 0
0.177 -0.885 2.309 0
0.0 -0.0 3.0 0
0.0 -0.0 3.0 0
0.0 -0.0 3.0 0
0.224 -1.361 2.76 1
0.235 -1.418 2.724 0
0.233 -1.397 2.703 0
0.231 -1.374 2.683 0
0.232 -1.371 2.658 0
0.226 -1.327 2.645 0
0.221 -1.29 2.63 0
0.225 -1.302 2.602 0
0.221 -1.269 2.588 0
0.225 -1.28 2.559 0
0.217 -1.227 2.553 0
0.211 -1.182 2.546 0
0.213 -1.189 2.519 0
0.205 -1.133 2.519 0
0.208 -1.139 2.493 0
0.203 -1.108 2.483 0
0.201 -1.089 2.469 0
0.198 -1.065 2.457 0
0.0 -0.0 3.0 0
0.192 -1.014 2.438 0
0.0 -0.0 3.0 0
0.189 -0.984 2.408 0
0.192 -0.99 2.381 0
0.179 -0.914 2.406 0
0.186 -0.945 2.362 0
0.0 -0.0 3.0 0
0.183 -0.914 2.336 0
0.0 -0.0 3.0 0
0.178 -0.872 2.319 0
0.0 -0.0 3.0 0
0.0 -0.0 3.0 0
0.0 -0.0 3.0 0
0.227 -1.356 2.761 2
0.239 -1.413 2.725 0
0.237 -1.397 2.703 0
0.236 -1.377 2.682 0
0.237 -1.375 2.657 0
0.229 -1.315 2.648 0
0.226 -1.289 2.63 0
0.231 -1.309 2.6 0
0.223 -1.256 2.592 0
0.225 -1.257 2.567 0
0.223 -1.234 2.551 0
0.213 -1.175 2.549 0
0.217 -1.188 2.52 0
0.209 -1.137 2.518 0
0.211 -1.135 2.495 0
0.207 -1.108 2.483 0
0.205 -1.089 2.469 0
0.204 -1.072 2.454 0
0.0 -0.0 3.0 0
0.195 -1.011 2.44 0
0.0 -0.0 3.0 0
0.194 -0.987 2.407 0
0.197 -0.997 2.377 0
0.0 -0.0 3.0 0
0.19 -0.945 2.362 0
0.0 -0.0 3.0 0
0.188 -0.919 2.332 0
0.0 -0.0 3.0 0
0.183 -0.881 2.312 0
0.0 -0.0 3.0 0
0.177 -0.835 2.299 0
0.0 -0.0 3.0 0
0.231 -1.352 2.762 2
0.241 -1.401 2.728 0
0.243 -1.401 2.702 0
0.238 -1.364 2.685 0
0.241 -1.37 2.658 0
0.236 -1.333 2.643 0
0.227 -1.273 2.635 0
0.234 -1.3 2.602 0
0.227 -1.253 2.593 0
0.232 -1.275 2.561 0
0.225 -1.226 2.554 0
0.218 -1.177 2.548 0
0.221 -1.188 2.52 0
0.213 -1.132 2.519 0
0.216 -1.141 2.492 0
0.208 -1.089 2.492 0
0.212 -1.102 2.462 0
0.205 -1.061 2.459 0
0.204 -1.048 2.443 0
0.199 -1.01 2.44 0
0.0 -0.0 3.0 0
0.196 -0.98 2.411 0
0.193 -0.96 2.4 0
0.0 -0.0 3.0 0
0.197 -0.961 2.352 0
0.0 -0.0 3.0 0
0.191 -0.916 2.334 0
0.0 -0.0 3.0 0
0.18 -0.849 2.337 0
0.0 -0.0 3.0 0
0.178 -0.826 2.307 0
0.0 -0.0 3.0 0
0.234 -1.343 2.763 2
0.249 -1.424 2.723 0
0.245 -1.388 2.705 0
0.244 -1.371 2.684 0
0.245 -1.369 2.659 0
0.239 -1.325 2.645 0
0.233 -1.284 2.632 0
0.236 -1.293 2.605 0
0.229 -1.24 2.597 0
0.236 -1.27 2.563 0
0.229 -1.222 2.555 0
0.225 -1.195 2.541 0
0.225 -1.184 2.522 0
0.218 -1.138 2.517 0
0.223 -1.155 2.486 0
0.216 -1.11 2.482 0
0.213 -1.09 2.468 0
0.209 -1.06 2.46 0
0.0 -0.0 3.0 0
0.206 -1.03 2.429 0
0.0 -0.0 3.0 0
0.201 -0.986 2.407 0
0.204 -0.996 2.378 0
0.0 -0.0 3.0 0
0.197 -0.945 2.363 0
0.0 -0.0 3.0 0
0.194 -0.915 2.335 0
0.0 -0.0 3.0 0
0.187 -0.867 2.323 0
0.0 -0.0 3.0 0
0.184 -0.837 2.298 0
0.0 -0.0 3.0 0
0.24 -1.354 2.761 2
0.253 -1.42 2.724 0
0.255 -1.418 2.699 0
0.248 -1.371 2.684 0
0.251 -1.38 2.656 0
0.245 -1.332 2.643 0
0.238 -1.287 2.631 0
0.241 -1.292 2.605 0
0.236 -1.255 2.592 0
0.241 -1.277 2.56 0
0.234 -1.224 2.554 0
0.224 -1.169 2.551 0
0.231 -1.194 2.518 0
0.219 -1.124 2.523 0
0.222 -1.129 2.497 0
0.218 -1.103 2.486 0
0.216 -1.083 2.472 0
0.216 -1.077 2.451 0
0.0 -0.0 3.0 0
0.208 -1.02 2.435 0
0.0 -0.0 3.0 0
0.204 -0.985 2.408 0
0.204 -0.975 2.391 0
0.0 -0.0 3.0 0
0.205 -0.966 2.348 0
0.0 -0.0 3.0 0
0.198 -0.915 2.336 0
0.0 -0.0 3.0 0
0.192 -0.873 2.318 0
0.0 -0.0 3.0 0
0.0 -0.0 3.0 0
0.0 -0.0 3.0 0
0.245 -1.357 2.761 2
0.254 -1.399 2.728 0
0.254 -1.387 2.705 0
0.252 -1.37 2.684 0
0.254 -1.371 2.658 0
0.247 -1.323 2.646 0
0.242 -1.286 2.631 0
0.247 -1.302 2.602 0
0.239 -1.25 2.594 0
0.246 -1.276 2.561 0
0.24 -1.235 2.551 0
0.231 -1.183 2.546 0
0.233 -1.186 2.521 0
0.224 -1.13 2.52 0
0.231 -1.158 2.485 0
0.222 -1.102 2.486 0
0.222 -1.093 2.467 0
0.219 -1.073 2.454 0
0.212 -1.028 2.453 0
0.209 -1.005 2.443 0
0.0 -0.0 3.0 0
0.205 -0.971 2.416 0
0.207 -0.975 2.391 0
0.0 -0.0 3.0 0
0.207 -0.96 2.353 0
0.0 -0.0 3.0 0
0.2 -0.911 2.338 0
0.0 -0.0 3.0 0
0.194 -0.866 2.323 0
0.0 -0.0 3.0 0
0.0 -0.0 3.0 0
0.0 -0.0 3.0 0
0.249 -1.356 2.761 2
0.259 -1.403 2.727 0
0.259 -1.394 2.704 0
0.256 -1.365 2.685 0
0.258 -1.367 2.659 0
0.253 -1.33 2.644 0
0.246 -1.282 2.632 0
0.25 -1.295 2.604 0
0.244 -1.253 2.593 0
0.253 -1.294 2.554 0
0.243 -1.23 2.552 0
0.231 -1.164 2.553 0
0.238 -1.188 2.52 0
0.228 -1.129 2.521 0
0.229 -1.128 2.498 0
0.229 -1.119 2.478 0
0.223 -1.081 2.473 0
0.221 -1.062 2.459 0
0.22 -1.049 2.442 0
0.215 -1.014 2.438 0
0.0 -0.0 3.0 0
0.212 -0.988 2.406 0
0.211 -0.974 2.391 0
0.0 -0.0 3.0 0
0.211 -0.959 2.353 0
0.0 -0.0 3.0 0
0.204 -0.91 2.339 0
0.0 -0.0 3.0 0
0.194 -0.85 2.336 0
0.0 -0.0 3.0 0
0.196 -0.845 2.291 0
0.0 -0.0 3.0 0
0.251 -1.348 2.762 2
0.263 -1.398 2.728 0
0.264 -1.393 2.704 0
0.26 -1.361 2.686 0
0.26 -1.354 2.662 0
0.257 -1.326 2.645 0
0.251 -1.285 2.631 0
0.252 -1.286 2.607 0
0.246 -1.245 2.595 0
0.258 -1.293 2.555 0
0.247 -1.23 2.552 0
0.239 -1.181 2.547 0
0.244 -1.195 2.517 0
0.232 -1.129 2.521 0
0.236 -1.142 2.492 0
0.232 -1.111 2.482 0
0.232 -1.102 2.462 0
0.225 -1.065 2.458 0
0.0 -0.0 3.0 0
0.221 -1.028 2.43 0
0.0 -0.0 3.0 0
0.214 -0.978 2.413 0
0.219 -0.994 2.379 0
0.0 -0.0 3.0 0
0.212 -0.949 2.36 0
0.0 -0.0 3.0 0
0.21 -0.923 2.33 0
0.0 -0.0 3.0 0
0.206 -0.887 2.307 0
0.0 -0.0 3.0 0
0.0 -0.0 3.0 0
0.0 -0.0 3.0 0
0.258 -1.359 2.76 2
0.268 -1.401 2.728 0
0.269 -1.4 2.702 0
0.264 -1.36 2.686 0
0.267 -1.365 2.66 0
0.262 -1.329 2.644 0
0.252 -1.273 2.635 0
0.26 -1.304 2.601 0
0.254 -1.263 2.59 0
0.257 -1.267 2.564 0
0.251 -1.229 2.553 0
0.239 -1.162 2.554 0
0.246 -1.188 2.52 0
0.236 -1.128 2.521 0
0.24 -1.138 2.494 0
0.234 -1.104 2.485 0
0.236 -1.101 2.463 0
0.229 -1.064 2.458 0
0.0 -0.0 3.0 0
0.223 -1.017 2.436 0
0.0 -0.0 3.0 0
0.22 -0.991 2.405 0
0.217 -0.97 2.394 0
0.209 -0.926 2.399 0
0.217 -0.951 2.358 0
0.0 -0.0 3.0 0
0.213 -0.92 2.332 0
0.0 -0.0 3.0 0
0.212 -0.899 2.298 0
0.0 -0.0 3.0 0
0.206 -0.856 2.282 0
0.0 -0.0 3.0 0
0.26 -1.346 2.763 2
0.272 -1.4 2.728 0
0.273 -1.395 2.704 0
0.27 -1.37 2.684 0
0.27 -1.357 2.662 0
0.262 -1.309 2.649 0
0.262 -1.299 2.628 0
0.262 -1.288 2.606 0
0.255 -1.247 2.595 0
0.265 -1.285 2.558 0
0.255 -1.228 2.553 0
0.245 -1.169 2.551 0
0.249 -1.183 2.522 0
0.242 -1.138 2.517 0
0.241 -1.126 2.499 0
0.24 -1.114 2.481 0
0.236 -1.087 2.47 0
0.234 -1.071 2.454 0
0.226 -1.026 2.455 0
0.225 -1.013 2.439 0
0.0 -0.0 3.0 0
0.225 -0.997 2.401 0
0.225 -0.989 2.382 0
0.218 -0.949 2.384 0
0.22 -0.951 2.359 0
0.0 -0.0 3.0 0
0.22 -0.931 2.323 0
0.0 -0.0 3.0 0
0.212 -0.882 2.311 0
0.0 -0.0 3.0 0
0.0 -0.0 3.0 0
0.0 -0.0 3.0 0
0.265 -1.35 2.762 2
0.279 -1.411 2.726 0
0.276 -1.387 2.705 0
0.271 -1.35 2.688 0
0.271 -1.34 2.666 0
0.272 -1.339 2.641 0
0.266 -1.298 2.628 0
0.265 -1.284 2.607 0
0.26 -1.25 2.594 0
0.267 -1.272 2.562 0
0.259 -1.224 2.555 0
0.25 -1.176 2.549 0
0.253 -1.178 2.524 0
0.246 -1.138 2.517 0
0.249 -1.143 2.491 0
0.242 -1.102 2.486 0
0.242 -1.097 2.465 0
0.237 -1.066 2.457 0
0.0 -0.0 3.0 0
0.231 -1.019 2.435 0
0.0 -0.0 3.0 0
0.226 -0.982 2.41 0
0.0 -0.0 3.0 0
0.212 -0.908 2.41 0
0.224 -0.951 2.359 0
0.0 -0.0 3.0 0
0.214 -0.892 2.352 0
0.0 -0.0 3.0 0
0.212 -0.869 2.321 0
0.0 -0.0 3.0 0
0.205 -0.825 2.308 0
0.0 -0.0 3.0 0
0.267 -1.341 2.763 2
0.279 -1.391 2.73 0
0.281 -1.39 2.705 0
0.277 -1.357 2.687 0
0.278 -1.355 2.662 0
0.274 -1.322 2.646 0
0.268 -1.285 2.631 0
0.272 -1.294 2.605 0
0.265 -1.253 2.593 0
0.272 -1.279 2.56 0
0.263 -1.224 2.555 0
0.252 -1.164 2.553 0
0.259 -1.188 2.52 0
0.25 -1.14 2.516 0
0.25 -1.132 2.496 0
0.245 -1.098 2.488 0
0.24 -1.068 2.479 0
0.239 -1.055 2.463 0
0.0 -0.0 3.0 0
0.232 -1.008 2.441 0
0.0 -0.0 3.0 0
0.229 -0.978 2.412 0
0.23 -0.978 2.389 0
0.226 -0.951 2.383 0
0.231 -0.962 2.351 0
0.0 -0.0 3.0 0
0.225 -0.924 2.329 0
0.0 -0.0 3.0 0
0.217 -0.875 2.316 0
0.0 -0.0 3.0 0
0.0 -0.0 3.0 0
0.0 -0.0 3.0 0
0.273 -1.349 2.762 3
0.283 -1.386 2.731 0
0.288 -1.4 2.702 0
0.282 -1.36 2.686 0
0.283 -1.358 2.661 0
0.279 -1.325 2.645 0
0.275 -1.3 2.627 0
0.276 -1.293 2.605 0
0.268 -1.245 2.595 0
0.278 -1.286 2.557 0
0.269 -1.233 2.551 0
0.26 -1.185 2.545 0
0.263 -1.188 2.52 0
0.253 -1.133 2.519 0
0.259 -1.152 2.487 0
0.251 -1.108 2.483 0
0.247 -1.081 2.473 0
0.245 -1.065 2.458 0
0.0 -0.0 3.0 0
0.239 -1.025 2.432 0
0.0 -0.0 3.0 0
0.237 -0.997 2.401 0
0.0 -0.0 3.0 0
0.225 -0.93 2.396 0
0.23 -0.946 2.362 0
0.0 -0.0 3.0 0
0.228 -0.92 2.331 0
0.0 -0.0 3.0 0
0.22 -0.875 2.316 0
0.0 -0.0 3.0 0
0.0 -0.0 3.0 0
0.0 -0.0 3.0 0
0.278 -1.351 2.762 3
0.288 -1.389 2.73 0
0.291 -1.392 2.704 0
0.289 -1.375 2.683 0
0.289 -1.365 2.66 0
0.285 -1.336 2.642 0
0.278 -1.291 2.63 0
0.282 -1.303 2.602 0
0.272 -1.244 2.596 0
0.279 -1.27 2.563 0
0.271 -1.222 2.555 0
0.26 -1.166 2.552 0
0.269 -1.194 2.518 0
0.255 -1.125 2.523 0
0.257 -1.127 2.498 0
0.255 -1.108 2.484 0
0.252 -1.088 2.469 0
0.249 -1.065 2.458 0
0.239 -1.017 2.459 0
0.242 -1.017 2.436 0
0.0 -0.0 3.0 0
0.238 -0.987 2.407 0
0.231 -0.95 2.406 0
0.226 -0.923 2.4 0
0.234 -0.946 2.362 0
0.0 -0.0 3.0 0
0.226 -0.897 2.348 0
0.0 -0.0 3.0 0
0.224 -0.874 2.317 0
0.0 -0.0 3.0 0
0.217 -0.832 2.302 0
0.0 -0.0 3.0 0
0.283 -1.354 2.761 3
0.296 -1.407 2.726 0
0.294 -1.387 2.705 0
0.291 -1.362 2.686 0
0.296 -1.375 2.657 0
0.289 -1.331 2.643 0
0.282 -1.29 2.63 0
0.286 -1.298 2.603 0
0.281 -1.265 2.589 0
0.283 -1.266 2.564 0
0.277 -1.228 2.553 0
0.269 -1.188 2.544 0
0.272 -1.19 2.519 0
0.261 -1.135 2.518 0
0.265 -1.144 2.491 0
0.259 -1.107 2.484 0
0.261 -1.107 2.46 0
0.253 -1.067 2.456 0
0.0 -0.0 3.0 0
0.244 -1.014 2.438 0
0.0 -0.0 3.0 0
0.244 -0.997 2.401 0
0.0 -0.0 3.0 0
0.24 -0.962 2.375 0
0.232 -0.922 2.378 0
0.0 -0.0 3.0 0
0.232 -0.91 2.339 0
0.0 -0.0 3.0 0
0.225 -0.865 2.324 0
0.0 -0.0 3.0 0
0.219 -0.826 2.307 0
0.0 -0.0 3.0 0
0.285 -1.342 2.763 4
0.304 -1.421 2.724 0
0.3 -1.394 2.704 0
0.295 -1.361 2.686 0
0.298 -1.363 2.66 0
0.291 -1.319 2.647 0
0.289 -1.301 2.627 0
0.289 -1.295 2.604 0
0.283 -1.258 2.591 0
0.301 -1.328 2.543 0
0.282 -1.235 2.551 0
0.274 -1.191 2.543 0
0.275 -1.186 2.521 0
0.267 -1.141 2.516 0
0.27 -1.147 2.489 0
0.262 -1.106 2.484 0
0.26 -1.086 2.47 0
0.26 -1.081 2.449 0
0.0 -0.0 3.0 0
0.252 -1.029 2.429 0
0.0 -0.0 3.0 0
0.245 -0.986 2.407 0
0.0 -0.0 3.0 0
0.238 -0.942 2.388 0
0.0 -0.0 3.0 0
0.0 -0.0 3.0 0
0.24 -0.925 2.328 0
0.0 -0.0 3.0 0
0.232 -0.879 2.313 0
0.0 -0.0 3.0 0
0.222 -0.825 2.307 0
0.0 -0.0 3.0 0
0.29 -1.349 2.762 4
0.305 -1.405 2.727 0
0.304 -1.393 2.704 0
0.297 -1.349 2.689 0
0.304 -1.37 2.658 0
0.297 -1.329 2.644 0
0.288 -1.278 2.634 0
0.293 -1.294 2.604 0
0.287 -1.257 2.592 0
0.294 -1.279 2.56 0
0.284 -1.223 2.555 0
0.278 -1.19 2.543 0
0.281 -1.192 2.518 0
0.27 -1.137 2.518 0
0.272 -1.138 2.493 0
0.265 -1.098 2.488 0
0.258 -1.061 2.483 0
0.262 -1.069 2.455 0
0.0 -0.0 3.0 0
0.254 -1.022 2.433 0
0.0 -0.0 3.0 0
0.246 -0.972 2.416 0
0.243 -0.955 2.403 0
0.0 -0.0 3.0 0
0.0 -0.0 3.0 0
0.0 -0.0 3.0 0
0.239 -0.908 2.34 0
0.0 -0.0 3.0 0
0.235 -0.876 2.315 0
0.0 -0.0 3.0 0
0.228 -0.834 2.3 0
0.0 -0.0 3.0 0
0.295 -1.348 2.762 4
0.0 -0.0 3.0 0
0.31 -1.399 2.703 0
0.305 -1.363 2.685 0
0.306 -1.357 2.662 0
0.3 -1.321 2.646 0
0.298 -1.303 2.626 0
0.301 -1.307 2.6 0
0.291 -1.256 2.592 0
0.305 -1.304 2.551 0
0.286 -1.214 2.558 0
0.277 -1.167 2.552 0
0.285 -1.191 2.519 0
0.271 -1.126 2.522 0
0.276 -1.138 2.493 0
0.27 -1.104 2.485 0
0.269 -1.091 2.468 0
0.262 -1.055 2.463 0
0.0 -0.0 3.0 0
0.258 -1.022 2.434 0
0.0 -0.0 3.0 0
0.251 -0.978 2.413 0
0.0 -0.0 3.0 0
0.0 -0.0 3.0 0
0.0 -0.0 3.0 0
0.0 -0.0 3.0 0
0.245 -0.917 2.334 0
0.0 -0.0 3.0 0
0.235 -0.863 2.326 0
0.0 -0.0 3.0 0
0.233 -0.84 2.295 0
0.0 -0.0 3.0 0
0.299 -1.347 2.762 4
0.0 -0.0 3.0 0
0.314 -1.395 2.703 0
0.31 -1.366 2.685 0
0.312 -1.364 2.66 0
0.304 -1.32 2.646 0
0.296 -1.276 2.634 0
0.299 -1.28 2.609 0
0.293 -1.243 2.596 0
0.308 -1.299 2.553 0
0.297 -1.24 2.549 0
0.286 -1.188 2.544 0
0.285 -1.176 2.525 0
0.277 -1.131 2.52 0
0.28 -1.138 2.494 0
0.272 -1.097 2.489 0
0.276 -1.101 2.463 0
0.268 -1.064 2.458 0
0.0 -0.0 3.0 0
0.261 -1.021 2.434 0
0.0 -0.0 3.0 0
0.257 -0.987 2.407 0
0.0 -0.0 3.0 0
0.248 -0.936 2.392 0
0.0 -0.0 3.0 0
0.0 -0.0 3.0 0
0.248 -0.913 2.336 0
0.0 -0.0 3.0 0
0.241 -0.871 2.319 0
0.0 -0.0 3.0 0
0.0 -0.0 3.0 0
0.0 -0.0 3.0 0
0.303 -1.346 2.763 5
0.0 -0.0 3.0 0
0.319 -1.397 2.703 0
0.313 -1.361 2.686 0
0.313 -1.351 2.663 0
0.308 -1.319 2.647 0
0.3 -1.275 2.634 0
0.311 -1.313 2.599 0
0.301 -1.262 2.59 0
0.311 -1.29 2.556 0
0.296 -1.22 2.556 0
0.287 -1.176 2.549 0
0.293 -1.189 2.519 0
0.28 -1.131 2.52 0
0.282 -1.126 2.499 0
0.279 -1.107 2.484 0
0.278 -1.094 2.466 0
0.273 -1.067 2.456 0
0.0 -0.0 3.0 0
0.266 -1.023 2.433 0
0.0 -0.0 3.0 0
0.262 -0.993 2.403 0
0.0 -0.0 3.0 0
0.251 -0.936 2.392 0
0.252 -0.931 2.372 0
0.0 -0.0 3.0 0
0.251 -0.91 2.339 0
0.0 -0.0 3.0 0
0.24 -0.856 2.331 0
0.0 -0.0 3.0 0
0.0 -0.0 3.0 0
0.0 -0.0 3.0 0
0.306 -1.341 2.764 5
0.0 -0.0 3.0 0
0.321 -1.385 2.706 0
0.316 -1.353 2.688 0
0.317 -1.347 2.664 0
0.314 -1.326 2.645 0
0.31 -1.296 2.628 0
0.31 -1.29 2.606 0
0.302 -1.245 2.595 0
0.316 -1.293 2.555 0
0.305 -1.238 2.549 0
0.293 -1.182 2.546 0
0.298 -1.192 2.518 0
0.289 -1.148 2.513 0
0.287 -1.132 2.496 0
0.282 -1.102 2.486 0
0.283 -1.099 2.464 0
0.278 -1.07 2.455 0
0.0 -0.0 3.0 0
0.264 -1.002 2.444 0
0.0 -0.0 3.0 0
0.264 -0.985 2.408 0
0.0 -0.0 3.0 0
0.255 -0.935 2.393 0
0.0 -0.0 3.0 0
0.0 -0.0 3.0 0
0.258 -0.925 2.328 0
0.0 -0.0 3.0 0
0.246 -0.864 2.325 0
0.0 -0.0 3.0 0
0.0 -0.0 3.0 0
0.0 -0.0 3.0 0
0.31 -1.34 2.764 5
0.0 -0.0 3.0 0
0.327 -1.391 2.704 0
0.323 -1.363 2.685 0
0.324 -1.358 2.662 0
0.318 -1.321 2.646 0
0.309 -1.277 2.634 0
0.317 -1.3 2.602 0
0.304 -1.238 2.598 0
0.325 -1.311 2.549 0
0.304 -1.219 2.556 0
0.301 -1.196 2.541 0
0.296 -1.17 2.527 0
0.287 -1.126 2.522 0
0.294 -1.142 2.492 0
0.288 -1.112 2.481 0
0.281 -1.074 2.476 0
0.275 -1.044 2.468 0
0.0 -0.0 3.0 0
0.273 -1.022 2.434 0
0.0 -0.0 3.0 0
0.269 -0.988 2.406 0
0.0 -0.0 3.0 0
0.26 -0.941 2.389 0
0.0 -0.0 3.0 0
0.0 -0.0 3.0 0
0.257 -0.905 2.342 0
0.0 -0.0 3.0 0
0.25 -0.867 2.323 0
0.0 -0.0 3.0 0
0.0 -0.0 3.0 0
0.0 -0.0 3.0 0
0.316 -1.347 2.762 6
0.0 -0.0 3.0 0
0.333 -1.398 2.703 0
0.327 -1.363 2.685 0
0.329 -1.361 2.661 0
0.322 -1.32 2.646 0
0.316 -1.287 2.631 0
0.322 -1.303 2.602 0
0.312 -1.251 2.594 0
0.324 -1.292 2.555 0
0.307 -1.21 2.559 0
0.296 -1.162 2.554 0
0.303 -1.18 2.523 0
0.292 -1.128 2.521 0
0.295 -1.13 2.497 0
0.289 -1.1 2.487 0
0.29 -1.095 2.466 0
0.283 -1.061 2.459 0
0.0 -0.0 3.0 0
0.275 -1.015 2.438 0
0.0 -0.0 3.0 0
0.27 -0.981 2.41 0
0.0 -0.0 3.0 0
0.268 -0.957 2.379 0
0.0 -0.0 3.0 0
0.0 -0.0 3.0 0
0.263 -0.914 2.336 0
0.0 -0.0 3.0 0
0.256 -0.875 2.316 0
0.0 -0.0 3.0 0
0.0 -0.0 3.0 0
0.0 -0.0 3.0 0
0.319 -1.342 2.763 6
0.0 -0.0 3.0 0
0.334 -1.382 2.706 0
0.335 -1.376 2.682 0
0.333 -1.36 2.661 0
0.326 -1.319 2.646 0
0.322 -1.293 2.629 0
0.324 -1.291 2.605 0
0.317 -1.254 2.593 0
0.328 -1.287 2.557 0
0.312 -1.217 2.557 0
0.304 -1.177 2.548 0
0.307 -1.179 2.524 0
0.293 -1.116 2.526 0
0.302 -1.14 2.492 0
0.294 -1.103 2.486 0
0.287 -1.07 2.478 0
0.288 -1.064 2.458 0
0.0 -0.0 3.0 0
0.283 -1.027 2.431 0
0.0 -0.0 3.0 0
0.276 -0.987 2.407 0
0.0 -0.0 3.0 0
0.261 -0.917 2.405 0
0.0 -0.0 3.0 0
0.0 -0.0 3.0 0
0.267 -0.917 2.334 0
0.0 -0.0 3.0 0
0.259 -0.872 2.319 0
0.0 -0.0 3.0 0
0.0 -0.0 3.0 0
0.0 -0.0 3.0 0
0.323 -1.341 2.763 6
0.0 -0.0 3.0 0
0.342 -1.396 2.703 0
0.34 -1.376 2.682 0
0.34 -1.366 2.66 0
0.331 -1.321 2.646 0
0.324 -1.286 2.631 0
0.332 -1.304 2.601 0
0.319 -1.245 2.595 0
0.332 -1.286 2.557 0
0.319 -1.227 2.554 0
0.309 -1.179 2.547 0
0.314 -1.189 2.52 0
0.301 -1.13 2.52 0
0.303 -1.128 2.498 0
0.299 -1.106 2.484 0
0.294 -1.079 2.474 0
0.291 -1.059 2.46 0
0.0 -0.0 3.0 0
0.285 -1.023 2.433 0
0.0 -0.0 3.0 0
0.283 -0.999 2.4 0
0.0 -0.0 3.0 0
0.279 -0.969 2.371 0
0.0 -0.0 3.0 0
0.0 -0.0 3.0 0
0.272 -0.922 2.33 0
0.0 -0.0 3.0 0
0.258 -0.859 2.329 0
0.0 -0.0 3.0 0
0.0 -0.0 3.0 0
0.0 -0.0 3.0 0
0.327 -1.336 2.764 7
0.0 -0.0 3.0 0
0.345 -1.391 2.704 0
0.341 -1.363 2.685 0
0.344 -1.365 2.66 0
0.333 -1.31 2.649 0
0.335 -1.311 2.624 0
0.334 -1.296 2.604 0
0.326 -1.256 2.592 0
0.335 -1.281 2.559 0
0.319 -1.208 2.56 0
0.315 -1.185 2.545 0
0.315 -1.177 2.524 0
0.307 -1.14 2.516 0
0.307 -1.127 2.498 0
0.303 -1.105 2.485 0
0.304 -1.103 2.462 0
0.298 -1.073 2.454 0
0.0 -0.0 3.0 0
0.283 -1.002 2.444 0
0.0 -0.0 3.0 0
0.287 -0.998 2.4 0
0.0 -0.0 3.0 0
0.276 -0.945 2.386 0
0.0 -0.0 3.0 0
0.0 -0.0 3.0 0
0.276 -0.922 2.33 0
0.0 -0.0 3.0 0
0.264 -0.868 2.322 0
0.0 -0.0 3.0 0
0.0 -0.0 3.0 0
0.0 -0.0 3.0 0
0.331 -1.335 2.765 8
0.0 -0.0 3.0 0
0.35 -1.391 2.704 0
0.348 -1.374 2.683 0
0.348 -1.364 2.66 0
0.337 -1.309 2.649 0
0.337 -1.298 2.628 0
0.337 -1.292 2.605 0
0.326 -1.24 2.597 0
0.344 -1.299 2.553 0
0.328 -1.225 2.554 0
0.316 -1.174 2.549 0
0.32 -1.18 2.523 0
0.311 -1.139 2.516 0
0.314 -1.141 2.492 0
0.307 -1.108 2.484 0
0.307 -1.099 2.464 0
0.299 -1.061 2.459 0
0.0 -0.0 3.0 0
0.296 -1.035 2.426 0
0.0 -0.0 3.0 0
0.286 -0.981 2.41 0
0.0 -0.0 3.0 0
0.28 -0.947 2.385 0
0.0 -0.0 3.0 0
0.0 -0.0 3.0 0
0.281 -0.927 2.326 0
0.0 -0.0 3.0 0
0.272 -0.879 2.313 0
0.0 -0.0 3.0 0
0.265 -0.843 2.292 0
0.0 -0.0 3.0 0
0.336 -1.338 2.764 8
0.0 -0.0 3.0 0
0.352 -1.382 2.706 0
0.353 -1.377 2.682 0
0.351 -1.355 2.662 0
0.344 -1.318 2.647 0
0.339 -1.29 2.63 0
0.344 -1.302 2.602 0
0.328 -1.232 2.6 0
0.349 -1.297 2.553 0
0.333 -1.227 2.553 0
0.32 -1.173 2.55 0
0.324 -1.178 2.524 0
0.311 -1.124 2.523 0
0.318 -1.14 2.492 0
0.312 -1.11 2.482 0
0.308 -1.087 2.47 0
0.307 -1.074 2.453 0
0.0 -0.0 3.0 0
0.297 -1.024 2.432 0
0.0 -0.0 3.0 0
0.292 -0.991 2.405 0
0.0 -0.0 3.0 0
0.285 -0.95 2.383 0
0.0 -0.0 3.0 0
0.0 -0.0 3.0 0
0.283 -0.92 2.332 0
0.0 -0.0 3.0 0
0.279 -0.89 2.304 0
0.0 -0.0 3.0 0
0.0 -0.0 3.0 0
0.0 -0.0 3.0 0
0.34 -1.337 2.764 9
0.0 -0.0 3.0 0
0.356 -1.381 2.707 0
0.358 -1.376 2.682 0
0.354 -1.35 2.663 0
0.349 -1.321 2.646 0
0.348 -1.307 2.625 0
0.347 -1.293 2.605 0
0.337 -1.249 2.594 0
0.352 -1.293 2.555 0
0.334 -1.215 2.558 0
0.327 -1.182 2.546 0
0.331 -1.189 2.52 0
0.322 -1.148 2.513 0
0.317 -1.121 2.501 0
0.317 -1.113 2.481 0
0.312 -1.086 2.47 0
0.308 -1.063 2.458 0
0.0 -0.0 3.0 0
0.302 -1.027 2.431 0
0.0 -0.0 3.0 0
0.288 -0.963 2.421 0
0.0 -0.0 3.0 0
0.284 -0.936 2.392 0
0.0 -0.0 3.0 0
0.0 -0.0 3.0 0
0.284 -0.91 2.339 0
0.0 -0.0 3.0 0
0.272 -0.856 2.331 0
0.0 -0.0 3.0 0
0.0 -0.0 3.0 0
0.0 -0.0 3.0 0
0.343 -1.332 2.765 10
0.0 -0.0 3.0 0
0.364 -1.391 2.704 0
0.361 -1.371 2.684 0
0.36 -1.357 2.662 0
0.35 -1.309 2.649 0
0.348 -1.292 2.63 0
0.352 -1.296 2.604 0
0.341 -1.244 2.596 0
0.349 -1.266 2.564 0
0.34 -1.222 2.555 0
0.322 -1.149 2.559 0
0.333 -1.18 2.523 0
0.324 -1.14 2.516 0
0.325 -1.135 2.495 0
0.321 -1.112 2.481 0
0.317 -1.089 2.469 0
0.315 -1.076 2.452 0
0.0 -0.0 3.0 0
0.302 -1.012 2.439 0
0.0 -0.0 3.0 0
0.296 -0.979 2.412 0
0.0 -0.0 3.0 0
0.296 -0.962 2.375 0
0.0 -0.0 3.0 0
0.0 -0.0 3.0 0
0.288 -0.913 2.337 0
0.0 -0.0 3.0 0
0.287 -0.892 2.303 0
0.0 -0.0 3.0 0
0.0 -0.0 3.0 0
0.0 -0.0 3.0 0
0.347 -1.332 2.765 10
0.0 -0.0 3.0 0
0.365 -1.379 2.707 0
0.364 -1.366 2.685 0
0.366 -1.363 2.66 0
0.357 -1.316 2.647 0
0.356 -1.305 2.626 0
0.356 -1.295 2.604 0
0.348 -1.254 2.593 0
0.356 -1.276 2.561 0
0.348 -1.235 2.55 0
0.337 -1.188 2.544 0
0.339 -1.187 2.521 0
0.327 -1.136 2.518 0
0.335 -1.155 2.486 0
0.324 -1.108 2.484 0
0.32 -1.084 2.471 0
0.32 -1.079 2.45 0
0.0 -0.0 3.0 0
0.311 -1.032 2.428 0
0.0 -0.0 3.0 0
0.302 -0.985 2.408 0
0.0 -0.0 3.0 0
0.291 -0.935 2.393 0
0.0 -0.0 3.0 0
0.0 -0.0 3.0 0
0.3 -0.937 2.32 0
0.0 -0.0 3.0 0
0.281 -0.864 2.325 0
0.0 -0.0 3.0 0
0.0 -0.0 3.0 0
0.0 -0.0 3.0 0
0.351 -1.331 2.765 11
0.0 -0.0 3.0 0
0.374 -1.397 2.703 0
0.373 -1.38 2.681 0
0.37 -1.358 2.661 0
0.362 -1.319 2.647 0
0.358 -1.296 2.628 0
0.359 -1.29 2.606 0
0.355 -1.265 2.589 0
0.361 -1.275 2.561 0
0.349 -1.224 2.555 0
0.343 -1.194 2.542 0
0.349 -1.207 2.512 0
0.33 -1.131 2.52 0
0.336 -1.143 2.491 0
0.326 -1.099 2.487 0
0.322 -1.08 2.473 0
0.321 -1.067 2.456 0
0.0 -0.0 3.0 0
0.315 -1.031 2.428 0
0.0 -0.0 3.0 0
0.31 -0.998 2.401 0
0.0 -0.0 3.0 0
0.3 -0.95 2.383 0
0.0 -0.0 3.0 0
0.0 -0.0 3.0 0
0.297 -0.917 2.334 0
0.0 -0.0 3.0 0
0.289 -0.876 2.316 0
0.0 -0.0 3.0 0
0.0 -0.0 3.0 0
0.0 -0.0 3.0 0
0.356 -1.333 2.765 12
0.0 -0.0 3.0 0
0.378 -1.392 2.704 0
0.379 -1.386 2.68 0
0.377 -1.369 2.659 0
0.365 -1.314 2.648 0
0.365 -1.303 2.626 0
0.363 -1.289 2.606 0
0.355 -1.248 2.594 0
0.357 -1.249 2.57 0
0.351 -1.215 2.558 0
0.339 -1.167 2.552 0
0.348 -1.189 2.52 0
0.332 -1.127 2.522 0
0.334 -1.121 2.501 0
0.329 -1.098 2.488 0
0.323 -1.069 2.479 0
0.323 -1.059 2.46 0
0.0 -0.0 3.0 0
0.311 -1.007 2.442 0
0.0 -0.0 3.0 0
0.311 -0.99 2.405 0
0.0 -0.0 3.0 0
0.305 -0.953 2.381 0
0.0 -0.0 3.0 0
0.0 -0.0 3.0 0
0.296 -0.904 2.343 0
0.0 -0.0 3.0 0
0.0 -0.0 3.0 0
0.0 -0.0 3.0 0
0.0 -0.0 3.0 0
0.0 -0.0 3.0 0
0.362 -1.336 2.764 12
0.0 -0.0 3.0 0
0.385 -1.402 2.702 0
0.379 -1.37 2.684 0
0.381 -1.364 2.66 0
0.369 -1.313 2.648 0
0.369 -1.302 2.627 0
0.37 -1.295 2.604 0
0.355 -1.233 2.599 0
0.368 -1.27 2.563 0
0.355 -1.214 2.558 0
0.348 -1.181 2.547 0
0.349 -1.176 2.525 0
0.338 -1.132 2.519 0
0.347 -1.152 2.487 0
0.338 -1.115 2.48 0
0.339 -1.109 2.459 0
0.327 -1.062 2.459 0
0.0 -0.0 3.0 0
0.318 -1.015 2.437 0
0.0 -0.0 3.0 0
0.312 -0.98 2.411 0
0.0 -0.0 3.0 0
0.304 -0.939 2.39 0
0.0 -0.0 3.0 0
0.297 -0.902 2.369 0
0.302 -0.909 2.339 0
0.0 -0.0 3.0 0
0.296 -0.877 2.314 0
0.0 -0.0 3.0 0
0.282 -0.821 2.311 0
0.0 -0.0 3.0 0
0.362 -1.324 2.767 13
0.0 -0.0 3.0 0
0.389 -1.397 2.703 0
0.387 -1.38 2.681 0
0.386 -1.366 2.659 0
0.379 -1.33 2.644 0
0.373 -1.302 2.627 0
0.376 -1.302 2.602 0
0.365 -1.254 2.593 0
0.38 -1.293 2.555 0
0.361 -1.22 2.556 0
0.348 -1.169 2.551 0
0.356 -1.186 2.521 0
0.338 -1.117 2.526 0
0.348 -1.14 2.492 0
0.34 -1.108 2.484 0
0.338 -1.091 2.468 0
0.335 -1.074 2.453 0
0.0 -0.0 3.0 0
0.322 -1.015 2.438 0
0.0 -0.0 3.0 0
0.312 -0.968 2.418 0
0.0 -0.0 3.0 0
0.308 -0.942 2.389 0
0.0 -0.0 3.0 0
0.0 -0.0 3.0 0
0.303 -0.902 2.345 0
0.0 -0.0 3.0 0
0.299 -0.873 2.318 0
0.0 -0.0 3.0 0
0.293 -0.84 2.295 0
0.0 -0.0 3.0 0
0.368 -1.326 2.766 14
0.0 -0.0 3.0 0
0.387 -1.373 2.708 0
0.389 -1.371 2.683 0
0.388 -1.357 2.662 0
0.379 -1.314 2.648 0
0.376 -1.297 2.628 0
0.375 -1.283 2.608 0
0.367 -1.245 2.595 0
0.382 -1.285 2.558 0
0.367 -1.227 2.554 0
0.349 -1.158 2.556 0
0.358 -1.178 2.524 0
0.345 -1.127 2.522 0
0.35 -1.132 2.496 0
0.345 -1.109 2.483 0
0.335 -1.069 2.479 0
0.337 -1.067 2.456 0
0.0 -0.0 3.0 0
0.329 -1.024 2.432 0
0.0 -0.0 3.0 0
0.325 -0.998 2.401 0
0.0 -0.0 3.0 0
0.316 -0.953 2.381 0
0.0 -0.0 3.0 0
0.308 -0.913 2.361 0
0.314 -0.924 2.329 0
0.0 -0.0 3.0 0
0.0 -0.0 3.0 0
0.0 -0.0 3.0 0
0.0 -0.0 3.0 0
0.0 -0.0 3.0 0
0.374 -1.333 2.765 16
0.0 -0.0 3.0 0
0.395 -1.387 2.705 0
0.394 -1.374 2.683 0
0.396 -1.368 2.659 0
0.384 -1.317 2.647 0
0.384 -1.306 2.625 0
0.382 -1.292 2.605 0
0.374 -1.255 2.592 0
0.383 -1.274 2.561 0
0.368 -1.214 2.558 0
0.356 -1.167 2.552 0
0.366 -1.191 2.519 0
0.35 -1.129 2.521 0
0.344 -1.1 2.51 0
0.351 -1.116 2.48 0
0.346 -1.089 2.469 0
0.339 -1.059 2.46 0
0.0 -0.0 3.0 0
0.328 -1.009 2.441 0
0.0 -0.0 3.0 0
0.33 -0.999 2.399 0
0.0 -0.0 3.0 0
0.319 -0.949 2.383 0
0.0 -0.0 3.0 0
0.0 -0.0 3.0 0
0.312 -0.907 2.341 0
0.0 -0.0 3.0 0
0.0 -0.0 3.0 0
0.0 -0.0 3.0 0
0.0 -0.0 3.0 0
0.0 -0.0 3.0 0
0.376 -1.324 2.767 17
0.0 -0.0 3.0 0
0.403 -1.397 2.703 0
0.405 -1.395 2.678 0
0.396 -1.351 2.663 0
0.389 -1.319 2.647 0
0.389 -1.308 2.625 0
0.39 -1.302 2.602 0
0.374 -1.24 2.597 0
0.389 -1.279 2.56 0
0.373 -1.217 2.557 0
0.361 -1.17 2.551 0
0.373 -1.197 2.516 0
0.352 -1.121 2.524 0
0.356 -1.127 2.498 0
0.351 -1.1 2.487 0
0.0 -0.0 3.0 0
0.347 -1.072 2.454 0
0.0 -0.0 3.0 0
0.336 -1.023 2.433 0
0.0 -0.0 3.0 0
0.329 -0.986 2.408 0
0.0 -0.0 3.0 0
0.32 -0.942 2.388 0
0.0 -0.0 3.0 0
0.31 -0.899 2.371 0
0.319 -0.915 2.335 0
0.0 -0.0 3.0 0
0.308 -0.868 2.322 0
0.0 -0.0 3.0 0
0.0 -0.0 3.0 0
0.0 -0.0 3.0 0
0.38 -1.323 2.767 18
0.0 -0.0 3.0 0
0.406 -1.392 2.704 0
0.401 -1.364 2.685 0
0.402 -1.358 2.661 0
0.391 -1.31 2.649 0
0.391 -1.301 2.627 0
0.39 -1.286 2.607 0
0.383 -1.253 2.593 0
0.398 -1.293 2.555 0
0.381 -1.227 2.554 0
0.374 -1.197 2.54 0
0.373 -1.186 2.521 0
0.354 -1.117 2.526 0
0.36 -1.126 2.499 0
0.36 -1.117 2.479 0
0.348 -1.07 2.478 0
0.349 -1.067 2.456 0
0.0 -0.0 3.0 0
0.344 -1.035 2.426 0
0.0 -0.0 3.0 0
0.333 -0.985 2.408 0
0.0 -0.0 3.0 0
0.328 -0.954 2.38 0
0.0 -0.0 3.0 0
0.0 -0.0 3.0 0
0.0 -0.0 3.0 0
0.0 -0.0 3.0 0
0.0 -0.0 3.0 0
0.0 -0.0 3.0 0
0.0 -0.0 3.0 0
0.0 -0.0 3.0 0
0.384 -1.322 2.767 20
0.0 -0.0 3.0 0
0.41 -1.39 2.704 0
0.413 -1.389 2.679 0
0.405 -1.352 2.663 0
0.398 -1.317 2.647 0
0.394 -1.296 2.628 0
0.395 -1.288 2.606 0
0.383 -1.241 2.597 0
0.395 -1.27 2.563 0
0.384 -1.222 2.555 0
0.378 -1.196 2.541 0
0.373 -1.17 2.527 0
0.367 -1.144 2.514 0
0.366 -1.132 2.496 0
0.362 -1.109 2.483 0
0.354 -1.076 2.475 0
0.351 -1.06 2.46 0
0.0 -0.0 3.0 0
0.341 -1.014 2.438 0
0.0 -0.0 3.0 0
0.335 -0.98 2.411 0
0.0 -0.0 3.0 0
0.329 -0.947 2.385 0
0.0 -0.0 3.0 0
0.306 -0.865 2.394 0
0.0 -0.0 3.0 0
0.0 -0.0 3.0 0
0.0 -0.0 3.0 0
0.0 -0.0 3.0 0
0.0 -0.0 3.0 0
0.0 -0.0 3.0 0
0.388 -1.32 2.767 22
0.0 -0.0 3.0 0
0.416 -1.394 2.704 0
0.421 -1.399 2.677 0
0.411 -1.355 2.662 0
0.403 -1.319 2.647 0
0.404 -1.312 2.624 0
0.397 -1.28 2.609 0
0.39 -1.247 2.595 0
0.401 -1.273 2.562 0
0.384 -1.211 2.559 0
0.38 -1.188 2.544 0
0.385 -1.194 2.518 0
0.369 -1.136 2.518 0
0.367 -1.12 2.501 0
0.363 -1.101 2.487 0
0.365 -1.099 2.464 0
0.358 -1.069 2.455 0
0.0 -0.0 3.0 0
0.345 -1.013 2.439 0
0.0 -0.0 3.0 0
0.342 -0.989 2.406 0
0.0 -0.0 3.0 0
0.336 -0.955 2.38 0
0.0 -0.0 3.0 0
0.324 -0.905 2.366 0
0.325 -0.901 2.346 0
0.0 -0.0 3.0 0
0.0 -0.0 3.0 0
0.0 -0.0 3.0 0
0.0 -0.0 3.0 0
0.0 -0.0 3.0 0
0.392 -1.319 2.767 22
0.0 -0.0 3.0 0
0.42 -1.393 2.704 0
0.424 -1.393 2.678 0
0.415 -1.354 2.662 0
0.407 -1.318 2.647 0
0.406 -1.304 2.626 0
0.408 -1.301 2.602 0
0.395 -1.249 2.594 0
0.401 -1.26 2.566 0
0.389 -1.212 2.559 0
0.381 -1.179 2.547 0
0.383 -1.175 2.525 0
0.37 -1.127 2.521 0
0.379 -1.144 2.491 0
0.369 -1.107 2.484 0
0.366 -1.088 2.469 0
0.354 -1.044 2.468 0
0.0 -0.0 3.0 0
0.353 -1.025 2.432 0
0.0 -0.0 3.0 0
0.346 -0.988 2.406 0
0.0 -0.0 3.0 0
0.343 -0.965 2.374 0
0.0 -0.0 3.0 0
0.325 -0.899 2.371 0
0.0 -0.0 3.0 0
0.0 -0.0 3.0 0
0.0 -0.0 3.0 0
0.0 -0.0 3.0 0
0.0 -0.0 3.0 0
0.0 -0.0 3.0 0
0.397 -1.322 2.767 24
0.0 -0.0 3.0 0
0.426 -1.395 2.704 0
0.428 -1.392 2.679 0
0.42 -1.357 2.662 0
0.411 -1.317 2.647 0
0.409 -1.299 2.628 0
0.406 -1.282 2.608 0
0.396 -1.238 2.598 0
0.41 -1.274 2.561 0
0.396 -1.219 2.556 0
0.387 -1.182 2.546 0
0.387 -1.174 2.526 0
0.37 -1.113 2.528 0
0.381 -1.139 2.493 0
0.37 -1.096 2.489 0
0.375 -1.104 2.462 0
0.366 -1.067 2.456 0
0.0 -0.0 3.0 0
0.355 -1.021 2.434 0
0.0 -0.0 3.0 0
0.348 -0.984 2.409 0
0.0 -0.0 3.0 0
0.341 -0.948 2.385 0
0.0 -0.0 3.0 0
0.328 -0.898 2.371 0
0.0 -0.0 3.0 0
0.0 -0.0 3.0 0
0.0 -0.0 3.0 0
0.0 -0.0 3.0 0
0.0 -0.0 3.0 0
0.0 -0.0 3.0 0
0.404 -1.329 2.766 25
0.0 -0.0 3.0 0
0.43 -1.394 2.704 0
0.434 -1.395 2.678 0
0.424 -1.352 2.663 0
0.413 -1.308 2.649 0
0.408 -1.283 2.632 0
0.414 -1.291 2.605 0
0.403 -1.247 2.595 0
0.415 -1.276 2.561 0
0.4 -1.217 2.557 0
0.396 -1.199 2.54 0
0.39 -1.169 2.528 0
0.38 -1.133 2.519 0
0.385 -1.138 2.493 0
0.377 -1.105 2.485 0
0.364 -1.058 2.484 0
0.367 -1.059 2.46 0
0.0 -0.0 3.0 0
0.36 -1.023 2.433 0
0.0 -0.0 3.0 0
0.354 -0.99 2.405 0
0.0 -0.0 3.0 0
0.342 -0.94 2.39 0
0.0 -0.0 3.0 0
0.334 -0.903 2.368 0
0.0 -0.0 3.0 0
0.0 -0.0 3.0 0
0.0 -0.0 3.0 0
0.0 -0.0 3.0 0
0.0 -0.0 3.0 0
0.0 -0.0 3.0 0
0.408 -1.328 2.766 26
0.0 -0.0 3.0 0
0.433 -1.389 2.705 0
0.435 -1.383 2.681 0
0.431 -1.362 2.661 0
0.417 -1.307 2.65 0
0.418 -1.3 2.627 0
0.422 -1.301 2.602 0
0.408 -1.249 2.594 0
0.423 -1.285 2.557 0
0.404 -1.216 2.557 0
0.399 -1.194 2.542 0
0.397 -1.178 2.524 0
0.384 -1.132 2.519 0
0.388 -1.134 2.495 0
0.38 -1.1 2.487 0
0.381 -1.095 2.466 0
0.374 -1.068 2.456 0
0.0 -0.0 3.0 0
0.36 -1.012 2.439 0
0.0 -0.0 3.0 0
0.357 -0.986 2.408 0
0.0 -0.0 3.0 0
0.349 -0.949 2.384 0
0.0 -0.0 3.0 0
0.339 -0.906 2.366 0
0.0 -0.0 3.0 0
0.0 -0.0 3.0 0
0.0 -0.0 3.0 0
0.0 -0.0 3.0 0
0.0 -0.0 3.0 0
0.0 -0.0 3.0 0
0.412 -1.326 2.766 28
0.0 -0.0 3.0 0
0.439 -1.391 2.704 0
0.446 -1.404 2.676 0
0.429 -1.338 2.666 0
0.425 -1.316 2.647 0
0.427 -1.314 2.623 0
0.424 -1.292 2.605 0
0.413 -1.249 2.594 0
0.424 -1.274 2.561 0
0.412 -1.226 2.554 0
0.402 -1.19 2.543 0
0.403 -1.181 2.523 0
0.391 -1.138 2.517 0
0.394 -1.139 2.493 0
0.379 -1.086 2.494 0
0.381 -1.083 2.472 0
0.378 -1.067 2.456 0
0.0 -0.0 3.0 0
0.366 -1.018 2.436 0
0.0 -0.0 3.0 0
0.361 -0.988 2.406 0
0.0 -0.0 3.0 0
0.351 -0.944 2.387 0
0.0 -0.0 3.0 0
0.343 -0.908 2.364 0
0.0 -0.0 3.0 0
0.0 -0.0 3.0 0
0.0 -0.0 3.0 0
0.0 -0.0 3.0 0
0.0 -0.0 3.0 0
0.0 -0.0 3.0 0
0.416 -1.325 2.766 29
0.0 -0.0 3.0 0
0.444 -1.393 2.704 0
0.448 -1.395 2.678 0
0.439 -1.355 2.662 0
0.428 -1.311 2.649 0
0.433 -1.317 2.622 0
0.427 -1.288 2.606 0
0.417 -1.248 2.595 0
0.426 -1.265 2.564 0
0.413 -1.217 2.557 0
0.406 -1.188 2.544 0
0.407 -1.18 2.523 0
0.387 -1.115 2.527 0
0.397 -1.135 2.495 0
0.391 -1.108 2.483 0
0.0 -0.0 3.0 0
0.379 -1.059 2.46 0
0.0 -0.0 3.0 0
0.371 -1.02 2.435 0
0.0 -0.0 3.0 0
0.367 -0.993 2.403 0
0.0 -0.0 3.0 0
0.365 -0.97 2.37 0
0.0 -0.0 3.0 0
0.342 -0.894 2.374 0
0.0 -0.0 3.0 0
0.0 -0.0 3.0 0
0.0 -0.0 3.0 0
0.0 -0.0 3.0 0
0.0 -0.0 3.0 0
0.0 -0.0 3.0 0
0.421 -1.327 2.766 29
0.0 -0.0 3.0 0
0.45 -1.396 2.703 0
0.45 -1.386 2.68 0
0.446 -1.362 2.66 0
0.435 -1.318 2.647 0
0.433 -1.304 2.626 0
0.437 -1.304 2.601 0
0.424 -1.257 2.592 0
0.431 -1.267 2.564 0
0.412 -1.202 2.562 0
0.414 -1.197 2.54 0
0.409 -1.176 2.525 0
0.393 -1.121 2.524 0
0.403 -1.14 2.492 0
0.391 -1.097 2.489 0
0.0 -0.0 3.0 0
0.387 -1.068 2.456 0
0.0 -0.0 3.0 0
0.375 -1.019 2.435 0
0.0 -0.0 3.0 0
0.37 -0.989 2.406 0
0.0 -0.0 3.0 0
0.358 -0.943 2.388 0
0.0 -0.0 3.0 0
0.348 -0.9 2.37 0
0.0 -0.0 3.0 0
0.0 -0.0 3.0 0
0.0 -0.0 3.0 0
0.0 -0.0 3.0 0
0.0 -0.0 3.0 0
0.0 -0.0 3.0 0
0.425 -1.326 2.766 30
0.0 -0.0 3.0 0
0.453 -1.39 2.704 0
0.45 -1.37 2.684 0
0.447 -1.353 2.663 0
0.437 -1.309 2.649 0
0.44 -1.31 2.624 0
0.437 -1.292 2.605 0
0.428 -1.255 2.592 0
0.439 -1.277 2.56 0
0.425 -1.226 2.554 0
0.429 -1.228 2.529 0
0.413 -1.174 2.526 0
0.401 -1.13 2.52 0
0.404 -1.129 2.497 0
0.4 -1.109 2.483 0
0.0 -0.0 3.0 0
0.388 -1.061 2.459 0
0.0 -0.0 3.0 0
0.382 -1.028 2.43 0
0.0 -0.0 3.0 0
0.371 -0.981 2.41 0
0.0 -0.0 3.0 0
0.366 -0.951 2.382 0
0.0 -0.0 3.0 0
0.351 -0.899 2.371 0
0.0 -0.0 3.0 0
0.0 -0.0 3.0 0
0.0 -0.0 3.0 0
0.0 -0.0 3.0 0
0.0 -0.0 3.0 0
0.0 -0.0 3.0 0
0.429 -1.325 2.766 30
0.0 -0.0 3.0 0
0.461 -1.4 2.702 0
0.458 -1.38 2.681 0
0.454 -1.359 2.661 0
0.442 -1.312 2.649 0
0.443 -1.305 2.626 0
0.442 -1.291 2.605 0
0.434 -1.258 2.591 0
0.438 -1.261 2.566 0
0.425 -1.214 2.558 0
0.413 -1.17 2.551 0
0.422 -1.187 2.521 0
0.407 -1.137 2.518 0
0.411 -1.138 2.493 0
0.402 -1.105 2.485 0
0.0 -0.0 3.0 0
0.391 -1.057 2.462 0
0.0 -0.0 3.0 0
0.386 -1.027 2.431 0
0.0 -0.0 3.0 0
0.376 -0.984 2.409 0
0.0 -0.0 3.0 0
0.365 -0.941 2.389 0
0.0 -0.0 3.0 0
0.356 -0.901 2.369 0
0.0 -0.0 3.0 0
0.0 -0.0 3.0 0
0.0 -0.0 3.0 0
0.0 -0.0 3.0 0
0.0 -0.0 3.0 0
0.0 -0.0 3.0 0
0.434 -1.327 2.766 29
0.0 -0.0 3.0 0
0.462 -1.388 2.705 0
0.463 -1.382 2.681 0
0.456 -1.35 2.663 0
0.439 -1.288 2.655 0
0.452 -1.319 2.622 0
0.443 -1.282 2.608 0
0.434 -1.246 2.595 0
0.441 -1.257 2.567 0
0.422 -1.191 2.567 0
0.419 -1.177 2.548 0
0.422 -1.176 2.525 0
0.405 -1.117 2.526 0
0.411 -1.127 2.498 0
0.405 -1.1 2.487 0
0.0 -0.0 3.0 0
0.396 -1.058 2.461 0
0.0 -0.0 3.0 0
0.386 -1.016 2.437 0
0.0 -0.0 3.0 0
0.386 -0.999 2.399 0
0.0 -0.0 3.0 0
0.378 -0.962 2.375 0
0.0 -0.0 3.0 0
0.365 -0.916 2.359 0
0.0 -0.0 3.0 0
0.0 -0.0 3.0 0
0.0 -0.0 3.0 0
0.0 -0.0 3.0 0
0.0 -0.0 3.0 0
0.0 -0.0 3.0 0
0.437 -1.322 2.767 30
0.0 -0.0 3.0 0
0.466 -1.386 2.705 0
0.471 -1.392 2.679 0
0.458 -1.341 2.666 0
0.452 -1.313 2.648 0
0.453 -1.306 2.626 0
0.454 -1.299 2.603 0
0.442 -1.255 2.592 0
0.443 -1.248 2.57 0
0.435 -1.215 2.558 0
0.425 -1.179 2.548 0
0.429 -1.181 2.523 0
0.414 -1.13 2.52 0
0.414 -1.122 2.5 0
0.411 -1.107 2.484 0
0.0 -0.0 3.0 0
0.402 -1.064 2.458 0
0.0 -0.0 3.0 0
0.387 -1.009 2.441 0
0.0 -0.0 3.0 0
0.38 -0.975 2.414 0
0.0 -0.0 3.0 0
0.38 -0.958 2.378 0
0.0 -0.0 3.0 0
0.369 -0.915 2.359 0
0.0 -0.0 3.0 0
0.0 -0.0 3.0 0
0.0 -0.0 3.0 0
0.0 -0.0 3.0 0
0.0 -0.0 3.0 0
0.0 -0.0 3.0 0
0.443 -1.324 2.766 30
0.0 -0.0 3.0 0
0.474 -1.396 2.703 0
0.478 -1.397 2.677 0
0.462 -1.34 2.666 0
0.453 -1.304 2.651 0
0.461 -1.316 2.623 0
0.454 -1.287 2.607 0
0.442 -1.243 2.596 0
0.456 -1.272 2.562 0
0.439 -1.214 2.558 0
0.43 -1.18 2.547 0
0.436 -1.187 2.521 0
0.416 -1.126 2.522 0
0.422 -1.131 2.496 0
0.416 -1.108 2.483 0
0.0 -0.0 3.0 0
0.407 -1.066 2.457 0
0.0 -0.0 3.0 0
0.391 -1.007 2.442 0
0.0 -0.0 3.0 0
0.392 -0.994 2.403 0
0.0 -0.0 3.0 0
0.387 -0.967 2.372 0
0.0 -0.0 3.0 0
0.375 -0.92 2.356 0
0.0 -0.0 3.0 0
0.0 -0.0 3.0 0
0.0 -0.0 3.0 0
0.0 -0.0 3.0 0
0.0 -0.0 3.0 0
0.0 -0.0 3.0 0
0.447 -1.323 2.767 30
0.0 -0.0 3.0 0
0.474 -1.384 2.706 0
0.478 -1.381 2.681 0
0.468 -1.342 2.665 0
0.463 -1.318 2.647 0
0.466 -1.318 2.622 0
0.463 -1.299 2.603 0
0.45 -1.253 2.593 0
0.468 -1.292 2.555 0
0.443 -1.213 2.559 0
0.439 -1.194 2.542 0
0.44 -1.186 2.521 0
0.424 -1.135 2.518 0
0.436 -1.158 2.485 0
