# .PCD v0.7 - Point Cloud Data file format
VERSION 0.7
FIELDS x y z intensity
SIZE 4 4 4 4
TYPE F F F F
COUNT 1 1 1 1
WIDTH 2096
HEIGHT 1
VIEWPOINT 0 0 0 1 0 0 0
POINTS 2096
DATA ascii
10.291 -5.622 1.281 19
10.603 -5.708 1.145 18
10.971 -5.821 0.996 23
10.992 -5.758 0.904 34
10.904 -5.637 0.836 30
9.595 -4.903 1.019 26
9.94 -5.024 0.867 31
10.165 -5.09 0.734 30
10.175 -5.049 0.646 13
30.299 -14.919 -4.277 4
28.692 -14.028 -4.147 4
27.212 -13.222 -4.03 4
25.888 -12.516 -3.938 24
24.673 -11.876 -3.857 7
20.597 -9.882 -2.938 19
20.547 -9.832 -3.143 21
20.559 -9.82 -3.377 22
20.005 -9.543 -3.437 17
19.259 -9.184 -3.43 14
18.54 -8.839 -3.422 14
17.767 -8.477 -3.388 13
17.04 -8.137 -3.357 14
16.35 -7.817 -3.33 12
15.707 -7.523 -3.313 14
15.092 -7.241 -3.295 15
10.696 -6.662 1.825 22
10.578 -6.463 1.744 23
10.388 -6.227 1.676 25
10.98 -6.464 1.508 5
11.02 -6.371 1.411 13
10.949 -6.224 1.332 30
12.31 -6.882 1.027 28
10.242 -5.635 1.277 33
10.571 -5.73 1.138 25
10.865 -5.806 1.001 20
11.151 -5.883 0.859 41
9.809 -5.108 1.039 5
9.557 -4.92 1.012 29
9.888 -5.035 0.863 27
10.158 -5.124 0.719 30
31.835 -15.914 -4.421 6
10.492 -5.205 0.461 1
28.51 -14.042 -4.155 4
27.046 -13.239 -4.039 5
25.724 -12.529 -3.945 27
24.533 -11.895 -3.868 7
20.53 -9.922 -2.962 21
20.376 -9.819 -3.135 22
20.59 -9.904 -3.432 30
19.925 -9.571 -3.456 18
19.187 -9.211 -3.45 14
18.463 -8.862 -3.438 14
17.699 -8.5 -3.405 13
16.973 -8.157 -3.373 18
16.284 -7.833 -3.343 11
15.646 -7.539 -3.326 13
15.033 -7.256 -3.307 14
10.671 -6.687 1.821 23
10.57 -6.499 1.737 25
10.462 -6.311 1.658 21
10.752 -6.371 1.529 21
10.99 -6.396 1.405 8
10.912 -6.246 1.327 36
12.723 -7.161 0.947 12
10.162 -5.63 1.279 22
10.619 -5.797 1.116 27
10.825 -5.826 0.994 22
11.333 -6.023 0.808 30
9.785 -5.133 1.03 25
9.488 -4.921 1.012 32
9.867 -5.062 0.851 34
10.148 -5.157 0.704 34
31.608 -15.918 -4.423 7
10.477 -5.236 0.446 34
28.321 -14.053 -4.16 4
26.887 -13.258 -4.049 4
25.571 -12.546 -3.954 29
24.379 -11.906 -3.874 7
20.505 -9.981 -2.997 22
20.216 -9.811 -3.131 20
20.353 -9.859 -3.402 26
19.874 -9.612 -3.483 18
19.12 -9.242 -3.471 14
18.387 -8.883 -3.454 13
17.62 -8.517 -3.418 14
16.903 -8.174 -3.386 13
16.219 -7.851 -3.358 11
15.581 -7.555 -3.339 13
14.969 -7.268 -3.318 15
10.682 -6.736 1.812 25
10.497 -6.495 1.738 29
10.379 -6.302 1.661 20
10.624 -6.335 1.537 27
10.759 -6.304 1.428 8
10.897 -6.278 1.318 21
10.992 -6.23 1.214 2
10.223 -5.703 1.256 25
10.164 -5.588 1.184 17
9.755 -5.287 1.179 67
11.4 -6.102 0.779 23
9.744 -5.148 1.024 22
9.454 -4.939 1.004 30
9.86 -5.096 0.837 32
10.105 -5.173 0.697 29
31.388 -15.925 -4.426 7
10.452 -5.262 0.433 22
28.121 -14.057 -4.162 4
26.704 -13.264 -4.053 5
25.415 -12.56 -3.962 29
24.242 -11.925 -3.885 7
20.42 -10.011 -3.015 9
20.09 -9.819 -3.136 21
20.096 -9.802 -3.366 40
19.863 -9.673 -3.524 19
19.048 -9.269 -3.49 14
18.32 -8.91 -3.473 14
17.545 -8.535 -3.432 14
16.839 -8.195 -3.403 15
16.15 -7.866 -3.37 12
15.517 -7.569 -3.351 13
14.913 -7.284 -3.332 15
10.67 -6.768 1.807 24
10.523 -6.55 1.727 11
10.486 -6.407 1.638 20
10.541 -6.327 1.539 22
10.767 -6.35 1.417 18
10.871 -6.305 1.311 26
11.161 -6.369 1.174 17
10.336 -5.807 1.225 30
10.657 -5.901 1.083 37
9.644 -5.265 1.187 30
10.804 -5.825 0.88 18
9.73 -5.179 1.012 14
9.476 -4.987 0.985 33
9.829 -5.117 0.828 25
10.063 -5.189 0.689 30
31.173 -15.932 -4.429 7
10.458 -5.304 0.413 26
27.943 -14.07 -4.169 5
26.536 -13.277 -4.059 4
25.263 -12.576 -3.971 30
24.106 -11.943 -3.895 7
23.011 -11.362 -3.827 19
19.993 -9.84 -3.149 24
20.006 -9.826 -3.381 29
19.794 -9.704 -3.546 25
18.984 -9.3 -3.512 14
18.247 -8.934 -3.491 14
17.473 -8.556 -3.447 13
16.762 -8.211 -3.415 12
16.095 -7.889 -3.388 12
15.46 -7.587 -3.366 15
14.853 -7.298 -3.344 15
11.041 -7.046 1.758 11
10.436 -6.537 1.729 26
10.407 -6.399 1.64 28
10.58 -6.391 1.525 31
10.779 -6.399 1.405 0
10.855 -6.338 1.302 18
11.293 -6.488 1.14 10
10.438 -5.905 1.195 22
10.607 -5.915 1.078 18
9.613 -5.286 1.18 19
11.225 -6.095 0.782 25
9.706 -5.203 1.003 25
9.522 -5.047 0.961 23
9.742 -5.109 0.832 32
10.073 -5.233 0.67 25
30.954 -15.937 -4.431 7
10.491 -5.36 0.386 1
10.46 -5.306 0.297 6
26.37 -13.29 -4.067 4
25.11 -12.59 -3.979 30
23.962 -11.958 -3.904 7
22.874 -11.374 -3.834 17
19.933 -9.88 -3.174 23
19.887 -9.836 -3.387 24
19.724 -9.737 -3.567 22
18.906 -9.324 -3.529 14
18.16 -8.949 -3.502 14
17.405 -8.578 -3.464 14
16.685 -8.224 -3.425 13
16.036 -7.909 -3.404 12
15.399 -7.603 -3.38 13
14.797 -7.314 -3.358 14
10.669 -6.85 1.792 23
10.646 -6.71 1.696 22
10.557 -6.532 1.612 15
10.52 -6.396 1.523 30
11.008 -6.578 1.36 16
10.89 -6.402 1.285 20
10.871 -6.289 1.197 29
10.471 -5.964 1.176 19
10.65 -5.98 1.057 32
9.589 -5.31 1.172 25
11.111 -6.077 0.788 24
9.778 -5.28 0.973 24
9.48 -5.062 0.955 27
9.464 -5.0 0.878 26
10.079 -5.274 0.652 31
30.753 -15.949 -4.437 7
10.462 -5.384 0.374 11
10.406 -5.317 0.291 6
26.205 -13.304 -4.074 5
24.965 -12.608 -3.989 27
23.819 -11.972 -3.912 7
22.75 -11.393 -3.846 11
19.76 -9.862 -3.163 19
19.952 -9.936 -3.453 24
19.644 -9.764 -3.586 25
18.807 -9.337 -3.538 15
18.09 -8.974 -3.52 13
17.336 -8.599 -3.48 13
16.621 -8.245 -3.441 13
15.97 -7.925 -3.417 12
15.334 -7.617 -3.391 15
14.734 -7.326 -3.368 14
11.405 -7.368 1.701 22
10.735 -6.808 1.677 23
10.67 -6.644 1.588 11
10.636 -6.508 1.497 12
10.825 -6.511 1.377 4
10.85 -6.42 1.28 22
10.4 -6.057 1.263 27
10.446 -5.991 1.168 30
10.442 -5.904 1.082 25
9.634 -5.372 1.15 26
10.964 -6.039 0.802 27
9.896 -5.382 0.934 19
9.602 -5.164 0.914 31
9.34 -4.97 0.89 24
10.664 -5.621 0.497 25
30.538 -15.954 -4.439 7
10.409 -5.396 0.368 25
10.426 -5.365 0.266 7
26.04 -13.315 -4.08 5
24.834 -12.632 -4.002 6
23.687 -11.99 -3.923 7
22.623 -11.409 -3.855 17
19.734 -9.919 -3.198 14
19.875 -9.966 -3.472 28
19.561 -9.788 -3.602 31
18.725 -9.359 -3.553 14
18.013 -8.994 -3.535 15
17.261 -8.617 -3.493 13
16.551 -8.262 -3.455 13
15.911 -7.945 -3.433 11
15.28 -7.636 -3.408 12
14.684 -7.344 -3.384 14
11.221 -7.292 1.714 29
10.759 -6.865 1.666 12
10.711 -6.711 1.574 17
10.624 -6.543 1.489 19
10.775 -6.523 1.374 21
10.813 -6.441 1.274 18
10.361 -6.075 1.258 24
10.461 -6.04 1.153 28
10.042 -5.717 1.142 28
9.637 -5.411 1.137 28
9.824 -5.449 1.017 7
9.94 -5.444 0.91 25
9.588 -5.193 0.902 30
9.281 -4.974 0.888 28
32.228 -17.112 -4.619 5
10.582 -5.568 0.403 0
10.39 -5.425 0.354 27
10.376 -5.379 0.259 36
25.89 -13.334 -4.09 5
24.678 -12.643 -4.008 6
23.551 -12.006 -3.932 7
22.496 -11.425 -3.865 18
19.706 -9.973 -3.232 17
19.657 -9.925 -3.445 21
19.488 -9.817 -3.622 30
18.681 -9.4 -3.582 14
17.94 -9.017 -3.551 14
17.189 -8.637 -3.508 14
16.487 -8.282 -3.471 13
15.842 -7.959 -3.445 11
15.215 -7.65 -3.419 13
14.624 -7.358 -3.396 14
10.977 -7.176 1.735 15
10.716 -6.88 1.663 26
10.718 -6.759 1.563 2
10.574 -6.554 1.487 28
10.989 -6.696 1.33 12
10.797 -6.474 1.265 11
10.396 -6.137 1.24 25
10.431 -6.065 1.146 29
9.969 -5.715 1.143 26
9.705 -5.487 1.111 25
9.816 -5.484 1.004 1
9.946 -5.486 0.894 17
9.57 -5.221 0.891 27
9.302 -5.021 0.869 35
31.986 -17.106 -4.616 5
10.493 -5.562 0.406 19
10.392 -5.465 0.334 24
10.329 -5.393 0.252 20
25.732 -13.347 -4.097 5
24.533 -12.658 -4.017 6
23.418 -12.023 -3.942 7
22.362 -11.437 -3.872 11
21.401 -10.907 -3.815 18
19.672 -10.0 -3.494 7
19.411 -9.846 -3.641 29
18.691 -9.467 -3.629 21
17.856 -9.033 -3.563 14
17.114 -8.654 -3.521 13
16.42 -8.3 -3.485 12
15.783 -7.979 -3.461 11
15.161 -7.669 -3.435 13
14.574 -7.376 -3.412 14
10.867 -7.148 1.74 21
10.689 -6.905 1.658 22
10.691 -6.784 1.558 18
10.548 -6.579 1.481 24
11.154 -6.841 1.294 27
41.071 -24.793 -3.643 10
10.37 -6.163 1.233 23
10.487 -6.139 1.123 27
9.913 -5.722 1.141 25
9.68 -5.512 1.102 29
9.788 -5.507 0.996 18
9.948 -5.526 0.879 24
9.68 -5.319 0.851 30
9.327 -5.071 0.847 28
31.752 -17.103 -4.615 6
10.419 -5.562 0.406 28
10.366 -5.491 0.322 33
26.883 -14.137 -4.203 5
25.578 -13.363 -4.105 5
24.388 -12.673 -4.025 6
23.282 -12.038 -3.95 7
22.245 -11.457 -3.884 8
21.297 -10.929 -3.829 15
19.523 -9.993 -3.489 19
19.362 -9.886 -3.668 31
18.61 -9.488 -3.644 22
17.779 -9.054 -3.578 13
17.045 -8.675 -3.537 13
16.359 -8.322 -3.502 12
15.724 -7.997 -3.476 12
15.1 -7.684 -3.448 13
14.514 -7.389 -3.423 14
10.658 -7.052 1.757 23
10.776 -7.005 1.638 18
10.96 -6.998 1.513 18
10.572 -6.637 1.468 31
11.137 -6.875 1.286 18
11.098 -6.744 1.193 1
10.514 -6.29 1.196 24
10.427 -6.146 1.121 26
9.884 -5.745 1.133 26
9.679 -5.55 1.089 28
10.016 -5.674 0.935 10
9.964 -5.575 0.86 20
9.665 -5.349 0.839 24
9.409 -5.152 0.813 31
10.531 -5.713 0.456 5
10.396 -5.59 0.393 23
10.346 -5.52 0.308 35
26.727 -14.156 -4.213 5
25.42 -13.376 -4.112 5
24.237 -12.684 -4.031 6
23.157 -12.057 -3.961 7
22.122 -11.473 -3.894 7
21.185 -10.947 -3.84 15
19.903 -10.256 -3.66 11
19.296 -9.919 -3.69 34
18.487 -9.488 -3.644 15
17.696 -9.07 -3.59 13
16.97 -8.692 -3.55 13
16.289 -8.338 -3.514 12
15.651 -8.01 -3.486 18
15.032 -7.696 -3.458 13
14.464 -7.407 -3.439 15
10.744 -7.152 1.739 20
10.623 -6.947 1.65 30
10.989 -7.061 1.499 2
10.257 -6.48 1.504 28
10.469 -6.505 1.378 15
10.743 -6.571 1.239 33
10.532 -6.343 1.181 25
10.479 -6.217 1.099 23
9.757 -5.71 1.145 21
9.695 -5.598 1.073 22
10.111 -5.768 0.901 31
10.058 -5.667 0.825 30
9.709 -5.411 0.814 26
9.858 -5.437 0.692 28
10.477 -5.725 0.451 26
10.322 -5.59 0.393 29
10.317 -5.544 0.296 33
26.546 -14.161 -4.215 5
25.277 -13.395 -4.122 5
24.102 -12.703 -4.042 6
23.018 -12.07 -3.968 7
21.992 -11.485 -3.901 8
21.064 -10.959 -3.848 12
19.825 -10.285 -3.679 7
19.216 -9.944 -3.707 31
18.392 -9.502 -3.653 14
17.619 -9.089 -3.603 14
16.908 -8.715 -3.568 16
16.222 -8.356 -3.528 13
15.592 -8.028 -3.501 11
14.971 -7.711 -3.47 13
14.408 -7.422 -3.452 14
10.78 -7.219 1.727 38
10.612 -6.983 1.643 17
10.415 -6.733 1.569 1
10.15 -6.453 1.51 24
10.846 -6.783 1.309 14
10.672 -6.571 1.239 30
10.573 -6.41 1.162 24
10.547 -6.301 1.074 14
9.936 -5.855 1.098 38
9.718 -5.65 1.055 22
10.112 -5.809 0.886 28
10.258 -5.82 0.766 45
9.766 -5.482 0.785 28
9.675 -5.374 0.719 33
10.457 -5.755 0.438 31
10.265 -5.598 0.389 29
10.304 -5.577 0.28 32
10.253 -5.508 0.193 0
10.311 -5.503 0.074 0
10.307 -5.471 -0.032 15
20.222 -10.677 -3.164 1
20.242 -10.645 -3.396 1
20.953 -10.976 -3.859 15
20.049 -10.473 -3.801 16
19.139 -9.97 -3.725 24
18.313 -9.524 -3.669 14
17.552 -9.113 -3.621 14
16.836 -8.734 -3.581 13
16.161 -8.377 -3.545 12
15.533 -8.047 -3.516 12
14.916 -7.729 -3.485 13
14.351 -7.436 -3.464 14
11.377 -7.665 1.648 28
10.609 -7.023 1.635 29
10.338 -6.726 1.57 21
10.151 -6.495 1.501 21
10.715 -6.745 1.318 19
10.598 -6.569 1.24 33
10.539 -6.432 1.156 24
10.466 -6.295 1.075 17
10.395 -6.167 0.996 24
9.638 -5.643 1.057 22
10.089 -5.837 0.876 25
10.293 -5.882 0.742 33
9.809 -5.545 0.76 21
9.479 -5.302 0.749 24
10.431 -5.781 0.426 32
10.221 -5.615 0.382 30
10.281 -5.604 0.267 0
10.168 -5.501 0.197 21
10.284 -5.527 0.061 27
10.256 -5.482 -0.039 22
19.999 -10.633 -3.139 2
19.884 -10.529 -3.326 0
20.825 -10.984 -3.863 18
19.964 -10.499 -3.818 17
19.059 -9.995 -3.742 21
18.214 -9.535 -3.676 13
17.475 -9.132 -3.635 14
16.771 -8.756 -3.598 14
16.094 -8.395 -3.559 12
15.464 -8.061 -3.528 11
14.852 -7.742 -3.496 13
14.298 -7.452 -3.478 14
10.735 -7.276 1.717 24
10.628 -7.079 1.624 26
10.288 -6.735 1.568 8
10.081 -6.492 1.501 24
10.453 -6.622 1.349 28
10.48 -6.537 1.248 28
10.546 -6.48 1.142 26
10.608 -6.424 1.036 23
10.358 -6.188 0.989 22
9.681 -5.706 1.035 22
10.118 -5.894 0.855 32
10.233 -5.888 0.74 20
9.736 -5.542 0.761 22
9.444 -5.32 0.742 29
10.421 -5.816 0.41 23
10.181 -5.633 0.373 35
10.234 -5.618 0.26 11
10.036 -5.469 0.214 33
10.125 -5.48 0.086 35
10.22 -5.5 -0.049 10
19.658 -10.525 -3.077 1
19.646 -10.474 -3.294 1
20.711 -10.998 -3.872 18
19.858 -10.513 -3.827 18
18.965 -10.013 -3.754 25
18.126 -9.55 -3.687 13
17.405 -9.154 -3.651 14
16.699 -8.773 -3.611 14
16.03 -8.413 -3.573 13
15.401 -8.077 -3.541 12
14.797 -7.76 -3.511 13
14.244 -7.468 -3.492 15
10.688 -7.288 1.715 18
10.588 -7.095 1.621 23
10.275 -6.769 1.561 22
10.089 -6.538 1.491 21
10.283 -6.556 1.365 16
10.38 -6.518 1.254 27
10.697 -6.616 1.103 16
10.639 -6.485 1.017 27
10.338 -6.217 0.98 22
9.598 -5.696 1.039 27
10.102 -5.925 0.844 29
10.226 -5.925 0.725 25
9.642 -5.527 0.767 27
9.552 -5.419 0.7 42
10.789 -6.065 0.3 3
10.165 -5.664 0.359 26
10.15 -5.611 0.263 28
9.986 -5.479 0.208 29
9.946 -5.421 0.118 21
23.535 -12.756 -4.071 6
19.458 -10.49 -3.056 1
19.469 -10.451 -3.28 2
20.593 -11.01 -3.88 18
19.742 -10.523 -3.833 17
18.865 -10.026 -3.762 18
18.047 -9.572 -3.702 12
17.332 -9.174 -3.665 13
16.627 -8.791 -3.625 13
15.969 -8.434 -3.589 13
15.335 -8.092 -3.552 11
14.739 -7.776 -3.525 12
14.187 -7.483 -3.504 14
10.845 -7.439 1.688 44
10.558 -7.118 1.616 18
10.093 -6.69 1.578 15
10.086 -6.577 1.482 28
10.319 -6.622 1.349 37
10.386 -6.564 1.241 20
10.67 -6.643 1.095 32
10.665 -6.545 0.999 28
10.302 -6.237 0.973 30
10.036 -5.997 0.935 10
10.146 -5.992 0.819 18
10.183 -5.942 0.719 33
9.61 -5.548 0.759 30
9.795 -5.596 0.625 35
10.394 -5.884 0.38 2
10.135 -5.686 0.348 28
10.079 -5.612 0.263 26
9.977 -5.513 0.191 28
9.923 -5.446 0.104 27
23.391 -12.766 -4.076 6
0.0 -0.0 3.0 0
19.316 -10.44 -3.273 2
20.482 -11.025 -3.889 9
19.644 -10.541 -3.845 19
18.778 -10.046 -3.776 9
17.969 -9.592 -3.717 12
17.255 -9.193 -3.679 13
16.558 -8.81 -3.639 13
15.905 -8.452 -3.604 13
15.276 -8.11 -3.567 12
14.684 -7.793 -3.539 13
14.134 -7.498 -3.518 14
10.67 -7.362 1.702 28
10.599 -7.19 1.602 18
10.206 -6.807 1.553 21
10.099 -6.628 1.47 27
10.263 -6.628 1.348 22
10.182 -6.477 1.264 22
10.652 -6.676 1.086 15
10.587 -6.54 1.001 23
10.288 -6.272 0.962 25
10.094 -6.073 0.909 20
10.214 -6.075 0.789 7
10.16 -5.969 0.709 30
9.577 -5.567 0.751 28
9.762 -5.616 0.616 33
10.411 -5.935 0.358 2
10.095 -5.703 0.34 28
10.049 -5.634 0.252 29
9.914 -5.517 0.189 30
9.941 -5.495 0.078 29
23.254 -12.78 -4.084 5
0.0 -0.0 3.0 0
19.167 -10.431 -3.267 3
19.667 -10.658 -3.66 4
19.548 -10.56 -3.858 18
18.694 -10.067 -3.791 7
17.887 -9.611 -3.73 14
17.181 -9.212 -3.693 13
16.489 -8.829 -3.653 13
15.845 -8.472 -3.619 13
15.207 -8.122 -3.577 11
14.623 -7.807 -3.551 14
14.07 -7.508 -3.527 14
10.766 -7.473 1.682 14
10.562 -7.208 1.599 14
10.166 -6.822 1.55 29
10.106 -6.673 1.459 15
10.342 -6.722 1.324 26
10.079 -6.453 1.271 32
11.748 -7.411 0.875 1
10.61 -6.598 0.983 6
10.201 -6.26 0.966 22
10.057 -6.092 0.902 11
11.095 -6.643 0.582 12
10.217 -6.044 0.68 25
9.711 -5.684 0.703 31
9.794 -5.674 0.591 28
10.384 -5.961 0.346 6
10.055 -5.721 0.332 25
10.06 -5.68 0.23 30
9.86 -5.525 0.185 29
9.881 -5.499 0.076 34
20.346 -11.259 -3.241 5
0.0 -0.0 3.0 0
18.995 -10.408 -3.253 2
19.487 -10.632 -3.644 8
19.439 -10.571 -3.865 17
18.594 -10.079 -3.798 6
17.815 -9.635 -3.747 14
17.104 -9.23 -3.706 12
16.41 -8.842 -3.663 13
15.777 -8.489 -3.632 13
15.144 -8.139 -3.59 11
14.561 -7.821 -3.563 14
14.02 -7.525 -3.541 16
10.64 -7.43 1.69 17
10.594 -7.274 1.586 10
10.103 -6.821 1.55 20
10.049 -6.678 1.458 28
10.219 -6.684 1.333 32
10.046 -6.473 1.266 24
11.742 -7.455 0.862 0
10.776 -6.746 0.937 0
10.238 -6.325 0.945 26
9.993 -6.095 0.901 29
11.063 -6.67 0.572 9
10.153 -6.048 0.678 26
10.043 -5.92 0.608 22
10.062 -5.87 0.508 23
29.617 -17.12 -4.622 6
10.048 -5.757 0.316 30
10.037 -5.706 0.217 32
9.864 -5.566 0.164 29
9.844 -5.517 0.066 21
20.292 -11.307 -3.267 8
0.0 -0.0 3.0 0
18.843 -10.394 -3.246 2
19.335 -10.62 -3.636 7
19.337 -10.586 -3.874 18
18.507 -10.098 -3.811 6
17.737 -9.655 -3.76 13
17.027 -9.247 -3.718 13
16.345 -8.863 -3.679 13
15.71 -8.505 -3.645 14
15.081 -8.154 -3.603 11
14.503 -7.836 -3.575 13
13.966 -7.54 -3.555 24
10.776 -7.57 1.665 17
10.55 -7.288 1.583 24
10.109 -6.868 1.54 23
10.039 -6.714 1.45 0
9.954 -6.552 1.366 31
10.016 -6.496 1.259 30
10.456 -6.683 1.084 2
10.771 -6.788 0.925 4
10.19 -6.338 0.941 24
0.0 -0.0 3.0 0
10.997 -6.675 0.571 28
10.096 -6.055 0.676 6
10.235 -6.074 0.546 17
9.977 -5.861 0.512 31
29.41 -17.119 -4.622 5
10.153 -5.857 0.269 17
10.01 -5.73 0.205 24
9.841 -5.591 0.151 31
9.845 -5.555 0.046 33
19.292 -10.823 -2.999 1
0.0 -0.0 3.0 0
18.681 -10.375 -3.234 2
19.099 -10.561 -3.599 2
19.235 -10.6 -3.883 19
18.46 -10.139 -3.839 12
17.669 -9.68 -3.778 13
16.964 -9.271 -3.736 14
16.279 -8.882 -3.693 12
15.642 -8.521 -3.657 12
15.009 -8.164 -3.611 11
14.448 -7.853 -3.59 12
13.919 -7.559 -3.571 25
10.692 -7.556 1.668 21
10.558 -7.338 1.574 22
10.128 -6.923 1.529 25
10.796 -7.265 1.323 42
9.907 -6.563 1.364 27
9.992 -6.523 1.252 28
10.189 -6.555 1.12 20
10.687 -6.78 0.927 4
10.494 -6.571 0.865 6
9.974 -6.165 0.877 30
10.958 -6.697 0.563 23
10.079 -6.087 0.663 2
10.184 -6.086 0.541 30
9.907 -5.86 0.512 29
29.202 -17.116 -4.621 6
10.15 -5.896 0.25 20
10.0 -5.764 0.189 29
9.822 -5.619 0.137 30
9.825 -5.583 0.032 12
19.055 -10.764 -2.967 1
0.0 -0.0 3.0 0
18.527 -10.359 -3.224 2
18.903 -10.523 -3.575 1
19.137 -10.615 -3.894 15
18.38 -10.161 -3.854 19
17.59 -9.7 -3.792 13
16.887 -9.289 -3.749 13
16.201 -8.895 -3.703 14
15.569 -8.533 -3.667 12
14.949 -8.181 -3.625 12
14.387 -7.867 -3.601 13
13.862 -7.572 -3.582 22
10.453 -7.431 1.69 25
10.579 -7.397 1.562 15
10.091 -6.941 1.525 35
10.642 -7.207 1.336 33
9.89 -6.594 1.356 25
9.952 -6.538 1.248 30
10.142 -6.567 1.117 21
10.622 -6.783 0.926 1
10.669 -6.725 0.815 49
10.114 -6.294 0.833 27
10.889 -6.7 0.561 18
11.027 -6.705 0.426 11
10.11 -6.083 0.542 23
9.877 -5.882 0.503 25
29.019 -17.126 -4.625 5
10.099 -5.907 0.245 23
9.983 -5.795 0.174 28
9.845 -5.671 0.11 24
23.626 -13.517 -4.187 5
18.886 -10.741 -2.954 2
18.356 -10.381 -2.994 0
18.402 -10.359 -3.224 2
18.705 -10.482 -3.55 1
19.038 -10.63 -3.903 11
18.29 -10.178 -3.865 19
17.515 -9.72 -3.806 13
16.81 -9.305 -3.76 12
16.129 -8.911 -3.715 13
15.498 -8.546 -3.677 12
14.886 -8.197 -3.637 11
14.326 -7.88 -3.612 16
13.805 -7.585 -3.594 14
10.312 -7.374 1.7 24
10.551 -7.422 1.557 25
10.439 -7.225 1.464 0
10.473 -7.136 1.352 9
9.959 -6.681 1.334 20
9.945 -6.576 1.238 14
10.038 -6.542 1.124 23
12.018 -7.724 0.638 22
11.44 -7.259 0.641 19
10.4 -6.516 0.756 21
11.011 -6.821 0.517 30
10.978 -6.72 0.42 25
10.126 -6.135 0.521 27
9.806 -5.881 0.504 30
10.133 -6.022 0.319 4
10.112 -5.956 0.223 30
9.986 -5.836 0.154 22
9.839 -5.707 0.092 16
23.487 -13.53 -4.194 4
18.754 -10.739 -2.953 2
18.292 -10.416 -3.014 6
18.265 -10.351 -3.22 1
18.507 -10.441 -3.524 2
18.943 -10.647 -3.914 11
18.217 -10.202 -3.882 18
17.436 -9.739 -3.819 13
16.726 -9.318 -3.77 13
16.06 -8.928 -3.728 13
15.427 -8.56 -3.688 13
14.824 -8.212 -3.65 12
14.267 -7.894 -3.624 13
13.758 -7.603 -3.609 18
10.359 -7.451 1.686 26
10.649 -7.537 1.535 26
10.49 -7.304 1.447 25
10.393 -7.125 1.355 5
9.883 -6.673 1.336 26
9.869 -6.568 1.24 28
9.945 -6.524 1.129 21
12.182 -7.882 0.59 20
10.868 -6.942 0.744 20
10.339 -6.521 0.755 23
11.515 -7.182 0.386 2
10.986 -6.771 0.401 27
10.015 -6.109 0.532 26
9.76 -5.893 0.499 30
9.791 -5.858 0.392 1
10.088 -5.983 0.21 37
9.943 -5.851 0.147 34
24.445 -14.276 -4.274 23
23.342 -13.538 -4.198 5
18.629 -10.74 -2.953 2
18.165 -10.413 -3.012 0
0.0 -0.0 3.0 0
18.343 -10.417 -3.509 1
18.841 -10.66 -3.923 8
18.123 -10.217 -3.891 18
17.355 -9.756 -3.831 13
16.656 -9.338 -3.784 13
15.988 -8.944 -3.74 13
15.366 -8.579 -3.703 12
14.767 -8.23 -3.664 12
14.209 -7.909 -3.637 14
13.701 -7.616 -3.62 15
10.292 -7.448 1.687 26
10.41 -7.412 1.559 20
10.445 -7.317 1.445 15
0.0 -0.0 3.0 0
9.882 -6.715 1.326 25
9.727 -6.514 1.255 24
9.944 -6.565 1.117 3
12.048 -7.846 0.601 15
11.359 -7.304 0.627 25
10.298 -6.539 0.748 27
11.042 -6.932 0.477 0
11.13 -6.907 0.349 49
9.961 -6.117 0.528 25
9.73 -5.915 0.489 25
9.737 -5.866 0.388 17
10.067 -6.012 0.197 35
9.922 -5.878 0.133 11
24.291 -14.284 -4.278 27
23.201 -13.548 -4.204 5
18.51 -10.745 -2.956 2
17.941 -10.355 -2.978 3
0.0 -0.0 3.0 0
18.153 -10.377 -3.484 2
18.74 -10.673 -3.931 10
18.033 -10.232 -3.901 17
17.286 -9.78 -3.848 11
16.576 -9.352 -3.794 14
15.916 -8.96 -3.752 13
15.299 -8.593 -3.714 13
14.711 -8.248 -3.679 13
14.151 -7.923 -3.648 13
13.641 -7.627 -3.63 14
10.297 -7.495 1.678 23
10.379 -7.434 1.555 27
10.414 -7.341 1.44 14
10.418 -7.233 1.33 17
9.839 -6.728 1.323 29
9.752 -6.573 1.239 22
9.976 -6.63 1.099 0
12.098 -7.931 0.575 9
11.356 -7.35 0.612 30
10.283 -6.572 0.737 21
10.996 -6.951 0.47 5
11.004 -6.874 0.361 16
9.944 -6.149 0.516 20
9.706 -5.941 0.478 28
9.697 -5.882 0.381 20
10.05 -6.042 0.182 29
25.402 -15.154 -4.391 4
24.144 -14.294 -4.283 28
23.063 -13.559 -4.209 20
18.402 -10.755 -2.961 2
17.844 -10.368 -2.986 6
0.0 -0.0 3.0 0
17.973 -10.343 -3.463 2
18.638 -10.684 -3.938 17
17.943 -10.247 -3.912 18
17.204 -9.796 -3.859 7
16.506 -9.37 -3.808 14
15.85 -8.978 -3.766 13
15.232 -8.608 -3.726 12
14.645 -8.261 -3.689 14
14.099 -7.941 -3.664 12
13.587 -7.641 -3.642 14
10.349 -7.578 1.664 16
10.802 -7.784 1.487 10
10.385 -7.365 1.434 25
10.305 -7.198 1.338 19
9.815 -6.753 1.316 26
9.719 -6.592 1.234 22
12.579 -8.414 0.587 12
10.41 -6.869 0.9 0
11.329 -7.381 0.602 25
10.202 -6.565 0.74 22
36.264 -23.076 -5.399 16
10.964 -6.896 0.353 22
10.072 -6.27 0.467 21
9.672 -5.961 0.47 32
9.557 -5.837 0.401 29
10.045 -6.081 0.164 32
25.246 -15.163 -4.395 5
23.994 -14.302 -4.287 27
22.912 -13.562 -4.211 27
18.311 -10.773 -2.972 2
17.78 -10.401 -3.005 15
18.052 -10.507 -3.313 2
17.807 -10.314 -3.445 2
18.537 -10.696 -3.946 16
17.853 -10.261 -3.921 17
17.122 -9.812 -3.87 4
16.429 -9.386 -3.819 14
15.784 -8.997 -3.78 13
15.167 -8.625 -3.738 13
14.589 -8.279 -3.704 11
14.05 -7.961 -3.68 17
13.526 -7.651 -3.651 14
10.17 -7.491 1.679 28
11.107 -8.052 1.435 47
9.973 -7.116 1.487 20
9.933 -6.982 1.388 21
9.801 -6.786 1.308 28
9.731 -6.643 1.22 20
12.487 -8.406 0.59 26
10.313 -6.849 0.906 2
11.453 -7.511 0.559 6
10.193 -6.603 0.726 23
11.654 -7.466 0.283 5
10.057 -6.368 0.556 41
10.124 -6.345 0.437 24
9.645 -5.985 0.46 30
9.504 -5.844 0.398 23
10.011 -6.101 0.155 21
25.073 -15.162 -4.395 4
23.85 -14.313 -4.293 30
22.768 -13.568 -4.214 28
18.203 -10.782 -2.977 3
17.733 -10.442 -3.029 0
18.03 -10.564 -3.347 29
17.641 -10.286 -3.427 2
18.445 -10.712 -3.956 13
17.77 -10.28 -3.934 17
17.041 -9.827 -3.881 5
16.362 -9.406 -3.834 14
15.716 -9.013 -3.792 13
15.106 -8.643 -3.752 13
14.523 -8.291 -3.714 11
13.998 -7.978 -3.695 14
13.469 -7.663 -3.662 13
10.005 -7.413 1.693 24
10.817 -7.889 1.466 29
10.029 -7.2 1.47 24
9.799 -6.93 1.4 24
9.796 -6.825 1.298 28
9.668 -6.642 1.22 19
9.436 -6.393 1.167 3
10.35 -6.918 0.885 3
40.414 -26.679 -5.669 13
10.146 -6.615 0.722 23
11.698 -7.544 0.254 12
9.973 -6.357 0.56 23
9.954 -6.28 0.463 21
9.612 -6.004 0.451 29
9.48 -5.869 0.387 30
9.99 -6.13 0.141 25
24.924 -15.174 -4.401 4
23.701 -14.32 -4.297 30
22.633 -13.579 -4.22 27
18.111 -10.8 -2.986 3
17.887 -10.603 -3.122 0
17.422 -10.275 -3.174 4
17.478 -10.258 -3.41 2
18.341 -10.721 -3.962 20
17.676 -10.291 -3.942 19
16.956 -9.84 -3.89 5
16.294 -9.426 -3.849 13
15.64 -9.025 -3.801 12
15.036 -8.655 -3.762 11
14.47 -8.31 -3.729 14
13.94 -7.993 -3.707 15
13.393 -7.664 -3.663 14
9.967 -7.428 1.69 19
10.089 -7.402 1.561 9
9.953 -7.189 1.472 23
9.723 -6.919 1.403 18
9.746 -6.833 1.296 25
9.514 -6.578 1.237 27
9.37 -6.389 1.168 7
11.996 -8.072 0.532 7
40.19 -26.706 -5.677 14
10.137 -6.654 0.709 17
11.558 -7.503 0.269 15
9.81 -6.295 0.583 24
9.847 -6.255 0.473 26
9.631 -6.057 0.429 30
9.457 -5.894 0.376 29
9.972 -6.16 0.127 15
24.765 -15.18 -4.404 4
23.561 -14.332 -4.302 29
18.996 -11.474 -3.101 1
18.03 -10.824 -3.0 3
17.849 -10.651 -3.149 0
17.359 -10.306 -3.192 4
17.326 -10.236 -3.396 2
18.246 -10.735 -3.972 24
17.59 -10.307 -3.952 17
16.916 -9.88 -3.918 9
16.231 -9.449 -3.865 13
15.578 -9.046 -3.816 12
14.972 -8.67 -3.774 11
14.4 -8.32 -3.737 12
13.872 -8.0 -3.713 14
13.314 -7.664 -3.662 12
10.003 -7.5 1.678 10
10.717 -7.91 1.462 31
9.87 -7.172 1.475 26
9.67 -6.923 1.402 15
9.401 -6.633 1.346 18
9.36 -6.513 1.255 23
11.971 -8.215 0.645 22
42.349 -28.678 -5.768 20
10.208 -6.828 0.782 2
10.069 -6.653 0.709 23
11.533 -7.537 0.257 18
9.71 -6.272 0.592 29
9.766 -6.245 0.477 25
9.646 -6.107 0.408 30
9.41 -5.904 0.371 24
10.043 -6.246 0.087 24
9.919 -6.121 0.015 6
23.421 -14.343 -4.308 26
18.837 -11.454 -3.09 2
17.948 -10.847 -3.012 3
0.0 -0.0 3.0 0
17.82 -10.65 -3.399 0
17.168 -10.209 -3.379 2
18.141 -10.743 -3.977 18
17.503 -10.322 -3.962 17
16.857 -9.909 -3.938 20
16.16 -9.467 -3.878 13
15.506 -9.059 -3.827 18
14.904 -8.684 -3.785 12
14.347 -8.339 -3.753 13
13.823 -8.02 -3.729 19
13.238 -7.664 -3.662 12
9.95 -7.504 1.677 23
10.014 -7.436 1.555 12
9.791 -7.158 1.478 22
9.639 -6.944 1.397 26
9.714 -6.896 1.281 8
9.269 -6.49 1.261 25
9.391 -6.486 1.14 9
41.922 -28.573 -5.736 18
10.18 -6.853 0.773 2
10.015 -6.66 0.707 26
11.515 -7.575 0.243 18
9.715 -6.318 0.575 25
9.913 -6.382 0.422 31
9.616 -6.129 0.398 26
9.327 -5.892 0.377 32
9.991 -6.256 0.083 35
9.838 -6.112 0.019 0
23.292 -14.36 -4.317 22
18.665 -11.426 -3.075 1
17.877 -10.875 -3.028 3
0.0 -0.0 3.0 0
17.798 -10.707 -3.434 0
17.03 -10.193 -3.369 2
17.669 -10.531 -3.839 2
17.407 -10.332 -3.969 11
16.785 -9.928 -3.952 18
16.096 -9.489 -3.894 14
15.443 -9.079 -3.841 12
14.843 -8.702 -3.798 16
14.281 -8.351 -3.762 11
13.771 -8.037 -3.744 20
13.165 -7.666 -3.664 12
9.931 -7.534 1.672 19
10.084 -7.533 1.536 2
9.661 -7.106 1.49 24
9.589 -6.951 1.395 28
9.583 -6.846 1.293 19
9.203 -6.485 1.262 26
9.313 -6.473 1.144 27
41.529 -28.488 -5.71 25
39.158 -26.533 -5.621 25
9.99 -6.687 0.697 27
9.894 -6.552 0.615 0
9.556 -6.257 0.598 26
9.96 -6.455 0.392 26
9.585 -6.15 0.389 31
9.33 -5.933 0.358 22
9.622 -6.065 0.172 50
9.833 -6.151 0.0 2
23.166 -14.378 -4.326 15
18.529 -11.418 -3.071 0
17.795 -10.898 -3.041 4
0.0 -0.0 3.0 0
0.0 -0.0 3.0 0
16.911 -10.188 -3.366 3
17.373 -10.422 -3.768 2
17.314 -10.342 -3.976 10
16.717 -9.95 -3.967 16
16.032 -9.51 -3.909 13
15.378 -9.096 -3.854 12
14.779 -8.716 -3.81 12
14.224 -8.367 -3.776 14
13.706 -8.046 -3.751 13
13.098 -7.672 -3.669 12
9.84 -7.508 1.676 21
12.057 -9.06 1.239 13
9.512 -7.04 1.504 28
9.552 -6.967 1.392 21
9.536 -6.855 1.291 27
9.206 -6.527 1.251 22
9.224 -6.453 1.15 28
41.269 -28.493 -5.711 33
38.874 -26.512 -5.614 15
9.961 -6.712 0.689 19
9.859 -6.572 0.608 7
9.562 -6.301 0.581 24
9.83 -6.413 0.409 27
9.662 -6.242 0.351 21
9.277 -5.939 0.356 33
9.348 -5.933 0.234 23
9.933 -6.254 -0.05 17
23.017 -14.382 -4.328 7
22.004 -13.651 -4.258 10
17.737 -10.935 -3.061 5
0.0 -0.0 3.0 0
0.0 -0.0 3.0 0
16.806 -10.191 -3.368 4
17.173 -10.368 -3.733 2
17.227 -10.356 -3.985 10
16.638 -9.966 -3.978 18
15.959 -9.525 -3.92 13
15.305 -9.109 -3.864 11
14.721 -8.735 -3.825 13
14.162 -8.381 -3.787 13
13.651 -8.061 -3.764 15
13.022 -7.672 -3.669 13
9.859 -7.567 1.666 10
9.276 -7.012 1.637 3
9.437 -7.027 1.506 26
9.493 -6.966 1.392 21
9.582 -6.932 1.272 22
9.198 -6.563 1.241 20
9.194 -6.473 1.144 25
40.87 -28.399 -5.682 20
38.555 -26.465 -5.599 13
9.946 -6.746 0.677 25
9.808 -6.581 0.605 18
9.498 -6.301 0.581 30
9.658 -6.343 0.437 28
9.67 -6.288 0.331 27
9.269 -5.974 0.34 29
9.265 -5.919 0.24 26
9.915 -6.285 -0.065 29
22.861 -14.38 -4.327 5
21.864 -13.654 -4.26 7
17.681 -10.972 -3.082 5
0.0 -0.0 3.0 0
0.0 -0.0 3.0 0
16.707 -10.197 -3.372 4
16.973 -10.314 -3.698 2
17.141 -10.37 -3.995 10
16.56 -9.982 -3.989 20
15.891 -9.544 -3.934 11
15.233 -9.122 -3.874 12
14.657 -8.75 -3.836 14
14.102 -8.395 -3.798 14
13.596 -8.075 -3.776 19
12.956 -7.676 -3.673 12
9.828 -7.588 1.662 12
9.214 -7.007 1.638 21
9.473 -7.096 1.492 23
9.43 -6.963 1.393 24
9.519 -6.929 1.272 27
9.277 -6.662 1.215 15
9.248 -6.551 1.121 27
40.566 -28.369 -5.673 23
11.22 -7.752 0.481 21
9.917 -6.77 0.669 17
9.787 -6.61 0.594 20
9.506 -6.348 0.563 30
9.885 -6.534 0.36 23
9.714 -6.359 0.301 22
9.229 -5.988 0.334 28
9.157 -5.889 0.254 29
9.879 -6.304 -0.075 26
22.719 -14.386 -4.33 5
21.731 -13.661 -4.264 5
17.636 -11.017 -3.107 5
17.929 -11.131 -3.426 0
0.0 -0.0 3.0 0
16.621 -10.21 -3.38 4
16.852 -10.305 -3.692 10
17.052 -10.382 -4.003 10
16.478 -9.995 -3.999 18
15.827 -9.565 -3.949 6
11.713 -7.057 -2.318 2
14.592 -8.764 -3.847 13
14.045 -8.411 -3.811 12
13.512 -8.073 -3.774 11
12.887 -7.68 -3.676 14
10.519 -8.169 1.56 16
9.235 -7.064 1.627 17
9.42 -7.099 1.491 23
9.571 -7.11 1.358 22
9.584 -7.019 1.25 29
9.647 -6.971 1.132 30
9.198 -6.558 1.12 19
11.092 -7.807 0.613 17
11.169 -7.766 0.477 37
9.859 -6.775 0.667 0
9.823 -6.678 0.57 12
9.618 -6.466 0.518 21
9.817 -6.533 0.36 21
9.657 -6.364 0.299 27
9.209 -6.015 0.322 23
9.107 -5.896 0.25 32
9.857 -6.332 -0.088 22
22.584 -14.395 -4.335 5
21.598 -13.668 -4.267 5
0.0 -0.0 3.0 0
0.0 -0.0 3.0 0
0.0 -0.0 3.0 0
16.539 -10.226 -3.39 4
16.724 -10.293 -3.685 11
16.959 -10.391 -4.009 16
16.396 -10.009 -4.008 18
15.751 -9.578 -3.959 8
11.639 -7.056 -2.317 3
11.716 -7.08 -2.531 7
13.982 -8.424 -3.822 12
13.416 -8.063 -3.765 11
12.82 -7.685 -3.68 12
10.479 -8.187 1.556 4
9.198 -7.079 1.624 23
9.466 -7.176 1.475 19
9.601 -7.176 1.343 16
9.598 -7.073 1.237 30
9.645 -7.013 1.121 19
10.896 -7.817 0.758 20
11.057 -7.832 0.605 17
11.202 -7.84 0.453 24
35.882 -24.816 -5.545 4
33.273 -22.768 -5.287 5
9.561 -6.469 0.517 20
9.795 -6.562 0.349 21
9.641 -6.396 0.285 20
9.175 -6.032 0.314 32
9.077 -5.915 0.242 26
9.858 -6.374 -0.109 24
11.835 -7.593 -0.869 14
21.475 -13.68 -4.274 5
0.0 -0.0 3.0 0
0.0 -0.0 3.0 0
16.914 -10.581 -3.358 1
16.463 -10.245 -3.402 3
16.545 -10.249 -3.656 3
16.879 -10.408 -4.02 21
16.315 -10.021 -4.017 16
15.671 -9.589 -3.967 6
11.603 -7.077 -2.333 2
11.671 -7.095 -2.543 36
11.598 -7.029 -2.692 13
13.342 -8.066 -3.768 11
12.754 -7.689 -3.684 14
10.458 -8.219 1.551 16
9.249 -7.161 1.608 17
9.422 -7.187 1.472 25
9.449 -7.106 1.359 28
9.655 -7.16 1.215 23
9.61 -7.032 1.116 14
10.88 -7.857 0.747 21
11.064 -7.887 0.589 18
11.238 -7.916 0.428 3
35.578 -24.766 -5.528 5
9.869 -6.797 0.526 0
9.565 -6.515 0.499 20
9.899 -6.675 0.303 48
9.607 -6.415 0.277 17
9.209 -6.095 0.286 34
9.037 -5.929 0.235 31
10.182 -6.628 -0.233 1
11.782 -7.61 -0.878 29
21.345 -13.687 -4.278 5
0.0 -0.0 3.0 0
0.0 -0.0 3.0 0
16.831 -10.598 -3.368 2
16.391 -10.265 -3.414 3
16.363 -10.2 -3.624 3
16.751 -10.395 -4.012 5
16.236 -10.036 -4.027 17
15.603 -9.607 -3.98 5
11.58 -7.106 -2.355 3
11.575 -7.079 -2.531 11
11.54 -7.036 -2.698 57
13.265 -8.066 -3.768 15
12.685 -7.692 -3.686 12
11.876 -9.387 1.345 21
9.2 -7.165 1.607 14
9.432 -7.237 1.462 19
9.361 -7.083 1.365 20
9.421 -7.029 1.247 24
9.585 -7.057 1.109 5
10.833 -7.871 0.743 16
10.914 -7.83 0.606 17
37.144 -26.333 -5.556 17
35.272 -24.712 -5.509 5
9.856 -6.832 0.513 0
9.498 -6.511 0.501 29
10.215 -6.934 0.199 31
9.614 -6.462 0.257 32
9.583 -6.384 0.158 33
9.01 -5.95 0.226 36
10.188 -6.676 -0.256 19
11.745 -7.637 -0.891 22
11.887 -7.672 -1.079 1
0.0 -0.0 3.0 0
0.0 -0.0 3.0 0
16.747 -10.614 -3.378 3
16.328 -10.292 -3.431 3
16.261 -10.202 -3.625 3
16.588 -10.359 -3.988 2
16.155 -10.048 -4.036 19
15.527 -9.619 -3.989 5
11.608 -7.167 -2.401 5
11.482 -7.065 -2.52 51
11.511 -7.06 -2.717 53
13.188 -8.066 -3.768 11
12.619 -7.696 -3.69 12
11.892 -9.455 1.333 16
10.539 -8.257 1.395 17
9.426 -7.277 1.453 22
9.614 -7.319 1.31 30
9.383 -7.044 1.244 25
9.763 -7.233 1.062 8
10.751 -7.861 0.746 22
10.825 -7.816 0.61 24
10.793 -7.7 0.498 3
34.992 -24.675 -5.496 4
9.837 -6.864 0.502 0
9.48 -6.541 0.489 25
10.224 -6.986 0.178 30
9.585 -6.485 0.247 22
9.567 -6.416 0.143 36
8.96 -5.956 0.223 21
10.174 -6.711 -0.273 36
11.751 -7.69 -0.918 16
11.798 -7.666 -1.076 20
0.0 -0.0 3.0 0
0.0 -0.0 3.0 0
16.677 -10.638 -3.392 3
16.258 -10.314 -3.445 3
16.17 -10.209 -3.63 4
16.541 -10.395 -4.012 5
16.08 -10.064 -4.047 19
15.504 -9.664 -4.022 12
11.622 -7.22 -2.44 0
11.456 -7.091 -2.54 63
11.547 -7.124 -2.769 49
11.608 -7.141 -2.992 1
12.556 -7.702 -3.695 14
11.855 -9.482 1.328 21
10.527 -8.296 1.387 18
9.439 -7.331 1.442 18
9.868 -7.558 1.255 27
9.318 -7.038 1.245 33
9.677 -7.215 1.067 0
10.752 -7.911 0.731 22
10.797 -7.845 0.601 23
36.628 -26.302 -5.546 18
34.716 -24.638 -5.484 5
32.258 -22.655 -5.246 4
9.528 -6.618 0.46 24
0.0 -0.0 3.0 0
9.621 -6.552 0.219 6
9.493 -6.409 0.147 33
9.007 -6.027 0.19 49
10.154 -6.741 -0.288 33
21.903 -14.429 -4.352 31
11.755 -7.688 -1.088 28
0.0 -0.0 3.0 0
0.0 -0.0 3.0 0
16.6 -10.658 -3.404 3
16.198 -10.342 -3.462 3
16.088 -10.223 -3.639 8
16.541 -10.461 -4.056 22
15.998 -10.075 -4.055 19
15.446 -9.688 -4.038 16
14.789 -9.244 -3.966 11
11.433 -7.12 -2.563 57
11.414 -7.084 -2.737 47
11.562 -7.156 -3.004 33
12.493 -7.708 -3.701 12
10.415 -8.378 1.523 0
10.465 -8.296 1.387 21
9.395 -7.34 1.44 21
9.729 -7.497 1.269 28
9.312 -7.077 1.235 26
11.089 -8.318 0.771 41
10.429 -7.722 0.786 30
10.75 -7.86 0.597 24
36.336 -26.26 -5.532 14
34.457 -24.612 -5.475 4
31.994 -22.616 -5.231 5
9.509 -6.648 0.448 23
9.455 -6.545 0.356 70
9.826 -6.737 0.14 7
9.439 -6.414 0.144 30
9.008 -6.068 0.171 38
10.172 -6.798 -0.316 27
21.772 -14.437 -4.356 30
11.734 -7.724 -1.107 23
11.821 -7.731 -1.285 6
0.0 -0.0 3.0 0
16.526 -10.679 -3.416 3
16.138 -10.37 -3.48 4
16.019 -10.244 -3.652 17
16.465 -10.478 -4.067 12
15.926 -10.093 -4.067 11
15.375 -9.703 -4.05 16
14.721 -9.256 -3.975 11
11.425 -7.158 -2.592 51
11.438 -7.141 -2.783 45
11.535 -7.181 -3.025 40
12.43 -7.714 -3.705 12
10.4 -8.416 1.516 22
10.481 -8.359 1.375 19
9.547 -7.504 1.405 28
9.684 -7.508 1.267 32
9.243 -7.067 1.238 23
11.302 -8.532 0.714 10
9.898 -7.375 0.885 5
10.747 -7.908 0.582 1
36.044 -26.215 -5.518 7
34.166 -24.562 -5.457 4
31.757 -22.594 -5.224 5
10.215 -7.188 0.241 27
9.273 -6.461 0.39 25
9.861 -6.805 0.112 14
9.401 -6.43 0.137 36
9.625 -6.525 -0.043 35
10.165 -6.837 -0.335 20
21.645 -14.446 -4.361 31
11.738 -7.777 -1.135 18
11.764 -7.744 -1.292 20
0.0 -0.0 3.0 0
16.462 -10.706 -3.433 3
16.078 -10.398 -3.497 5
15.962 -10.272 -3.671 19
16.379 -10.488 -4.075 10
15.845 -10.104 -4.075 10
15.308 -9.72 -4.062 13
11.56 -7.314 -2.511 3
11.436 -7.208 -2.631 48
11.417 -7.171 -2.807 57
11.505 -7.204 -3.045 28
12.37 -7.721 -3.712 16
10.286 -8.372 1.524 24
9.499 -7.621 1.519 0
9.571 -7.569 1.391 27
9.555 -7.454 1.279 28
9.196 -7.076 1.236 28
10.439 -7.929 0.875 24
10.739 -8.052 0.691 6
10.244 -7.586 0.681 7
35.709 -26.137 -5.492 6
33.901 -24.528 -5.446 5
31.516 -22.568 -5.214 5
9.512 -6.737 0.414 81
9.267 -6.5 0.374 52
9.815 -6.818 0.106 28
9.395 -6.468 0.12 24
9.66 -6.592 -0.074 18
10.204 -6.909 -0.37 9
21.504 -14.447 -4.361 20
11.784 -7.859 -1.179 1
11.718 -7.763 -1.303 23
11.853 -7.802 -1.504 0
16.385 -10.725 -3.444 3
16.015 -10.423 -3.513 11
15.915 -10.307 -3.693 38
16.299 -10.503 -4.085 9
15.763 -10.115 -4.082 10
15.237 -9.735 -4.073 14
11.524 -7.335 -2.527 4
11.418 -7.24 -2.657 58
11.4 -7.202 -2.832 57
11.515 -7.253 -3.086 24
12.307 -7.726 -3.716 14
10.286 -8.421 1.515 23
9.492 -7.66 1.511 0
9.583 -7.624 1.379 22
9.237 -7.249 1.326 29
9.199 -7.121 1.225 30
9.564 -7.31 1.041 41
10.852 -8.188 0.652 27
10.178 -7.585 0.681 32
35.457 -26.118 -5.486 5
33.618 -24.48 -5.429 5
31.28 -22.544 -5.205 5
9.277 -6.612 0.462 27
9.284 -6.554 0.352 38
9.789 -6.843 0.095 24
9.401 -6.514 0.1 27
9.656 -6.633 -0.093 13
10.183 -6.94 -0.385 1
21.399 -14.47 -4.373 5
20.494 -13.757 -4.315 4
11.671 -7.782 -1.314 18
11.805 -7.821 -1.516 21
16.324 -10.753 -3.461 3
15.958 -10.453 -3.531 18
15.878 -10.348 -3.72 36
16.22 -10.518 -4.094 7
15.679 -10.123 -4.088 10
15.164 -9.748 -4.082 10
14.536 -9.309 -4.015 13
11.429 -7.29 -2.696 64
11.367 -7.224 -2.85 58
11.504 -7.288 -3.115 23
12.244 -7.731 -3.72 14
10.215 -8.412 1.517 18
10.221 -8.298 1.387 4
9.609 -7.691 1.365 26
9.193 -7.258 1.324 24
9.111 -7.097 1.231 11
9.46 -7.275 1.051 29
10.45 -7.933 0.725 5
10.164 -7.622 0.67 22
35.233 -26.119 -5.487 5
33.37 -24.455 -5.421 5
31.05 -22.522 -5.197 4
9.115 -6.54 0.49 23
9.293 -6.603 0.332 31
9.823 -6.912 0.066 14
9.512 -6.635 0.046 25
9.611 -6.645 -0.099 25
11.593 -7.952 -0.879 2
11.624 -7.912 -1.031 10
11.681 -7.892 -1.196 11
11.668 -7.831 -1.341 20
11.762 -7.843 -1.528 20
11.925 -7.906 -1.751 1
15.911 -10.488 -3.554 32
15.849 -10.395 -3.75 16
16.14 -10.532 -4.104 9
15.592 -10.129 -4.093 10
15.087 -9.758 -4.09 12
14.467 -9.321 -4.024 10
11.423 -7.331 -2.728 43
11.355 -7.26 -2.879 49
11.507 -7.333 -3.153 10
11.658 -7.403 -3.436 39
10.136 -8.395 1.52 28
10.39 -8.486 1.351 7
9.617 -7.743 1.354 24
9.22 -7.324 1.309 24
9.077 -7.113 1.226 11
9.412 -7.283 1.049 28
10.143 -7.749 0.778 2
10.12 -7.637 0.665 0
35.035 -26.138 -5.493 5
33.11 -24.421 -5.409 4
30.801 -22.486 -5.184 5
9.293 -6.71 0.424 10
9.261 -6.623 0.324 34
9.812 -6.949 0.05 28
9.544 -6.7 0.017 19
9.581 -6.668 -0.109 33
11.534 -7.964 -0.884 20
11.587 -7.938 -1.044 27
11.653 -7.924 -1.213 16
11.681 -7.891 -1.374 31
11.74 -7.879 -1.549 21
11.837 -7.897 -1.745 22
15.863 -10.523 -3.576 30
15.833 -10.45 -3.786 10
16.061 -10.546 -4.113 9
15.504 -10.135 -4.097 10
15.017 -9.772 -4.1 17
14.407 -9.339 -4.037 12
11.424 -7.375 -2.762 21
11.347 -7.298 -2.909 48
12.572 -8.059 -3.762 15
11.618 -7.42 -3.45 57
10.105 -8.419 1.516 15
10.611 -8.717 1.306 10
9.883 -8.005 1.298 21
9.152 -7.314 1.312 25
9.257 -7.299 1.18 20
9.399 -7.318 1.039 31
10.131 -7.788 0.767 1
10.068 -7.645 0.663 10
34.847 -26.162 -5.501 5
32.844 -24.379 -5.395 4
30.585 -22.471 -5.179 5
9.273 -6.739 0.413 26
10.098 -7.269 0.063 27
9.807 -6.991 0.033 5
9.565 -6.758 -0.009 7
9.498 -6.653 -0.102 32
11.506 -7.996 -0.9 21
11.569 -7.977 -1.064 13
11.656 -7.977 -1.242 1
11.691 -7.948 -1.406 0
11.724 -7.918 -1.572 20
11.796 -7.921 -1.759 21
15.834 -10.571 -3.606 12
15.814 -10.503 -3.821 9
15.981 -10.559 -4.122 7
15.429 -10.149 -4.107 21
14.94 -9.782 -4.107 19
14.336 -9.349 -4.045 11
11.476 -7.454 -2.824 0
11.371 -7.357 -2.958 67
11.449 -7.381 -3.194 28
11.59 -7.445 -3.472 56
9.635 -8.075 1.576 14
10.334 -8.539 1.34 32
10.234 -8.339 1.227 26
9.506 -7.642 1.236 32
9.219 -7.314 1.176 20
9.36 -7.333 1.035 21
9.402 -7.273 0.914 19
10.102 -7.72 0.64 3
34.646 -26.176 -5.505 4
32.595 -24.349 -5.384 5
30.366 -22.454 -5.172 5
10.246 -7.494 0.123 22
10.266 -7.437 -0.005 31
11.165 -8.011 -0.401 14
9.532 -6.779 -0.018 18
9.478 -6.682 -0.116 25
11.506 -8.048 -0.925 2
20.881 -14.492 -4.384 5
20.029 -13.798 -4.336 5
19.22 -13.152 -4.29 6
11.739 -7.98 -1.607 16
11.77 -7.954 -1.779 26
11.88 -7.981 -1.987 18
15.838 -10.586 -3.874 13
15.899 -10.571 -4.13 9
15.351 -10.161 -4.115 21
14.873 -9.798 -4.119 16
14.273 -9.365 -4.057 13
13.73 -8.971 -4.009 13
11.368 -7.398 -2.991 64
11.397 -7.391 -3.202 47
11.881 -7.676 -3.673 16
9.633 -8.12 1.568 18
9.945 -8.267 1.393 25
10.034 -8.225 1.252 33
9.359 -7.571 1.252 31
9.193 -7.337 1.171 25
9.344 -7.365 1.026 23
9.407 -7.322 0.9 0
10.18 -7.83 0.606 0
34.451 -26.195 -5.511 4
32.327 -24.303 -5.368 4
10.837 -8.064 0.065 0
10.34 -7.612 0.078 6
10.307 -7.515 -0.036 25
11.128 -8.036 -0.411 18
9.546 -6.833 -0.042 25
9.448 -6.705 -0.127 4
21.734 -15.301 -4.463 5
20.761 -14.501 -4.389 5
19.924 -13.813 -4.345 5
19.117 -13.166 -4.298 6
11.745 -8.035 -1.639 0
11.754 -7.994 -1.803 25
11.829 -7.997 -1.997 23
15.824 -10.643 -3.911 25
15.819 -10.584 -4.139 9
15.277 -10.174 -4.124 19
14.805 -9.813 -4.13 17
14.22 -9.387 -4.073 12
13.663 -8.981 -4.017 18
11.38 -7.45 -3.033 30
11.375 -7.42 -3.226 52
11.964 -7.775 -3.758 13
9.585 -8.127 1.567 19
9.796 -8.191 1.408 15
9.548 -7.873 1.327 24
9.373 -7.628 1.239 21
9.155 -7.352 1.167 23
9.327 -7.397 1.018 20
9.358 -7.33 0.898 39
10.155 -7.859 0.597 23
34.264 -26.217 -5.518 2
32.085 -24.275 -5.359 3
10.795 -8.085 0.057 21
10.869 -8.054 -0.091 20
10.338 -7.586 -0.065 33
11.116 -8.08 -0.43 0
9.526 -6.863 -0.056 28
9.453 -6.752 -0.149 0
21.599 -15.304 -4.464 5
20.638 -14.509 -4.393 5
19.802 -13.818 -4.347 5
19.01 -13.176 -4.304 6
16.429 -11.312 -3.531 2
11.762 -8.05 -1.837 13
11.803 -8.03 -2.018 21
11.91 -8.06 -2.235 18
15.743 -10.598 -4.149 7
15.196 -10.182 -4.129 13
14.704 -9.806 -4.125 19
14.151 -9.398 -4.082 14
13.599 -8.992 -4.026 14
11.456 -7.544 -3.109 0
11.377 -7.465 -3.264 43
11.904 -7.781 -3.764 11
9.573 -8.165 1.56 20
9.778 -8.224 1.401 15
9.381 -7.782 1.346 21
9.288 -7.605 1.244 28
9.117 -7.367 1.163 1
9.301 -7.422 1.011 28
0.0 -0.0 3.0 0
9.218 -7.178 0.805 1
10.334 -7.957 0.415 34
10.652 -8.111 0.207 22
10.746 -8.1 0.052 21
10.851 -8.092 -0.106 14
26.297 -19.422 -4.847 5
24.899 -18.214 -4.731 6
9.515 -6.9 -0.072 16
22.486 -16.164 -4.537 7
21.461 -15.305 -4.465 5
20.527 -14.524 -4.4 5
19.691 -13.829 -4.353 5
18.904 -13.187 -4.31 5
16.353 -11.332 -3.542 3
15.893 -10.947 -3.578 4
11.755 -8.048 -2.029 27
11.834 -8.059 -2.234 23
15.664 -10.611 -4.157 9
15.124 -10.197 -4.14 11
14.619 -9.809 -4.126 17
14.082 -9.408 -4.09 27
13.504 -8.983 -4.018 22
12.816 -8.49 -3.875 2
11.379 -7.51 -3.302 0
11.335 -7.451 -3.477 46
9.601 -8.235 1.548 25
9.717 -8.221 1.402 14
9.278 -7.743 1.354 25
9.305 -7.664 1.231 21
9.266 -7.533 1.122 1
9.837 -7.899 0.884 32
9.17 -7.272 0.915 30
9.208 -7.216 0.794 9
10.069 -7.803 0.465 27
9.963 -7.634 0.371 48
10.719 -8.131 0.041 5
27.675 -20.769 -4.972 5
26.125 -19.418 -4.846 5
24.74 -18.215 -4.732 6
9.491 -6.926 -0.084 22
22.345 -16.167 -4.539 8
21.32 -15.303 -4.464 5
20.404 -14.53 -4.403 5
19.579 -13.839 -4.359 5
18.788 -13.19 -4.311 6
16.288 -11.358 -3.558 2
15.847 -10.985 -3.6 4
11.794 -8.127 -2.078 19
11.823 -8.102 -2.262 34
11.889 -8.104 -2.466 15
15.049 -10.209 -4.148 18
14.542 -9.817 -4.133 15
14.01 -9.417 -4.096 19
13.434 -8.99 -4.024 23
12.708 -8.468 -3.857 13
12.191 -8.092 -3.79 23
11.286 -7.462 -3.486 58
9.618 -8.299 1.537 5
9.686 -8.244 1.397 26
9.264 -7.777 1.347 23
9.288 -7.696 1.223 28
9.242 -7.56 1.115 0
9.864 -7.97 0.865 20
9.196 -7.339 0.896 22
10.07 -7.94 0.572 15
9.97 -7.773 0.474 20
9.842 -7.589 0.387 29
29.255 -22.333 -5.128 5
27.481 -20.756 -4.967 5
25.944 -19.409 -4.842 6
24.572 -18.207 -4.729 6
9.449 -6.94 -0.09 21
22.208 -16.171 -4.541 7
21.198 -15.313 -4.469 5
20.281 -14.536 -4.407 5
19.465 -13.847 -4.363 5
18.688 -13.204 -4.319 5
16.266 -11.415 -3.59 3
15.804 -11.025 -3.624 5
11.811 -8.189 -2.117 3
11.793 -8.133 -2.282 26
11.844 -8.124 -2.479 17
14.972 -10.219 -4.155 22
14.472 -9.83 -4.142 16
11.148 -7.539 -2.681 2
13.348 -8.986 -4.021 16
12.625 -8.462 -3.852 15
12.146 -8.11 -3.805 17
11.267 -7.492 -3.513 55
9.981 -8.662 1.473 30
9.683 -8.29 1.389 26
9.295 -7.85 1.331 22
9.334 -7.782 1.203 43
9.982 -8.214 0.952 20
9.833 -7.994 0.858 23
9.778 -7.851 0.749 26
34.57 -27.43 -5.386 27
9.92 -7.784 0.471 24
9.829 -7.628 0.374 32
29.032 -22.305 -5.118 5
27.284 -20.739 -4.961 5
25.761 -19.395 -4.836 5
24.413 -18.206 -4.728 6
9.437 -6.977 -0.106 27
22.065 -16.17 -4.54 7
21.066 -15.317 -4.471 5
20.164 -14.546 -4.411 5
19.35 -13.854 -4.366 5
18.575 -13.209 -4.322 6
16.193 -11.437 -3.603 3
15.764 -11.067 -3.65 5
15.664 -10.929 -3.829 15
11.806 -8.193 -2.32 18
11.811 -8.151 -2.498 28
11.896 -8.17 -2.72 14
14.405 -9.843 -4.152 16
11.065 -7.528 -2.673 2
13.263 -8.982 -4.018 16
12.554 -8.464 -3.854 15
12.088 -8.119 -3.812 21
11.475 -7.674 -3.671 18
10.019 -8.746 1.458 26
9.688 -8.343 1.378 20
9.259 -7.866 1.328 23
9.201 -7.717 1.218 23
9.6 -7.949 1.018 2
9.866 -8.07 0.838 10
9.768 -7.892 0.737 25
34.27 -27.362 -5.366 13
9.799 -7.737 0.486 26
9.77 -7.63 0.373 28
28.822 -22.284 -5.111 5
27.106 -20.736 -4.96 5
25.584 -19.385 -4.832 6
24.255 -18.205 -4.728 6
9.419 -7.009 -0.12 6
21.925 -16.171 -4.541 7
20.938 -15.321 -4.473 5
20.045 -14.552 -4.415 5
19.239 -13.862 -4.371 5
18.472 -13.22 -4.328 5
16.134 -11.468 -3.621 3
15.764 -11.137 -3.692 5
15.649 -10.987 -3.866 30
11.813 -8.249 -2.357 1
11.793 -8.19 -2.524 21
11.832 -8.176 -2.725 32
11.177 -7.685 -2.583 2
10.983 -7.517 -2.664 2
11.181 -7.618 -2.951 0
12.447 -8.442 -3.836 52
12.027 -8.125 -3.818 21
11.64 -7.83 -3.806 16
9.945 -8.733 1.46 25
9.744 -8.441 1.359 9
9.368 -8.006 1.298 38
9.081 -7.661 1.231 19
9.439 -7.863 1.04 1
9.981 -8.214 0.799 11
9.74 -7.918 0.73 27
9.693 -7.788 0.619 24
9.786 -7.776 0.473 17
9.801 -7.702 0.348 21
28.622 -22.27 -5.106 6
26.904 -20.712 -4.951 5
25.41 -19.376 -4.829 6
24.094 -18.2 -4.726 6
22.88 -17.133 -4.628 6
21.791 -16.177 -4.543 7
20.807 -15.324 -4.474 5
19.925 -14.558 -4.418 5
19.134 -13.875 -4.378 5
18.373 -13.232 -4.335 6
16.077 -11.5 -3.639 2
15.77 -11.211 -3.736 3
15.649 -11.056 -3.909 23
15.818 -11.115 -4.218 8
11.788 -8.237 -2.556 17
11.808 -8.21 -2.749 43
11.121 -7.693 -2.589 5
10.9 -7.506 -2.656 3
11.113 -7.617 -2.951 2
12.412 -8.468 -3.857 35
11.97 -8.133 -3.824 20
11.574 -7.831 -3.807 22
9.824 -8.676 1.47 25
9.842 -8.576 1.333 15
9.44 -8.116 1.275 34
9.045 -7.678 1.227 28
10.38 -8.699 0.831 11
9.785 -8.101 0.829 27
9.788 -8.007 0.704 18
9.638 -7.791 0.618 26
9.721 -7.773 0.474 24
10.055 -7.951 0.262 0
28.401 -22.238 -5.094 5
26.721 -20.703 -4.947 6
25.24 -19.37 -4.826 6
23.936 -18.197 -4.724 6
22.722 -17.124 -4.624 6
18.241 -13.628 -3.355 12
18.439 -13.667 -3.666 0
19.809 -14.567 -4.422 5
19.02 -13.881 -4.381 5
18.27 -13.242 -4.34 5
16.054 -11.557 -3.672 1
15.843 -11.334 -3.81 0
15.712 -11.172 -3.981 10
15.731 -11.123 -4.224 6
11.797 -8.294 -2.594 2
11.778 -8.239 -2.769 33
11.068 -7.703 -2.597 4
10.821 -7.496 -2.649 4
11.024 -7.601 -2.938 2
12.329 -8.461 -3.852 37
11.909 -8.139 -3.83 24
11.536 -7.85 -3.824 14
9.81 -8.715 1.463 24
9.78 -8.573 1.334 26
9.586 -8.291 1.238 29
9.034 -7.714 1.219 31
10.377 -8.75 0.818 1
9.739 -8.113 0.826 30
35.583 -29.287 -5.398 28
9.609 -7.818 0.61 27
9.76 -7.853 0.448 15
30.141 -23.986 -5.259 4
28.198 -22.219 -5.087 5
26.52 -20.677 -4.937 6
25.073 -19.365 -4.824 6
23.773 -18.188 -4.72 6
22.58 -17.126 -4.625 7
18.123 -13.626 -3.354 10
18.33 -13.673 -3.669 1
18.515 -13.702 -3.981 3
18.912 -13.89 -4.386 5
18.167 -13.251 -4.345 6
17.473 -12.658 -4.308 6
15.765 -11.35 -3.82 6
15.757 -11.274 -4.044 5
15.651 -11.135 -4.231 6
15.114 -10.691 -4.211 10
11.778 -8.29 -2.804 19
11.009 -7.708 -2.6 4
10.75 -7.492 -2.646 6
10.939 -7.586 -2.927 2
11.181 -7.719 -3.251 2
11.849 -8.145 -3.835 27
11.476 -7.854 -3.827 12
9.77 -8.729 1.461 25
9.582 -8.449 1.358 21
9.63 -8.378 1.219 27
9.049 -7.774 1.205 24
10.124 -8.588 0.859 5
9.686 -8.118 0.825 29
35.305 -29.238 -5.384 23
9.624 -7.878 0.591 24
32.106 -25.994 -5.446 9
29.919 -23.96 -5.25 5
27.987 -22.192 -5.077 5
26.331 -20.661 -4.931 5
24.897 -19.352 -4.819 6
23.625 -18.19 -4.721 6
18.304 -13.971 -3.22 2
0.0 -0.0 3.0 0
18.184 -13.651 -3.658 13
18.383 -13.692 -3.976 14
18.808 -13.902 -4.392 5
18.065 -13.261 -4.35 6
17.375 -12.667 -4.313 6
15.745 -11.407 -3.854 5
16.143 -11.623 -4.263 6
15.577 -11.151 -4.242 8
15.038 -10.704 -4.22 9
11.786 -8.346 -2.844 5
10.96 -7.72 -2.609 4
10.674 -7.484 -2.639 5
10.853 -7.572 -2.916 2
11.09 -7.701 -3.236 2
11.773 -8.141 -3.831 27
11.423 -7.863 -3.835 12
9.8 -8.808 1.447 26
9.586 -8.503 1.347 24
9.518 -8.331 1.229 17
9.118 -7.881 1.181 32
9.929 -8.474 0.887 12
9.69 -8.172 0.81 17
10.092 -8.409 0.589 4
9.596 -7.903 0.584 14
31.863 -25.959 -5.435 11
29.676 -23.916 -5.235 4
27.797 -22.182 -5.074 6
26.149 -20.648 -4.926 5
24.718 -19.335 -4.812 6
23.468 -18.186 -4.719 7
18.182 -13.968 -3.219 6
17.875 -13.613 -3.348 0
18.044 -13.633 -3.649 14
18.341 -13.748 -4.005 4
18.691 -13.904 -4.393 5
17.959 -13.267 -4.354 5
17.29 -12.684 -4.323 6
15.744 -11.478 -3.897 3
16.055 -11.631 -4.268 7
15.49 -11.159 -4.246 7
14.962 -10.716 -4.228 9
14.457 -10.3 -4.212 10
10.901 -7.725 -2.613 4
10.592 -7.471 -2.63 4
10.777 -7.564 -2.909 2
11.007 -7.689 -3.226 2
11.692 -8.132 -3.823 10
11.375 -7.875 -3.846 16
9.695 -8.764 1.455 18
9.573 -8.541 1.34 20
9.347 -8.23 1.251 23
9.115 -7.925 1.17 29
9.816 -8.429 0.898 22
9.626 -8.167 0.812 25
9.583 -8.034 0.696 0
9.579 -7.939 0.573 29
31.627 -25.929 -5.425 11
29.463 -23.894 -5.227 4
27.59 -22.156 -5.064 5
25.967 -20.635 -4.921 6
24.549 -19.325 -4.808 7
23.311 -18.179 -4.716 6
18.061 -13.963 -3.217 6
17.748 -13.603 -3.343 0
17.923 -13.628 -3.647 15
18.146 -13.688 -3.974 5
18.59 -13.917 -4.4 5
17.857 -13.275 -4.359 5
17.19 -12.691 -4.327 6
16.559 -12.148 -4.299 4
15.973 -11.645 -4.276 6
15.407 -11.168 -4.252 6
14.883 -10.725 -4.234 9
14.385 -10.313 -4.221 9
10.845 -7.733 -2.618 3
10.519 -7.465 -2.625 4
10.695 -7.551 -2.9 2
10.925 -7.676 -3.216 2
11.168 -7.813 -3.556 4
11.316 -7.88 -3.85 13
9.742 -8.859 1.438 13
9.329 -8.372 1.373 27
9.233 -8.178 1.262 23
9.102 -7.962 1.162 30
9.931 -8.578 0.861 20
9.558 -8.16 0.814 30
9.738 -8.215 0.644 22
9.71 -8.098 0.524 25
9.733 -8.029 0.391 17
29.236 -23.859 -5.215 4
27.395 -22.139 -5.058 6
25.788 -20.623 -4.916 6
24.389 -19.322 -4.807 6
23.161 -18.177 -4.716 7
17.936 -13.956 -3.214 6
0.0 -0.0 3.0 0
17.796 -13.618 -3.642 17
18.016 -13.676 -3.968 15
18.318 -13.8 -4.338 3
17.755 -13.283 -4.363 5
17.098 -12.703 -4.334 6
16.463 -12.155 -4.303 6
15.889 -11.655 -4.283 6
