# .PCD v0.7 - Point Cloud Data file format
VERSION 0.7
FIELDS x y z intensity
SIZE 4 4 4 4
TYPE F F F F
COUNT 1 1 1 1
WIDTH 2066
HEIGHT 1
VIEWPOINT 0 0 0 1 0 0 0
POINTS 2066
DATA ascii
14.805 -9.813 -4.13 17
14.213 -9.383 -4.07 12
13.663 -8.981 -4.017 18
12.95 -8.477 -3.865 9
12.386 -8.079 -3.779 16
11.964 -7.775 -3.758 13
9.573 -8.117 1.569 29
9.784 -8.181 1.41 14
9.584 -7.904 1.32 32
9.391 -7.643 1.235 20
9.161 -7.357 1.166 27
9.334 -7.401 1.017 18
9.352 -7.325 0.9 41
10.183 -7.881 0.591 8
10.593 -8.106 0.366 0
32.097 -24.285 -5.362 3
10.799 -8.086 0.057 20
10.631 -7.877 -0.024 35
10.504 -7.708 -0.114 56
11.116 -8.08 -0.43 0
9.532 -6.868 -0.058 25
22.63 -16.162 -4.537 7
21.596 -15.303 -4.464 5
20.647 -14.515 -4.396 5
19.799 -13.816 -4.346 5
19.004 -13.172 -4.301 6
18.251 -12.566 -4.255 6
11.762 -8.05 -1.837 13
11.803 -8.03 -2.018 21
11.907 -8.059 -2.233 19
15.743 -10.598 -4.149 9
15.196 -10.182 -4.129 13
14.707 -9.808 -4.126 19
14.154 -9.4 -4.083 14
13.596 -8.99 -4.024 15
12.869 -8.474 -3.862 10
12.325 -8.087 -3.786 15
11.913 -7.786 -3.769 11
9.594 -8.183 1.557 22
9.774 -8.222 1.402 17
9.381 -7.782 1.346 22
9.298 -7.612 1.243 30
9.108 -7.359 1.165 5
9.311 -7.427 1.01 24
9.295 -7.326 0.899 49
9.228 -7.185 0.803 0
10.461 -8.055 0.383 27
10.658 -8.115 0.206 22
10.751 -8.1 0.052 22
10.848 -8.09 -0.105 13
26.3 -19.424 -4.848 5
24.899 -18.214 -4.731 6
9.506 -6.893 -0.069 19
22.489 -16.166 -4.538 7
21.464 -15.307 -4.466 5
20.517 -14.518 -4.397 5
19.688 -13.826 -4.352 5
18.904 -13.187 -4.31 6
18.152 -12.578 -4.262 6
17.464 -12.029 -4.228 6
11.758 -8.051 -2.031 27
11.831 -8.057 -2.232 23
15.661 -10.609 -4.156 9
15.124 -10.197 -4.14 11
14.619 -9.809 -4.126 17
14.088 -9.413 -4.093 26
13.51 -8.987 -4.022 23
12.798 -8.478 -3.865 9
12.264 -8.094 -3.792 15
11.857 -7.794 -3.775 13
9.619 -8.25 1.545 22
9.705 -8.211 1.404 23
9.284 -7.748 1.353 26
9.317 -7.674 1.228 20
9.287 -7.55 1.118 0
9.574 -7.684 0.941 51
9.179 -7.28 0.912 31
9.204 -7.212 0.795 4
10.1 -7.826 0.457 29
10.622 -8.139 0.197 26
10.724 -8.132 0.04 4
27.675 -20.769 -4.972 6
26.122 -19.417 -4.845 6
24.743 -18.217 -4.733 6
9.466 -6.908 -0.076 28
22.345 -16.167 -4.539 8
21.329 -15.31 -4.467 5
20.397 -14.526 -4.401 5
19.573 -13.835 -4.356 4
18.794 -13.194 -4.314 6
18.054 -12.59 -4.269 6
17.371 -12.041 -4.235 6
11.8 -8.131 -2.081 19
11.826 -8.105 -2.263 35
11.889 -8.104 -2.466 15
15.046 -10.207 -4.147 18
14.545 -9.819 -4.134 15
14.01 -9.417 -4.096 19
13.431 -8.988 -4.022 23
12.714 -8.472 -3.861 13
12.188 -8.091 -3.789 24
11.797 -7.8 -3.78 14
9.576 -8.263 1.543 6
9.731 -8.282 1.39 22
9.27 -7.782 1.346 23
9.297 -7.703 1.222 28
0.0 -0.0 3.0 0
9.875 -7.975 0.863 21
9.178 -7.324 0.9 31
10.079 -7.948 0.57 18
10.069 -7.851 0.449 24
9.929 -7.656 0.364 0
29.243 -22.317 -5.123 5
27.484 -20.758 -4.968 5
25.935 -19.401 -4.839 6
24.569 -18.205 -4.728 6
9.427 -6.925 -0.083 19
22.205 -16.169 -4.54 7
21.198 -15.313 -4.469 5
20.278 -14.533 -4.405 5
19.461 -13.844 -4.361 5
18.681 -13.2 -4.317 5
17.953 -12.6 -4.275 6
17.278 -12.053 -4.242 5
11.802 -8.182 -2.113 3
11.796 -8.135 -2.283 25
11.841 -8.122 -2.478 17
14.972 -10.219 -4.155 22
14.472 -9.83 -4.142 16
11.136 -7.531 -2.675 2
13.351 -8.988 -4.022 16
12.622 -8.46 -3.851 15
12.146 -8.11 -3.805 17
11.744 -7.809 -3.788 13
10.011 -8.688 1.468 27
9.701 -8.305 1.386 26
9.307 -7.86 1.329 21
9.297 -7.751 1.211 30
9.988 -8.219 0.951 19
9.847 -8.002 0.856 21
9.412 -7.558 0.833 51
10.057 -7.98 0.56 0
9.963 -7.818 0.46 24
9.854 -7.647 0.367 30
29.033 -22.297 -5.115 5
27.29 -20.744 -4.963 5
25.761 -19.395 -4.836 5
24.413 -18.206 -4.728 6
9.431 -6.972 -0.104 17
22.068 -16.173 -4.542 7
21.066 -15.317 -4.471 5
20.155 -14.539 -4.408 5
19.35 -13.854 -4.366 5
18.575 -13.209 -4.322 6
17.858 -12.613 -4.282 6
17.187 -12.065 -4.25 6
16.563 -11.556 -4.221 6
11.806 -8.193 -2.32 18
11.808 -8.149 -2.496 28
11.899 -8.172 -2.722 15
14.408 -9.846 -4.154 16
11.059 -7.524 -2.67 2
13.26 -8.98 -4.016 17
12.554 -8.464 -3.854 15
12.094 -8.123 -3.816 22
11.693 -7.821 -3.798 14
10.001 -8.73 1.461 27
9.7 -8.354 1.376 19
9.265 -7.872 1.327 23
9.222 -7.735 1.214 22
9.591 -7.941 1.02 1
9.874 -8.073 0.837 7
9.777 -7.899 0.735 28
34.27 -27.362 -5.366 22
9.882 -7.803 0.465 17
9.826 -7.673 0.358 27
28.832 -22.284 -5.111 5
27.094 -20.726 -4.956 5
25.581 -19.382 -4.831 5
24.252 -18.202 -4.726 6
9.441 -7.024 -0.127 14
21.928 -16.174 -4.542 8
20.932 -15.317 -4.471 5
20.045 -14.552 -4.415 5
19.239 -13.862 -4.371 5
18.472 -13.22 -4.328 5
17.763 -12.626 -4.29 6
17.094 -12.076 -4.256 6
16.477 -11.569 -4.229 7
11.816 -8.251 -2.358 1
11.793 -8.19 -2.524 22
11.832 -8.176 -2.725 32
11.174 -7.682 -2.581 2
10.98 -7.514 -2.663 2
11.175 -7.613 -2.948 0
12.447 -8.442 -3.836 54
12.027 -8.125 -3.818 21
11.64 -7.83 -3.806 17
9.897 -8.691 1.468 23
9.741 -8.438 1.36 8
9.338 -7.98 1.304 32
9.108 -7.685 1.226 20
9.463 -7.883 1.035 0
10.016 -8.239 0.792 22
9.752 -7.928 0.727 27
9.715 -7.805 0.614 12
9.82 -7.803 0.465 21
9.792 -7.695 0.35 27
28.623 -22.263 -5.103 5
26.904 -20.712 -4.951 5
25.41 -19.376 -4.829 6
24.094 -18.2 -4.726 7
22.883 -17.135 -4.629 6
21.797 -16.181 -4.545 7
20.813 -15.328 -4.476 5
19.925 -14.558 -4.418 5
19.131 -13.872 -4.376 5
18.363 -13.225 -4.331 6
17.671 -12.641 -4.298 6
16.998 -12.085 -4.261 6
16.389 -11.58 -4.236 6
15.812 -11.111 -4.215 8
11.788 -8.237 -2.556 17
11.808 -8.21 -2.749 43
11.127 -7.697 -2.592 5
10.894 -7.502 -2.653 2
11.11 -7.614 -2.949 2
12.412 -8.468 -3.857 34
11.97 -8.133 -3.824 20
11.571 -7.828 -3.805 22
9.836 -8.687 1.468 24
9.877 -8.608 1.327 27
9.344 -8.033 1.293 28
9.054 -7.686 1.226 29
10.474 -8.778 0.811 5
9.799 -8.11 0.827 26
9.794 -8.012 0.703 23
9.656 -7.806 0.613 29
9.807 -7.842 0.452 24
9.791 -7.743 0.334 14
28.402 -22.231 -5.091 6
26.718 -20.7 -4.946 5
25.24 -19.37 -4.826 6
23.933 -18.194 -4.723 6
22.725 -17.126 -4.625 6
21.652 -16.176 -4.543 7
20.679 -15.328 -4.476 5
19.809 -14.567 -4.422 5
19.017 -13.878 -4.379 5
18.267 -13.24 -4.339 5
17.567 -12.646 -4.301 6
16.918 -12.103 -4.272 6
16.304 -11.592 -4.244 9
15.735 -11.125 -4.225 6
11.797 -8.294 -2.594 2
11.775 -8.237 -2.767 33
11.068 -7.703 -2.597 4
10.818 -7.493 -2.647 4
11.024 -7.601 -2.938 2
12.326 -8.459 -3.85 36
11.909 -8.139 -3.83 24
11.53 -7.846 -3.82 14
9.873 -8.77 1.454 22
9.768 -8.562 1.336 23
9.586 -8.291 1.238 31
9.043 -7.722 1.217 31
10.456 -8.816 0.802 1
9.74 -8.111 0.827 28
35.586 -29.289 -5.399 28
9.628 -7.832 0.605 22
9.742 -7.838 0.453 29
30.129 -23.977 -5.256 5
28.202 -22.215 -5.086 5
26.523 -20.679 -4.938 6
25.063 -19.358 -4.821 6
23.776 -18.191 -4.721 6
22.58 -17.126 -4.625 6
21.519 -16.179 -4.545 7
20.549 -15.328 -4.476 5
19.693 -14.574 -4.426 5
18.906 -13.886 -4.383 5
18.158 -13.245 -4.342 6
17.47 -12.656 -4.307 6
16.822 -12.111 -4.277 6
16.225 -11.609 -4.254 7
15.654 -11.138 -4.233 6
15.114 -10.691 -4.211 9
11.775 -8.287 -2.803 19
11.012 -7.711 -2.602 4
10.75 -7.492 -2.646 6
10.936 -7.585 -2.926 2
11.176 -7.715 -3.247 2
11.846 -8.143 -3.833 27
11.476 -7.854 -3.827 12
9.794 -8.751 1.457 21
9.496 -8.373 1.372 23
9.665 -8.41 1.212 27
9.052 -7.777 1.205 23
10.29 -8.729 0.824 17
9.699 -8.127 0.822 29
35.296 -29.23 -5.382 24
9.663 -7.91 0.582 26
9.786 -7.923 0.426 5
29.906 -23.95 -5.247 4
27.997 -22.193 -5.078 5
26.34 -20.668 -4.934 5
24.897 -19.352 -4.819 6
23.612 -18.181 -4.717 6
22.438 -17.127 -4.625 7
21.389 -16.185 -4.547 7
20.431 -15.338 -4.481 6
19.58 -14.583 -4.431 5
18.805 -13.9 -4.391 5
18.055 -13.254 -4.347 6
17.378 -12.67 -4.315 6
16.738 -12.127 -4.287 5
16.134 -11.616 -4.258 7
15.574 -11.149 -4.24 8
15.035 -10.702 -4.218 9
11.786 -8.346 -2.844 5
10.957 -7.718 -2.608 4
10.674 -7.484 -2.639 5
10.862 -7.579 -2.921 2
11.093 -7.703 -3.238 2
11.776 -8.143 -3.833 28
11.423 -7.863 -3.835 12
9.771 -8.782 1.451 19
9.586 -8.503 1.347 23
9.545 -8.354 1.224 19
9.13 -7.891 1.178 31
9.908 -8.457 0.891 17
0.0 -0.0 3.0 0
10.101 -8.417 0.586 4
9.611 -7.916 0.58 25
31.854 -25.953 -5.432 11
29.679 -23.917 -5.235 4
27.789 -22.168 -5.069 5
26.149 -20.648 -4.926 6
24.721 -19.338 -4.813 6
23.465 -18.183 -4.718 7
22.291 -17.123 -4.624 6
21.253 -16.186 -4.548 7
20.31 -15.344 -4.484 6
19.468 -14.592 -4.435 5
18.691 -13.904 -4.393 5
17.947 -13.258 -4.349 5
17.284 -12.68 -4.321 6
16.649 -12.138 -4.293 6
16.058 -11.633 -4.269 7
15.493 -11.161 -4.248 6
14.962 -10.716 -4.228 9
14.454 -10.298 -4.211 10
10.898 -7.724 -2.612 3
10.592 -7.471 -2.63 4
10.777 -7.564 -2.909 2
10.998 -7.683 -3.222 2
11.689 -8.129 -3.821 10
11.375 -7.875 -3.846 17
9.724 -8.791 1.45 23
9.549 -8.52 1.344 21
9.388 -8.267 1.243 27
9.12 -7.931 1.169 28
9.822 -8.434 0.897 18
9.642 -8.178 0.809 22
9.589 -8.039 0.695 0
9.597 -7.954 0.568 28
31.624 -25.926 -5.424 13
29.454 -23.886 -5.225 4
27.591 -22.149 -5.061 6
25.967 -20.635 -4.921 6
24.546 -19.323 -4.807 7
23.305 -18.174 -4.715 6
22.152 -17.126 -4.625 6
21.126 -16.192 -4.55 7
20.189 -15.351 -4.487 5
19.349 -14.596 -4.437 6
18.59 -13.917 -4.4 5
17.854 -13.274 -4.358 5
17.193 -12.693 -4.328 6
16.559 -12.148 -4.299 6
15.973 -11.645 -4.276 6
15.413 -11.172 -4.255 7
14.886 -10.727 -4.236 9
14.385 -10.313 -4.221 9
10.845 -7.733 -2.618 3
10.519 -7.465 -2.625 4
10.698 -7.553 -2.901 2
10.922 -7.674 -3.214 2
11.171 -7.815 -3.557 4
11.321 -7.884 -3.853 13
10.001 -9.094 1.396 25
9.341 -8.383 1.371 27
9.304 -8.241 1.248 21
9.096 -7.957 1.163 30
9.925 -8.573 0.863 29
9.568 -8.166 0.812 31
9.888 -8.341 0.608 23
9.635 -8.035 0.543 18
9.775 -8.064 0.38 4
29.23 -23.853 -5.213 4
27.384 -22.122 -5.052 5
25.782 -20.618 -4.915 6
24.383 -19.318 -4.805 7
23.155 -18.172 -4.714 6
21.987 -17.107 -4.616 7
20.991 -16.191 -4.55 7
20.065 -15.354 -4.489 5
19.24 -14.606 -4.442 5
18.479 -13.922 -4.402 5
17.751 -13.281 -4.362 5
17.098 -12.703 -4.334 6
16.476 -12.163 -4.309 6
15.892 -11.658 -4.285 6
15.33 -11.18 -4.261 6
14.805 -10.734 -4.24 9
11.156 -8.047 -2.634 4
10.789 -7.74 -2.623 3
10.462 -7.469 -2.628 4
10.622 -7.545 -2.895 2
10.837 -7.66 -3.203 2
11.076 -7.794 -3.54 3
11.183 -7.832 -3.808 14
9.678 -8.852 1.439 26
9.33 -8.423 1.363 19
9.244 -8.237 1.249 22
9.372 -8.248 1.096 26
9.782 -8.502 0.88 25
9.609 -8.25 0.789 41
9.718 -8.249 0.635 29
9.705 -8.144 0.51 25
9.737 -8.082 0.374 24
29.025 -23.835 -5.207 5
27.192 -22.106 -5.046 5
25.61 -20.61 -4.911 6
24.221 -19.311 -4.802 6
23.011 -18.174 -4.714 6
21.849 -17.108 -4.617 12
20.868 -16.198 -4.553 7
19.954 -15.366 -4.494 5
19.131 -14.616 -4.447 5
18.375 -13.931 -4.407 5
17.662 -13.297 -4.371 5
17.001 -12.711 -4.339 6
16.383 -12.171 -4.313 6
15.807 -11.668 -4.291 6
15.253 -11.194 -4.27 6
14.735 -10.75 -4.251 9
11.105 -8.059 -2.643 5
10.734 -7.747 -2.629 4
10.404 -7.472 -2.63 5
10.543 -7.534 -2.886 2
10.757 -7.648 -3.194 2
10.991 -7.779 -3.527 3
11.1 -7.819 -3.797 11
9.588 -8.82 1.445 18
9.276 -8.423 1.363 23
9.18 -8.229 1.251 26
9.311 -8.243 1.097 28
9.755 -8.53 0.873 18
9.589 -8.284 0.78 17
9.688 -8.275 0.627 30
9.649 -8.147 0.509 30
9.665 -8.074 0.377 29
28.799 -23.798 -5.194 4
26.986 -22.077 -5.035 6
25.423 -20.59 -4.904 6
24.062 -19.306 -4.8 6
22.849 -18.161 -4.709 6
21.702 -17.101 -4.614 23
20.733 -16.197 -4.553 7
19.824 -15.363 -4.493 5
19.009 -14.616 -4.447 5
18.271 -13.941 -4.412 5
17.563 -13.307 -4.376 5
16.913 -12.725 -4.347 6
16.3 -12.185 -4.322 6
15.722 -11.678 -4.297 6
15.176 -11.206 -4.277 8
14.653 -10.756 -4.255 9
11.045 -8.065 -2.647 4
10.675 -7.751 -2.632 4
10.349 -7.478 -2.635 5
10.47 -7.526 -2.88 3
10.675 -7.635 -3.183 2
10.906 -7.764 -3.515 3
11.03 -7.814 -3.793 9
9.524 -8.813 1.446 26
9.283 -8.479 1.352 18
9.173 -8.271 1.242 26
9.265 -8.252 1.095 29
9.776 -8.6 0.856 25
9.5 -8.257 0.788 26
9.659 -8.301 0.62 23
9.641 -8.191 0.496 30
9.654 -8.114 0.364 31
28.592 -23.775 -5.186 5
26.802 -22.064 -5.031 6
25.249 -20.577 -4.899 5
23.897 -19.295 -4.796 6
22.705 -18.162 -4.709 6
21.574 -17.109 -4.617 34
20.61 -16.203 -4.556 7
19.71 -15.372 -4.497 5
18.9 -14.623 -4.451 5
18.161 -13.945 -4.415 5
17.458 -13.311 -4.378 6
16.816 -12.732 -4.351 6
16.213 -12.197 -4.329 6
15.641 -11.69 -4.305 6
15.099 -11.219 -4.286 6
14.587 -10.774 -4.267 9
10.992 -8.075 -2.654 4
10.622 -7.76 -2.638 4
10.304 -7.489 -2.644 5
10.395 -7.516 -2.873 2
10.603 -7.627 -3.176 2
10.827 -7.753 -3.505 3
10.977 -7.822 -3.799 9
9.503 -8.845 1.44 30
8.98 -8.251 1.396 10
9.151 -8.3 1.236 26
9.298 -8.331 1.077 25
9.729 -8.611 0.853 22
9.436 -8.251 0.789 28
9.392 -8.12 0.672 24
9.612 -8.216 0.488 23
9.622 -8.137 0.356 32
28.376 -23.744 -5.176 5
26.614 -22.048 -5.025 6
25.062 -20.555 -4.89 6
23.738 -19.289 -4.793 6
22.556 -18.157 -4.707 6
21.439 -17.11 -4.618 36
20.485 -16.207 -4.557 7
19.596 -15.381 -4.502 5
18.789 -14.63 -4.454 5
18.061 -13.955 -4.42 5
17.359 -13.319 -4.383 6
16.725 -12.742 -4.357 6
16.127 -12.208 -4.336 6
15.553 -11.697 -4.309 6
15.019 -11.228 -4.292 6
14.505 -10.779 -4.271 9
10.929 -8.078 -2.656 3
10.57 -7.768 -2.644 4
10.249 -7.494 -2.647 4
10.317 -7.504 -2.863 4
10.518 -7.611 -3.164 2
10.742 -7.737 -3.492 3
10.929 -7.833 -3.809 8
9.489 -8.883 1.434 22
8.908 -8.234 1.4 22
9.055 -8.263 1.244 23
9.293 -8.376 1.066 17
9.578 -8.528 0.874 23
9.342 -8.219 0.798 26
9.286 -8.078 0.684 25
10.034 -8.631 0.361 5
9.7 -8.254 0.318 25
28.175 -23.724 -5.169 5
26.416 -22.021 -5.015 6
24.856 -20.515 -4.875 11
23.577 -19.279 -4.789 6
22.416 -18.159 -4.708 6
21.305 -17.111 -4.618 39
20.356 -16.208 -4.558 8
19.479 -15.386 -4.504 5
18.683 -14.64 -4.459 5
17.954 -13.961 -4.423 5
17.263 -13.329 -4.388 5
16.631 -12.75 -4.361 5
16.041 -12.219 -4.342 6
15.478 -11.713 -4.319 6
14.945 -11.243 -4.301 8
14.442 -10.798 -4.284 9
10.866 -8.081 -2.658 3
10.52 -7.779 -2.652 4
10.197 -7.502 -2.653 4
10.242 -7.494 -2.855 2
10.454 -7.609 -3.162 3
10.66 -7.723 -3.48 3
10.873 -7.837 -3.813 9
9.52 -8.965 1.419 19
8.962 -8.333 1.38 18
9.019 -8.278 1.24 30
9.264 -8.401 1.06 5
9.534 -8.541 0.871 25
9.316 -8.247 0.79 26
9.21 -8.062 0.688 28
9.651 -8.352 0.446 1
9.688 -8.296 0.304 19
27.963 -23.693 -5.158 5
26.235 -22.008 -5.01 6
24.688 -20.504 -4.871 24
23.419 -19.271 -4.786 6
22.258 -18.145 -4.702 6
21.175 -17.114 -4.62 39
20.228 -16.208 -4.558 7
19.359 -15.388 -4.505 5
18.574 -14.647 -4.463 5
17.851 -13.968 -4.427 5
17.162 -13.335 -4.392 5
16.54 -12.761 -4.368 6
15.961 -12.234 -4.351 6
15.393 -11.722 -4.324 7
14.862 -11.25 -4.306 8
14.36 -10.804 -4.287 9
10.813 -8.09 -2.665 3
10.464 -7.785 -2.656 4
10.152 -7.513 -2.661 4
10.167 -7.483 -2.847 2
10.373 -7.595 -3.151 2
10.578 -7.708 -3.468 3
10.812 -7.838 -3.813 18
9.485 -8.984 1.416 0
8.902 -8.326 1.382 7
9.034 -8.343 1.227 26
9.329 -8.511 1.035 4
9.595 -8.648 0.844 10
9.29 -8.274 0.783 29
9.169 -8.076 0.684 26
30.947 -26.95 -5.239 38
29.699 -25.591 -5.315 5
27.749 -23.659 -5.146 5
26.052 -21.991 -5.004 6
24.524 -20.497 -4.868 33
23.264 -19.264 -4.783 6
22.124 -18.151 -4.704 6
21.047 -17.118 -4.622 37
20.109 -16.215 -4.561 7
19.236 -15.388 -4.505 5
18.46 -14.649 -4.464 5
17.75 -13.978 -4.432 5
17.069 -13.347 -4.398 6
16.447 -12.769 -4.372 6
15.869 -12.24 -4.354 6
15.312 -11.732 -4.331 6
14.785 -11.261 -4.313 6
14.285 -10.813 -4.293 9
10.759 -8.099 -2.671 3
10.406 -7.788 -2.659 4
10.1 -7.519 -2.666 4
10.095 -7.475 -2.84 2
10.298 -7.584 -3.142 2
10.506 -7.7 -3.461 3
10.73 -7.824 -3.801 8
9.01 -8.584 1.486 0
8.886 -8.36 1.375 14
9.0 -8.36 1.223 28
9.277 -8.514 1.034 4
9.677 -8.774 0.812 18
9.319 -8.351 0.762 23
9.167 -8.123 0.671 23
30.76 -26.953 -5.24 18
29.474 -25.555 -5.303 5
27.535 -23.623 -5.134 5
25.854 -21.962 -4.993 6
24.363 -20.491 -4.866 35
23.101 -19.25 -4.777 7
21.979 -18.146 -4.702 6
20.922 -17.126 -4.625 33
19.981 -16.214 -4.561 7
19.138 -15.406 -4.514 5
18.361 -14.663 -4.471 5
17.647 -13.984 -4.435 5
16.98 -13.36 -4.406 6
16.362 -12.783 -4.38 6
15.786 -12.252 -4.362 6
15.23 -11.743 -4.338 6
14.705 -11.269 -4.318 8
14.21 -10.823 -4.3 9
10.706 -8.108 -2.677 3
10.356 -7.798 -2.666 3
10.048 -7.526 -2.671 4
10.026 -7.468 -2.835 2
10.217 -7.57 -3.13 2
10.427 -7.688 -3.451 3
10.648 -7.81 -3.789 12
8.984 -8.61 1.482 14
8.95 -8.47 1.354 15
8.989 -8.401 1.214 27
0.0 -0.0 3.0 0
9.667 -8.818 0.801 16
9.556 -8.616 0.691 31
9.3 -8.291 0.623 28
30.556 -26.939 -5.236 20
29.249 -25.518 -5.291 6
27.348 -23.609 -5.129 5
25.675 -21.946 -4.988 6
24.2 -20.482 -4.862 33
22.944 -19.24 -4.774 6
21.843 -18.148 -4.703 6
20.804 -17.137 -4.63 22
19.865 -16.222 -4.564 7
19.016 -15.405 -4.514 6
18.25 -14.666 -4.473 5
17.547 -13.992 -4.44 5
16.885 -13.369 -4.411 5
16.272 -12.792 -4.385 6
15.697 -12.26 -4.366 6
15.143 -11.749 -4.341 6
14.635 -11.285 -4.328 8
14.138 -10.834 -4.307 9
10.658 -8.121 -2.686 4
10.304 -7.806 -2.671 4
9.997 -7.533 -2.677 4
9.951 -7.456 -2.826 2
10.142 -7.559 -3.121 2
10.349 -7.675 -3.44 3
10.573 -7.799 -3.779 9
8.907 -8.585 1.486 26
8.899 -8.471 1.353 30
8.984 -8.445 1.205 27
0.0 -0.0 3.0 0
9.613 -8.823 0.8 28
9.526 -8.641 0.685 19
9.259 -8.305 0.618 29
30.322 -26.899 -5.224 18
29.019 -25.475 -5.277 5
27.147 -23.582 -5.12 4
25.49 -21.925 -4.98 6
24.057 -20.489 -4.865 29
22.799 -19.239 -4.773 6
21.701 -18.144 -4.702 6
20.686 -17.147 -4.634 10
19.744 -16.226 -4.566 7
18.902 -15.411 -4.516 5
18.147 -14.676 -4.478 5
17.444 -13.998 -4.443 5
16.787 -13.375 -4.414 5
16.184 -12.803 -4.392 6
15.618 -12.273 -4.375 6
15.071 -11.764 -4.351 6
14.558 -11.295 -4.335 6
14.068 -10.847 -4.316 9
10.601 -8.127 -2.691 4
10.254 -7.816 -2.678 4
9.94 -7.535 -2.678 4
9.874 -7.443 -2.815 2
10.067 -7.547 -3.112 2
10.274 -7.663 -3.43 3
10.497 -7.788 -3.77 6
8.853 -8.584 1.486 25
8.853 -8.477 1.352 19
9.004 -8.514 1.19 23
0.0 -0.0 3.0 0
9.615 -8.878 0.787 25
9.54 -8.706 0.667 32
9.223 -8.325 0.613 26
30.116 -26.882 -5.219 19
28.805 -25.444 -5.267 5
26.937 -23.545 -5.107 4
25.305 -21.903 -4.972 6
23.912 -20.494 -4.867 13
22.642 -19.227 -4.768 7
21.553 -18.134 -4.698 6
20.538 -17.132 -4.628 7
19.628 -16.233 -4.57 7
18.798 -15.422 -4.522 6
18.04 -14.681 -4.48 5
17.344 -14.006 -4.447 5
16.689 -13.381 -4.417 6
16.091 -12.809 -4.395 6
15.529 -12.28 -4.379 6
14.987 -11.772 -4.356 6
14.478 -11.303 -4.34 8
13.99 -10.853 -4.32 9
10.545 -8.133 -2.695 4
10.205 -7.824 -2.685 4
9.897 -7.547 -2.687 4
9.811 -7.44 -2.813 1
9.996 -7.537 -3.104 2
10.193 -7.648 -3.417 3
10.413 -7.771 -3.755 5
8.856 -8.637 1.477 23
8.799 -8.476 1.353 19
9.05 -8.609 1.17 26
0.0 -0.0 3.0 0
9.552 -8.873 0.788 25
9.506 -8.729 0.661 32
9.36 -8.5 0.563 75
29.915 -26.868 -5.214 20
28.581 -25.404 -5.254 6
26.751 -23.529 -5.102 4
25.127 -21.885 -4.965 6
23.746 -20.479 -4.861 5
22.489 -19.218 -4.764 6
21.418 -18.134 -4.697 6
20.405 -17.129 -4.626 6
19.51 -16.237 -4.571 8
18.685 -15.427 -4.524 6
17.932 -14.686 -4.483 5
17.247 -14.015 -4.452 5
16.602 -13.396 -4.425 5
16.004 -12.819 -4.401 6
15.446 -12.291 -4.385 6
14.903 -11.779 -4.36 6
14.402 -11.312 -4.346 8
13.921 -10.866 -4.329 8
10.497 -8.146 -2.704 4
10.155 -7.834 -2.692 4
9.848 -7.555 -2.693 4
9.743 -7.432 -2.807 2
9.927 -7.53 -3.098 2
10.124 -7.64 -3.411 3
10.341 -7.762 -3.747 4
8.791 -8.623 1.48 24
8.808 -8.534 1.341 5
9.032 -8.643 1.163 22
0.0 -0.0 3.0 0
9.548 -8.922 0.775 24
9.525 -8.799 0.642 27
9.162 -8.371 0.6 7
29.721 -26.858 -5.211 18
28.35 -25.355 -5.238 5
26.557 -23.504 -5.093 5
24.949 -21.866 -4.959 6
23.572 -20.457 -4.853 5
22.354 -19.223 -4.767 7
21.282 -18.133 -4.697 6
20.282 -17.133 -4.628 6
19.386 -16.236 -4.571 7
18.573 -15.43 -4.526 5
17.833 -14.697 -4.488 5
17.144 -14.02 -4.455 5
16.508 -13.402 -4.429 5
15.922 -12.834 -4.41 6
15.364 -12.301 -4.391 6
14.825 -11.79 -4.367 6
14.325 -11.322 -4.353 7
13.846 -10.874 -4.334 9
10.444 -8.154 -2.71 4
10.106 -7.843 -2.698 4
9.805 -7.568 -2.703 4
9.695 -7.44 -2.813 4
9.855 -7.52 -3.09 2
10.047 -7.626 -3.399 3
10.26 -7.745 -3.733 4
8.777 -8.66 1.473 11
8.777 -8.554 1.337 11
9.003 -8.667 1.158 27
9.556 -9.092 0.901 10
9.459 -8.894 0.782 23
9.797 -9.105 0.56 14
9.809 -9.017 0.414 21
29.501 -26.824 -5.201 11
28.14 -25.323 -5.228 6
26.363 -23.478 -5.084 5
24.771 -21.846 -4.951 5
23.41 -20.444 -4.848 5
22.195 -19.207 -4.76 6
21.144 -18.129 -4.695 6
20.158 -17.136 -4.63 6
19.271 -16.242 -4.574 7
18.466 -15.439 -4.53 5
17.717 -14.693 -4.487 5
17.048 -14.029 -4.459 5
16.419 -13.414 -4.436 6
15.83 -12.84 -4.413 6
15.281 -12.312 -4.398 6
14.744 -11.799 -4.373 6
14.252 -11.333 -4.36 8
13.777 -10.886 -4.343 9
10.393 -8.164 -2.717 4
10.059 -7.855 -2.707 4
9.757 -7.576 -2.709 4
9.695 -7.484 -2.847 4
9.784 -7.51 -3.082 2
9.972 -7.615 -3.389 3
10.188 -7.736 -3.725 3
8.734 -8.668 1.472 25
34.392 -33.718 -3.554 4
9.019 -8.735 1.143 6
9.634 -9.221 0.871 20
9.452 -8.94 0.771 23
9.418 -8.807 0.64 27
9.751 -9.019 0.414 18
29.23 -26.742 -5.176 8
27.93 -25.29 -5.217 5
26.164 -23.446 -5.073 4
24.594 -21.826 -4.944 6
23.248 -20.431 -4.843 5
22.054 -19.204 -4.759 7
21.007 -18.125 -4.694 6
20.032 -17.136 -4.63 7
19.151 -16.242 -4.574 8
18.356 -15.445 -4.533 6
17.615 -14.701 -4.491 5
16.954 -14.039 -4.465 5
16.324 -13.421 -4.439 4
15.737 -12.844 -4.416 6
15.202 -12.325 -4.405 6
14.672 -11.814 -4.382 6
14.175 -11.343 -4.366 8
13.699 -10.891 -4.346 8
10.343 -8.174 -2.724 4
10.007 -7.861 -2.711 4
9.708 -7.583 -2.714 7
9.692 -7.527 -2.881 4
9.716 -7.502 -3.075 2
9.901 -7.604 -3.38 3
10.111 -7.722 -3.712 3
8.801 -8.786 1.451 16
51.733 -51.02 -6.917 12
47.529 -46.302 -6.842 16
9.651 -9.292 0.855 19
9.378 -8.925 0.775 26
9.459 -8.899 0.616 28
9.714 -9.04 0.408 34
28.982 -26.68 -5.157 6
27.732 -25.267 -5.21 5
25.98 -23.427 -5.067 5
24.423 -21.81 -4.938 6
23.096 -20.424 -4.84 5
21.902 -19.192 -4.754 7
20.872 -18.122 -4.693 6
19.903 -17.134 -4.628 7
19.033 -16.244 -4.575 7
18.238 -15.442 -4.531 6
17.517 -14.712 -4.496 5
16.855 -14.045 -4.468 6
16.227 -13.425 -4.441 5
15.656 -12.857 -4.423 6
15.113 -12.329 -4.408 6
14.591 -11.821 -4.387 6
14.099 -11.351 -4.371 7
13.63 -10.903 -4.354 9
10.287 -8.179 -2.727 4
9.958 -7.869 -2.717 4
9.688 -7.613 -2.737 5
9.695 -7.574 -2.918 4
9.707 -7.54 -3.106 4
9.827 -7.591 -3.37 2
10.036 -7.709 -3.701 4
9.287 -9.326 1.356 0
33.789 -33.521 -3.516 17
47.218 -46.274 -6.836 26
9.591 -9.291 0.855 24
9.422 -9.021 0.751 19
9.588 -9.076 0.568 33
9.665 -9.05 0.405 30
28.796 -26.671 -5.154 6
27.52 -25.23 -5.198 5
25.79 -23.4 -5.057 5
24.252 -21.793 -4.932 6
22.934 -20.409 -4.834 5
21.759 -19.187 -4.752 7
20.743 -18.124 -4.693 6
19.783 -17.138 -4.63 7
18.919 -16.248 -4.577 7
18.138 -15.453 -4.537 5
17.419 -14.721 -4.501 5
16.753 -14.048 -4.469 5
16.144 -13.44 -4.45 5
15.566 -12.864 -4.427 6
15.034 -12.341 -4.415 6
14.516 -11.834 -4.395 6
14.02 -11.357 -4.375 8
13.561 -10.914 -4.361 8
10.236 -8.189 -2.734 4
9.914 -7.882 -2.727 4
9.691 -7.661 -2.773 6
9.689 -7.614 -2.949 4
9.704 -7.582 -3.139 3
9.761 -7.585 -3.364 3
9.967 -7.701 -3.694 4
9.29 -9.383 1.345 14
33.29 -33.222 -3.458 26
46.95 -46.287 -6.839 20
9.491 -9.249 0.865 21
9.354 -9.01 0.753 12
9.727 -9.263 0.518 22
9.673 -9.113 0.387 25
28.618 -26.67 -5.154 7
27.306 -25.189 -5.184 5
25.604 -23.376 -5.049 4
24.079 -21.772 -4.925 6
22.782 -20.401 -4.831 4
21.625 -19.188 -4.753 7
20.612 -18.123 -4.693 6
19.655 -17.134 -4.629 6
18.801 -16.249 -4.577 7
18.026 -15.455 -4.538 6
17.312 -14.723 -4.502 6
16.659 -14.058 -4.475 5
16.052 -13.448 -4.454 5
15.473 -12.868 -4.429 6
14.949 -12.348 -4.419 6
14.439 -11.844 -4.401 6
13.955 -11.374 -4.386 7
13.492 -10.925 -4.369 8
10.183 -8.196 -2.739 4
9.867 -7.893 -2.735 4
9.691 -7.707 -2.808 4
9.694 -7.664 -2.988 4
9.703 -7.626 -3.175 4
9.701 -7.583 -3.363 4
9.888 -7.683 -3.679 3
9.246 -9.393 1.344 0
28.111 -28.219 -2.485 15
46.578 -46.195 -6.819 18
9.342 -9.159 0.886 18
9.427 -9.136 0.722 16
9.749 -9.341 0.497 24
9.786 -9.277 0.34 0
28.455 -26.683 -5.158 6
27.112 -25.165 -5.177 6
25.401 -23.336 -5.035 13
23.909 -21.754 -4.918 5
22.619 -20.381 -4.824 5
21.482 -19.182 -4.75 7
20.472 -18.114 -4.689 6
19.532 -17.135 -4.629 7
18.693 -16.258 -4.581 7
17.92 -15.461 -4.541 5
17.214 -14.732 -4.506 5
16.558 -14.06 -4.476 5
15.955 -13.451 -4.456 5
15.395 -12.883 -4.438 6
14.87 -12.359 -4.426 6
14.355 -11.849 -4.404 6
13.873 -11.378 -4.389 8
13.414 -10.93 -4.372 8
10.132 -8.206 -2.746 5
9.815 -7.899 -2.739 4
9.69 -7.753 -2.842 4
9.699 -7.714 -3.027 4
9.699 -7.668 -3.21 4
9.709 -7.633 -3.405 4
9.813 -7.671 -3.668 3
26.951 -27.543 -1.857 26
27.435 -27.704 -2.385 24
28.149 -28.084 -2.969 13
9.356 -9.228 0.87 23
9.371 -9.136 0.722 32
9.912 -9.556 0.44 19
29.997 -28.608 -5.203 12
28.292 -26.694 -5.161 6
26.919 -25.141 -5.169 6
25.221 -23.315 -5.028 24
23.742 -21.737 -4.912 6
22.473 -20.377 -4.822 5
21.337 -19.172 -4.746 7
20.347 -18.116 -4.69 6
19.413 -17.138 -4.63 7
18.573 -16.256 -4.58 7
17.814 -15.467 -4.544 5
17.11 -14.735 -4.508 5
16.467 -14.071 -4.482 5
15.87 -13.463 -4.462 5
15.309 -12.891 -4.442 6
14.785 -12.365 -4.43 6
14.278 -11.858 -4.41 6
13.806 -11.393 -4.398 6
13.346 -10.94 -4.379 8
10.079 -8.212 -2.75 4
9.766 -7.907 -2.745 4
9.692 -7.801 -2.878 4
9.695 -7.757 -3.06 4
9.698 -7.712 -3.245 4
9.707 -7.677 -3.442 4
9.742 -7.66 -3.658 3
26.733 -27.481 -1.846 37
27.199 -27.629 -2.37 20
28.024 -28.127 -2.979 18
9.299 -9.227 0.87 24
9.367 -9.188 0.709 24
9.876 -9.578 0.433 0
29.806 -28.602 -5.201 16
28.138 -26.712 -5.167 5
26.709 -25.099 -5.155 5
25.039 -23.29 -5.019 24
23.575 -21.72 -4.905 5
22.319 -20.364 -4.817 5
21.194 -19.164 -4.743 7
20.217 -18.113 -4.689 6
19.294 -17.14 -4.631 6
18.468 -16.266 -4.585 8
17.708 -15.471 -4.546 6
17.009 -14.741 -4.511 5
16.374 -14.079 -4.486 5
15.782 -13.471 -4.467 5
15.228 -12.903 -4.45 6
14.714 -12.382 -4.44 6
14.2 -11.866 -4.415 6
13.73 -11.4 -4.403 7
13.28 -10.952 -4.388 8
10.032 -8.224 -2.758 4
9.719 -7.917 -2.752 4
9.693 -7.849 -2.915 4
9.694 -7.802 -3.095 4
9.705 -7.764 -3.287 4
9.706 -7.72 -3.478 4
9.716 -7.683 -3.679 4
26.621 -27.527 -1.854 34
27.029 -27.62 -2.369 17
27.462 -27.728 -2.894 22
9.203 -9.187 0.879 20
9.333 -9.21 0.704 25
31.829 -31.059 -5.322 12
29.069 -28.065 -5.048 2
27.975 -26.721 -5.17 5
26.511 -25.068 -5.145 5
24.857 -23.266 -5.011 31
23.418 -21.709 -4.902 6
22.171 -20.356 -4.814 5
21.055 -19.157 -4.74 7
20.092 -18.115 -4.689 6
19.172 -17.139 -4.631 7
18.349 -16.262 -4.583 7
17.597 -15.471 -4.546 6
16.911 -14.748 -4.515 5
16.279 -14.085 -4.489 5
15.69 -13.477 -4.471 5
15.136 -12.905 -4.451 6
14.627 -12.385 -4.442 6
14.128 -11.88 -4.423 7
13.66 -11.411 -4.41 7
13.208 -10.961 -4.393 8
9.973 -8.225 -2.759 3
9.684 -7.936 -2.766 5
9.683 -7.888 -2.944 6
9.692 -7.847 -3.131 4
9.7 -7.806 -3.322 3
9.706 -7.767 -3.517 4
9.711 -7.724 -3.714 4
26.539 -27.604 -1.867 26
26.786 -27.534 -2.352 24
27.094 -27.521 -2.85 28
9.156 -9.195 0.877 32
9.316 -9.248 0.694 17
31.624 -31.048 -5.319 12
28.782 -27.959 -5.017 2
27.816 -26.733 -5.173 5
26.324 -25.046 -5.138 5
24.675 -23.24 -5.002 25
23.249 -21.688 -4.894 6
22.017 -20.342 -4.809 5
20.922 -19.156 -4.74 8
19.956 -18.106 -4.685 6
19.047 -17.134 -4.629 6
18.238 -16.266 -4.585 8
17.5 -15.483 -4.552 6
16.811 -14.753 -4.517 5
16.18 -14.088 -4.491 6
15.602 -13.486 -4.475 5
15.058 -12.919 -4.459 6
14.548 -12.395 -4.448 6
14.054 -11.891 -4.43 6
13.587 -11.42 -4.416 7
13.139 -10.97 -4.4 8
9.92 -8.231 -2.764 1
9.688 -7.987 -2.803 6
9.687 -7.939 -2.983 6
9.696 -7.897 -3.17 4
9.632 -7.797 -3.314 2
9.707 -7.813 -3.556 4
9.717 -7.774 -3.757 3
26.305 -27.522 -1.853 36
26.584 -27.488 -2.343 24
26.902 -27.489 -2.843 24
9.147 -9.241 0.867 31
9.264 -9.253 0.693 28
31.272 -30.89 -5.277 10
28.816 -28.165 -5.076 4
27.654 -26.742 -5.176 7
26.133 -25.019 -5.129 5
24.5 -23.218 -4.995 25
23.089 -21.674 -4.889 5
21.85 -20.313 -4.798 8
20.786 -19.152 -4.738 7
19.84 -18.114 -4.689 6
18.926 -17.132 -4.628 7
18.128 -16.269 -4.586 7
17.395 -15.486 -4.553 6
16.711 -14.757 -4.519 5
16.096 -14.103 -4.498 5
15.509 -13.489 -4.477 5
14.972 -12.926 -4.463 6
14.463 -12.4 -4.45 6
13.974 -11.896 -4.434 6
13.511 -11.427 -4.421 7
13.07 -10.98 -4.406 8
9.87 -8.239 -2.769 0
9.683 -8.032 -2.836 4
9.688 -7.987 -3.019 4
9.693 -7.943 -3.206 4
9.312 -7.583 -3.141 2
9.705 -7.857 -3.593 4
9.714 -7.817 -3.795 4
26.16 -27.533 -1.855 32
26.375 -27.434 -2.333 23
26.7 -27.446 -2.834 36
9.129 -9.279 0.858 29
9.244 -9.289 0.684 26
30.99 -30.798 -5.252 11
28.626 -28.151 -5.072 10
27.506 -26.763 -5.182 8
25.942 -24.989 -5.119 6
24.322 -23.194 -4.986 26
21.02 -19.855 -4.227 21
21.705 -20.306 -4.795 18
20.648 -19.143 -4.734 7
19.71 -18.109 -4.687 6
18.81 -17.135 -4.629 7
18.02 -16.275 -4.589 8
17.295 -15.495 -4.558 6
16.616 -14.766 -4.524 5
16.001 -14.108 -4.501 5
15.421 -13.496 -4.481 6
14.886 -12.931 -4.466 6
14.39 -12.414 -4.459 6
13.896 -11.904 -4.438 6
13.443 -11.44 -4.429 7
13.007 -10.994 -4.416 8
12.59 -10.575 -4.405 8
9.683 -8.082 -2.872 4
9.682 -8.031 -3.052 6
9.636 -7.943 -3.206 3
9.247 -7.575 -3.134 3
9.707 -7.905 -3.633 4
9.714 -7.863 -3.835 4
26.018 -27.545 -1.857 43
26.264 -27.483 -2.342 38
26.673 -27.584 -2.863 23
9.167 -9.374 0.836 31
9.27 -9.372 0.663 25
30.776 -30.773 -5.246 17
28.352 -28.053 -5.044 18
27.361 -26.786 -5.189 7
25.754 -24.963 -5.111 5
24.153 -23.176 -4.98 23
20.856 -19.823 -4.215 31
21.567 -20.303 -4.794 26
20.507 -19.133 -4.73 8
19.581 -18.103 -4.684 6
18.695 -17.138 -4.63 7
17.904 -16.272 -4.588 7
17.184 -15.493 -4.556 5
16.51 -14.765 -4.523 5
15.905 -14.112 -4.503 5
15.336 -13.507 -4.487 5
14.811 -12.947 -4.475 6
14.308 -12.421 -4.463 6
13.822 -11.913 -4.444 6
13.371 -11.448 -4.435 7
12.936 -11.002 -4.421 8
12.525 -10.585 -4.412 8
9.686 -8.133 -2.909 4
9.685 -8.082 -3.09 6
9.399 -7.794 -3.089 5
9.191 -7.574 -3.133 4
9.344 -7.655 -3.423 3
9.713 -7.908 -3.874 3
25.93 -27.614 -1.869 30
26.187 -27.564 -2.358 39
26.455 -27.521 -2.85 38
9.25 -9.517 0.803 29
9.326 -9.487 0.635 23
30.701 -30.886 -5.276 15
28.201 -28.075 -5.051 21
27.199 -26.793 -5.191 9
25.577 -24.946 -5.105 5
21.239 -20.507 -4.061 5
20.711 -19.809 -4.21 35
21.417 -20.289 -4.788 29
20.369 -19.123 -4.726 7
19.457 -18.101 -4.684 6
18.579 -17.139 -4.631 7
17.794 -16.275 -4.589 7
17.082 -15.498 -4.559 6
16.413 -14.77 -4.526 5
15.816 -14.12 -4.508 6
15.251 -13.516 -4.492 5
14.722 -12.95 -4.477 6
14.235 -12.434 -4.471 6
13.748 -11.923 -4.45 6
13.295 -11.454 -4.438 7
12.867 -11.01 -4.427 8
12.458 -10.593 -4.417 8
9.684 -8.179 -2.943 4
9.688 -8.133 -3.129 4
9.353 -7.802 -3.096 4
9.129 -7.568 -3.128 3
9.279 -7.646 -3.416 3
9.713 -7.954 -3.914 4
25.856 -27.698 -1.884 42
26.014 -27.545 -2.354 35
26.291 -27.516 -2.849 26
9.311 -9.637 0.775 12
9.291 -9.509 0.629 21
27.985 -28.326 -4.59 18
28.051 -28.098 -5.057 17
27.035 -26.796 -5.192 9
25.374 -24.9 -5.091 5
0.0 -0.0 3.0 0
20.564 -19.792 -4.204 35
21.276 -20.282 -4.785 29
20.243 -19.125 -4.727 8
19.336 -18.103 -4.684 7
18.461 -17.138 -4.63 6
17.685 -16.275 -4.589 8
16.98 -15.503 -4.561 6
16.325 -14.783 -4.533 5
15.721 -14.124 -4.51 5
15.161 -13.521 -4.495 5
14.636 -12.955 -4.479 5
14.156 -12.442 -4.476 6
13.676 -11.935 -4.458 7
13.225 -11.464 -4.445 7
12.796 -11.017 -4.431 8
12.391 -10.6 -4.422 8
9.681 -8.227 -2.977 5
9.69 -8.185 -3.168 4
9.301 -7.806 -3.098 4
9.062 -7.557 -3.12 2
9.214 -7.638 -3.409 3
9.387 -7.733 -3.722 2
25.687 -27.679 -1.881 35
25.995 -27.69 -2.382 35
9.406 -9.904 0.895 1
9.295 -9.678 0.766 0
9.283 -9.558 0.617 1
27.293 -27.795 -4.448 24
27.922 -28.141 -5.069 15
26.857 -26.785 -5.189 11
25.184 -24.868 -5.08 5
20.486 -20.028 -3.896 3
20.432 -19.787 -4.202 41
21.136 -20.274 -4.782 28
20.111 -19.12 -4.725 8
19.21 -18.098 -4.682 6
18.352 -17.143 -4.633 6
17.583 -16.285 -4.594 8
16.881 -15.51 -4.565 5
16.222 -14.782 -4.532 6
15.634 -14.134 -4.515 6
15.076 -13.529 -4.499 5
14.562 -12.97 -4.488 6
14.078 -12.451 -4.481 7
13.602 -11.944 -4.463 7
13.158 -11.477 -4.453 7
12.733 -11.03 -4.44 8
12.329 -10.612 -4.431 8
9.677 -8.274 -3.011 0
9.681 -8.226 -3.199 4
9.253 -7.811 -3.103 4
9.001 -7.55 -3.114 2
9.152 -7.631 -3.403 3
9.304 -7.708 -3.701 3
25.647 -27.8 -1.902 41
25.866 -27.717 -2.388 36
9.36 -9.913 0.893 28
26.314 -27.564 -3.364 38
26.642 -27.598 -3.881 22
27.082 -27.748 -4.435 36
27.59 -27.978 -5.022 37
26.682 -26.775 -5.186 13
24.998 -24.838 -5.07 5
20.337 -20.006 -3.889 26
20.316 -19.797 -4.206 39
21.001 -20.271 -4.781 11
19.982 -19.117 -4.724 7
19.084 -18.093 -4.68 6
18.237 -17.143 -4.633 7
17.477 -16.288 -4.595 7
16.774 -15.508 -4.564 6
16.125 -14.787 -4.534 5
15.545 -14.142 -4.519 5
14.989 -13.535 -4.503 6
14.473 -12.971 -4.489 6
13.991 -12.451 -4.481 6
13.525 -11.95 -4.467 6
13.082 -11.481 -4.456 7
12.665 -11.039 -4.446 8
12.262 -10.619 -4.436 8
11.896 -10.233 -4.435 9
9.688 -8.282 -3.241 4
9.209 -7.822 -3.111 4
8.942 -7.546 -3.111 4
9.088 -7.622 -3.396 3
9.236 -7.698 -3.691 3
25.494 -27.798 -1.902 28
25.779 -27.789 -2.402 37
9.351 -9.964 0.882 0
26.172 -27.582 -3.368 31
26.493 -27.612 -3.884 27
26.928 -27.76 -4.438 21
27.385 -27.941 -5.012 21
26.499 -26.756 -5.18 13
24.818 -24.813 -5.062 5
20.202 -19.998 -3.886 22
20.198 -19.806 -4.209 36
20.47 -19.883 -4.633 1
19.848 -19.108 -4.72 8
18.967 -18.094 -4.681 6
18.123 -17.143 -4.633 6
17.37 -16.291 -4.597 8
16.678 -15.517 -4.568 6
16.032 -14.794 -4.538 5
15.45 -14.144 -4.521 5
14.901 -13.541 -4.506 5
14.393 -12.98 -4.494 6
13.921 -12.466 -4.49 6
13.457 -11.964 -4.476 6
13.01 -11.489 -4.461 7
12.591 -11.041 -4.447 7
12.201 -10.63 -4.443 8
11.838 -10.246 -4.444 9
9.709 -8.35 -3.292 3
9.155 -7.823 -3.112 4
8.889 -7.546 -3.111 3
9.024 -7.614 -3.389 3
9.18 -7.695 -3.689 3
25.472 -27.939 -1.926 36
25.63 -27.795 -2.403 43
25.824 -27.683 -2.884 25
26.013 -27.581 -3.368 25
26.341 -27.621 -3.887 23
26.718 -27.713 -4.426 20
27.132 -27.854 -4.987 21
26.317 -26.737 -5.174 12
24.649 -24.797 -5.057 5
0.0 -0.0 3.0 0
20.082 -19.816 -4.212 40
20.387 -19.926 -4.649 2
19.723 -19.106 -4.719 7
18.85 -18.096 -4.681 6
18.008 -17.142 -4.632 6
17.261 -16.29 -4.596 7
16.571 -15.514 -4.567 6
15.941 -14.803 -4.542 6
15.364 -14.154 -4.526 6
14.82 -13.551 -4.511 5
14.31 -12.986 -4.498 6
13.837 -12.469 -4.492 7
13.38 -11.969 -4.479 6
12.948 -11.505 -4.472 5
12.531 -11.057 -4.458 8
12.134 -10.637 -4.448 9
11.775 -10.254 -4.45 9
10.084 -8.725 -3.575 3
9.115 -7.835 -3.121 4
8.841 -7.55 -3.114 4
8.968 -7.611 -3.386 3
9.113 -7.684 -3.679 3
25.394 -28.02 -1.941 33
25.509 -27.828 -2.409 29
25.65 -27.663 -2.88 37
25.903 -27.632 -3.379 35
26.152 -27.589 -3.879 20
26.535 -27.692 -4.42 24
26.929 -27.816 -4.976 21
26.119 -26.7 -5.163 10
24.47 -24.77 -5.048 5
0.0 -0.0 3.0 0
19.964 -19.822 -4.215 45
20.298 -19.964 -4.663 0
19.592 -19.099 -4.716 8
18.725 -18.09 -4.679 6
17.897 -17.144 -4.633 6
17.157 -16.295 -4.598 7
16.475 -15.522 -4.571 6
15.85 -14.811 -4.546 5
15.278 -14.163 -4.531 6
14.741 -13.564 -4.518 5
14.233 -12.997 -4.504 6
13.761 -12.478 -4.498 8
13.311 -11.982 -4.487 6
12.87 -11.507 -4.472 7
12.462 -11.064 -4.463 8
12.078 -10.653 -4.459 8
11.713 -10.261 -4.455 9
9.962 -8.672 -3.535 22
9.061 -7.835 -3.121 4
8.796 -7.557 -3.119 4
8.906 -7.604 -3.381 3
9.054 -7.679 -3.675 3
25.313 -28.096 -1.954 42
25.475 -27.958 -2.434 39
25.673 -27.853 -2.92 35
25.812 -27.701 -3.395 33
26.092 -27.695 -3.905 34
26.35 -27.668 -4.414 23
26.704 -27.754 -4.958 32
25.915 -26.656 -5.15 9
24.28 -24.73 -5.035 5
0.0 -0.0 3.0 0
19.854 -19.838 -4.22 50
20.121 -19.915 -4.644 1
19.456 -19.086 -4.711 8
18.608 -18.09 -4.679 6
17.783 -17.142 -4.632 7
17.046 -16.291 -4.597 7
16.377 -15.527 -4.573 6
15.751 -14.811 -4.547 5
15.184 -14.164 -4.531 5
14.651 -13.566 -4.52 5
14.151 -13.003 -4.508 6
13.68 -12.482 -4.5 8
13.229 -11.982 -4.487 6
12.801 -11.516 -4.478 7
12.394 -11.072 -4.468 8
12.008 -10.657 -4.462 8
11.652 -10.271 -4.462 10
9.856 -8.632 -3.505 26
9.017 -7.845 -3.129 4
8.751 -7.563 -3.125 3
8.848 -7.599 -3.376 3
8.992 -7.672 -3.669 3
25.218 -28.157 -1.965 44
25.398 -28.041 -2.451 40
25.584 -27.926 -2.936 37
25.724 -27.774 -3.412 36
26.003 -27.769 -3.924 26
26.276 -27.76 -4.438 30
26.52 -27.733 -4.952 23
25.704 -26.603 -5.133 11
24.106 -24.707 -5.028 5
0.0 -0.0 3.0 0
19.75 -19.857 -4.227 47
20.011 -19.93 -4.65 2
19.334 -19.085 -4.711 7
18.491 -18.089 -4.678 6
17.674 -17.145 -4.633 7
16.945 -16.297 -4.6 8
16.273 -15.526 -4.572 6
15.657 -14.816 -4.549 5
15.095 -14.17 -4.534 6
14.561 -13.567 -4.52 5
14.071 -13.011 -4.512 6
13.611 -12.496 -4.508 8
13.169 -12.002 -4.5 7
12.734 -11.526 -4.485 7
12.331 -11.084 -4.476 8
11.947 -10.667 -4.469 8
11.59 -10.278 -4.467 9
9.835 -8.665 -3.53 24
8.971 -7.852 -3.135 4
8.709 -7.572 -3.131 4
8.784 -7.589 -3.368 3
8.931 -7.665 -3.663 3
25.133 -28.231 -1.978 35
25.305 -28.106 -2.463 40
25.435 -27.93 -2.937 35
25.624 -27.836 -3.426 31
25.892 -27.819 -3.936 33
26.134 -27.78 -4.444 31
26.329 -27.703 -4.944 32
25.529 -26.586 -5.128 13
23.963 -24.714 -5.03 2
0.0 -0.0 3.0 0
19.638 -19.868 -4.231 45
20.157 -20.201 -4.755 4
19.212 -19.084 -4.71 8
18.372 -18.086 -4.677 6
17.563 -17.145 -4.633 7
16.845 -16.303 -4.602 7
16.175 -15.529 -4.574 6
15.561 -14.818 -4.55 5
15.006 -14.176 -4.537 5
14.483 -13.579 -4.527 6
13.991 -13.018 -4.516 6
13.535 -12.504 -4.513 8
13.093 -12.007 -4.503 6
12.667 -11.537 -4.492 7
12.263 -11.091 -4.481 8
11.885 -10.678 -4.477 8
11.532 -10.289 -4.476 9
9.786 -8.675 -3.537 20
8.92 -7.854 -3.136 4
8.661 -7.575 -3.134 4
8.725 -7.584 -3.363 3
8.869 -7.657 -3.656 3
24.993 -28.241 -1.98 41
25.194 -28.151 -2.472 45
25.394 -28.054 -2.963 40
25.573 -27.948 -3.452 38
25.733 -27.818 -3.936 34
25.931 -27.734 -4.431 45
26.146 -27.682 -4.938 22
25.349 -26.562 -5.121 12
19.983 -20.737 -3.738 2
0.0 -0.0 3.0 0
19.528 -19.881 -4.236 45
20.056 -20.227 -4.764 5
19.087 -19.08 -4.709 8
18.253 -18.083 -4.676 7
17.453 -17.145 -4.633 7
16.739 -16.303 -4.602 7
16.08 -15.536 -4.577 6
15.474 -14.828 -4.555 5
14.92 -14.184 -4.542 5
14.401 -13.588 -4.532 5
13.915 -13.028 -4.522 6
13.457 -12.51 -4.517 11
13.016 -12.011 -4.505 6
12.598 -11.545 -4.498 7
12.201 -11.102 -4.488 8
11.821 -10.685 -4.482 8
11.472 -10.298 -4.482 9
9.74 -8.686 -3.546 23
8.88 -7.866 -3.146 4
8.619 -7.584 -3.141 4
8.67 -7.58 -3.361 3
8.805 -7.647 -3.648 3
24.919 -28.326 -1.995 51
25.15 -28.271 -2.495 38
25.308 -28.129 -2.979 40
25.454 -27.989 -3.462 37
25.661 -27.911 -3.959 36
25.875 -27.844 -4.461 34
25.937 -27.63 -4.923 20
25.169 -26.538 -5.113 10
19.764 -20.639 -3.706 5
0.0 -0.0 3.0 0
19.408 -19.882 -4.237 44
19.915 -20.212 -4.758 5
18.961 -19.073 -4.706 8
18.135 -18.079 -4.674 6
17.339 -17.141 -4.632 7
16.636 -16.305 -4.603 7
15.977 -15.534 -4.576 6
15.389 -14.84 -4.561 6
14.835 -14.191 -4.545 5
14.318 -13.593 -4.535 6
13.835 -13.035 -4.526 6
13.379 -12.516 -4.52 13
12.943 -12.018 -4.51 6
12.525 -11.55 -4.501 7
12.133 -11.108 -4.493 8
11.76 -10.695 -4.489 8
11.412 -10.307 -4.489 9
9.707 -8.71 -3.563 24
8.834 -7.873 -3.151 4
8.572 -7.587 -3.144 4
8.609 -7.572 -3.354 3
8.747 -7.641 -3.642 3
24.931 -28.508 -2.027 35
25.038 -28.315 -2.504 40
25.235 -28.218 -2.998 39
25.373 -28.069 -3.48 38
25.577 -27.989 -3.978 36
25.779 -27.912 -4.479 36
25.801 -27.655 -4.93 22
24.981 -26.504 -5.103 7
19.595 -20.589 -3.69 7
0.0 -0.0 3.0 0
19.294 -19.889 -4.239 44
19.78 -20.201 -4.754 5
18.831 -19.062 -4.701 8
18.019 -18.077 -4.673 7
17.232 -17.142 -4.632 7
16.534 -16.307 -4.604 8
15.885 -15.541 -4.58 6
15.291 -14.838 -4.56 5
14.746 -14.196 -4.548 6
14.234 -13.599 -4.538 5
13.756 -13.042 -4.53 6
13.304 -12.523 -4.525 21
12.874 -12.029 -4.517 7
12.453 -11.555 -4.504 7
12.065 -11.114 -4.497 8
11.699 -10.705 -4.496 8
11.352 -10.316 -4.495 9
9.629 -8.692 -3.55 24
8.785 -7.877 -3.154 4
8.527 -7.593 -3.149 4
8.554 -7.568 -3.351 3
8.691 -7.638 -3.64 3
24.767 -28.491 -2.024 43
24.994 -28.435 -2.527 37
25.156 -28.3 -3.015 35
25.304 -28.165 -3.502 34
25.481 -28.056 -3.995 37
25.672 -27.968 -4.494 38
25.611 -27.622 -4.92 20
24.797 -26.472 -5.093 7
19.482 -20.599 -3.693 4
0.0 -0.0 3.0 0
19.179 -19.896 -4.242 45
19.648 -20.192 -4.751 5
18.713 -19.062 -4.701 8
17.909 -18.08 -4.674 7
17.127 -17.146 -4.634 6
16.431 -16.309 -4.605 8
15.787 -15.544 -4.581 6
15.203 -14.846 -4.565 5
14.664 -14.205 -4.553 5
14.155 -13.609 -4.544 5
13.676 -13.048 -4.533 6
13.229 -12.531 -4.529 28
12.801 -12.035 -4.52 6
12.392 -11.57 -4.514 5
11.999 -11.123 -4.503 8
11.635 -10.712 -4.501 8
11.287 -10.319 -4.497 9
9.532 -8.658 -3.524 23
8.745 -7.888 -3.163 4
8.484 -7.601 -3.155 4
8.496 -7.562 -3.345 3
8.628 -7.627 -3.63 3
24.728 -28.617 -2.046 33
24.952 -28.559 -2.551 37
25.07 -28.374 -3.031 38
25.224 -28.248 -3.522 36
25.393 -28.131 -4.014 37
25.573 -28.031 -4.511 37
25.43 -27.597 -4.913 24
24.613 -26.439 -5.083 6
0.0 -0.0 3.0 0
0.0 -0.0 3.0 0
19.068 -19.905 -4.245 45
19.516 -20.183 -4.747 5
18.578 -19.045 -4.694 9
17.785 -18.068 -4.67 7
17.019 -17.146 -4.634 6
16.332 -16.313 -4.607 7
15.687 -15.543 -4.581 6
15.108 -14.846 -4.565 5
14.57 -14.203 -4.552 5
14.072 -13.614 -4.547 6
13.602 -13.059 -4.54 6
13.157 -12.541 -4.535 33
12.73 -12.044 -4.526 7
12.323 -11.577 -4.518 7
11.94 -11.136 -4.511 8
11.579 -10.726 -4.511 8
11.232 -10.332 -4.507 9
9.518 -8.698 -3.555 18
8.696 -7.893 -3.166 4
8.44 -7.607 -3.16 4
8.438 -7.555 -3.34 3
8.572 -7.624 -3.627 3
24.8 -28.873 -2.091 32
24.816 -28.575 -2.554 29
25.016 -28.486 -3.055 35
25.056 -28.23 -3.518 36
25.294 -28.194 -4.03 38
25.481 -28.104 -4.531 38
25.241 -27.562 -4.903 31
24.427 -26.403 -5.072 7
0.0 -0.0 3.0 0
0.0 -0.0 3.0 0
18.951 -19.907 -4.245 44
19.389 -20.178 -4.746 5
18.458 -19.041 -4.693 8
17.673 -18.068 -4.67 6
16.909 -17.143 -4.632 7
16.23 -16.314 -4.607 7
15.59 -15.544 -4.582 6
15.018 -14.852 -4.567 5
14.485 -14.209 -4.555 5
13.988 -13.619 -4.549 5
13.521 -13.062 -4.541 6
13.082 -12.548 -4.539 35
12.66 -12.051 -4.53 6
12.256 -11.586 -4.524 7
11.874 -11.144 -4.517 8
11.51 -10.729 -4.513 8
11.169 -10.338 -4.511 9
9.464 -8.701 -3.557 21
8.651 -7.898 -3.171 4
8.395 -7.612 -3.164 4
8.378 -7.546 -3.332 7
8.517 -7.619 -3.623 3
24.759 -28.998 -2.113 31
24.848 -28.786 -2.595 28
24.957 -28.592 -3.077 34
25.012 -28.354 -3.546 36
25.151 -28.207 -4.033 37
25.384 -28.171 -4.548 40
25.077 -27.553 -4.901 27
24.238 -26.363 -5.06 6
0.0 -0.0 3.0 0
0.0 -0.0 3.0 0
18.837 -19.912 -4.247 46
19.255 -20.165 -4.741 5
18.345 -19.044 -4.694 8
17.563 -18.07 -4.67 7
16.805 -17.146 -4.634 7
16.13 -16.316 -4.608 7
15.495 -15.548 -4.583 6
14.928 -14.856 -4.57 5
14.408 -14.223 -4.563 5
13.905 -13.623 -4.552 5
13.447 -13.073 -4.548 6
13.005 -12.551 -4.542 35
12.594 -12.065 -4.539 6
12.19 -11.595 -4.53 6
11.807 -11.149 -4.52 8
11.446 -10.735 -4.517 8
11.107 -10.343 -4.515 8
9.444 -8.736 -3.583 21
8.607 -7.907 -3.177 4
8.353 -7.619 -3.17 4
8.32 -7.54 -3.327 5
8.454 -7.607 -3.613 3
24.67 -29.067 -2.125 35
24.804 -28.909 -2.619 29
24.903 -28.704 -3.101 32
25.015 -28.532 -3.587 35
25.086 -28.307 -4.058 42
25.308 -28.26 -4.572 39
24.928 -27.56 -4.903 23
24.056 -26.328 -5.049 6
0.0 -0.0 3.0 0
0.0 -0.0 3.0 0
18.731 -19.925 -4.252 46
19.126 -20.157 -4.738 4
18.209 -19.022 -4.686 14
17.448 -18.065 -4.668 7
16.706 -17.152 -4.637 7
16.034 -16.322 -4.611 8
15.409 -15.56 -4.589 6
14.836 -14.858 -4.57 5
14.315 -14.221 -4.562 5
13.83 -13.635 -4.558 5
13.371 -13.081 -4.552 6
12.938 -12.565 -4.55 30
12.521 -12.069 -4.542 6
12.121 -11.601 -4.534 7
11.744 -11.16 -4.527 8
11.39 -10.749 -4.527 8
11.052 -10.356 -4.524 9
9.39 -8.74 -3.586 24
8.559 -7.911 -3.18 4
8.316 -7.632 -3.18 4
8.278 -7.547 -3.333 4
8.396 -7.601 -3.607 3
24.557 -29.11 -2.133 30
24.742 -29.012 -2.639 39
24.854 -28.822 -3.126 34
24.955 -28.637 -3.611 35
25.023 -28.411 -4.084 44
25.203 -28.317 -4.588 38
24.793 -27.58 -4.909 28
23.879 -26.298 -5.04 6
0.0 -0.0 3.0 0
0.0 -0.0 3.0 0
18.62 -19.932 -4.255 45
18.995 -20.145 -4.733 5
18.089 -19.017 -4.684 15
17.339 -18.066 -4.669 6
16.597 -17.148 -4.635 7
15.935 -16.324 -4.612 7
15.315 -15.562 -4.59 6
14.752 -14.867 -4.575 5
14.232 -14.229 -4.566 5
13.752 -13.645 -4.563 6
13.289 -13.083 -4.554 7
12.861 -12.569 -4.552 6
12.453 -12.08 -4.548 6
12.062 -11.618 -4.545 6
11.679 -11.167 -4.532 8
11.326 -10.755 -4.531 7
10.995 -10.367 -4.532 9
9.342 -8.748 -3.592 22
8.519 -7.921 -3.189 4
8.276 -7.641 -3.188 4
8.275 -7.589 -3.368 4
8.338 -7.594 -3.601 3
24.479 -29.192 -2.147 31
24.677 -29.111 -2.659 41
24.806 -28.943 -3.152 32
24.897 -28.747 -3.637 36
24.949 -28.502 -4.106 50
25.149 -28.432 -4.618 37
24.639 -27.581 -4.909 23
23.702 -26.267 -5.031 6
0.0 -0.0 3.0 0
0.0 -0.0 3.0 0
18.511 -19.941 -4.258 46
18.87 -20.139 -4.731 5
17.98 -19.022 -4.685 13
17.23 -18.066 -4.669 7
16.493 -17.149 -4.635 7
15.83 -16.32 -4.61 8
15.221 -15.565 -4.592 6
14.662 -14.871 -4.577 5
14.148 -14.233 -4.568 5
13.669 -13.648 -4.565 5
13.213 -13.09 -4.557 6
12.789 -12.577 -4.557 7
12.38 -12.084 -4.551 7
11.99 -11.621 -4.547 7
11.62 -11.179 -4.541 8
11.268 -10.766 -4.539 8
10.933 -10.371 -4.535 8
9.275 -8.739 -3.585 25
8.47 -7.924 -3.191 2
8.278 -7.689 -3.227 3
8.273 -7.633 -3.405 5
8.281 -7.587 -3.595 8
24.696 -29.629 -2.224 22
24.591 -29.186 -2.673 20
24.771 -29.078 -3.181 27
24.849 -28.867 -3.665 34
24.942 -28.67 -4.148 39
25.08 -28.53 -4.645 37
24.491 -27.587 -4.91 20
23.519 -26.227 -5.018 6
0.0 -0.0 3.0 0
0.0 -0.0 3.0 0
18.403 -19.949 -4.261 46
18.742 -20.129 -4.727 5
17.858 -19.013 -4.682 5
17.115 -18.06 -4.666 7
16.394 -17.155 -4.638 7
15.732 -16.321 -4.611 7
15.127 -15.568 -4.593 6
14.576 -14.877 -4.58 5
14.065 -14.24 -4.572 5
13.593 -13.659 -4.571 6
13.142 -13.102 -4.565 6
12.717 -12.586 -4.562 7
12.312 -12.093 -4.557 7
11.924 -11.629 -4.552 7
11.555 -11.186 -4.545 7
11.204 -10.772 -4.542 8
10.876 -10.38 -4.542 9
9.226 -8.746 -3.591 12
8.438 -7.942 -3.205 0
8.271 -7.73 -3.259 3
8.277 -7.683 -3.447 4
8.274 -7.626 -3.629 3
24.68 -29.79 -2.253 27
24.7 -29.494 -2.733 22
24.748 -29.23 -3.213 24
24.803 -28.991 -3.693 35
24.896 -28.795 -4.179 39
25.015 -28.633 -4.672 37
24.328 -27.574 -4.907 14
23.338 -26.188 -5.006 6
0.0 -0.0 3.0 0
0.0 -0.0 3.0 0
18.298 -19.961 -4.265 46
18.627 -20.133 -4.728 5
17.744 -19.011 -4.681 15
17.012 -18.065 -4.668 7
16.288 -17.152 -4.636 7
15.636 -16.324 -4.612 8
15.036 -15.572 -4.595 6
14.492 -14.886 -4.585 5
13.986 -14.25 -4.577 5
13.508 -13.659 -4.571 6
13.063 -13.106 -4.567 6
12.647 -12.596 -4.568 8
12.245 -12.103 -4.563 7
11.858 -11.637 -4.557 7
11.49 -11.193 -4.55 7
11.143 -10.78 -4.548 8
10.818 -10.389 -4.548 8
9.165 -8.742 -3.588 4
8.957 -8.482 -3.627 21
8.28 -7.785 -3.304 3
8.28 -7.733 -3.489 3
8.277 -7.675 -3.671 3
24.727 -30.026 -2.294 28
24.722 -29.7 -2.773 26
24.729 -29.387 -3.246 26
24.771 -29.133 -3.726 32
24.852 -28.921 -4.211 34
24.953 -28.74 -4.701 37
24.126 -27.516 -4.89 9
23.17 -26.163 -4.999 5
0.0 -0.0 3.0 0
18.128 -20.082 -3.915 2
18.192 -19.972 -4.269 45
18.502 -20.125 -4.725 5
17.612 -18.99 -4.672 19
16.9 -18.061 -4.666 7
16.182 -17.149 -4.635 6
15.537 -16.325 -4.613 8
14.942 -15.574 -4.596 6
14.398 -14.883 -4.583 5
13.899 -14.251 -4.578 5
13.435 -13.671 -4.578 5
12.985 -13.11 -4.569 6
12.573 -12.601 -4.571 7
12.172 -12.106 -4.565 7
11.792 -11.644 -4.562 6
11.427 -11.202 -4.556 8
11.083 -10.788 -4.554 8
10.759 -10.397 -4.554 9
9.132 -8.763 -3.604 9
8.93 -8.508 -3.647 25
8.283 -7.835 -3.345 3
8.281 -7.78 -3.528 3
8.28 -7.723 -3.714 3
24.598 -30.053 -2.299 25
24.627 -29.767 -2.786 21
24.725 -29.562 -3.284 23
24.742 -29.278 -3.759 27
24.804 -29.045 -4.242 33
24.808 -28.751 -4.704 43
23.92 -27.452 -4.872 8
22.996 -26.129 -4.988 6
0.0 -0.0 3.0 0
18.02 -20.09 -3.918 49
18.082 -19.977 -4.271 46
18.37 -20.108 -4.719 5
17.501 -18.99 -4.673 28
16.789 -18.056 -4.664 7
16.081 -17.151 -4.636 7
15.436 -16.323 -4.611 7
14.846 -15.572 -4.595 6
14.311 -14.888 -4.586 5
13.82 -14.26 -4.582 5
13.355 -13.676 -4.581 6
12.914 -13.121 -4.575 6
12.501 -12.608 -4.576 7
12.107 -12.117 -4.572 7
11.725 -11.652 -4.567 7
11.365 -11.21 -4.562 7
11.017 -10.791 -4.556 8
10.702 -10.406 -4.56 9
9.068 -8.756 -3.598 16
8.865 -8.498 -3.639 16
8.285 -7.885 -3.385 3
8.283 -7.83 -3.57 3
8.28 -7.77 -3.755 3
24.085 -29.605 -2.22 18
24.654 -29.982 -2.828 22
24.742 -29.766 -3.327 22
24.732 -29.447 -3.798 23
24.769 -29.185 -4.277 33
24.658 -28.756 -4.705 37
23.781 -27.463 -4.875 10
22.824 -26.097 -4.979 5
0.0 -0.0 3.0 0
17.931 -20.117 -3.927 9
17.979 -19.989 -4.275 45
18.253 -20.107 -4.718 5
17.387 -18.987 -4.671 32
16.678 -18.052 -4.662 7
15.976 -17.147 -4.634 6
15.346 -16.331 -4.615 8
14.763 -15.584 -4.601 6
14.228 -14.895 -4.59 5
13.735 -14.263 -4.584 5
13.273 -13.678 -4.582 6
12.841 -13.129 -4.58 6
12.43 -12.615 -4.58 7
12.034 -12.121 -4.574 6
11.659 -11.659 -4.572 7
11.301 -11.216 -4.565 7
10.963 -10.805 -4.566 7
10.645 -10.414 -4.566 8
8.981 -8.726 -3.576 22
8.789 -8.477 -3.623 10
8.285 -7.934 -3.425 3
8.286 -7.879 -3.611 3
8.282 -7.819 -3.797 3
27.649 -34.193 -3.029 4
24.703 -30.226 -2.875 27
24.797 -30.015 -3.38 20
24.734 -29.632 -3.841 21
24.728 -29.317 -4.31 39
24.549 -28.808 -4.719 33
23.652 -27.486 -4.881 12
22.652 -26.064 -4.969 5
0.0 -0.0 3.0 0
17.841 -20.143 -3.936 3
17.871 -19.995 -4.278 42
18.124 -20.091 -4.712 6
