# .PCD v0.7 - Point Cloud Data file format
VERSION 0.7
FIELDS x y z intensity
SIZE 4 4 4 4
TYPE F F F F
COUNT 1 1 1 1
WIDTH 1982
HEIGHT 1
VIEWPOINT 0 0 0 1 0 0 0
POINTS 1982
DATA ascii
-5.472 -11.931 -5.047 9
-5.335 -11.533 -5.075 10
-5.204 -11.157 -5.106 10
-5.079 -10.792 -5.133 11
-4.953 -10.436 -5.154 11
-4.833 -10.095 -5.175 11
-4.714 -9.756 -5.186 35
-4.598 -9.432 -5.199 21
-15.875 -41.513 -4.32 4
-14.561 -37.758 -4.339 5
-12.962 -33.35 -4.089 30
-12.54 -31.997 -4.387 8
-11.703 -29.631 -4.388 7
-11.026 -27.688 -4.419 5
-10.42 -25.966 -4.446 6
-9.906 -24.496 -4.489 6
-9.466 -23.219 -4.544 5
-9.039 -22.002 -4.576 8
-8.675 -20.935 -4.62 9
-8.306 -19.903 -4.64 9
-7.992 -18.996 -4.675 6
-7.693 -18.149 -4.704 7
-7.422 -17.367 -4.732 5
-7.173 -16.656 -4.767 8
-6.936 -15.976 -4.792 44
-6.731 -15.384 -4.839 8
-6.515 -14.777 -4.857 7
-6.331 -14.243 -4.895 8
-6.161 -13.751 -4.939 7
-5.99 -13.259 -4.967 8
-5.818 -12.778 -4.985 7
-5.671 -12.35 -5.02 9
-5.521 -11.926 -5.044 9
-5.38 -11.522 -5.068 10
-5.251 -11.153 -5.103 9
-5.127 -10.795 -5.134 11
-4.996 -10.43 -5.149 11
-4.875 -10.09 -5.17 10
-4.756 -9.754 -5.184 39
-4.641 -9.433 -5.2 21
-16.037 -41.555 -4.327 4
-14.716 -37.813 -4.35 6
-13.105 -33.41 -4.102 31
-12.672 -32.04 -4.397 8
-11.829 -29.675 -4.399 6
-11.136 -27.709 -4.425 5
-10.518 -25.97 -4.447 6
-10.003 -24.51 -4.493 5
-9.562 -23.24 -4.551 5
-9.126 -22.011 -4.579 8
-8.761 -20.948 -4.624 10
-8.384 -19.907 -4.641 9
-8.068 -19.001 -4.677 6
-7.767 -18.154 -4.706 6
-7.492 -17.37 -4.733 6
-7.238 -16.652 -4.765 8
-6.999 -15.973 -4.79 44
-6.795 -15.389 -4.841 8
-6.578 -14.783 -4.86 7
-6.39 -14.241 -4.894 8
-6.218 -13.75 -4.939 5
-6.044 -13.256 -4.965 8
-5.871 -12.775 -4.983 8
-5.723 -12.348 -5.019 9
-5.571 -11.924 -5.043 9
-5.431 -11.524 -5.069 10
-5.295 -11.143 -5.096 10
-5.173 -10.791 -5.132 10
-5.042 -10.43 -5.149 12
-4.917 -10.084 -5.166 11
-4.799 -9.751 -5.182 37
-4.68 -9.425 -5.193 18
-16.211 -41.627 -4.34 5
-14.873 -37.872 -4.361 5
-13.249 -33.473 -4.115 31
-12.799 -32.067 -4.403 8
-11.949 -29.706 -4.406 6
-11.252 -27.744 -4.434 5
-10.627 -26.0 -4.455 6
-10.1 -24.522 -4.497 6
-9.654 -23.25 -4.554 5
-9.216 -22.027 -4.584 8
-8.845 -20.957 -4.628 11
-8.466 -19.917 -4.645 9
-8.144 -19.005 -4.679 6
-7.839 -18.155 -4.706 6
-7.562 -17.371 -4.734 6
-7.307 -16.659 -4.768 8
-7.064 -15.973 -4.79 47
-6.857 -15.386 -4.84 8
-6.636 -14.777 -4.857 7
-6.446 -14.237 -4.892 9
-6.279 -13.759 -4.944 6
-6.1 -13.256 -4.965 8
-5.924 -12.772 -4.981 10
-5.774 -12.346 -5.017 9
-5.623 -11.925 -5.044 9
-5.48 -11.522 -5.068 11
-5.346 -11.148 -5.099 10
-5.216 -10.781 -5.124 11
-5.087 -10.427 -5.146 13
-4.965 -10.09 -5.171 11
-4.843 -9.752 -5.183 40
-4.721 -9.423 -5.191 17
-16.385 -41.697 -4.352 4
-15.026 -37.918 -4.371 5
-13.409 -33.572 -4.136 30
-12.939 -32.127 -4.417 9
-12.069 -29.735 -4.414 6
-11.362 -27.76 -4.438 5
-10.728 -26.011 -4.458 6
-10.2 -24.542 -4.503 5
-9.744 -23.254 -4.556 5
-9.304 -22.034 -4.587 7
-8.927 -20.959 -4.629 11
-8.544 -19.919 -4.646 16
-8.22 -19.009 -4.68 5
-7.912 -18.157 -4.707 6
-7.632 -17.373 -4.735 6
-7.372 -16.654 -4.766 8
-7.13 -15.976 -4.792 45
-6.92 -15.387 -4.84 8
-6.695 -14.772 -4.855 7
-6.503 -14.233 -4.889 9
-6.333 -13.753 -4.94 8
-6.157 -13.259 -4.967 8
-5.978 -12.772 -4.981 8
-5.826 -12.343 -5.015 9
-5.67 -11.916 -5.038 9
-5.528 -11.517 -5.064 10
-5.392 -11.144 -5.096 10
-5.266 -10.786 -5.128 12
-5.133 -10.426 -5.146 11
-5.006 -10.081 -5.163 10
-4.886 -9.749 -5.181 33
-4.764 -9.423 -5.191 21
-16.577 -41.81 -4.372 5
-15.183 -37.972 -4.381 5
-13.597 -33.739 -4.171 19
-13.076 -32.175 -4.428 11
-12.193 -29.77 -4.423 6
-11.475 -27.787 -4.445 5
-10.834 -26.032 -4.465 6
-10.296 -24.551 -4.506 5
-9.842 -23.277 -4.563 4
-9.396 -22.052 -4.593 8
-9.016 -20.978 -4.635 11
-8.628 -19.932 -4.651 7
-8.299 -19.019 -4.684 6
-7.988 -18.168 -4.712 6
-7.704 -17.379 -4.738 5
-7.441 -16.657 -4.767 8
-7.193 -15.973 -4.79 45
-6.98 -15.381 -4.837 8
-6.757 -14.777 -4.857 8
-6.563 -14.234 -4.89 8
-6.392 -13.754 -4.941 7
-6.209 -13.251 -4.962 8
-6.031 -12.769 -4.979 11
-5.879 -12.343 -5.016 9
-5.725 -11.924 -5.043 10
-5.577 -11.516 -5.064 9
-5.441 -11.142 -5.095 9
-5.31 -10.779 -5.123 10
-5.178 -10.423 -5.143 11
-5.051 -10.081 -5.163 12
-4.927 -9.743 -5.175 39
-4.802 -9.412 -5.182 17
-16.747 -41.866 -4.382 6
-15.344 -38.037 -4.394 5
-13.751 -33.818 -4.188 22
-13.212 -32.223 -4.439 12
-12.314 -29.799 -4.43 5
-11.592 -27.822 -4.455 5
-10.937 -26.047 -4.469 6
-10.397 -24.57 -4.512 6
-9.935 -23.286 -4.566 4
-9.481 -22.052 -4.593 8
-9.101 -20.986 -4.638 11
-8.708 -19.938 -4.654 7
-8.376 -19.022 -4.685 6
-8.058 -18.162 -4.709 6
-7.771 -17.373 -4.735 5
-7.509 -16.659 -4.768 8
-7.258 -15.973 -4.79 44
-7.043 -15.381 -4.837 9
-6.814 -14.767 -4.852 7
-6.62 -14.228 -4.887 7
-6.447 -13.749 -4.938 8
-6.267 -13.254 -4.964 8
-6.085 -12.769 -4.979 15
-5.929 -12.336 -5.011 9
-5.771 -11.912 -5.035 9
-5.626 -11.514 -5.062 9
-5.487 -11.137 -5.092 10
-5.356 -10.775 -5.12 11
-5.223 -10.419 -5.14 12
-5.096 -10.08 -5.163 10
-4.971 -9.743 -5.176 33
-4.847 -9.416 -5.185 17
-16.921 -41.93 -4.393 5
-15.499 -38.082 -4.402 5
-13.877 -33.828 -4.19 23
-13.345 -32.259 -4.448 12
-12.44 -29.838 -4.439 6
-11.702 -27.837 -4.459 5
-11.047 -26.074 -4.477 6
-10.498 -24.588 -4.517 6
-10.028 -23.296 -4.569 5
-9.573 -22.07 -4.599 7
-9.186 -20.994 -4.641 11
-8.79 -19.948 -4.657 8
-8.455 -19.032 -4.69 7
-8.134 -18.169 -4.712 6
-7.843 -17.378 -4.737 5
-7.576 -16.658 -4.768 7
-7.325 -15.975 -4.792 47
-7.105 -15.377 -4.835 8
-6.876 -14.768 -4.852 8
-6.68 -14.23 -4.888 8
-6.503 -13.745 -4.936 8
-6.322 -13.253 -4.963 8
-6.14 -12.768 -4.978 17
-5.982 -12.337 -5.012 9
-5.823 -11.913 -5.035 9
-5.674 -11.509 -5.058 9
-5.536 -11.136 -5.09 13
-5.404 -10.777 -5.121 11
-5.267 -10.416 -5.137 11
-5.137 -10.071 -5.156 12
-5.012 -9.738 -5.171 37
-4.887 -9.41 -5.18 16
-17.088 -41.974 -4.401 5
-15.658 -38.137 -4.413 5
-14.07 -33.997 -4.226 6
-13.479 -32.298 -4.457 11
-12.566 -29.875 -4.449 6
-11.822 -27.873 -4.469 5
-11.15 -26.088 -4.481 6
-10.594 -24.595 -4.52 5
-10.118 -23.298 -4.57 4
-9.661 -22.076 -4.601 7
-9.271 -21.002 -4.644 11
-8.871 -19.953 -4.659 9
-8.53 -19.031 -4.689 6
-8.209 -18.175 -4.715 6
-7.915 -17.382 -4.739 5
-7.644 -16.66 -4.769 7
-7.39 -15.974 -4.791 46
-7.168 -15.377 -4.835 8
-6.939 -14.772 -4.854 7
-6.739 -14.228 -4.887 5
-6.562 -13.746 -4.936 8
-6.377 -13.249 -4.961 8
-6.191 -12.762 -4.974 14
-6.034 -12.334 -5.01 9
-5.875 -11.913 -5.035 9
-5.725 -11.509 -5.059 8
-5.584 -11.134 -5.089 10
-5.45 -10.772 -5.118 11
-5.313 -10.415 -5.137 12
-5.184 -10.073 -5.157 10
-5.055 -9.734 -5.168 37
-4.927 -9.405 -5.175 18
-17.277 -42.07 -4.418 6
-15.826 -38.211 -4.427 5
-14.655 -35.103 -4.461 9
-13.619 -32.348 -4.468 10
-12.693 -29.914 -4.458 6
-11.937 -27.898 -4.475 5
-11.256 -26.103 -4.485 6
-10.697 -24.617 -4.526 6
-10.213 -23.31 -4.574 4
-9.753 -22.09 -4.606 8
-9.358 -21.013 -4.648 11
-8.956 -19.968 -4.665 9
-8.609 -19.037 -4.691 6
-8.282 -18.175 -4.715 10
-7.984 -17.38 -4.738 6
-7.711 -16.658 -4.768 7
-7.455 -15.974 -4.791 46
-7.233 -15.38 -4.836 8
-6.998 -14.765 -4.851 7
-6.796 -14.222 -4.883 8
-6.619 -13.745 -4.935 8
-6.433 -13.247 -4.96 8
-6.246 -12.761 -4.974 20
-6.087 -12.333 -5.009 8
-5.924 -11.907 -5.031 10
-5.773 -11.504 -5.055 9
-5.631 -11.129 -5.086 10
-5.496 -10.768 -5.114 13
-5.358 -10.411 -5.134 11
-5.224 -10.064 -5.149 12
-5.1 -9.734 -5.168 39
-4.971 -9.405 -5.175 17
-17.45 -42.124 -4.428 6
-16.0 -38.297 -4.444 4
-14.804 -35.153 -4.472 8
-13.751 -32.379 -4.475 9
-12.818 -29.947 -4.467 5
-12.053 -27.927 -4.483 5
-11.365 -26.127 -4.492 6
-10.797 -24.631 -4.53 5
-10.312 -23.332 -4.581 4
-9.841 -22.096 -4.608 8
-9.445 -21.023 -4.652 11
-9.039 -19.976 -4.668 9
-8.684 -19.036 -4.691 7
-8.355 -18.176 -4.715 7
-8.059 -17.391 -4.743 5
-7.778 -16.656 -4.767 8
-7.518 -15.969 -4.789 41
-7.297 -15.38 -4.837 8
-7.06 -14.766 -4.851 7
-6.855 -14.219 -4.882 7
-6.675 -13.74 -4.933 8
-6.486 -13.239 -4.955 8
-6.3 -12.76 -4.973 15
-6.139 -12.329 -5.007 8
-5.976 -11.907 -5.031 9
-5.822 -11.501 -5.053 8
-5.679 -11.127 -5.084 10
-5.545 -10.769 -5.115 12
-5.405 -10.409 -5.132 12
-5.27 -10.063 -5.149 11
-5.142 -9.731 -5.165 35
-5.011 -9.399 -5.17 17
-17.63 -42.195 -4.44 6
-16.161 -38.352 -4.455 5
-14.953 -35.203 -4.483 8
-13.886 -32.418 -4.484 8
-12.955 -30.005 -4.481 6
-12.167 -27.948 -4.489 4
-11.475 -26.153 -4.499 6
-10.899 -24.648 -4.536 6
-10.404 -23.336 -4.582 4
-9.931 -22.105 -4.611 8
-9.53 -21.03 -4.654 11
-9.12 -19.98 -4.67 14
-8.766 -19.048 -4.696 6
-8.434 -18.188 -4.721 6
-8.13 -17.391 -4.743 5
-7.845 -16.653 -4.766 8
-7.587 -15.974 -4.791 45
-7.36 -15.379 -4.836 8
-7.123 -14.768 -4.852 7
-6.915 -14.22 -4.882 8
-6.732 -13.737 -4.931 8
-6.543 -13.241 -4.956 8
-6.353 -12.756 -4.971 17
-6.193 -12.329 -5.007 8
-6.025 -11.901 -5.027 9
-5.873 -11.502 -5.054 9
-5.727 -11.125 -5.083 11
-5.591 -10.765 -5.112 12
-5.449 -10.405 -5.129 11
-5.316 -10.065 -5.151 11
-5.185 -9.727 -5.162 36
-5.053 -9.396 -5.168 17
-17.81 -42.263 -4.452 5
-16.329 -38.419 -4.468 5
-15.097 -35.238 -4.49 8
-14.021 -32.452 -4.492 8
-13.086 -30.049 -4.492 6
-12.285 -27.976 -4.496 5
-11.586 -26.179 -4.507 6
-11.001 -24.665 -4.541 6
-10.502 -23.355 -4.588 4
-10.023 -22.116 -4.615 8
-9.616 -21.036 -4.656 11
-9.195 -19.971 -4.666 29
-8.839 -19.043 -4.694 7
-8.507 -18.188 -4.72 6
-8.203 -17.394 -4.744 5
-7.919 -16.664 -4.771 8
-7.649 -15.965 -4.787 40
-7.422 -15.375 -4.834 5
-7.183 -14.765 -4.851 7
-6.975 -14.22 -4.882 8
-6.791 -13.738 -4.932 8
-6.598 -13.236 -4.953 8
-6.406 -12.752 -4.968 25
-6.244 -12.325 -5.004 8
-6.078 -11.901 -5.027 10
-5.923 -11.499 -5.052 9
-5.774 -11.12 -5.079 11
-5.637 -10.76 -5.108 11
-5.494 -10.4 -5.125 11
-5.359 -10.058 -5.145 12
-5.228 -9.724 -5.159 37
-5.096 -9.395 -5.167 16
-17.996 -42.345 -4.467 6
-16.506 -38.508 -4.485 5
-15.247 -35.286 -4.5 7
-14.154 -32.481 -4.499 8
-13.215 -30.088 -4.502 6
-12.405 -28.01 -4.505 5
-11.694 -26.197 -4.512 6
-11.102 -24.677 -4.545 6
-10.598 -23.365 -4.592 4
-10.112 -22.122 -4.617 7
-9.703 -21.046 -4.66 9
-9.278 -19.978 -4.669 30
-8.918 -19.048 -4.696 6
-8.58 -18.187 -4.72 6
-8.275 -17.397 -4.746 5
-7.988 -16.665 -4.771 7
-7.714 -15.964 -4.786 15
-7.489 -15.38 -4.837 8
-7.242 -14.758 -4.847 8
-7.033 -14.214 -4.879 9
-6.847 -13.732 -4.928 8
-6.655 -13.238 -4.954 8
-6.462 -12.753 -4.969 19
-6.296 -12.321 -5.002 8
-6.13 -11.9 -5.027 9
-5.972 -11.496 -5.05 6
-5.826 -11.123 -5.081 10
-5.684 -10.757 -5.106 12
-5.539 -10.396 -5.122 11
-5.404 -10.057 -5.144 11
-5.272 -9.723 -5.159 36
-4.767 -8.714 -4.575 1
-18.174 -42.404 -4.477 4
-16.67 -38.563 -4.496 4
-15.402 -35.344 -4.513 7
-14.297 -32.532 -4.511 7
-13.344 -30.124 -4.511 6
-12.526 -28.044 -4.514 4
-11.807 -26.226 -4.52 6
-11.206 -24.697 -4.551 6
-10.697 -23.383 -4.598 5
-10.204 -22.133 -4.621 7
-9.791 -21.055 -4.663 11
-9.356 -19.975 -4.668 18
-9.002 -19.063 -4.702 6
-8.657 -18.192 -4.722 6
-8.344 -17.393 -4.744 4
-8.057 -16.665 -4.771 7
-7.789 -15.982 -4.795 8
-7.55 -15.372 -4.832 8
-7.304 -14.757 -4.846 8
-7.091 -14.211 -4.877 9
-6.905 -13.73 -4.927 8
-6.71 -13.232 -4.95 8
-6.519 -12.755 -4.97 22
-6.348 -12.317 -4.999 9
-6.181 -11.896 -5.024 9
-6.02 -11.49 -5.045 6
-5.871 -11.114 -5.075 11
-5.731 -10.755 -5.105 12
-5.587 -10.397 -5.123 12
-5.446 -10.05 -5.138 12
-5.314 -9.716 -5.153 32
-4.72 -8.556 -4.437 3
-18.37 -42.502 -4.494 3
-16.838 -38.626 -4.508 4
-15.555 -35.396 -4.524 6
-14.446 -32.597 -4.526 8
-13.463 -30.137 -4.514 6
-12.645 -28.07 -4.521 5
-11.918 -26.251 -4.527 6
-11.31 -24.717 -4.557 6
-10.791 -23.389 -4.6 5
-10.296 -22.145 -4.625 7
-9.879 -21.064 -4.667 13
-9.447 -19.999 -4.677 9
-9.078 -19.06 -4.701 6
-8.732 -18.194 -4.723 6
-8.419 -17.4 -4.747 5
-8.127 -16.669 -4.773 7
-7.856 -15.983 -4.795 9
-7.615 -15.374 -4.833 8
-7.368 -14.76 -4.848 8
-7.155 -14.217 -4.881 9
-6.964 -13.73 -4.927 8
-6.763 -13.223 -4.945 8
-6.57 -12.747 -4.965 26
-6.402 -12.316 -4.998 9
-6.233 -11.895 -5.023 9
-6.07 -11.486 -5.043 7
-5.92 -11.112 -5.073 9
-5.776 -10.747 -5.099 12
-5.632 -10.392 -5.119 11
-5.493 -10.051 -5.139 11
-4.712 -8.544 -4.169 5
-4.709 -8.465 -4.358 5
-18.552 -42.566 -4.506 16
-17.005 -38.683 -4.519 5
-15.716 -35.464 -4.538 6
-14.587 -32.639 -4.535 7
-13.597 -30.182 -4.525 5
-12.766 -28.103 -4.53 5
-12.025 -26.265 -4.531 6
-11.411 -24.728 -4.56 5
-10.884 -23.392 -4.6 5
-10.387 -22.152 -4.628 8
-9.963 -21.065 -4.667 20
-9.534 -20.012 -4.682 7
-9.157 -19.065 -4.703 6
-8.808 -18.199 -4.725 6
-8.492 -17.403 -4.748 5
-8.195 -16.666 -4.772 7
-7.923 -15.983 -4.795 9
-7.681 -15.375 -4.834 8
-7.428 -14.755 -4.846 8
-7.211 -14.207 -4.875 8
-7.02 -13.724 -4.924 8
-6.824 -13.23 -4.95 9
-6.625 -12.745 -4.964 23
-6.454 -12.311 -4.995 9
-6.28 -11.886 -5.017 9
-6.121 -11.486 -5.043 9
-5.972 -11.115 -5.075 9
-5.825 -10.748 -5.099 11
-5.678 -10.39 -5.118 12
-4.755 -8.626 -3.986 4
-4.714 -8.477 -4.113 5
-4.743 -8.454 -4.349 5
-18.719 -42.595 -4.511 14
-17.179 -38.755 -4.533 5
-15.87 -35.514 -4.549 6
-14.731 -32.689 -4.547 6
-13.721 -30.206 -4.531 6
-12.888 -28.135 -4.539 5
-12.139 -26.292 -4.539 6
-11.512 -24.74 -4.564 5
-10.983 -23.409 -4.606 4
-10.481 -22.166 -4.632 7
-10.048 -21.067 -4.668 18
-9.619 -20.021 -4.685 7
-9.236 -19.067 -4.704 6
-8.887 -18.207 -4.728 6
-8.563 -17.401 -4.747 5
-8.266 -16.669 -4.773 8
-7.989 -15.98 -4.794 9
-7.745 -15.373 -4.833 8
-7.49 -14.754 -4.845 7
-7.273 -14.21 -4.876 7
-7.079 -13.723 -4.923 8
-6.878 -13.225 -4.946 8
-6.68 -12.743 -4.963 30
-6.509 -12.313 -4.996 8
-6.333 -11.884 -5.016 9
-6.169 -11.48 -5.038 8
-6.015 -11.102 -5.066 9
-5.872 -10.745 -5.097 10
-5.725 -10.388 -5.116 11
-4.712 -8.478 -3.866 5
-4.718 -8.412 -4.059 5
-4.781 -8.451 -4.346 5
-18.897 -42.647 -4.52 8
-17.345 -38.808 -4.544 5
-16.036 -35.591 -4.565 6
-14.874 -32.733 -4.557 6
-13.851 -30.239 -4.539 6
-13.011 -28.167 -4.547 5
-12.251 -26.316 -4.546 5
-11.622 -24.768 -4.572 5
-11.081 -23.421 -4.61 5
-10.573 -22.173 -4.635 7
-10.133 -21.069 -4.668 15
-9.704 -20.031 -4.689 7
-9.318 -19.078 -4.708 6
-8.96 -18.204 -4.727 6
-8.639 -17.41 -4.751 5
-8.335 -16.668 -4.772 7
-8.058 -15.983 -4.796 8
-7.809 -15.37 -4.832 8
-7.553 -14.753 -4.844 8
-7.334 -14.209 -4.876 8
-7.135 -13.717 -4.919 8
-6.935 -13.222 -4.944 8
-6.735 -12.741 -4.961 33
-6.561 -12.309 -4.993 8
-6.385 -11.883 -5.015 9
-6.224 -11.485 -5.042 8
-6.067 -11.105 -5.069 9
-5.92 -10.742 -5.095 11
-4.717 -8.489 -3.632 4
-4.713 -8.411 -3.811 4
-4.757 -8.413 -4.059 5
-4.762 -8.349 -4.258 6
-17.893 -40.052 -4.062 15
-17.516 -38.871 -4.556 5
-16.198 -35.655 -4.579 8
-15.006 -32.753 -4.562 7
-13.986 -30.283 -4.55 6
-13.132 -28.195 -4.555 5
-12.367 -26.345 -4.554 6
-11.725 -24.783 -4.577 6
-11.176 -23.426 -4.612 5
-10.669 -22.191 -4.641 8
-10.228 -21.09 -4.676 11
-9.786 -20.033 -4.69 9
-9.396 -19.078 -4.708 6
-9.039 -18.212 -4.73 6
-8.709 -17.404 -4.749 4
-8.409 -16.678 -4.777 8
-8.125 -15.983 -4.796 9
-7.871 -15.365 -4.829 8
-7.618 -14.757 -4.847 8
-7.395 -14.207 -4.875 8
-7.196 -13.719 -4.921 8
-6.989 -13.216 -4.941 8
-6.788 -12.735 -4.958 32
-6.615 -12.307 -4.992 9
-6.436 -11.879 -5.013 9
-6.27 -11.475 -5.035 8
-6.116 -11.102 -5.066 8
-4.762 -8.57 -3.458 2
-4.714 -8.414 -3.574 5
-4.733 -8.377 -3.783 4
-4.765 -8.357 -4.012 4
-4.796 -8.338 -4.249 17
-17.939 -39.83 -4.023 6
-17.691 -38.941 -4.569 6
-16.349 -35.695 -4.587 9
-15.152 -32.801 -4.573 7
-14.121 -30.325 -4.561 6
-13.247 -28.209 -4.559 5
-12.487 -26.382 -4.565 6
-11.831 -24.8 -4.582 6
-11.274 -23.437 -4.615 5
-10.765 -22.206 -4.646 17
-10.32 -21.104 -4.681 11
-9.872 -20.041 -4.693 9
-9.477 -19.084 -4.711 7
-9.116 -18.216 -4.732 6
-8.779 -17.4 -4.747 4
-8.477 -16.673 -4.775 8
-8.195 -15.987 -4.797 9
-7.937 -15.365 -4.829 8
-7.676 -14.746 -4.841 8
-7.454 -14.203 -4.873 8
-7.253 -13.713 -4.917 8
-7.046 -13.213 -4.939 8
-6.845 -12.735 -4.958 35
-6.667 -12.301 -4.988 8
-6.487 -11.875 -5.01 9
-6.322 -11.474 -5.034 8
-6.165 -11.099 -5.064 9
-4.805 -8.576 -3.462 7
-4.716 -8.348 -3.522 4
-4.774 -8.379 -3.786 4
-4.777 -8.309 -3.972 9
-4.833 -8.336 -4.246 6
0.0 -0.0 3.0 0
-17.857 -38.989 -4.579 6
-16.497 -35.725 -4.594 10
-15.294 -32.84 -4.582 6
-14.255 -30.364 -4.571 6
-13.37 -28.24 -4.567 5
-12.6 -26.404 -4.571 6
-11.935 -24.814 -4.586 6
-11.374 -23.452 -4.62 5
-10.844 -22.185 -4.639 24
-10.407 -21.107 -4.682 9
-9.956 -20.046 -4.695 8
-9.56 -19.094 -4.714 6
-9.192 -18.216 -4.732 6
-8.854 -17.404 -4.749 4
-8.548 -16.675 -4.776 6
-8.257 -15.976 -4.792 9
-8.003 -15.366 -4.829 8
-7.74 -14.747 -4.841 7
-7.513 -14.199 -4.87 7
-7.312 -13.712 -4.917 8
-7.101 -13.206 -4.935 8
-6.902 -12.736 -4.958 41
-6.723 -12.302 -4.989 8
-6.541 -11.876 -5.011 10
-6.373 -11.473 -5.034 9
-6.213 -11.095 -5.061 10
-4.846 -8.578 -3.464 7
-4.752 -8.342 -3.518 5
-4.754 -8.277 -3.703 5
-4.793 -8.27 -3.939 9
-4.868 -8.327 -4.239 6
-18.015 -39.356 -3.94 32
-18.029 -39.046 -4.59 6
-16.641 -35.747 -4.598 6
-15.434 -32.873 -4.589 6
-14.39 -30.403 -4.58 6
-13.485 -28.252 -4.57 5
-12.717 -26.432 -4.579 5
-12.044 -24.837 -4.593 5
-11.474 -23.467 -4.625 5
-10.939 -22.198 -4.643 20
-10.494 -21.111 -4.684 9
-10.043 -20.058 -4.699 7
-9.639 -19.092 -4.714 6
-9.273 -18.227 -4.737 6
-8.931 -17.412 -4.752 4
-8.618 -16.674 -4.775 8
-8.327 -15.979 -4.793 11
-8.065 -15.36 -4.826 8
-7.804 -14.748 -4.842 7
-7.572 -14.193 -4.868 7
-7.37 -13.708 -4.914 8
-7.159 -13.205 -4.935 8
-6.957 -12.734 -4.957 41
-6.775 -12.297 -4.986 8
-6.594 -11.874 -5.009 9
-6.423 -11.469 -5.031 8
-6.265 -11.097 -5.063 9
-4.882 -8.572 -3.46 8
-4.785 -8.334 -3.511 5
-4.787 -8.266 -3.694 5
-4.83 -8.267 -3.937 8
-4.906 -8.324 -4.236 5
-18.084 -39.191 -3.91 33
-18.206 -39.114 -4.603 6
-16.812 -35.825 -4.615 6
-15.589 -32.936 -4.604 6
-14.528 -30.448 -4.592 6
-13.609 -28.282 -4.578 5
-12.829 -26.45 -4.584 4
-12.148 -24.849 -4.597 5
-11.571 -23.475 -4.627 5
-11.036 -22.213 -4.649 8
-10.585 -21.121 -4.687 9
-10.126 -20.058 -4.7 8
-9.718 -19.095 -4.715 6
-9.348 -18.226 -4.736 6
-9.006 -17.415 -4.754 5
-8.693 -16.682 -4.779 6
-8.398 -15.985 -4.797 9
-8.131 -15.36 -4.826 8
-7.867 -14.745 -4.84 7
-7.64 -14.204 -4.873 8
-7.43 -13.706 -4.913 8
-7.214 -13.199 -4.93 8
-7.01 -12.727 -4.953 38
-6.832 -12.301 -4.988 9
-6.647 -11.872 -5.008 10
-6.475 -11.468 -5.03 8
-6.311 -11.087 -5.055 9
-4.921 -8.572 -3.46 8
-4.769 -8.239 -3.437 7
-4.824 -8.264 -3.692 5
-4.883 -8.29 -3.956 6
-4.944 -8.322 -4.234 5
-18.142 -39.005 -3.878 30
-18.385 -39.185 -4.617 5
-16.962 -35.857 -4.622 5
-15.746 -33.002 -4.619 6
-14.661 -30.482 -4.6 5
-13.733 -28.311 -4.586 5
-12.945 -26.475 -4.592 5
-12.256 -24.868 -4.603 5
-11.674 -23.491 -4.633 5
-11.131 -22.225 -4.653 7
-10.677 -21.134 -4.692 9
-10.214 -20.069 -4.704 8
-9.8 -19.1 -4.717 6
-9.424 -18.226 -4.736 6
-9.078 -17.413 -4.753 5
-8.761 -16.677 -4.777 6
-8.466 -15.984 -4.796 9
-8.196 -15.356 -4.824 8
-7.929 -14.743 -4.839 6
-7.693 -14.187 -4.864 8
-7.491 -13.708 -4.914 8
-7.272 -13.198 -4.93 8
-7.066 -12.724 -4.951 42
-6.881 -12.288 -4.98 8
-6.696 -11.864 -5.003 9
-6.526 -11.466 -5.029 7
-6.361 -11.087 -5.055 9
-4.958 -8.566 -3.455 8
-4.818 -8.256 -3.45 6
-4.856 -8.252 -3.683 5
-4.92 -8.287 -3.953 6
-4.987 -8.327 -4.238 5
-18.188 -38.793 -3.84 13
-18.556 -39.237 -4.627 4
-17.133 -35.93 -4.637 14
-15.892 -33.044 -4.629 6
-14.802 -30.53 -4.612 6
-13.863 -28.351 -4.597 4
-13.057 -26.492 -4.596 5
-12.367 -24.894 -4.611 5
-11.778 -23.511 -4.639 5
-11.227 -22.236 -4.656 8
-10.765 -21.137 -4.693 9
-10.297 -20.07 -4.704 7
-9.882 -19.104 -4.719 6
-9.5 -18.225 -4.736 6
-9.153 -17.416 -4.754 6
-8.831 -16.674 -4.775 6
-8.534 -15.983 -4.795 12
-8.264 -15.359 -4.826 8
-7.994 -14.743 -4.839 7
-7.757 -14.19 -4.866 9
-7.548 -13.7 -4.91 8
-7.329 -13.194 -4.928 9
-7.123 -12.723 -4.95 39
-6.939 -12.292 -4.983 8
-6.752 -11.868 -5.005 9
-6.574 -11.458 -5.023 9
-6.412 -11.086 -5.054 10
-4.995 -8.563 -3.453 8
-4.858 -8.259 -3.453 7
-4.893 -8.249 -3.68 5
-4.959 -8.287 -3.954 6
-5.025 -8.324 -4.236 5
-18.259 -38.64 -3.813 27
-18.297 -38.384 -4.461 7
-17.282 -35.958 -4.643 14
-16.047 -33.102 -4.642 5
-14.938 -30.566 -4.621 6
-14.001 -28.407 -4.612 4
-13.179 -26.526 -4.606 5
-12.476 -24.913 -4.617 5
-11.878 -23.522 -4.643 5
-11.318 -22.237 -4.657 7
-10.854 -21.142 -4.695 9
-10.386 -20.083 -4.709 7
-9.968 -19.116 -4.723 7
-9.583 -18.237 -4.741 6
-9.229 -17.42 -4.756 6
-8.904 -16.679 -4.777 8
-8.605 -15.988 -4.798 9
-8.33 -15.358 -4.825 7
-8.056 -14.739 -4.837 7
-7.817 -14.185 -4.863 9
-7.606 -13.695 -4.907 8
-7.387 -13.193 -4.927 9
-7.178 -12.719 -4.948 41
-6.991 -12.286 -4.979 8
-6.804 -11.863 -5.002 9
-6.63 -11.462 -5.026 10
-6.461 -11.081 -5.051 10
-5.028 -8.55 -3.443 8
-4.895 -8.256 -3.45 7
-4.93 -8.246 -3.677 4
-4.997 -8.283 -3.95 5
-5.07 -8.332 -4.243 5
-18.328 -38.482 -3.785 3
-18.336 -38.163 -4.418 24
-17.438 -35.997 -4.651 7
-16.199 -33.152 -4.654 16
-15.081 -30.615 -4.633 6
-14.133 -28.449 -4.623 4
-13.297 -26.552 -4.614 5
-12.595 -24.951 -4.628 2
-11.981 -23.538 -4.648 4
-11.415 -22.251 -4.662 7
-10.947 -21.153 -4.699 12
-10.468 -20.079 -4.708 8
-10.048 -19.117 -4.724 6
-9.659 -18.236 -4.741 6
-9.302 -17.419 -4.755 6
-8.976 -16.68 -4.778 7
-8.671 -15.983 -4.795 9
-8.396 -15.357 -4.825 8
-8.121 -14.739 -4.837 8
-7.882 -14.189 -4.865 9
-7.667 -13.697 -4.908 8
-7.442 -13.185 -4.922 8
-7.235 -12.719 -4.948 41
-7.047 -12.286 -4.979 8
-6.853 -11.854 -4.996 9
-6.678 -11.455 -5.021 9
-6.511 -11.08 -5.05 10
-5.061 -8.538 -3.434 8
-4.934 -8.255 -3.45 10
-4.973 -8.251 -3.681 5
-5.04 -8.289 -3.955 5
-5.113 -8.336 -4.247 5
0.0 -0.0 3.0 0
-18.374 -37.945 -4.376 27
-17.61 -36.068 -4.667 7
-16.338 -33.174 -4.659 14
-15.218 -30.651 -4.642 6
-14.262 -28.483 -4.632 3
-13.416 -26.578 -4.621 4
-12.707 -24.976 -4.636 1
-12.086 -23.557 -4.654 4
-11.512 -22.262 -4.665 8
-11.037 -21.158 -4.701 12
-10.556 -20.089 -4.711 8
-10.13 -19.12 -4.725 6
-9.739 -18.241 -4.743 6
-9.38 -17.426 -4.758 6
-9.05 -16.683 -4.78 8
-8.741 -15.984 -4.796 9
-8.464 -15.359 -4.826 8
-8.184 -14.736 -4.835 7
-7.943 -14.186 -4.864 9
-7.727 -13.694 -4.906 8
-7.5 -13.184 -4.921 9
-7.29 -12.715 -4.945 39
-7.101 -12.283 -4.976 8
-6.909 -11.857 -4.998 9
-6.731 -11.455 -5.021 9
-6.562 -11.078 -5.049 10
-5.09 -8.52 -3.42 8
-4.967 -8.246 -3.443 7
-5.011 -8.251 -3.681 4
-5.082 -8.293 -3.959 6
-5.161 -8.349 -4.258 5
0.0 -0.0 3.0 0
-18.403 -37.71 -4.33 26
-17.783 -36.14 -4.682 6
-16.482 -33.206 -4.666 10
-15.35 -30.675 -4.648 7
-14.388 -28.51 -4.639 4
-13.534 -26.604 -4.628 5
-12.816 -24.993 -4.641 2
-12.186 -23.565 -4.657 4
-11.606 -22.268 -4.668 7
-11.127 -21.163 -4.703 11
-10.641 -20.092 -4.713 7
-10.213 -19.124 -4.727 7
-9.817 -18.243 -4.744 6
-9.452 -17.421 -4.756 5
-9.124 -16.686 -4.781 8
-8.813 -15.988 -4.798 8
-8.529 -15.355 -4.824 8
-8.25 -14.739 -4.837 7
-8.002 -14.179 -4.86 9
-7.785 -13.689 -4.903 8
-7.559 -13.182 -4.921 8
-7.348 -12.715 -4.945 39
-7.153 -12.276 -4.972 8
-6.961 -11.851 -4.994 9
-6.78 -11.447 -5.016 6
-6.609 -11.07 -5.043 9
-5.124 -8.51 -3.413 8
-5.003 -8.241 -3.438 7
-5.052 -8.253 -3.683 4
-5.125 -8.298 -3.963 5
-5.206 -8.357 -4.265 4
0.0 -0.0 3.0 0
-18.434 -37.482 -4.286 28
-17.951 -36.2 -4.694 6
-16.635 -33.255 -4.677 8
-15.503 -30.741 -4.665 6
-14.511 -28.53 -4.644 4
-13.65 -26.622 -4.634 5
-12.921 -24.999 -4.643 5
-12.288 -23.576 -4.66 5
-11.706 -22.285 -4.673 7
-11.218 -21.17 -4.705 12
-10.73 -20.1 -4.716 7
-10.295 -19.128 -4.728 7
-9.899 -18.25 -4.747 6
-9.53 -17.426 -4.759 6
-9.19 -16.677 -4.777 6
-8.881 -15.985 -4.797 9
-8.596 -15.353 -4.823 8
-8.313 -14.734 -4.834 8
-8.069 -14.186 -4.863 9
-7.847 -13.689 -4.904 8
-7.617 -13.181 -4.92 8
-7.403 -12.71 -4.942 37
-7.209 -12.276 -4.972 8
-7.015 -11.852 -4.994 9
-6.831 -11.445 -5.014 9
-6.662 -11.071 -5.044 9
-5.155 -8.495 -3.401 8
-5.033 -8.225 -3.426 7
-5.098 -8.263 -3.692 4
-5.175 -8.314 -3.977 5
-5.26 -8.378 -4.283 3
0.0 -0.0 3.0 0
-18.467 -37.261 -4.243 28
-18.117 -36.251 -4.705 6
-16.794 -33.314 -4.691 6
-15.639 -30.771 -4.672 5
-14.643 -28.566 -4.654 4
-13.775 -26.657 -4.644 5
-13.03 -25.015 -4.648 5
-12.397 -23.601 -4.668 5
-11.807 -22.301 -4.679 8
-11.31 -21.178 -4.708 12
-10.817 -20.105 -4.718 8
-10.379 -19.134 -4.731 7
-9.976 -18.247 -4.746 6
-9.604 -17.426 -4.758 6
-9.268 -16.686 -4.781 7
-8.95 -15.983 -4.795 9
-8.664 -15.354 -4.823 8
-8.38 -14.737 -4.836 8
-8.129 -14.18 -4.86 9
-7.906 -13.683 -4.9 8
-7.676 -13.178 -4.918 9
-7.457 -12.702 -4.937 34
-7.265 -12.275 -4.971 9
-7.068 -11.848 -4.992 9
-6.883 -11.442 -5.012 9
-6.709 -11.064 -5.038 9
-5.188 -8.483 -3.392 8
-5.07 -8.222 -3.423 6
-5.141 -8.268 -3.696 5
-5.222 -8.324 -3.985 5
-5.317 -8.404 -4.306 7
0.0 -0.0 3.0 0
-18.511 -37.065 -4.205 24
-18.286 -36.309 -4.718 5
-16.953 -33.372 -4.704 5
-15.788 -30.826 -4.686 5
-14.773 -28.598 -4.663 4
-13.896 -26.685 -4.652 5
-13.14 -25.032 -4.653 5
-12.499 -23.612 -4.672 4
-11.902 -22.307 -4.681 7
-11.404 -21.188 -4.712 9
-10.908 -20.117 -4.722 8
-10.464 -19.14 -4.733 7
-10.056 -18.252 -4.747 6
-9.684 -17.434 -4.762 6
-9.338 -16.682 -4.779 6
-9.02 -15.984 -4.796 9
-8.731 -15.352 -4.822 8
-8.445 -14.735 -4.835 7
-8.191 -14.175 -4.858 9
-7.966 -13.681 -4.899 8
-7.735 -13.176 -4.917 8
-7.514 -12.701 -4.937 36
-7.318 -12.267 -4.967 8
-7.12 -11.842 -4.987 9
-6.935 -11.44 -5.01 8
-6.76 -11.061 -5.036 10
-5.225 -8.478 -3.389 8
-5.107 -8.218 -3.42 5
-5.185 -8.276 -3.701 4
-5.277 -8.348 -4.005 4
-5.787 -9.078 -4.891 10
0.0 -0.0 3.0 0
-18.656 -37.069 -4.205 3
-18.461 -36.377 -4.732 5
-17.111 -33.427 -4.717 5
-15.92 -30.844 -4.69 5
-14.904 -28.63 -4.671 4
-14.013 -26.702 -4.657 5
-13.254 -25.054 -4.66 5
-12.607 -23.633 -4.679 4
-11.999 -22.315 -4.684 7
-11.495 -21.191 -4.713 9
-10.996 -20.122 -4.724 8
-10.545 -19.14 -4.733 7
-10.138 -18.258 -4.75 6
-9.76 -17.435 -4.762 6
-9.412 -16.684 -4.78 8
-9.091 -15.984 -4.796 9
-8.801 -15.357 -4.825 8
-8.512 -14.737 -4.836 7
-8.25 -14.169 -4.854 8
-8.03 -13.684 -4.9 8
-7.792 -13.17 -4.914 8
-7.572 -12.699 -4.935 36
-7.374 -12.267 -4.966 8
-7.175 -11.842 -4.987 9
-6.987 -11.436 -5.008 9
-6.811 -11.059 -5.035 9
-5.267 -8.48 -3.39 8
-5.154 -8.231 -3.431 5
-5.235 -8.291 -3.714 4
-5.322 -8.355 -4.011 0
-5.828 -9.073 -4.887 9
-18.756 -37.316 -3.58 15
-18.59 -36.658 -4.126 33
-18.642 -36.456 -4.749 6
-17.268 -33.476 -4.728 6
-16.062 -30.883 -4.7 5
-15.044 -28.678 -4.684 4
-14.137 -26.732 -4.665 5
-13.36 -25.062 -4.662 5
-12.708 -23.639 -4.681 4
-12.096 -22.323 -4.686 8
-11.587 -21.198 -4.715 9
-11.089 -20.136 -4.729 12
-10.632 -19.148 -4.736 7
-10.219 -18.262 -4.752 6
-9.837 -17.437 -4.763 6
-9.487 -16.687 -4.781 6
-9.165 -15.99 -4.799 9
-8.865 -15.348 -4.82 8
-8.571 -14.726 -4.83 7
-8.316 -14.171 -4.855 8
-8.086 -13.674 -4.895 8
-7.849 -13.165 -4.911 8
-7.629 -12.698 -4.934 30
-7.428 -12.262 -4.963 9
-7.224 -11.832 -4.981 9
-7.041 -11.436 -5.007 8
-6.863 -11.059 -5.035 10
-5.303 -8.472 -3.384 8
-5.199 -8.239 -3.437 5
-5.288 -8.312 -3.731 3
-6.198 -9.657 -5.103 17
-5.871 -9.07 -4.885 9
-18.842 -37.205 -3.56 24
-18.651 -36.502 -4.095 48
-18.82 -36.525 -4.764 6
-17.447 -33.567 -4.749 11
-16.209 -30.929 -4.711 6
-15.166 -28.692 -4.688 4
-14.257 -26.755 -4.672 5
-13.478 -25.09 -4.671 5
-12.815 -23.655 -4.686 4
-12.201 -22.345 -4.694 7
-11.681 -21.207 -4.719 10
-11.167 -20.123 -4.724 23
-10.717 -19.154 -4.739 7
-10.303 -18.271 -4.756 6
-9.915 -17.44 -4.765 6
-9.559 -16.685 -4.78 6
-9.233 -15.986 -4.797 9
-8.935 -15.351 -4.822 8
-8.64 -14.73 -4.832 7
-8.379 -14.17 -4.854 8
-8.148 -13.674 -4.895 8
-7.906 -13.159 -4.907 8
-7.685 -12.692 -4.931 30
-7.487 -12.264 -4.964 9
-7.279 -11.831 -4.98 8
-7.091 -11.43 -5.003 8
-6.912 -11.054 -5.031 9
-5.344 -8.474 -3.386 8
-5.252 -8.26 -3.453 4
-6.4 -9.983 -5.084 39
-6.245 -9.657 -5.103 17
-5.911 -9.062 -4.878 11
-18.991 -37.219 -3.563 17
-18.723 -36.369 -4.069 49
-18.995 -36.588 -4.777 5
-17.601 -33.609 -4.759 17
-16.352 -30.967 -4.721 5
-15.303 -28.733 -4.699 4
-14.382 -26.784 -4.68 5
-13.589 -25.104 -4.675 5
-12.927 -23.681 -4.694 4
-12.301 -22.356 -4.698 7
-11.78 -21.222 -4.724 10
-11.253 -20.124 -4.725 22
-10.802 -19.158 -4.741 7
-10.382 -18.271 -4.755 6
-9.992 -17.441 -4.765 6
-9.639 -16.697 -4.786 6
-9.308 -15.992 -4.8 9
-9.004 -15.351 -4.822 8
-8.709 -14.735 -4.835 4
-8.445 -14.172 -4.855 8
-8.209 -13.671 -4.893 8
-7.968 -13.162 -4.909 8
-7.744 -12.693 -4.932 24
-7.539 -12.257 -4.96 8
-7.334 -11.83 -4.979 8
-7.145 -11.43 -5.003 8
-6.96 -11.045 -5.025 10
-5.376 -8.461 -3.376 2
-5.302 -8.276 -3.466 3
-6.446 -9.98 -5.081 39
-6.285 -9.645 -5.093 22
-5.952 -9.057 -4.873 9
-19.152 -37.254 -3.569 14
-18.797 -36.24 -4.044 45
-19.178 -36.663 -4.793 6
-17.749 -33.636 -4.765 22
-16.494 -31.0 -4.729 6
-15.432 -28.756 -4.705 5
-14.507 -26.812 -4.688 5
-13.7 -25.118 -4.679 5
-13.032 -23.693 -4.698 4
-12.397 -22.359 -4.699 7
-11.876 -21.234 -4.729 15
-11.343 -20.13 -4.727 15
-10.885 -19.159 -4.741 7
-10.467 -18.28 -4.759 6
-10.068 -17.441 -4.765 6
-9.712 -16.695 -4.785 8
-9.38 -15.994 -4.801 9
-9.075 -15.354 -4.823 8
-8.771 -14.726 -4.83 7
-8.507 -14.167 -4.853 7
-8.273 -13.672 -4.894 8
-8.029 -13.162 -4.908 8
-7.802 -12.69 -4.93 23
-7.594 -12.251 -4.956 8
-7.388 -11.825 -4.976 7
-7.199 -11.429 -5.002 8
-7.014 -11.048 -5.027 10
-6.84 -10.683 -5.05 11
-6.659 -10.316 -5.06 10
-6.49 -9.973 -5.076 33
-6.332 -9.644 -5.093 19
-5.999 -9.06 -4.876 10
-19.325 -37.313 -3.579 12
-18.863 -36.097 -4.016 26
-19.347 -36.711 -4.803 6
-17.9 -33.669 -4.773 26
-16.638 -31.037 -4.739 5
-15.566 -28.788 -4.714 4
-14.636 -26.848 -4.699 5
-13.817 -25.142 -4.687 5
-13.143 -23.715 -4.706 4
-12.498 -22.373 -4.704 7
-11.964 -21.23 -4.727 22
-11.438 -20.147 -4.734 10
-10.974 -19.171 -4.745 7
-10.546 -18.279 -4.759 6
-10.145 -17.441 -4.765 6
-9.785 -16.692 -4.784 6
-9.449 -15.99 -4.799 9
-9.142 -15.351 -4.822 8
-8.838 -14.727 -4.83 5
-8.572 -14.168 -4.854 8
-8.332 -13.666 -4.89 8
-8.085 -13.153 -4.903 9
-7.863 -12.694 -4.932 21
-7.65 -12.249 -4.955 9
-7.443 -11.824 -4.976 8
-7.248 -11.419 -4.996 8
-7.064 -11.042 -5.022 9
-6.888 -10.678 -5.046 10
-6.712 -10.32 -5.063 11
-6.536 -9.968 -5.072 39
-6.373 -9.635 -5.084 21
-6.04 -9.055 -4.871 9
-19.512 -37.395 -3.594 10
-18.963 -36.019 -4.001 2
-19.518 -36.761 -4.814 6
-18.057 -33.712 -4.783 35
-16.788 -31.084 -4.75 6
-15.695 -28.811 -4.72 5
-14.755 -26.865 -4.703 5
-13.936 -25.168 -4.695 5
-13.242 -23.713 -4.705 4
-12.6 -22.386 -4.708 7
-12.057 -21.234 -4.728 23
-11.53 -20.156 -4.737 8
-11.058 -19.171 -4.746 7
-10.629 -18.284 -4.761 6
-10.224 -17.444 -4.767 6
-9.863 -16.7 -4.787 6
-9.524 -15.994 -4.801 9
-9.209 -15.347 -4.82 8
-8.902 -14.721 -4.827 7
-8.632 -14.161 -4.849 8
-8.398 -13.67 -4.893 8
-8.146 -13.152 -4.903 8
-7.919 -12.688 -4.929 16
-7.707 -12.247 -4.953 9
-7.498 -11.823 -4.975 9
-7.3 -11.416 -4.994 8
-7.117 -11.041 -5.022 10
-6.938 -10.675 -5.044 12
-6.755 -10.31 -5.055 10
-6.584 -9.966 -5.071 38
-6.424 -9.639 -5.088 19
-6.079 -9.047 -4.864 9
-19.714 -37.506 -3.613 6
-19.067 -35.949 -3.988 4
-19.71 -36.848 -4.832 5
-18.219 -33.762 -4.795 25
-16.935 -31.123 -4.76 5
-15.821 -28.825 -4.724 4
-14.885 -26.9 -4.713 4
-14.051 -25.188 -4.701 5
-13.349 -23.728 -4.71 4
-12.699 -22.392 -4.71 7
-12.15 -21.238 -4.73 14
-11.625 -20.168 -4.742 8
-11.142 -19.172 -4.746 8
-10.714 -18.292 -4.764 6
-10.303 -17.447 -4.768 6
-9.936 -16.697 -4.786 6
-9.595 -15.993 -4.8 9
-9.28 -15.35 -4.821 8
-8.969 -14.721 -4.827 7
-8.694 -14.156 -4.847 7
-8.455 -13.66 -4.887 8
-8.205 -13.148 -4.9 9
-7.977 -12.685 -4.927 14
-7.763 -12.245 -4.952 9
-7.55 -11.816 -4.97 9
-7.354 -11.414 -4.992 8
-7.166 -11.035 -5.018 8
-6.987 -10.669 -5.04 12
-6.806 -10.31 -5.055 11
-6.63 -9.962 -5.067 39
-6.469 -9.636 -5.085 20
-6.124 -9.046 -4.863 9
0.0 -0.0 3.0 0
-19.207 -35.948 -3.988 7
-19.902 -36.935 -4.851 5
-18.386 -33.822 -4.808 21
-17.073 -31.144 -4.765 5
-15.961 -28.866 -4.735 5
-15.028 -26.957 -4.73 5
-14.171 -25.213 -4.708 5
-13.461 -23.748 -4.716 5
-12.805 -22.411 -4.717 15
-12.253 -21.258 -4.737 9
-11.715 -20.174 -4.744 8
-11.231 -19.181 -4.75 7
-10.791 -18.287 -4.763 6
-10.384 -17.453 -4.771 6
-10.015 -16.704 -4.789 8
-9.67 -15.997 -4.802 9
-9.355 -15.358 -4.825 8
-9.036 -14.721 -4.827 8
-8.762 -14.159 -4.849 8
-8.519 -13.661 -4.887 8
-8.266 -13.148 -4.9 8
-8.037 -12.685 -4.926 10
-7.82 -12.242 -4.95 9
-7.605 -11.814 -4.968 9
-7.406 -11.41 -4.989 8
-7.221 -11.037 -5.019 9
-7.039 -10.669 -5.04 11
-6.853 -10.305 -5.051 10
-6.676 -9.957 -5.063 33
-6.512 -9.628 -5.079 20
-6.169 -9.046 -4.863 9
0.0 -0.0 3.0 0
-19.332 -35.919 -3.982 25
-20.077 -36.986 -4.862 5
-18.532 -33.839 -4.812 9
-17.226 -31.192 -4.777 5
-16.095 -28.893 -4.742 5
-15.157 -26.987 -4.738 4
-14.285 -25.228 -4.713 6
-13.571 -23.765 -4.722 4
-12.9 -22.409 -4.716 20
-12.351 -21.269 -4.741 9
-11.8 -20.168 -4.742 8
-11.317 -19.184 -4.751 7
-10.881 -18.301 -4.768 6
-10.463 -17.455 -4.771 6
-10.092 -16.707 -4.791 6
-9.741 -15.995 -4.801 9
-9.419 -15.347 -4.82 5
-9.104 -14.721 -4.827 7
-8.828 -14.159 -4.849 8
-8.58 -13.656 -4.884 8
-8.323 -13.14 -4.895 8
-8.087 -12.67 -4.917 9
-7.876 -12.24 -4.949 9
-7.66 -11.812 -4.967 9
-7.458 -11.406 -4.986 8
-7.27 -11.031 -5.014 10
-7.085 -10.66 -5.033 12
-6.9 -10.299 -5.047 10
-6.724 -9.956 -5.062 24
-6.559 -9.627 -5.078 17
-6.21 -9.04 -4.858 10
0.0 -0.0 3.0 0
-19.49 -35.948 -3.988 19
-20.235 -37.006 -4.866 4
-18.721 -33.935 -4.834 7
-17.372 -31.227 -4.786 6
-16.241 -28.94 -4.755 5
-15.285 -27.016 -4.747 3
-14.403 -25.249 -4.719 6
-13.676 -23.772 -4.724 4
-12.991 -22.401 -4.713 20
-12.446 -21.275 -4.743 8
-11.896 -20.183 -4.747 8
-11.405 -19.191 -4.754 7
-10.958 -18.295 -4.766 5
-10.54 -17.454 -4.771 6
-10.166 -16.703 -4.789 7
-9.815 -15.996 -4.802 9
-9.496 -15.359 -4.826 5
-9.172 -14.72 -4.827 8
-8.89 -14.153 -4.845 8
-8.645 -13.657 -4.885 8
-8.384 -13.14 -4.895 9
-8.147 -12.669 -4.916 9
-7.931 -12.234 -4.945 8
-7.716 -11.809 -4.965 9
-7.513 -11.405 -4.986 8
-7.321 -11.027 -5.012 10
-7.135 -10.657 -5.031 11
-6.946 -10.291 -5.04 10
-6.772 -9.954 -5.06 15
-6.604 -9.623 -5.075 17
-6.253 -9.037 -4.855 10
0.0 -0.0 3.0 0
-19.674 -36.025 -4.002 16
-20.432 -37.093 -4.884 3
-18.896 -34.002 -4.85 7
-17.537 -31.294 -4.802 6
-16.379 -28.974 -4.764 5
-15.416 -27.047 -4.756 4
-14.523 -25.274 -4.727 5
-13.784 -23.784 -4.728 4
-13.101 -22.426 -4.722 8
-12.538 -21.274 -4.743 9
-11.985 -20.184 -4.748 8
-11.493 -19.197 -4.756 7
-11.04 -18.296 -4.766 6
-10.622 -17.459 -4.773 6
-10.243 -16.706 -4.79 6
-9.886 -15.994 -4.801 9
-9.564 -15.354 -4.823 8
-9.239 -14.72 -4.827 7
-8.956 -14.154 -4.845 8
-8.705 -13.652 -4.882 7
-8.444 -13.135 -4.892 8
-8.207 -12.668 -4.916 9
-7.988 -12.231 -4.943 8
-7.771 -11.807 -4.964 8
-7.565 -11.4 -4.982 8
-7.373 -11.023 -5.009 11
-7.187 -10.657 -5.03 10
-7.0 -10.297 -5.045 11
-6.817 -9.946 -5.054 12
-6.647 -9.616 -5.068 17
-6.302 -9.041 -4.859 11
0.0 -0.0 3.0 0
-19.865 -36.112 -4.019 14
-20.606 -37.139 -4.894 2
-19.079 -34.083 -4.869 5
-17.688 -31.334 -4.813 6
-16.519 -29.009 -4.773 5
-15.534 -27.056 -4.758 5
-14.646 -25.301 -4.735 5
-13.899 -23.807 -4.735 4
-13.21 -22.447 -4.729 7
-12.636 -21.283 -4.746 9
-12.078 -20.192 -4.751 8
-11.574 -19.188 -4.753 7
-11.126 -18.302 -4.769 6
-10.699 -17.457 -4.772 6
-10.32 -16.709 -4.791 7
-9.963 -16.0 -4.804 9
-9.633 -15.352 -4.822 8
-9.307 -14.719 -4.826 8
-9.025 -14.156 -4.847 8
-8.768 -13.65 -4.881 8
-8.507 -13.136 -4.893 9
-8.265 -12.664 -4.914 9
-8.045 -12.227 -4.941 8
-7.827 -11.804 -4.962 9
-7.621 -11.4 -4.983 8
-7.426 -11.022 -5.008 9
-7.237 -10.653 -5.028 11
-7.046 -10.288 -5.038 10
-6.867 -9.947 -5.055 12
-6.693 -9.611 -5.065 17
-6.351 -9.045 -4.863 14
0.0 -0.0 3.0 0
-20.067 -36.218 -4.04 12
-20.167 -36.086 -4.67 1
-19.253 -34.145 -4.883 6
-17.839 -31.373 -4.822 6
-16.658 -29.041 -4.782 5
-15.66 -27.077 -4.764 4
-14.759 -25.311 -4.738 5
-14.004 -23.812 -4.737 4
-13.312 -22.453 -4.731 7
-12.735 -21.292 -4.75 8
-12.17 -20.195 -4.752 8
-11.666 -19.2 -4.757 7
-11.21 -18.305 -4.77 6
-10.785 -17.467 -4.777 6
-10.394 -16.704 -4.789 6
-10.033 -15.994 -4.801 9
-9.707 -15.355 -4.824 8
-9.375 -14.717 -4.825 7
-9.089 -14.153 -4.845 7
-8.831 -13.647 -4.879 8
-8.565 -13.129 -4.888 9
-8.325 -12.663 -4.913 9
-8.102 -12.224 -4.939 8
-7.878 -11.796 -4.956 9
-7.672 -11.393 -4.977 9
-7.475 -11.014 -5.002 9
-7.286 -10.646 -5.023 10
-7.095 -10.285 -5.036 11
-6.913 -9.941 -5.05 12
-6.738 -9.607 -5.061 16
-6.392 -9.039 -4.857 29
0.0 -0.0 3.0 0
-22.937 -41.1 -4.989 4
-20.317 -36.094 -4.672 3
-19.418 -34.191 -4.894 6
-17.995 -31.418 -4.833 5
-16.801 -29.08 -4.792 5
-15.778 -27.083 -4.766 4
-14.882 -25.337 -4.746 5
-14.117 -23.83 -4.743 4
-13.419 -22.47 -4.737 7
-12.833 -21.3 -4.753 8
-12.267 -20.208 -4.757 8
-11.755 -19.204 -4.759 8
-11.294 -18.308 -4.771 6
-10.864 -17.468 -4.777 6
-10.476 -16.712 -4.793 7
-10.108 -15.996 -4.802 9
-9.773 -15.347 -4.82 8
-9.441 -14.713 -4.823 7
-9.155 -14.152 -4.845 7
-8.898 -13.65 -4.881 8
-8.626 -13.126 -4.887 9
-8.381 -12.656 -4.908 9
-8.16 -12.223 -4.938 8
-7.938 -11.799 -4.959 9
-7.728 -11.394 -4.978 8
-7.529 -11.013 -5.001 10
-7.336 -10.642 -5.02 10
-7.142 -10.279 -5.031 11
-6.955 -9.93 -5.041 15
-6.787 -9.607 -5.061 17
-6.445 -9.048 -4.866 21
0.0 -0.0 3.0 0
-23.148 -41.183 -5.005 5
-21.211 -37.412 -4.952 6
-19.583 -34.234 -4.904 5
-18.15 -31.462 -4.844 6
-16.939 -29.106 -4.799 5
-15.908 -27.11 -4.774 4
-15.006 -25.362 -4.754 5
-14.233 -23.851 -4.75 3
-13.519 -22.474 -4.738 7
-12.926 -21.298 -4.752 8
-12.36 -20.214 -4.759 8
-11.844 -19.209 -4.761 7
-11.38 -18.314 -4.774 6
-10.946 -17.471 -4.779 6
-10.551 -16.711 -4.792 6
-10.186 -16.002 -4.805 9
-9.849 -15.354 -4.823 8
-9.513 -14.717 -4.825 8
-9.22 -14.149 -4.843 6
-8.959 -13.644 -4.877 8
-8.69 -13.127 -4.887 9
-8.443 -12.657 -4.909 9
-8.215 -12.217 -4.934 8
-7.992 -11.793 -4.954 8
-7.781 -11.389 -4.975 8
-7.58 -11.009 -4.998 10
-7.386 -10.639 -5.017 12
-7.191 -10.276 -5.029 10
-7.003 -9.927 -5.039 31
-6.828 -9.597 -5.053 21
-6.489 -9.044 -4.862 16
0.0 -0.0 3.0 0
-23.368 -41.279 -5.024 5
-21.395 -37.469 -4.964 6
-19.745 -34.271 -4.912 6
-18.311 -31.513 -4.857 6
-17.093 -29.16 -4.814 5
-16.039 -27.136 -4.781 4
-15.127 -25.384 -4.761 5
-14.342 -23.862 -4.753 4
-13.623 -22.483 -4.741 7
-13.03 -21.316 -4.758 9
-12.454 -20.22 -4.762 8
-11.932 -19.213 -4.763 7
-11.465 -18.315 -4.774 6
-11.026 -17.471 -4.779 5
-10.629 -16.712 -4.793 6
-10.258 -15.998 -4.803 9
-9.919 -15.351 -4.822 8
-9.583 -14.718 -4.826 8
-9.288 -14.151 -4.844 8
-9.022 -13.64 -4.875 8
-8.747 -13.118 -4.882 9
-8.501 -12.652 -4.906 9
-8.272 -12.213 -4.931 9
-8.047 -11.789 -4.952 9
-7.833 -11.383 -4.97 8
-7.634 -11.006 -4.997 10
-7.435 -10.632 -5.012 11
-7.237 -10.267 -5.021 12
-7.054 -9.927 -5.039 33
-6.877 -9.597 -5.053 17
-6.53 -9.038 -4.857 15
-25.872 -45.797 -5.075 4
-23.592 -41.381 -5.044 5
-21.596 -37.552 -4.982 6
-19.913 -34.318 -4.923 6
-18.471 -31.564 -4.87 7
-17.233 -29.19 -4.822 5
-16.172 -27.165 -4.789 4
-15.255 -25.415 -4.77 5
-14.454 -23.876 -4.758 3
-13.733 -22.501 -4.748 7
-13.127 -21.32 -4.76 9
-12.546 -20.223 -4.763 8
-12.021 -19.217 -4.764 8
-11.551 -18.321 -4.777 6
-11.108 -17.475 -4.78 6
-10.707 -16.713 -4.794 6
-10.334 -16.0 -4.804 9
-9.993 -15.354 -4.823 8
-9.65 -14.713 -4.823 8
-9.351 -14.143 -4.84 7
-9.088 -13.64 -4.875 8
-8.809 -13.116 -4.881 9
-8.562 -12.651 -4.905 9
-8.331 -12.212 -4.931 9
-8.101 -11.783 -4.948 9
-7.886 -11.378 -4.967 8
-7.687 -11.004 -4.995 10
-7.489 -10.633 -5.013 11
-7.286 -10.263 -5.018 11
-7.1 -9.922 -5.034 37
-6.921 -9.589 -5.046 16
-6.573 -9.034 -4.853 16
-26.117 -45.905 -5.094 11
-23.812 -41.471 -5.061 4
-21.775 -37.597 -4.991 6
-20.092 -34.38 -4.937 8
-18.638 -31.623 -4.885 6
-17.376 -29.222 -4.83 5
-16.303 -27.19 -4.797 4
-15.372 -25.426 -4.774 5
-14.58 -23.911 -4.769 3
-13.835 -22.507 -4.75 7
-13.226 -21.327 -4.762 9
-12.642 -20.23 -4.766 8
-12.115 -19.226 -4.768 7
-11.64 -18.328 -4.78 6
-11.189 -17.474 -4.78 6
-10.787 -16.717 -4.795 8
-10.41 -16.002 -4.805 9
-10.063 -15.35 -4.821 9
-9.722 -14.717 -4.825 8
-9.422 -14.148 -4.842 5
-9.151 -13.637 -4.873 9
-8.871 -13.113 -4.879 9
-8.618 -12.643 -4.9 9
-8.389 -12.208 -4.928 8
-8.157 -11.78 -4.946 9
-7.943 -11.378 -4.967 7
-7.737 -10.997 -4.99 10
-7.54 -10.629 -5.009 12
-7.337 -10.263 -5.018 11
-7.15 -9.921 -5.034 35
-6.972 -9.592 -5.049 17
-6.617 -9.029 -4.849 15
-26.343 -45.98 -5.108 18
-24.048 -41.589 -5.084 4
-21.985 -37.692 -5.012 6
-20.269 -34.438 -4.951 7
-18.808 -31.684 -4.9 6
-17.521 -29.258 -4.84 5
-16.435 -27.215 -4.804 4
-15.492 -25.444 -4.779 5
-14.685 -23.911 -4.769 3
-13.944 -22.521 -4.755 7
-13.327 -21.336 -4.766 9
-12.738 -20.239 -4.769 8
-12.204 -19.23 -4.769 8
-11.725 -18.329 -4.78 6
-11.273 -17.48 -4.782 5
-10.863 -16.714 -4.794 6
-10.486 -16.004 -4.805 9
-10.138 -15.353 -4.823 8
-9.788 -14.711 -4.822 8
-9.487 -14.143 -4.84 7
-9.218 -13.639 -4.874 8
-8.932 -13.11 -4.877 9
-8.676 -12.638 -4.897 9
-8.448 -12.206 -4.926 9
-8.213 -11.776 -4.943 9
-7.993 -11.369 -4.96 8
-7.792 -10.997 -4.99 10
-7.59 -10.624 -5.006 11
-7.385 -10.256 -5.013 10
-7.195 -9.912 -5.027 34
-7.017 -9.587 -5.044 17
-6.66 -9.025 -4.846 15
-26.578 -46.066 -5.123 15
-24.273 -41.684 -5.103 4
-22.183 -37.765 -5.027 5
-20.447 -34.496 -4.964 7
-18.97 -31.733 -4.912 6
-17.673 -29.302 -4.851 5
-16.56 -27.229 -4.808 4
-15.621 -25.473 -4.788 5
-14.801 -23.93 -4.775 4
-14.05 -22.532 -4.758 7
-13.425 -21.339 -4.767 9
-12.832 -20.243 -4.771 9
-12.297 -19.239 -4.773 10
-11.811 -18.334 -4.782 5
-11.356 -17.482 -4.784 6
-10.942 -16.714 -4.794 7
-10.556 -15.996 -4.802 9
-10.21 -15.352 -4.822 8
-9.859 -14.712 -4.822 8
-9.553 -14.141 -4.838 7
-9.277 -13.628 -4.868 8
-8.994 -13.107 -4.875 9
-8.739 -12.638 -4.897 9
-8.505 -12.201 -4.924 8
-8.269 -11.772 -4.94 9
-8.048 -11.365 -4.958 9
-7.844 -10.991 -4.986 10
-7.641 -10.62 -5.002 11
-7.436 -10.255 -5.012 11
-7.245 -9.912 -5.026 35
-7.065 -9.584 -5.042 17
-6.704 -9.021 -4.842 17
-26.849 -46.213 -5.149 12
-24.53 -41.833 -5.132 4
-22.383 -37.838 -5.043 5
-20.627 -34.557 -4.978 6
-19.133 -31.78 -4.924 6
-17.818 -29.336 -4.861 5
-16.696 -27.26 -4.817 4
-15.753 -25.506 -4.798 6
-14.916 -23.945 -4.78 4
-14.159 -22.546 -4.763 7
-13.528 -21.351 -4.771 8
-12.929 -20.251 -4.774 8
-12.385 -19.238 -4.773 11
-11.894 -18.331 -4.781 6
-11.43 -17.472 -4.779 6
-11.022 -16.718 -4.796 7
-10.637 -16.003 -4.805 9
-10.284 -15.354 -4.823 8
-9.93 -14.712 -4.822 8
-9.624 -14.146 -4.841 8
-9.345 -13.63 -4.87 8
-9.058 -13.106 -4.875 9
-8.799 -12.636 -4.896 9
-8.562 -12.197 -4.921 8
-8.323 -11.765 -4.936 9
-8.105 -11.365 -4.958 8
-7.897 -10.989 -4.984 9
-7.693 -10.617 -5.001 11
-7.486 -10.25 -5.008 11
-7.289 -9.903 -5.019 33
-7.106 -9.573 -5.033 16
-6.741 -9.008 -4.831 34
-27.124 -46.362 -5.175 12
-24.771 -41.951 -5.154 4
-22.586 -37.917 -5.059 5
-20.808 -34.616 -4.992 6
-19.294 -31.824 -4.935 6
-17.971 -29.38 -4.872 5
-16.835 -27.293 -4.826 4
-15.878 -25.528 -4.805 5
-15.035 -23.966 -4.787 4
-14.273 -22.565 -4.77 7
-13.628 -21.356 -4.773 9
-13.032 -20.267 -4.78 15
-12.485 -19.256 -4.78 12
-11.984 -18.338 -4.784 6
-11.517 -17.479 -4.782 6
-11.103 -16.72 -4.797 6
-10.711 -16.0 -4.804 8
-10.357 -15.353 -4.823 8
-10.002 -14.714 -4.824 8
-9.691 -14.143 -4.84 8
-9.413 -13.632 -4.87 8
-9.118 -13.1 -4.871 9
-8.862 -12.636 -4.896 9
-8.619 -12.191 -4.917 8
-8.381 -11.764 -4.935 9
-8.16 -11.361 -4.955 8
-7.949 -10.983 -4.98 10
-7.742 -10.609 -4.995 11
-7.537 -10.249 -5.007 12
-7.342 -9.905 -5.021 36
-7.159 -9.578 -5.037 19
-6.783 -9.001 -4.825 15
-27.415 -46.537 -5.206 15
-25.023 -42.084 -5.18 4
-22.787 -37.987 -5.074 5
-21.01 -34.708 -5.013 7
-19.464 -31.879 -4.948 7
-18.138 -29.445 -4.89 6
-16.972 -27.322 -4.834 4
-16.006 -25.553 -4.812 5
-15.147 -23.973 -4.789 4
-14.38 -22.576 -4.773 7
-13.736 -21.374 -4.78 9
-13.116 -20.254 -4.775 26
-12.569 -19.248 -4.777 13
-12.071 -18.341 -4.785 6
-11.604 -17.486 -4.785 6
-11.185 -16.726 -4.799 7
-10.79 -16.004 -4.806 9
-10.43 -15.351 -4.822 9
-10.071 -14.71 -4.821 7
-9.759 -14.14 -4.838 8
-9.476 -13.627 -4.867 8
-9.186 -13.104 -4.874 9
-8.917 -12.624 -4.888 9
-8.679 -12.189 -4.916 8
-8.437 -11.76 -4.932 9
-8.213 -11.355 -4.951 9
-8.003 -10.98 -4.977 9
-7.794 -10.607 -4.993 10
-7.585 -10.241 -5.001 10
-7.39 -9.9 -5.017 36
-7.203 -9.57 -5.03 18
-6.826 -8.996 -4.82 15
-27.664 -46.636 -5.223 18
0.0 -0.0 3.0 0
-22.994 -38.069 -5.092 6
-21.196 -34.773 -5.028 7
-19.628 -31.925 -4.96 7
-18.293 -29.491 -4.902 6
-17.115 -27.36 -4.845 5
-16.13 -25.571 -4.818 5
-15.269 -23.997 -4.797 5
-14.49 -22.588 -4.778 7
-13.839 -21.382 -4.783 11
-13.209 -20.254 -4.775 21
-12.663 -19.256 -4.78 15
-12.156 -18.341 -4.785 6
-11.683 -17.482 -4.783 6
-11.264 -16.725 -4.799 7
-10.865 -16.001 -4.804 9
-10.505 -15.352 -4.822 9
-10.144 -14.713 -4.823 8
-9.828 -14.14 -4.838 8
-9.542 -13.625 -4.866 8
-9.246 -13.098 -4.87 9
-8.979 -12.624 -4.888 9
-8.738 -12.187 -4.914 8
-8.497 -11.761 -4.933 9
-8.269 -11.354 -4.95 9
-8.057 -10.977 -4.975 10
-7.845 -10.602 -4.989 10
-7.636 -10.239 -5.0 11
-7.435 -9.891 -5.01 35
-7.246 -9.561 -5.023 20
-6.868 -8.988 -4.814 13
-27.879 -46.677 -5.23 17
0.0 -0.0 3.0 0
-23.198 -38.141 -5.107 5
-21.378 -34.831 -5.041 7
-19.784 -31.956 -4.968 7
-18.443 -29.526 -4.911 6
-17.259 -27.397 -4.856 5
-16.263 -25.601 -4.827 5
-15.389 -24.017 -4.803 4
-14.597 -22.597 -4.781 7
-13.941 -21.389 -4.785 20
-13.312 -20.27 -4.781 12
-12.757 -19.263 -4.783 17
-12.246 -18.346 -4.788 6
-11.764 -17.479 -4.782 6
-11.351 -16.736 -4.804 7
-10.952 -16.016 -4.812 9
-10.58 -15.353 -4.823 8
-10.215 -14.711 -4.822 8
-9.893 -14.134 -4.835 8
-9.61 -13.625 -4.867 8
-9.308 -13.093 -4.867 9
-9.04 -12.62 -4.886 9
-8.798 -12.184 -4.912 8
-8.553 -11.756 -4.929 9
-8.324 -11.35 -4.947 9
-8.11 -10.974 -4.973 9
-7.896 -10.596 -4.985 11
-7.684 -10.233 -4.995 11
-7.485 -9.89 -5.008 34
-7.294 -9.557 -5.019 17
-6.909 -8.981 -4.807 14
-28.073 -46.682 -5.231 15
0.0 -0.0 3.0 0
-23.415 -38.234 -5.127 5
-21.574 -34.908 -5.059 8
-19.945 -31.994 -4.977 6
-18.593 -29.56 -4.92 6
-17.405 -27.438 -4.868 5
-16.385 -25.615 -4.831 5
-15.494 -24.014 -4.802 5
-14.722 -22.631 -4.792 8
-14.033 -21.38 -4.782 29
-13.414 -20.281 -4.785 8
-12.85 -19.267 -4.784 18
-12.334 -18.348 -4.788 5
-11.855 -17.492 -4.788 6
-11.43 -16.734 -4.803 7
-11.022 -16.006 -4.807 9
-10.655 -15.354 -4.823 8
-10.284 -14.707 -4.82 8
-9.965 -14.137 -4.836 8
-9.676 -13.623 -4.865 8
-9.373 -13.092 -4.866 9
-9.107 -12.625 -4.889 9
-8.857 -12.181 -4.911 8
-8.607 -11.748 -4.924 9
-8.379 -11.345 -4.944 9
-8.164 -10.97 -4.97 10
-7.95 -10.597 -4.985 12
-7.735 -10.23 -4.992 10
-7.534 -9.886 -5.005 35
-7.333 -9.543 -5.008 16
-6.949 -8.971 -4.798 13
-28.267 -46.684 -5.232 12
-26.011 -42.56 -5.273 2
-23.622 -38.308 -5.143 5
-21.764 -34.973 -5.074 10
-20.112 -32.041 -4.989 7
-18.748 -29.599 -4.931 6
-17.552 -27.478 -4.879 6
-16.512 -25.635 -4.837 5
-15.619 -24.039 -4.811 4
-14.824 -22.629 -4.792 20
-14.138 -21.39 -4.785 16
-13.518 -20.296 -4.791 8
-12.938 -19.264 -4.783 17
-12.422 -18.35 -4.789 6
-11.939 -17.492 -4.788 6
-11.512 -16.736 -4.804 7
-11.102 -16.009 -4.808 9
-10.723 -15.345 -4.819 8
-10.36 -14.711 -4.822 8
-10.038 -14.142 -4.839 8
-9.742 -13.621 -4.864 9
-9.437 -13.09 -4.865 9
-9.162 -12.612 -4.881 9
-8.915 -12.175 -4.906 8
-8.666 -11.746 -4.923 9
-8.435 -11.341 -4.941 8
-8.216 -10.964 -4.965 10
-8.001 -10.591 -4.981 11
-7.783 -10.222 -4.987 10
-7.582 -9.881 -5.002 33
-7.315 -9.455 -4.934 13
-6.99 -8.963 -4.791 12
-28.456 -46.678 -5.231 13
0.0 -0.0 3.0 0
-23.838 -38.395 -5.161 5
-21.942 -35.019 -5.085 9
-20.28 -32.087 -5.0 6
-18.903 -29.639 -4.942 6
-17.703 -27.524 -4.892 8
-16.644 -25.661 -4.845 5
-15.733 -24.047 -4.813 4
-14.922 -22.621 -4.789 22
-14.249 -21.409 -4.792 10
-13.622 -20.31 -4.796 7
-13.033 -19.27 -4.786 18
-12.512 -18.355 -4.791 6
-12.02 -17.488 -4.786 6
-11.591 -16.733 -4.803 7
-11.179 -16.008 -4.808 9
-10.803 -15.352 -4.822 8
-10.427 -14.704 -4.818 6
-10.102 -14.132 -4.833 8
-9.806 -13.614 -4.86 9
-9.5 -13.085 -4.862 8
-9.223 -12.608 -4.879 9
-8.975 -12.172 -4.905 8
-8.722 -11.74 -4.919 9
-8.49 -11.336 -4.938 9
-8.27 -10.96 -4.963 9
-8.054 -10.588 -4.978 8
-7.834 -10.22 -4.984 11
-7.631 -9.877 -4.998 33
-7.262 -9.323 -4.823 11
-7.027 -8.949 -4.78 11
-28.645 -46.671 -5.229 11
-26.557 -42.864 -5.332 4
-24.063 -38.495 -5.182 5
-22.127 -35.073 -5.097 9
-20.459 -32.148 -5.015 7
-19.062 -29.685 -4.954 6
-17.844 -27.553 -4.901 9
-16.778 -25.689 -4.854 5
-15.859 -24.071 -4.821 4
-15.028 -22.624 -4.79 11
-14.359 -21.424 -4.798 9
-13.72 -20.315 -4.798 7
-13.126 -19.273 -4.787 20
-12.604 -18.361 -4.794 5
-12.112 -17.5 -4.791 5
-11.675 -16.737 -4.804 6
-11.258 -16.01 -4.809 10
-10.874 -15.346 -4.819 8
-10.504 -14.711 -4.822 3
-10.176 -14.137 -4.836 8
-9.876 -13.617 -4.862 9
-9.564 -13.083 -4.861 8
