# .PCD v0.7 - Point Cloud Data file format
VERSION 0.7
FIELDS x y z intensity
SIZE 4 4 4 4
TYPE F F F F
COUNT 1 1 1 1
WIDTH 2035
HEIGHT 1
VIEWPOINT 0 0 0 1 0 0 0
POINTS 2035
DATA ascii
0.0 -0.0 3.0 0
0.0 -0.0 3.0 0
-29.021 -28.353 -5.668 5
-27.04 -26.156 -5.498 3
-24.412 -23.391 -5.054 7
-22.83 -21.662 -4.884 27
-21.721 -20.434 -4.844 23
-21.265 -19.825 -5.01 16
-20.272 -18.742 -4.956 6
-19.296 -17.689 -4.876 15
-18.491 -16.817 -4.842 7
-17.701 -15.969 -4.789 7
-17.04 -15.26 -4.775 6
-16.342 -14.53 -4.726 34
-9.384 -8.282 -1.591 0
-9.333 -8.181 -1.724 255
-9.318 -8.111 -1.873 75
-9.376 -8.109 -2.067 9
-9.614 -8.26 -2.364 0
-13.291 -11.349 -4.655 37
-12.891 -10.938 -4.659 10
-12.512 -10.555 -4.668 43
-10.663 -8.94 -3.737 23
-10.549 -8.793 -3.87 28
-10.754 -8.915 -4.219 31
-10.67 -8.793 -4.378 21
-10.281 -8.424 -4.323 13
-9.446 -9.897 1.255 255
-9.459 -9.793 1.096 255
-9.478 -9.703 0.937 255
-9.448 -9.564 0.792 5
-33.786 -33.838 -5.437 8
0.0 -0.0 3.0 0
0.0 -0.0 3.0 0
-29.249 -28.401 -5.683 4
-27.257 -26.202 -5.514 3
-24.584 -23.411 -5.061 6
-22.961 -21.651 -4.88 28
-21.863 -20.439 -4.846 22
-21.405 -19.831 -5.012 16
-20.404 -18.746 -4.957 6
-19.433 -17.703 -4.882 8
-18.609 -16.818 -4.843 6
-17.807 -15.966 -4.787 8
-17.125 -15.24 -4.765 7
-16.445 -14.529 -4.725 32
-9.38 -8.227 -1.561 3
-9.371 -8.164 -1.713 6
-9.398 -8.13 -1.885 7
-9.501 -8.167 -2.103 4
-13.801 -11.785 -4.653 32
-13.366 -11.344 -4.652 36
-12.956 -10.927 -4.651 10
-12.573 -10.543 -4.66 42
-10.749 -8.958 -3.751 17
-10.601 -8.785 -3.863 20
-10.786 -8.888 -4.197 30
-10.745 -8.802 -4.386 36
-10.33 -8.415 -4.315 12
-9.462 -9.854 1.262 109
-9.458 -9.734 1.108 255
-9.479 -9.648 0.949 255
-9.452 -9.512 0.804 5
-38.213 -38.042 -6.485 3
0.0 -0.0 3.0 0
0.0 -0.0 3.0 0
-29.49 -28.459 -5.701 4
-27.469 -26.243 -5.527 3
-24.8 -23.47 -5.081 5
-23.061 -21.61 -4.865 33
-21.985 -20.425 -4.84 23
-21.546 -19.837 -5.015 18
-20.542 -18.754 -4.961 6
-19.571 -17.716 -4.888 6
-18.727 -16.818 -4.843 7
-17.914 -15.96 -4.784 7
-17.219 -15.227 -4.759 6
-16.542 -14.524 -4.723 20
-9.373 -8.169 -1.528 5
-9.395 -8.133 -1.696 6
-9.458 -8.132 -1.886 5
-9.582 -8.185 -2.114 1
-13.878 -11.778 -4.649 21
-13.442 -11.338 -4.648 36
-13.033 -10.925 -4.65 10
-12.641 -10.535 -4.654 40
-10.844 -8.983 -3.769 23
-10.875 -8.958 -3.999 3
-10.885 -8.917 -4.221 17
-10.801 -8.796 -4.381 29
-10.384 -8.411 -4.311 14
-9.5 -9.836 1.266 12
-9.465 -9.685 1.117 255
-9.478 -9.589 0.962 255
-9.47 -9.472 0.813 5
-9.511 -9.411 0.654 0
0.0 -0.0 3.0 0
0.0 -0.0 3.0 0
-29.734 -28.519 -5.719 4
-27.688 -26.289 -5.542 4
-24.999 -23.512 -5.096 5
-23.261 -21.661 -4.884 31
-22.153 -20.453 -4.851 24
-21.689 -19.845 -5.018 18
-20.671 -18.755 -4.961 6
-19.706 -17.727 -4.893 5
-18.85 -16.824 -4.845 7
-18.024 -15.958 -4.783 7
-17.315 -15.217 -4.753 6
-9.386 -8.19 -1.355 2
-9.379 -8.124 -1.503 6
-9.421 -8.105 -1.679 5
-9.502 -8.119 -1.878 5
-14.42 -12.242 -4.65 14
-13.955 -11.771 -4.644 11
-13.514 -11.33 -4.642 30
-13.102 -10.916 -4.644 11
-12.711 -10.529 -4.65 39
-10.861 -8.943 -3.739 31
0.0 -0.0 3.0 0
-11.231 -9.146 -4.406 21
-10.84 -8.776 -4.364 28
-10.436 -8.403 -4.305 14
-9.507 -9.785 1.275 3
-9.467 -9.629 1.128 255
-9.477 -9.53 0.974 255
-9.497 -9.442 0.82 4
-9.47 -9.314 0.678 2
0.0 -0.0 3.0 0
0.0 -0.0 3.0 0
-29.99 -28.587 -5.74 4
-27.892 -26.32 -5.552 3
-24.328 -22.739 -4.83 3
-23.387 -21.643 -4.878 33
-22.292 -20.454 -4.851 24
-21.834 -19.852 -5.021 17
-20.818 -18.769 -4.967 6
-19.844 -17.739 -4.898 5
-18.969 -16.823 -4.845 7
-18.137 -15.957 -4.783 7
-17.414 -15.208 -4.749 5
-9.378 -8.132 -1.324 4
-9.397 -8.088 -1.483 6
-9.453 -8.083 -1.667 5
-9.554 -8.112 -1.874 2
-14.499 -12.233 -4.644 9
-14.032 -11.763 -4.639 9
-13.587 -11.321 -4.636 29
-13.168 -10.904 -4.635 25
-12.775 -10.519 -4.642 37
-11.043 -9.038 -3.811 19
-10.943 -8.907 -3.959 6
-11.308 -9.154 -4.413 26
-10.904 -8.776 -4.364 29
-10.484 -8.393 -4.296 13
-9.522 -9.744 1.282 0
-9.47 -9.576 1.139 255
-9.478 -9.475 0.986 255
-9.517 -9.406 0.828 4
-9.454 -9.242 0.696 3
-29.669 -28.688 -4.687 2
0.0 -0.0 3.0 0
-30.232 -28.642 -5.757 3
-28.132 -26.382 -5.572 4
-25.361 -23.558 -5.112 5
-23.51 -21.622 -4.87 29
-22.432 -20.453 -4.851 27
-21.969 -19.85 -5.02 17
-20.936 -18.758 -4.962 6
-19.965 -17.736 -4.896 5
-19.084 -16.82 -4.843 7
-18.25 -15.956 -4.782 8
-9.401 -8.159 -1.157 1
-9.381 -8.083 -1.298 5
-9.417 -8.055 -1.465 6
-9.497 -8.069 -1.659 5
-15.093 -12.737 -4.653 6
-14.583 -12.228 -4.641 9
-14.11 -11.755 -4.634 8
-13.657 -11.31 -4.629 25
-13.236 -10.894 -4.628 32
-12.846 -10.513 -4.638 19
-11.057 -8.996 -3.779 23
-10.918 -8.834 -3.902 11
-11.293 -9.087 -4.359 20
-10.954 -8.765 -4.355 37
-10.536 -8.386 -4.289 14
0.0 -0.0 3.0 0
-9.471 -9.52 1.15 255
-9.476 -9.417 0.998 255
-9.552 -9.383 0.834 2
-9.454 -9.186 0.71 5
-33.108 -31.819 -5.526 25
0.0 -0.0 3.0 0
-30.478 -28.697 -5.774 4
-28.357 -26.429 -5.587 3
-25.527 -23.565 -5.114 5
-23.776 -21.731 -4.909 31
-22.578 -20.458 -4.853 28
-22.102 -19.846 -5.018 13
-21.078 -18.766 -4.966 6
-20.101 -17.745 -4.901 5
-19.206 -16.821 -4.844 6
-18.366 -15.957 -4.783 7
-9.387 -8.095 -1.125 4
-9.395 -8.045 -1.278 5
-9.449 -8.032 -1.452 6
-9.543 -8.058 -1.652 3
-15.179 -12.73 -4.649 9
-14.659 -12.217 -4.634 9
-14.184 -11.744 -4.627 8
-13.739 -11.309 -4.628 16
-13.302 -10.882 -4.62 34
-12.91 -10.502 -4.63 12
-11.113 -8.987 -3.772 18
-10.987 -8.837 -3.904 16
-11.191 -8.952 -4.249 33
-11.012 -8.76 -4.351 34
-10.59 -8.379 -4.284 15
0.0 -0.0 3.0 0
-9.472 -9.465 1.16 255
-9.488 -9.372 1.008 255
-9.457 -9.234 0.868 6
-9.443 -9.12 0.726 4
-33.359 -31.866 -5.538 27
0.0 -0.0 3.0 0
-30.668 -28.698 -5.774 3
-28.581 -26.474 -5.602 3
-25.208 -23.126 -4.963 4
-23.935 -21.739 -4.913 32
-22.73 -20.468 -4.857 26
-22.238 -19.844 -5.017 12
-21.219 -18.774 -4.969 6
-20.225 -17.742 -4.899 5
-19.324 -16.818 -4.843 6
-9.407 -8.122 -0.962 0
-9.389 -8.047 -1.1 5
-9.415 -8.012 -1.26 6
-9.483 -8.011 -1.441 5
-9.606 -8.061 -1.654 0
-15.266 -12.723 -4.645 9
-14.746 -12.213 -4.632 9
-14.264 -11.738 -4.623 9
-13.803 -11.292 -4.616 11
-13.377 -10.876 -4.616 36
-12.986 -10.5 -4.629 11
-11.096 -8.919 -3.721 29
-11.069 -8.849 -3.914 34
-11.426 -9.087 -4.358 22
-11.06 -8.747 -4.339 29
-10.634 -8.366 -4.272 12
0.0 -0.0 3.0 0
-9.469 -9.406 1.172 255
-9.488 -9.317 1.02 255
-9.462 -9.185 0.88 35
-9.449 -9.071 0.738 5
-33.633 -31.932 -5.556 27
0.0 -0.0 3.0 0
-30.783 -28.629 -5.753 4
-28.816 -26.526 -5.619 3
-25.966 -23.674 -5.152 5
-24.105 -21.759 -4.919 30
-22.879 -20.473 -4.859 26
-22.369 -19.835 -5.014 11
-21.358 -18.779 -4.971 7
-20.355 -17.745 -4.901 5
-19.455 -16.827 -4.846 6
-9.395 -8.06 -0.931 3
-9.398 -8.003 -1.078 5
-9.447 -7.988 -1.247 6
-9.532 -8.002 -1.435 4
-15.919 -13.276 -4.665 7
-15.349 -12.713 -4.639 7
-14.825 -12.203 -4.625 9
-14.339 -11.727 -4.615 33
-13.888 -11.292 -4.616 10
-13.446 -10.866 -4.608 34
-13.048 -10.486 -4.619 11
-11.269 -9.004 -3.785 22
-11.187 -8.89 -3.946 11
-11.228 -8.876 -4.188 23
-11.127 -8.748 -4.341 26
-10.688 -8.359 -4.266 13
0.0 -0.0 3.0 0
-9.472 -9.353 1.182 255
-9.491 -9.264 1.031 255
-9.496 -9.162 0.885 255
-9.449 -9.016 0.752 5
-33.934 -32.022 -5.58 23
0.0 -0.0 3.0 0
-31.091 -28.738 -5.786 3
-29.058 -26.584 -5.638 3
-26.154 -23.698 -5.16 5
-24.243 -21.747 -4.915 26
-23.032 -20.481 -4.862 26
-22.5 -19.827 -5.011 11
-21.501 -18.786 -4.974 6
-20.492 -17.751 -4.903 5
-9.416 -8.092 -0.774 0
-9.397 -8.012 -0.908 5
-9.417 -7.97 -1.061 6
-9.478 -7.964 -1.235 5
-9.601 -8.01 -1.44 1
-16.013 -13.27 -4.662 8
-15.435 -12.706 -4.634 9
-14.907 -12.194 -4.62 9
-14.416 -11.718 -4.61 36
-13.955 -11.277 -4.607 9
-13.52 -10.86 -4.605 33
-13.119 -10.48 -4.614 11
-11.302 -8.976 -3.764 2
-11.805 -9.326 -4.286 14
-11.41 -8.968 -4.262 44
-11.197 -8.751 -4.343 22
-10.74 -8.351 -4.259 14
0.0 -0.0 3.0 0
-9.478 -9.304 1.191 255
-9.485 -9.203 1.044 255
-9.504 -9.116 0.895 255
-9.451 -8.964 0.765 5
-34.322 -32.191 -5.626 25
0.0 -0.0 3.0 0
-31.492 -28.93 -5.845 4
-29.289 -26.63 -5.653 3
-26.35 -23.728 -5.17 4
-24.463 -21.808 -4.938 28
-23.196 -20.499 -4.869 28
-22.625 -19.812 -5.005 11
-21.646 -18.794 -4.978 6
-20.628 -17.758 -4.906 5
-9.403 -8.031 -0.745 3
-9.404 -7.968 -0.886 5
-9.442 -7.941 -1.046 6
-9.523 -7.953 -1.229 4
-16.722 -13.863 -4.685 7
-16.113 -13.27 -4.662 8
-15.525 -12.7 -4.631 8
-14.992 -12.188 -4.616 8
-14.497 -11.711 -4.605 9
-14.028 -11.267 -4.6 10
-13.592 -10.852 -4.598 28
-13.183 -10.467 -4.605 11
-11.794 -9.311 -4.016 8
-11.273 -8.854 -3.917 1
-11.286 -8.818 -4.141 16
-11.264 -8.752 -4.344 16
-10.788 -8.34 -4.25 15
0.0 -0.0 3.0 0
-9.477 -9.249 1.202 255
-9.496 -9.159 1.053 255
-9.504 -9.06 0.908 255
-9.459 -8.917 0.777 5
-36.4 -33.934 -6.093 16
0.0 -0.0 3.0 0
-31.787 -29.022 -5.873 4
-29.506 -26.662 -5.663 3
-26.553 -23.762 -5.182 4
-24.532 -21.734 -4.91 30
-23.358 -20.513 -4.874 26
-22.762 -19.807 -5.003 11
-21.792 -18.802 -4.981 6
-20.751 -17.751 -4.903 3
-9.393 -7.972 -0.717 4
-9.42 -7.932 -0.869 6
-9.476 -7.92 -1.035 5
-9.581 -7.95 -1.227 2
-16.818 -13.856 -4.68 6
-16.207 -13.265 -4.658 11
-15.608 -12.689 -4.625 9
-15.074 -12.18 -4.611 7
-14.58 -11.706 -4.602 9
-14.102 -11.256 -4.593 15
-13.661 -10.841 -4.591 26
-13.254 -10.461 -4.6 11
-11.39 -8.938 -3.735 12
-12.105 -9.451 -4.384 19
-11.608 -9.016 -4.301 37
-11.306 -8.734 -4.329 31
-10.843 -8.334 -4.245 18
0.0 -0.0 3.0 0
-9.479 -9.197 1.212 255
-9.495 -9.104 1.065 255
-9.509 -9.011 0.92 255
-9.472 -8.876 0.787 5
-9.508 -8.811 0.639 2
-34.602 -31.723 -6.097 6
-32.002 -29.038 -5.878 20
-29.761 -26.727 -5.684 3
-26.756 -23.796 -5.193 3
-24.812 -21.844 -4.95 31
-23.505 -20.513 -4.874 28
-22.893 -19.796 -4.998 11
-21.946 -18.817 -4.987 7
-9.414 -8.003 -0.563 2
-9.403 -7.93 -0.698 5
-9.445 -7.902 -0.854 6
-9.512 -7.9 -1.025 5
-17.543 -14.466 -4.692 6
-16.905 -13.841 -4.672 4
-16.293 -13.251 -4.651 8
-15.695 -12.681 -4.619 7
-15.159 -12.172 -4.606 9
-14.658 -11.696 -4.596 9
-14.183 -11.253 -4.59 21
-13.733 -10.832 -4.584 20
-13.319 -10.448 -4.591 11
-11.44 -8.924 -3.725 12
-11.314 -8.781 -3.86 22
-11.708 -9.04 -4.32 41
-11.347 -8.715 -4.313 48
-10.894 -8.325 -4.237 14
0.0 -0.0 3.0 0
-9.484 -9.148 1.222 255
-9.497 -9.052 1.076 255
-9.511 -8.958 0.932 255
-9.488 -8.837 0.797 5
-9.507 -8.756 0.654 5
0.0 -0.0 3.0 0
-32.276 -29.107 -5.899 17
-30.005 -26.779 -5.701 3
-26.942 -23.813 -5.199 4
-25.025 -21.894 -4.969 28
-23.641 -20.503 -4.87 29
-23.03 -19.79 -4.996 10
-22.093 -18.823 -4.99 6
-9.404 -7.944 -0.537 4
-9.421 -7.896 -0.682 5
-9.476 -7.878 -0.842 6
-9.57 -7.898 -1.024 3
-17.641 -14.456 -4.686 6
-17.007 -13.837 -4.67 3
-16.393 -13.25 -4.65 9
-15.785 -12.674 -4.615 11
-15.244 -12.165 -4.602 9
-14.738 -11.688 -4.591 9
-14.254 -11.24 -4.581 22
-13.808 -10.825 -4.58 11
-13.392 -10.442 -4.587 12
-11.557 -8.961 -3.753 9
-11.556 -8.915 -3.965 10
-11.577 -8.887 -4.196 31
-11.4 -8.705 -4.304 30
-10.954 -8.323 -4.235 14
0.0 -0.0 3.0 0
-9.492 -9.1 1.231 180
-9.507 -9.008 1.085 255
-9.515 -8.909 0.943 255
-9.501 -8.796 0.807 5
-9.509 -8.704 0.668 3
-9.517 -8.619 0.528 4
-9.514 -8.528 0.393 0
-30.247 -26.828 -5.717 3
-27.155 -23.852 -5.213 2
-25.223 -21.931 -4.982 24
-23.818 -20.528 -4.88 26
-23.164 -19.781 -4.992 10
-9.439 -7.991 -0.392 1
-9.407 -7.897 -0.516 5
-9.446 -7.867 -0.668 5
-9.509 -7.856 -0.832 5
-9.641 -7.907 -1.029 0
-17.748 -14.453 -4.685 5
-17.115 -13.838 -4.671 6
-16.482 -13.239 -4.644 8
-15.877 -12.669 -4.612 7
-15.326 -12.155 -4.595 8
-14.822 -11.682 -4.587 8
-14.336 -11.236 -4.579 31
-13.88 -10.815 -4.573 10
-13.457 -10.43 -4.578 18
-11.662 -8.989 -3.774 6
-11.481 -8.805 -3.879 13
-11.811 -9.012 -4.298 30
-11.47 -8.707 -4.306 25
-11.003 -8.312 -4.225 12
0.0 -0.0 3.0 0
-9.516 -9.07 1.237 24
-9.508 -8.956 1.096 255
-9.516 -8.857 0.955 255
-9.528 -8.768 0.814 4
-9.489 -8.634 0.687 3
-9.536 -8.583 0.539 6
-9.515 -8.476 0.408 4
0.0 -0.0 3.0 0
-27.339 -23.864 -5.217 1
-25.255 -21.821 -4.942 31
-23.984 -20.541 -4.885 30
-23.296 -19.769 -4.987 8
-9.413 -7.92 -0.362 4
-9.42 -7.857 -0.498 5
-9.47 -7.837 -0.654 5
-9.56 -7.849 -0.828 4
-18.615 -15.171 -4.73 6
-17.861 -14.454 -4.685 4
-17.209 -13.827 -4.664 7
-16.579 -13.234 -4.641 9
-15.964 -12.659 -4.607 7
-15.414 -12.15 -4.592 7
-14.9 -11.671 -4.579 9
-14.404 -11.219 -4.568 19
-13.952 -10.805 -4.566 11
-13.528 -10.422 -4.572 29
-11.647 -8.924 -3.725 8
-11.537 -8.795 -3.872 13
-11.936 -9.055 -4.332 41
-11.526 -8.699 -4.299 31
-11.061 -8.307 -4.221 14
0.0 -0.0 3.0 0
-9.52 -9.021 1.247 7
-9.51 -8.904 1.107 255
-9.532 -8.819 0.964 108
-9.561 -8.746 0.819 5
-9.476 -8.569 0.704 4
-9.569 -8.561 0.545 5
-9.537 -8.443 0.419 6
-9.521 -8.341 0.29 4
0.0 -0.0 3.0 0
-25.454 -21.856 -4.955 17
-24.103 -20.514 -4.874 29
-9.434 -7.955 -0.214 0
-9.416 -7.873 -0.342 5
-9.441 -7.825 -0.484 6
-9.503 -7.815 -0.644 5
-9.62 -7.848 -0.828 1
-18.734 -15.172 -4.731 7
-17.954 -14.437 -4.677 6
-17.311 -13.822 -4.662 6
-16.668 -13.222 -4.634 9
-16.057 -12.654 -4.603 8
-15.497 -12.139 -4.585 8
-14.986 -11.667 -4.577 9
-14.486 -11.215 -4.564 10
-14.021 -10.793 -4.557 12
-13.599 -10.413 -4.565 33
-11.741 -8.942 -3.738 3
-11.809 -8.949 -3.992 2
-11.899 -8.973 -4.266 41
-11.557 -8.671 -4.276 32
-11.115 -8.3 -4.215 12
-75.413 -71.94 -9.685 20
-9.53 -8.977 1.255 1
-9.51 -8.852 1.119 255
-9.576 -8.807 0.967 6
-9.6 -8.728 0.824 0
-9.47 -8.512 0.719 4
-9.617 -8.551 0.548 0
-9.567 -8.417 0.427 5
-9.536 -8.302 0.302 6
-9.521 -8.208 0.174 4
-9.518 -8.122 0.044 0
-24.255 -20.513 -4.874 31
-9.416 -7.89 -0.188 3
-9.425 -7.83 -0.324 6
-9.471 -7.801 -0.473 5
-9.545 -7.8 -0.637 4
-19.672 -15.948 -4.778 7
-18.853 -15.172 -4.731 6
-18.064 -14.435 -4.675 6
-17.408 -13.812 -4.656 7
-16.754 -13.208 -4.626 8
-16.15 -12.648 -4.6 9
-15.582 -12.131 -4.58 7
-15.07 -11.66 -4.572 9
-14.571 -11.211 -4.562 9
-14.093 -10.783 -4.55 21
-13.67 -10.404 -4.559 33
-11.873 -8.988 -3.773 4
-11.592 -8.732 -3.822 14
-12.1 -9.071 -4.346 20
-11.555 -8.619 -4.232 19
-11.17 -8.292 -4.208 12
0.0 -0.0 3.0 0
-9.554 -8.947 1.261 0
-9.523 -8.811 1.127 76
-9.618 -8.791 0.97 0
-44.603 -40.307 -7.05 4
-9.471 -8.461 0.733 5
-36.482 -32.239 -6.244 13
-9.632 -8.422 0.425 0
-9.569 -8.279 0.31 5
-9.533 -8.167 0.188 6
-9.509 -8.063 0.065 4
-9.465 -7.955 -0.054 0
-9.41 -7.836 -0.166 4
-9.44 -7.794 -0.308 6
-9.503 -7.779 -0.463 5
-9.608 -7.801 -0.638 2
-19.808 -15.957 -4.783 8
-18.971 -15.171 -4.73 7
-18.169 -14.427 -4.671 13
-17.514 -13.809 -4.655 7
-16.858 -13.206 -4.625 7
-16.24 -12.639 -4.594 7
-15.671 -12.123 -4.576 7
-15.142 -11.644 -4.562 9
-14.648 -11.202 -4.556 9
-14.171 -10.777 -4.546 12
-13.743 -10.397 -4.554 29
-11.796 -8.877 -3.689 4
-11.665 -8.735 -3.824 2
-11.842 -8.826 -4.147 45
-11.568 -8.578 -4.198 13
-11.227 -8.287 -4.204 15
0.0 -0.0 3.0 0
0.0 -0.0 3.0 0
-9.564 -8.796 1.13 12
-50.407 -45.802 -7.574 25
-45.025 -40.443 -7.084 4
-9.471 -8.409 0.747 5
-36.853 -32.368 -6.281 6
-33.918 -29.477 -6.012 3
-9.625 -8.277 0.311 0
-9.568 -8.146 0.195 5
-9.527 -8.028 0.078 6
-9.429 -7.875 -0.023 2
-9.427 -7.801 -0.152 5
-9.466 -7.766 -0.296 6
-9.539 -7.759 -0.454 5
-20.856 -16.829 -4.848 5
-19.932 -15.956 -4.782 8
-19.078 -15.161 -4.725 6
-18.285 -14.43 -4.672 12
-17.608 -13.797 -4.648 8
-16.953 -13.198 -4.62 7
-16.328 -12.628 -4.588 8
-15.759 -12.117 -4.572 8
-15.226 -11.637 -4.557 9
-14.721 -11.189 -4.547 10
-14.249 -10.77 -4.541 10
-13.808 -10.383 -4.544 34
-11.847 -8.861 -3.678 9
-11.736 -8.736 -3.825 0
-12.136 -8.992 -4.282 28
-11.612 -8.561 -4.183 12
-11.282 -8.279 -4.197 13
0.0 -0.0 3.0 0
0.0 -0.0 3.0 0
-9.605 -8.782 1.133 1
0.0 -0.0 3.0 0
-45.454 -40.582 -7.118 4
-9.476 -8.363 0.759 5
-37.19 -32.464 -6.309 7
-34.218 -29.554 -6.036 3
-31.747 -27.13 -5.815 3
-9.628 -8.146 0.195 0
-9.553 -8.0 0.088 5
-9.426 -7.823 -0.003 4
-9.439 -7.762 -0.136 6
-9.495 -7.741 -0.286 5
-9.593 -7.753 -0.452 2
-20.998 -16.836 -4.851 6
-20.051 -15.95 -4.779 8
-19.195 -15.157 -4.723 6
-18.399 -14.428 -4.672 13
-17.708 -13.788 -4.643 7
-17.051 -13.191 -4.616 7
-16.424 -12.624 -4.585 7
-15.839 -12.103 -4.563 7
-15.313 -11.631 -4.553 9
-14.807 -11.185 -4.545 9
-14.322 -10.759 -4.533 11
-13.885 -10.378 -4.54 32
-11.951 -8.885 -3.696 1
-12.323 -9.119 -4.124 45
-12.272 -9.039 -4.32 21
-11.67 -8.554 -4.177 11
-11.333 -8.27 -4.189 13
0.0 -0.0 3.0 0
0.0 -0.0 3.0 0
-9.658 -8.778 1.134 0
0.0 -0.0 3.0 0
-45.954 -40.781 -7.168 3
-9.485 -8.32 0.771 5
-9.469 -8.215 0.644 1
-34.527 -29.637 -6.061 12
-32.005 -27.181 -5.832 4
-29.705 -24.977 -5.6 4
-9.439 -7.854 0.141 2
-9.428 -7.776 0.015 5
-9.465 -7.734 -0.125 6
-9.534 -7.724 -0.279 5
-9.664 -7.761 -0.456 0
-21.134 -16.839 -4.852 5
-20.173 -15.946 -4.777 8
-19.314 -15.156 -4.722 6
-18.489 -14.407 -4.66 24
-17.811 -13.781 -4.639 7
-17.143 -13.18 -4.609 8
-16.517 -12.617 -4.581 7
-15.928 -12.095 -4.558 7
-15.395 -11.621 -4.547 9
-14.884 -11.175 -4.537 9
-14.4 -10.752 -4.528 11
-13.962 -10.373 -4.536 29
-13.161 -9.727 -4.33 10
-11.997 -8.825 -3.895 84
-12.327 -9.026 -4.309 21
-11.726 -8.545 -4.17 12
-11.385 -8.26 -4.18 13
0.0 -0.0 3.0 0
0.0 -0.0 3.0 0
0.0 -0.0 3.0 0
0.0 -0.0 3.0 0
-46.397 -40.926 -7.204 4
-9.493 -8.276 0.782 5
-9.46 -8.156 0.661 4
-34.712 -29.612 -6.053 6
-32.29 -27.254 -5.855 5
-29.94 -25.017 -5.614 3
-9.435 -7.802 0.16 4
-9.442 -7.738 0.03 6
-9.491 -7.706 -0.113 5
-9.584 -7.715 -0.275 4
-22.316 -17.809 -4.929 5
-21.256 -16.829 -4.848 5
-20.304 -15.948 -4.778 8
-19.436 -15.155 -4.722 7
-18.595 -14.398 -4.655 27
-17.911 -13.772 -4.634 8
-17.242 -13.173 -4.605 8
-16.608 -12.607 -4.575 7
-16.016 -12.087 -4.553 7
-15.479 -11.612 -4.541 9
-14.96 -11.163 -4.53 10
-14.469 -10.737 -4.518 13
-14.03 -10.361 -4.528 29
-12.464 -9.157 -3.9 17
-12.435 -9.093 -4.104 41
-12.366 -9.002 -4.29 33
-11.779 -8.533 -4.16 17
-11.437 -8.249 -4.171 14
0.0 -0.0 3.0 0
0.0 -0.0 3.0 0
0.0 -0.0 3.0 0
0.0 -0.0 3.0 0
-46.836 -41.064 -7.238 7
-9.504 -8.236 0.793 5
-9.42 -8.073 0.685 4
-35.091 -29.751 -6.096 3
-32.577 -27.325 -5.878 7
-9.455 -7.851 0.297 1
-9.433 -7.752 0.178 5
-9.465 -7.708 0.041 6
-9.526 -7.686 -0.105 5
-9.647 -7.716 -0.275 1
-22.462 -17.812 -4.931 5
-21.407 -16.842 -4.854 5
-20.429 -15.944 -4.776 8
-19.544 -15.143 -4.716 7
-18.709 -14.395 -4.654 26
-18.011 -13.762 -4.628 7
-17.343 -13.167 -4.602 9
-16.701 -12.599 -4.57 7
-16.102 -12.077 -4.547 7
-15.557 -11.599 -4.533 9
-15.04 -11.154 -4.524 10
-14.545 -10.728 -4.512 15
-12.481 -9.161 -3.656 12
-12.481 -9.114 -3.868 44
-12.496 -9.083 -4.097 28
-12.403 -8.975 -4.268 28
-11.84 -8.528 -4.156 15
-11.494 -8.243 -4.166 14
0.0 -0.0 3.0 0
0.0 -0.0 3.0 0
0.0 -0.0 3.0 0
0.0 -0.0 3.0 0
-47.264 -41.189 -7.269 4
-9.497 -8.18 0.808 3
-9.476 -8.071 0.686 4
-35.399 -29.827 -6.119 3
-32.846 -27.379 -5.896 8
-9.43 -7.781 0.321 3
-9.444 -7.713 0.193 5
-9.487 -7.678 0.053 6
-9.57 -7.673 -0.1 4
-23.778 -18.9 -5.023 7
-22.599 -17.808 -4.929 5
-21.541 -16.84 -4.853 5
-20.557 -15.943 -4.776 8
-19.673 -15.146 -4.717 6
-18.817 -14.388 -4.65 22
-18.124 -13.761 -4.628 8
-17.436 -13.154 -4.595 9
-16.795 -12.59 -4.565 7
-16.197 -12.073 -4.544 7
-15.645 -11.593 -4.528 9
-15.123 -11.147 -4.519 10
-14.629 -10.725 -4.51 10
-12.47 -9.097 -3.61 33
-12.5 -9.074 -3.837 26
-12.822 -9.265 -4.238 35
-12.455 -8.96 -4.255 30
-11.893 -8.517 -4.146 15
-11.54 -8.228 -4.153 13
0.0 -0.0 3.0 0
0.0 -0.0 3.0 0
0.0 -0.0 3.0 0
0.0 -0.0 3.0 0
-47.824 -41.425 -7.328 4
-9.43 -8.072 0.837 5
-9.507 -8.048 0.692 4
-35.712 -29.904 -6.143 4
-9.453 -7.831 0.456 0
-9.434 -7.736 0.336 4
-9.463 -7.68 0.205 6
-9.522 -7.658 0.06 5
-9.626 -7.669 -0.099 1
-23.939 -18.908 -5.026 7
-22.748 -17.811 -4.93 5
-21.685 -16.845 -4.855 5
-20.685 -15.941 -4.775 8
-19.799 -15.147 -4.718 6
-18.926 -14.379 -4.646 26
-18.221 -13.747 -4.62 8
-17.534 -13.146 -4.59 8
-16.892 -12.584 -4.561 7
-16.28 -12.059 -4.535 7
-15.726 -11.581 -4.521 9
-15.203 -11.138 -4.512 10
-12.457 -9.077 -3.356 20
-12.48 -9.05 -3.575 35
-12.59 -9.084 -3.846 14
-12.975 -9.32 -4.281 21
-12.515 -8.951 -4.248 17
-11.961 -8.514 -4.144 14
-11.598 -8.222 -4.147 14
0.0 -0.0 3.0 0
0.0 -0.0 3.0 0
0.0 -0.0 3.0 0
0.0 -0.0 3.0 0
0.0 -0.0 3.0 0
-9.458 -8.047 0.844 5
-9.494 -7.987 0.71 4
-36.01 -29.968 -6.162 3
-9.448 -7.778 0.473 3
-9.444 -7.696 0.35 5
-9.489 -7.652 0.215 6
-9.557 -7.637 0.068 4
-24.841 -19.666 -4.945 9
-24.107 -18.92 -5.031 7
-22.903 -17.82 -4.934 5
-21.81 -16.835 -4.85 5
-20.814 -15.939 -4.774 6
-19.913 -15.138 -4.713 6
-19.035 -14.371 -4.641 27
-18.337 -13.748 -4.621 8
-17.633 -13.137 -4.585 9
-16.977 -12.568 -4.552 7
-16.372 -12.052 -4.531 7
-15.81 -11.571 -4.514 7
-12.464 -9.075 -3.121 1
-12.455 -9.02 -3.316 30
-12.547 -9.043 -3.57 18
-13.496 -9.68 -4.295 10
-13.001 -9.283 -4.253 21
-12.593 -8.954 -4.251 16
-12.022 -8.509 -4.14 15
-11.647 -8.209 -4.136 14
0.0 -0.0 3.0 0
0.0 -0.0 3.0 0
0.0 -0.0 3.0 0
0.0 -0.0 3.0 0
0.0 -0.0 3.0 0
-9.462 -8.002 0.856 4
-9.464 -7.913 0.731 4
-9.485 -7.844 0.602 0
-9.437 -7.721 0.491 4
-9.457 -7.659 0.363 6
-9.52 -7.629 0.223 5
-9.616 -7.636 0.069 2
-24.98 -19.651 -4.94 9
-24.275 -18.931 -5.036 8
-23.056 -17.825 -4.936 5
-21.954 -16.838 -4.852 5
-20.943 -15.935 -4.772 7
-20.03 -15.131 -4.71 6
-19.155 -14.37 -4.641 31
-18.438 -13.736 -4.614 8
-17.732 -13.128 -4.579 8
-17.08 -12.565 -4.55 7
-16.465 -12.044 -4.526 7
-15.901 -11.566 -4.511 9
-12.443 -9.004 -3.073 26
-12.497 -8.995 -3.298 24
-12.622 -9.043 -3.57 0
-13.282 -9.469 -4.136 15
-13.083 -9.286 -4.255 22
-12.65 -8.941 -4.241 22
-12.075 -8.497 -4.13 13
-11.704 -8.202 -4.13 13
0.0 -0.0 3.0 0
0.0 -0.0 3.0 0
0.0 -0.0 3.0 0
0.0 -0.0 3.0 0
-49.453 -42.064 -7.488 4
-9.569 -8.042 0.845 4
-9.408 -7.818 0.758 4
-9.455 -7.772 0.624 2
-9.45 -7.683 0.504 5
-9.482 -7.631 0.372 7
-9.552 -7.606 0.232 4
-9.687 -7.644 0.066 0
-25.129 -19.643 -4.936 10
-24.432 -18.932 -5.036 8
-23.212 -17.832 -4.939 5
-22.092 -16.836 -4.851 5
-21.075 -15.934 -4.772 7
-20.154 -15.127 -4.708 5
-19.271 -14.365 -4.638 30
-18.548 -13.731 -4.611 7
-17.837 -13.123 -4.576 8
-17.174 -12.556 -4.544 7
-16.557 -12.036 -4.521 7
-12.462 -9.008 -2.85 5
-12.452 -8.955 -3.04 27
-12.569 -8.992 -3.296 1
-13.04 -9.286 -3.747 10
-13.263 -9.399 -4.083 17
-13.133 -9.266 -4.239 21
-12.705 -8.927 -4.229 19
-12.125 -8.482 -4.118 31
-11.759 -8.193 -4.122 13
0.0 -0.0 3.0 0
0.0 -0.0 3.0 0
-64.768 -56.13 -8.931 7
0.0 -0.0 3.0 0
0.0 -0.0 3.0 0
-9.615 -8.032 0.848 5
-9.478 -7.828 0.755 6
-9.447 -7.717 0.641 4
-9.459 -7.642 0.517 6
-9.507 -7.603 0.382 5
-9.601 -7.598 0.235 3
-26.296 -20.618 -4.915 17
-23.72 -18.424 -4.444 255
-23.603 -18.174 -4.714 1
-23.362 -17.833 -4.94 5
-22.242 -16.843 -4.854 5
-21.207 -15.933 -4.771 7
-20.278 -15.124 -4.706 6
-19.386 -14.359 -4.635 31
-18.649 -13.719 -4.604 5
-17.939 -13.114 -4.571 9
-17.262 -12.541 -4.535 8
-16.643 -12.024 -4.514 7
-12.44 -8.937 -2.804 35
-12.497 -8.932 -3.025 19
-15.016 -10.677 -4.476 12
-13.078 -9.256 -3.725 10
-13.703 -9.653 -4.274 17
-13.129 -9.209 -4.195 22
-12.768 -8.919 -4.223 19
-12.172 -8.466 -4.103 19
-11.817 -8.186 -4.116 13
0.0 -0.0 3.0 0
0.0 -0.0 3.0 0
-65.687 -56.589 -9.028 8
0.0 -0.0 3.0 0
0.0 -0.0 3.0 0
-9.619 -7.986 0.86 5
-9.479 -7.78 0.769 3
-9.447 -7.669 0.655 5
-9.481 -7.612 0.527 7
-9.541 -7.583 0.389 4
-9.678 -7.611 0.23 0
-26.536 -20.676 -4.937 31
-23.764 -18.341 -4.41 30
-23.502 -17.981 -4.633 4
-23.516 -17.835 -4.941 5
-22.39 -16.846 -4.856 6
-21.343 -15.932 -4.77 7
-20.401 -15.12 -4.704 6
-19.501 -14.354 -4.632 31
-18.753 -13.708 -4.598 6
-18.038 -13.104 -4.565 9
-17.365 -12.537 -4.533 7
-12.437 -8.929 -2.58 3
-12.445 -8.885 -2.77 27
-15.61 -11.088 -4.479 10
-15.092 -10.666 -4.468 12
-13.139 -9.244 -3.716 7
-13.7 -9.592 -4.228 26
-13.256 -9.243 -4.221 37
-12.826 -8.906 -4.212 19
-12.248 -8.47 -4.107 13
-11.874 -8.179 -4.11 14
0.0 -0.0 3.0 0
0.0 -0.0 3.0 0
-66.604 -57.038 -9.124 9
0.0 -0.0 3.0 0
0.0 -0.0 3.0 0
-9.614 -7.933 0.874 5
-9.461 -7.717 0.787 4
-9.462 -7.634 0.666 5
-9.506 -7.584 0.536 5
-9.582 -7.567 0.394 4
-28.293 -22.107 -5.046 20
-26.732 -20.696 -4.945 17
-23.669 -18.152 -4.334 0
-23.501 -17.866 -4.584 1
-23.676 -17.843 -4.944 5
-22.522 -16.838 -4.852 6
-21.469 -15.925 -4.767 7
-20.525 -15.115 -4.701 6
-19.635 -14.36 -4.635 23
-18.857 -13.697 -4.592 6
-18.134 -13.091 -4.558 9
-17.46 -12.526 -4.526 8
-12.436 -8.873 -2.545 19
-12.49 -8.862 -2.755 17
-15.687 -11.075 -4.47 7
-15.161 -10.649 -4.457 13
-13.11 -9.167 -3.66 15
-13.832 -9.627 -4.255 18
-13.323 -9.235 -4.215 34
-12.883 -8.894 -4.202 23
-12.304 -8.459 -4.098 12
-11.926 -8.168 -4.1 13
0.0 -0.0 3.0 0
0.0 -0.0 3.0 0
0.0 -0.0 3.0 0
0.0 -0.0 3.0 0
0.0 -0.0 3.0 0
-9.575 -7.852 0.896 2
-9.457 -7.667 0.801 5
-9.478 -7.598 0.677 7
-9.539 -7.564 0.542 5
-9.646 -7.57 0.394 1
-28.631 -22.23 -5.091 20
-27.02 -20.786 -4.979 29
-23.609 -17.991 -4.269 0
-23.485 -17.74 -4.53 1
-23.827 -17.842 -4.944 5
-22.679 -16.847 -4.856 6
-21.602 -15.921 -4.765 7
-20.647 -15.107 -4.697 6
-19.754 -14.355 -4.633 13
-18.971 -13.692 -4.59 7
-18.243 -13.086 -4.555 8
-12.437 -8.867 -2.328 1
-12.441 -8.821 -2.512 28
-16.328 -11.513 -4.477 7
-15.752 -11.052 -4.454 15
-15.237 -10.637 -4.448 20
-13.353 -9.281 -3.743 7
-13.239 -9.159 -3.902 3
-13.355 -9.202 -4.189 25
-12.925 -8.871 -4.184 32
-12.363 -8.449 -4.09 16
-11.981 -8.158 -4.092 13
0.0 -0.0 3.0 0
0.0 -0.0 3.0 0
0.0 -0.0 3.0 0
0.0 -0.0 3.0 0
0.0 -0.0 3.0 0
-9.461 -7.712 0.934 4
-9.463 -7.625 0.814 5
-9.502 -7.571 0.685 7
-9.579 -7.548 0.548 5
-32.621 -25.438 -5.759 14
-28.705 -22.146 -5.061 18
-27.167 -20.767 -4.972 32
0.0 -0.0 3.0 0
-23.52 -17.654 -4.494 1
-23.993 -17.852 -4.948 5
-22.812 -16.837 -4.851 6
-21.742 -15.921 -4.765 7
-20.777 -15.105 -4.696 6
-19.873 -14.349 -4.63 4
-19.081 -13.684 -4.585 7
-18.345 -13.077 -4.55 8
-12.429 -8.805 -2.291 22
-12.485 -8.797 -2.497 21
-16.416 -11.503 -4.47 7
-15.854 -11.055 -4.457 10
-15.319 -10.629 -4.443 30
-13.299 -9.187 -3.675 11
-13.228 -9.096 -3.854 12
-13.006 -8.908 -3.96 21
-12.977 -8.854 -4.17 43
-12.425 -8.442 -4.084 14
-12.038 -8.15 -4.085 13
0.0 -0.0 3.0 0
-70.42 -60.014 -8.665 44
-63.048 -53.036 -8.273 45
0.0 -0.0 3.0 0
0.0 -0.0 3.0 0
-9.455 -7.66 0.948 5
-9.481 -7.592 0.823 7
-9.532 -7.548 0.692 5
-9.632 -7.542 0.549 2
-32.868 -25.469 -5.77 14
-29.205 -22.391 -5.149 20
-27.193 -20.655 -4.929 30
-23.556 -17.722 -4.16 0
-23.559 -17.569 -4.458 1
-24.151 -17.854 -4.949 5
-22.97 -16.846 -4.855 6
-21.869 -15.911 -4.76 7
-20.908 -15.103 -4.696 6
-19.995 -14.346 -4.628 5
-19.186 -13.672 -4.578 6
-12.46 -8.825 -2.095 0
-12.448 -8.763 -2.266 28
-12.597 -8.82 -2.511 2
-16.501 -11.491 -4.462 7
-15.931 -11.04 -4.447 10
-15.398 -10.619 -4.435 34
-13.233 -9.086 -3.601 10
-13.56 -9.268 -3.984 22
-13.067 -8.896 -3.95 25
-13.019 -8.83 -4.15 29
-12.477 -8.429 -4.073 12
-12.099 -8.144 -4.079 13
0.0 -0.0 3.0 0
0.0 -0.0 3.0 0
-63.107 -52.77 -8.217 60
0.0 -0.0 3.0 0
-9.479 -7.727 1.073 2
-9.467 -7.622 0.958 5
-9.499 -7.56 0.832 9
-9.52 -7.491 0.71 3
-9.693 -7.542 0.549 0
-33.14 -25.519 -5.787 12
-29.391 -22.389 -5.149 21
-27.215 -20.54 -4.885 28
-23.604 -17.645 -4.129 1
0.0 -0.0 3.0 0
-24.321 -17.865 -4.954 5
-23.115 -16.844 -4.854 6
-22.002 -15.906 -4.758 7
-21.036 -15.098 -4.693 6
-20.111 -14.337 -4.623 5
-19.303 -13.668 -4.576 6
-12.451 -8.762 -2.059 19
-12.489 -8.736 -2.249 20
-17.197 -11.965 -4.477 7
-16.593 -11.483 -4.457 7
-16.021 -11.034 -4.442 10
-15.477 -10.607 -4.427 31
-13.282 -9.064 -3.585 10
-13.402 -9.106 -3.862 12
-13.112 -8.874 -3.933 23
-13.079 -8.819 -4.141 37
-12.542 -8.423 -4.068 13
-12.151 -8.132 -4.069 19
0.0 -0.0 3.0 0
0.0 -0.0 3.0 0
0.0 -0.0 3.0 0
0.0 -0.0 3.0 0
-9.457 -7.662 1.09 5
-9.478 -7.584 0.968 8
-9.529 -7.537 0.839 6
-9.509 -7.437 0.726 4
-36.282 -28.054 -6.115 6
-33.398 -25.555 -5.799 12
-29.867 -22.608 -5.229 22
-27.305 -20.478 -4.861 17
-24.344 -18.081 -4.305 0
0.0 -0.0 3.0 0
-24.467 -17.857 -4.95 4
-23.252 -16.835 -4.85 6
-22.136 -15.9 -4.755 6
-21.167 -15.095 -4.691 6
-20.234 -14.332 -4.62 6
-19.402 -13.65 -4.566 6
-12.454 -8.71 -2.029 22
-12.533 -8.712 -2.235 6
-17.284 -11.95 -4.467 8
-16.684 -11.474 -4.451 7
-16.102 -11.021 -4.434 10
-15.495 -10.554 -4.39 5
-13.257 -8.992 -3.533 12
-13.516 -9.127 -3.878 19
-13.133 -8.835 -3.903 27
-13.14 -8.808 -4.132 30
-12.595 -8.41 -4.057 16
-12.209 -8.123 -4.061 14
0.0 -0.0 3.0 0
0.0 -0.0 3.0 0
-66.541 -54.98 -8.686 9
0.0 -0.0 3.0 0
-9.465 -7.622 1.1 6
-9.499 -7.554 0.976 13
-9.562 -7.516 0.845 5
-9.502 -7.384 0.742 4
-36.612 -28.132 -6.141 8
-33.659 -25.593 -5.812 10
-30.061 -22.61 -5.229 21
-27.596 -20.563 -4.893 9
-24.402 -18.008 -4.276 1
0.0 -0.0 3.0 0
-23.62 -17.127 -4.626 1
-23.41 -16.84 -4.853 5
-22.279 -15.9 -4.755 6
-21.292 -15.087 -4.687 6
-20.347 -14.32 -4.614 6
-12.458 -8.709 -1.827 0
-12.495 -8.682 -2.013 17
-12.574 -8.685 -2.219 4
-17.374 -11.937 -4.459 10
-16.769 -11.46 -4.442 7
-15.601 -10.612 -4.158 7
-15.506 -10.498 -4.351 2
-13.386 -9.024 -3.556 11
-14.079 -9.451 -4.122 22
-13.209 -8.833 -3.901 24
-13.197 -8.794 -4.121 50
-12.66 -8.404 -4.052 15
-12.266 -8.115 -4.055 13
0.0 -0.0 3.0 0
0.0 -0.0 3.0 0
0.0 -0.0 3.0 0
-9.545 -7.737 1.214 0
-9.473 -7.582 1.109 7
-9.522 -7.526 0.983 7
-9.608 -7.505 0.848 4
-9.504 -7.339 0.756 5
-36.912 -28.185 -6.158 12
-33.943 -25.644 -5.83 8
-30.198 -22.568 -5.214 19
-28.112 -20.814 -4.99 8
0.0 -0.0 3.0 0
-23.595 -17.15 -4.28 1
-23.678 -17.06 -4.596 1
-23.556 -16.836 -4.851 6
-22.422 -15.9 -4.755 7
-21.43 -15.087 -4.687 6
-20.476 -14.319 -4.613 5
-12.391 -8.607 -1.771 22
-12.642 -8.729 -2.039 9
-18.147 -12.456 -4.484 7
-17.467 -11.925 -4.452 12
-16.861 -11.451 -4.436 9
-15.544 -10.508 -4.087 25
-15.535 -10.452 -4.319 2
-13.478 -9.031 -3.561 11
-13.97 -9.321 -4.024 24
-13.229 -8.794 -3.871 21
-13.248 -8.776 -4.107 28
-12.716 -8.392 -4.042 13
-12.324 -8.106 -4.047 13
0.0 -0.0 3.0 0
0.0 -0.0 3.0 0
-67.178 -54.847 -8.658 44
-9.526 -7.674 1.228 1
-9.493 -7.552 1.117 15
-9.555 -7.506 0.989 5
-9.66 -7.498 0.85 2
-9.531 -7.314 0.764 5
-37.2 -28.226 -6.171 18
-34.208 -25.682 -5.843 6
-30.454 -22.616 -5.231 21
-28.43 -20.915 -5.028 10
-23.828 -17.36 -4.014 0
-23.629 -17.063 -4.243 6
-23.756 -17.005 -4.571 1
-23.709 -16.836 -4.851 6
-22.556 -15.892 -4.751 7
-21.549 -15.073 -4.68 6
-20.596 -14.31 -4.609 5
-12.463 -8.601 -1.768 27
-12.613 -8.654 -1.996 0
-18.245 -12.444 -4.477 7
-17.557 -11.912 -4.443 17
-16.952 -11.441 -4.43 8
-15.535 -10.437 -4.04 44
-15.564 -10.408 -4.288 2
-13.705 -9.128 -3.632 8
-13.161 -8.729 -3.578 7
-13.302 -8.79 -3.868 16
-13.309 -8.764 -4.097 37
-12.769 -8.378 -4.03 23
-12.379 -8.096 -4.038 14
0.0 -0.0 3.0 0
0.0 -0.0 3.0 0
0.0 -0.0 3.0 0
-9.53 -7.632 1.238 1
-9.513 -7.522 1.125 9
-9.594 -7.49 0.993 5
-44.956 -34.682 -6.945 4
-9.585 -7.31 0.765 4
-37.486 -28.263 -6.183 23
-34.487 -25.726 -5.858 4
-30.683 -22.64 -5.24 30
-28.711 -20.986 -5.056 14
-23.829 -17.25 -3.969 0
-23.69 -16.997 -4.215 6
-23.855 -16.966 -4.554 0
-23.862 -16.836 -4.851 6
-22.697 -15.887 -4.749 8
-21.68 -15.068 -4.678 6
-20.716 -14.301 -4.604 5
-12.484 -8.561 -1.746 28
-19.072 -13.001 -4.506 7
-18.34 -12.429 -4.468 7
-17.656 -11.904 -4.438 27
-15.591 -10.457 -3.791 11
-15.53 -10.369 -3.994 46
-15.606 -10.372 -4.262 1
-13.714 -9.078 -3.596 4
-13.209 -8.707 -3.562 0
-13.504 -8.87 -3.93 41
-13.351 -8.74 -4.077 45
-12.843 -8.378 -4.03 12
-12.44 -8.089 -4.031 14
0.0 -0.0 3.0 0
0.0 -0.0 3.0 0
0.0 -0.0 3.0 0
-9.544 -7.596 1.246 2
-9.546 -7.501 1.13 6
-9.642 -7.482 0.995 3
-45.391 -34.8 -6.979 3
-9.756 -7.394 0.74 10
-37.775 -28.301 -6.196 25
-34.836 -25.821 -5.891 8
-30.913 -22.664 -5.249 24
-28.847 -20.951 -5.042 17
-23.91 -17.196 -3.948 0
-23.77 -16.945 -4.193 0
-24.008 -16.964 -4.553 2
-24.025 -16.841 -4.853 6
-22.835 -15.88 -4.745 7
-21.809 -15.059 -4.673 6
-12.477 -8.559 -1.551 0
-12.559 -8.558 -1.744 16
-19.182 -12.993 -4.501 7
-18.445 -12.421 -4.463 7
-17.753 -11.894 -4.432 31
-15.548 -10.363 -3.73 26
-15.559 -10.323 -3.963 47
-15.663 -10.345 -4.244 1
-13.636 -8.971 -3.518 6
-13.993 -9.169 -3.909 17
-13.792 -9.006 -4.036 39
-13.423 -8.736 -4.074 39
-12.905 -8.369 -4.022 15
-12.494 -8.078 -4.022 14
0.0 -0.0 3.0 0
0.0 -0.0 3.0 0
0.0 -0.0 3.0 0
-9.564 -7.566 1.253 4
-9.578 -7.481 1.135 5
-9.7 -7.48 0.996 0
-45.837 -34.923 -7.014 4
-9.723 -7.323 0.761 1
-38.068 -28.341 -6.208 23
-35.094 -25.847 -5.9 3
-30.934 -22.534 -5.202 24
-29.047 -20.96 -5.046 18
-23.926 -17.098 -3.908 1
0.0 -0.0 3.0 0
-24.162 -16.962 -4.552 3
-24.184 -16.843 -4.854 5
-22.976 -15.875 -4.743 7
-21.945 -15.055 -4.671 6
-12.482 -8.507 -1.523 23
-20.114 -13.617 -4.548 6
-19.276 -12.973 -4.49 7
-18.543 -12.408 -4.455 7
-15.612 -10.393 -3.494 1
-15.542 -10.293 -3.685 46
-15.584 -10.276 -3.931 48
-15.71 -10.312 -4.221 1
-14.027 -9.172 -3.664 12
-13.491 -8.786 -3.621 24
-13.986 -9.078 -4.093 38
-13.48 -8.721 -4.062 38
-12.958 -8.354 -4.01 13
-12.555 -8.07 -4.016 14
0.0 -0.0 3.0 0
0.0 -0.0 3.0 0
-9.591 -7.645 1.375 0
-9.609 -7.556 1.255 1
-9.626 -7.472 1.137 4
-51.575 -39.525 -7.591 5
-46.305 -35.06 -7.053 3
-41.852 -31.321 -6.576 11
-38.374 -28.388 -6.224 18
-31.515 -23.063 -4.941 3
-31.005 -22.442 -5.168 14
-29.142 -20.894 -5.02 18
-24.003 -17.042 -3.885 0
0.0 -0.0 3.0 0
-24.299 -16.949 -4.546 3
-24.341 -16.842 -4.854 6
-23.117 -15.869 -4.74 7
-22.067 -15.041 -4.664 6
-12.484 -8.453 -1.494 22
-20.239 -13.614 -4.546 6
-19.389 -12.965 -4.486 8
-18.638 -12.392 -4.446 7
-15.559 -10.292 -3.431 20
-15.545 -10.231 -3.644 46
-15.628 -10.241 -3.907 46
-15.839 -10.333 -4.235 0
-14.027 -9.116 -3.623 0
-13.474 -8.722 -3.573 9
-14.048 -9.063 -4.081 19
-13.528 -8.7 -4.045 43
-13.023 -8.347 -4.004 12
-12.604 -8.055 -4.002 13
0.0 -0.0 3.0 0
0.0 -0.0 3.0 0
-9.598 -7.606 1.383 4
-9.67 -7.558 1.255 2
-9.687 -7.474 1.137 2
-52.122 -39.697 -7.637 4
-46.784 -35.201 -7.094 3
-42.325 -31.475 -6.623 5
-38.684 -28.435 -6.239 12
-31.343 -22.792 -4.848 6
-31.127 -22.385 -5.147 14
-29.256 -20.84 -5.0 14
0.0 -0.0 3.0 0
0.0 -0.0 3.0 0
-24.453 -16.945 -4.544 5
-24.489 -16.834 -4.85 5
-23.255 -15.86 -4.736 7
-22.209 -15.04 -4.663 6
-12.514 -8.419 -1.476 19
-20.37 -13.613 -4.546 3
-19.492 -12.951 -4.478 7
-18.753 -12.388 -4.444 7
-15.533 -10.209 -3.38 35
-15.56 -10.176 -3.609 48
-15.684 -10.213 -3.889 39
-14.484 -9.391 -3.575 5
-14.073 -9.09 -3.604 1
-14.07 -9.053 -3.822 33
-14.119 -9.055 -4.074 19
-13.555 -8.666 -4.018 19
-13.082 -8.336 -3.995 13
-12.668 -8.05 -3.998 14
0.0 -0.0 3.0 0
-9.597 -7.664 1.51 0
-9.621 -7.577 1.389 5
0.0 -0.0 3.0 0
0.0 -0.0 3.0 0
-52.681 -39.874 -7.684 5
-47.255 -35.334 -7.132 3
-42.697 -31.552 -6.647 5
-31.607 -23.086 -4.501 2
-31.255 -22.582 -4.776 10
-31.156 -22.262 -5.103 13
-29.52 -20.892 -5.02 16
0.0 -0.0 3.0 0
0.0 -0.0 3.0 0
-24.581 -16.923 -4.535 1
-24.649 -16.834 -4.85 6
-23.409 -15.861 -4.736 7
-12.491 -8.404 -1.282 1
-12.585 -8.411 -1.472 3
-20.485 -13.602 -4.54 3
-19.608 -12.945 -4.474 8
-15.622 -10.254 -3.161 9
-15.535 -10.146 -3.34 50
-15.588 -10.13 -3.579 48
-15.756 -10.196 -3.878 26
-14.487 -9.335 -3.536 8
-15.303 -9.824 -4.138 10
0.0 -0.0 3.0 0
-14.184 -9.042 -4.064 47
-13.587 -8.635 -3.993 11
-13.144 -8.327 -3.987 12
-12.723 -8.038 -3.987 13
0.0 -0.0 3.0 0
-9.601 -7.622 1.518 1
-9.653 -7.557 1.394 0
0.0 -0.0 3.0 0
0.0 -0.0 3.0 0
-53.206 -40.022 -7.724 11
-47.683 -35.431 -7.16 4
-43.195 -31.718 -6.697 9
-31.395 -22.785 -4.403 6
-31.198 -22.397 -4.712 12
-31.137 -22.105 -5.045 14
-29.782 -20.941 -5.039 15
0.0 -0.0 3.0 0
0.0 -0.0 3.0 0
-24.707 -16.899 -4.524 0
-24.807 -16.831 -4.848 6
-23.545 -15.849 -4.73 7
-12.505 -8.358 -1.259 26
-21.477 -14.261 -4.583 6
-20.598 -13.589 -4.532 4
-19.715 -12.932 -4.466 9
-15.554 -10.144 -3.095 20
-15.53 -10.079 -3.298 45
-15.621 -10.088 -3.552 47
-15.86 -10.199 -3.879 1
-14.796 -9.474 -3.634 0
-14.95 -9.539 -3.93 5
-14.797 -9.406 -4.088 32
-14.192 -8.993 -4.026 42
-13.644 -8.62 -3.981 11
-13.209 -8.319 -3.981 16
-12.774 -8.024 -3.976 21
0.0 -0.0 3.0 0
-9.605 -7.58 1.527 62
-11.644 -9.061 1.074 6
0.0 -0.0 3.0 0
0.0 -0.0 3.0 0
-53.71 -40.151 -7.758 6
-12.819 -9.465 0.286 3
-31.714 -23.141 -4.075 1
-31.293 -22.566 -4.332 5
-31.16 -22.226 -4.653 13
-31.143 -21.967 -4.995 15
-29.643 -20.709 -4.949 6
0.0 -0.0 3.0 0
0.0 -0.0 3.0 0
0.0 -0.0 3.0 0
-24.964 -16.827 -4.847 5
-23.709 -15.856 -4.734 12
-12.531 -8.321 -1.24 34
-21.604 -14.252 -4.578 6
-20.704 -13.57 -4.522 4
-19.832 -12.924 -4.462 8
-15.526 -10.061 -3.045 37
-15.535 -10.018 -3.26 46
-15.671 -10.056 -3.531 43
-17.044 -10.892 -4.347 8
-14.704 -9.357 -3.552 8
-14.526 -9.211 -3.692 3
-14.223 -8.987 -3.772 40
-14.301 -9.007 -4.037 35
-13.71 -8.611 -3.973 11
-13.271 -8.31 -3.973 14
-12.835 -8.016 -3.968 14
-9.606 -7.648 1.652 0
-9.634 -7.557 1.531 2
-11.712 -9.06 1.074 5
0.0 -0.0 3.0 0
0.0 -0.0 3.0 0
-54.364 -40.388 -7.822 5
-12.833 -9.416 0.3 0
-31.453 -22.805 -3.972 14
-31.213 -22.365 -4.267 16
-31.152 -22.078 -4.602 14
-31.161 -21.837 -4.948 15
-30.277 -21.014 -5.067 20
0.0 -0.0 3.0 0
0.0 -0.0 3.0 0
0.0 -0.0 3.0 0
-25.129 -16.827 -4.847 6
-23.864 -15.855 -4.733 13
-12.57 -8.293 -1.225 14
-21.731 -14.243 -4.573 5
-20.826 -13.561 -4.517 5
-19.949 -12.917 -4.457 8
-15.531 -10.0 -3.008 54
-15.542 -9.959 -3.223 44
-15.739 -10.036 -3.518 35
-17.125 -10.876 -4.336 8
-14.675 -9.281 -3.499 23
-14.408 -9.08 -3.597 19
-14.168 -8.898 -3.705 25
-14.347 -8.983 -4.018 36
-13.777 -8.601 -3.965 9
-13.327 -8.296 -3.961 24
-12.896 -8.008 -3.961 14
-9.609 -7.606 1.659 9
-9.697 -7.562 1.53 0
0.0 -0.0 3.0 0
0.0 -0.0 3.0 0
0.0 -0.0 3.0 0
-54.817 -40.471 -7.844 10
-12.802 -9.335 0.323 1
-31.328 -22.571 -3.901 24
-31.176 -22.196 -4.212 18
-12.447 -8.765 -0.018 1
-31.172 -21.704 -4.9 17
-30.576 -21.083 -5.093 28
0.0 -0.0 3.0 0
0.0 -0.0 3.0 0
0.0 -0.0 3.0 0
-25.284 -16.82 -4.843 5
-12.545 -8.28 -1.038 10
-12.641 -8.285 -1.221 1
-21.869 -14.239 -4.571 5
-20.932 -13.542 -4.506 7
-20.063 -12.906 -4.452 8
-15.544 -9.944 -2.975 59
-15.562 -9.908 -3.191 45
-15.843 -10.038 -3.519 12
-17.216 -10.864 -4.328 10
-14.779 -9.289 -3.504 17
-14.464 -9.059 -3.582 19
-14.176 -8.849 -3.668 21
-14.402 -8.963 -4.003 48
-13.834 -8.586 -3.953 9
-13.386 -8.284 -3.951 18
-12.96 -8.002 -3.956 15
-9.625 -7.574 1.665 3
-11.574 -8.972 1.256 9
-11.694 -8.937 1.1 4
0.0 -0.0 3.0 0
-56.715 -42.169 -7.514 4
-54.965 -40.328 -7.806 23
-12.742 -9.232 0.353 6
-31.253 -22.374 -3.84 12
-31.145 -22.032 -4.159 255
-12.46 -8.717 -0.002 5
-31.205 -21.586 -4.857 11
-30.756 -21.069 -5.088 27
0.0 -0.0 3.0 0
0.0 -0.0 3.0 0
0.0 -0.0 3.0 0
-25.455 -16.823 -4.845 5
-12.545 -8.226 -1.012 22
-23.02 -14.989 -4.637 5
-21.996 -14.229 -4.566 6
-21.054 -13.532 -4.501 6
-20.18 -12.897 -4.446 8
-15.557 -9.888 -2.942 59
-15.579 -9.855 -3.158 56
-17.949 -11.301 -4.339 8
-17.306 -10.853 -4.32 10
-14.819 -9.256 -3.481 25
-14.396 -8.962 -3.511 5
-14.648 -9.087 -3.848 20
-14.47 -8.951 -3.994 41
-13.906 -8.58 -3.948 13
-13.448 -8.274 -3.943 19
-13.021 -7.992 -3.948 13
-9.675 -7.568 1.666 0
-11.578 -8.923 1.266 0
-11.635 -8.839 1.121 5
-12.974 -9.717 0.757 4
-57.595 -42.56 -7.611 8
-12.687 -9.251 0.521 6
-12.828 -9.237 0.351 2
-31.202 -22.196 -3.786 9
-31.139 -21.887 -4.111 255
-12.485 -8.678 0.012 7
-31.137 -21.399 -4.789 12
-30.871 -21.011 -5.065 10
0.0 -0.0 3.0 0
0.0 -0.0 3.0 0
0.0 -0.0 3.0 0
-25.626 -16.825 -4.845 6
-12.58 -8.194 -0.997 18
-23.151 -14.975 -4.63 5
-22.128 -14.22 -4.561 5
-21.17 -13.518 -4.493 6
-20.293 -12.886 -4.44 8
-15.587 -9.844 -2.915 60
-15.602 -9.807 -3.128 60
-18.054 -11.295 -4.335 7
-17.397 -10.841 -4.313 10
-14.892 -9.244 -3.472 21
-14.724 -9.109 -3.618 15
-14.685 -9.054 -3.823 33
-14.547 -8.945 -3.989 37
-13.979 -8.573 -3.943 12
-13.522 -8.271 -3.94 13
-13.079 -7.982 -3.939 13
-32.334 -25.145 -1.434 25
-11.737 -8.992 1.252 4
-11.693 -8.83 1.123 7
-13.007 -9.682 0.765 1
-58.418 -42.902 -7.697 6
-11.615 -8.416 0.745 3
-12.899 -9.229 0.354 2
-31.17 -22.032 -3.736 37
-31.151 -21.756 -4.069 255
-12.578 -8.687 0.009 0
-12.604 -8.606 -0.132 8
-30.861 -20.866 -5.01 10
0.0 -0.0 3.0 0
0.0 -0.0 3.0 0
0.0 -0.0 3.0 0
-12.549 -8.184 -0.816 8
-12.612 -8.161 -0.98 1
-23.301 -14.972 -4.629 5
-22.262 -14.212 -4.557 6
-21.286 -13.504 -4.485 6
-20.404 -12.872 -4.432 8
-15.619 -9.799 -2.888 59
-15.615 -9.751 -3.093 61
-18.159 -11.288 -4.331 4
-17.475 -10.821 -4.299 11
-14.964 -9.23 -3.463 29
-14.783 -9.09 -3.604 15
-14.709 -9.014 -3.793 19
-14.542 -8.888 -3.944 21
-14.042 -8.561 -3.933 10
-13.575 -8.255 -3.927 12
-13.134 -7.969 -3.928 14
-32.29 -24.964 -1.402 27
-93.795 -71.424 -10.883 31
-11.58 -8.692 1.153 15
0.0 -0.0 3.0 0
-13.068 -9.537 0.622 0
-11.648 -8.387 0.753 1
-31.237 -22.208 -3.368 4
-13.415 -9.422 0.12 1
-31.16 -21.622 -4.025 255
-31.089 -21.331 -4.345 8
-12.701 -8.615 -0.136 23
-31.089 -20.882 -5.016 5
0.0 -0.0 3.0 0
-12.61 -8.31 -0.527 10
0.0 -0.0 3.0 0
-12.564 -8.14 -0.796 21
-24.626 -15.829 -4.721 19
-23.435 -14.959 -4.622 5
-22.394 -14.202 -4.551 6
-21.416 -13.496 -4.481 6
-20.518 -12.86 -4.424 9
-15.67 -9.769 -2.87 47
-15.64 -9.705 -3.064 59
-18.258 -11.278 -4.324 4
-17.553 -10.801 -4.286 22
-15.011 -9.201 -3.443 24
-14.858 -9.079 -3.596 13
-14.449 -8.801 -3.632 60
-14.648 -8.899 -3.953 38
-14.109 -8.551 -3.924 10
-13.637 -8.244 -3.918 15
-13.198 -7.962 -3.921 13
-32.249 -24.787 -1.371 26
-32.145 -24.333 -1.73 25
-11.666 -8.703 1.15 0
0.0 -0.0 3.0 0
-13.065 -9.476 0.637 10
-12.638 -9.043 0.577 2
-31.191 -22.035 -3.318 2
-13.997 -9.768 0.014 0
-31.211 -21.517 -3.991 89
-13.131 -8.952 -0.082 5
-12.703 -8.561 -0.116 29
-12.773 -8.523 -0.272 0
-30.023 -19.834 -5.013 13
-12.645 -8.278 -0.514 9
0.0 -0.0 3.0 0
-12.592 -8.104 -0.779 26
-24.786 -15.827 -4.719 21
-23.575 -14.95 -4.617 4
-22.532 -14.196 -4.548 6
-21.535 -13.482 -4.473 6
-20.639 -12.851 -4.42 8
-15.761 -9.761 -2.865 39
-15.65 -9.648 -3.029 49
-18.358 -11.267 -4.317 4
-17.647 -10.79 -4.278 12
-15.144 -9.225 -3.459 23
-14.824 -9.003 -3.541 15
-14.727 -8.915 -3.718 22
-14.716 -8.886 -3.943 47
-14.172 -8.538 -3.914 10
-13.705 -8.237 -3.912 12
-13.252 -7.949 -3.91 14
-32.207 -24.609 -1.339 26
-32.102 -24.155 -1.695 24
-11.81 -8.757 1.139 2
0.0 -0.0 3.0 0
-13.068 -9.42 0.651 14
-11.919 -8.475 0.729 15
-12.925 -9.073 0.398 11
-13.944 -9.668 0.044 2
-31.221 -21.386 -3.949 18
-13.17 -8.919 -0.071 8
-12.764 -8.546 -0.11 32
-31.593 -20.943 -5.039 20
-30.171 -19.801 -5.0 28
-12.715 -8.268 -0.51 10
-12.577 -8.106 -0.609 7
-12.633 -8.077 -0.766 9
-24.945 -15.823 -4.718 22
-23.722 -14.943 -4.614 5
-22.657 -14.181 -4.54 5
-21.668 -13.476 -4.47 6
-20.74 -12.83 -4.407 8
-15.867 -9.764 -2.867 33
-15.672 -9.599 -2.998 50
-18.437 -11.243 -4.301 4
-17.729 -10.771 -4.265 15
-15.174 -9.185 -3.432 23
-14.71 -8.878 -3.45 16
-14.875 -8.95 -3.744 19
-14.857 -8.918 -3.967 33
-14.232 -8.524 -3.903 10
-13.768 -8.226 -3.902 13
-13.317 -7.941 -3.903 14
-32.164 -24.432 -1.308 24
-32.052 -23.974 -1.66 24
0.0 -0.0 3.0 0
-11.677 -8.482 1.042 2
-12.708 -9.104 0.73 3
0.0 -0.0 3.0 0
-11.865 -8.276 0.627 5
-13.44 -9.259 0.169 19
-31.138 -21.191 -3.885 10
-13.232 -8.903 -0.066 15
-12.75 -8.48 -0.086 25
-12.859 -8.468 -0.251 4
-12.778 -8.33 -0.366 3
-12.688 -8.196 -0.479 14
-12.605 -8.069 -0.593 57
-26.508 -16.835 -4.85 5
-25.099 -15.814 -4.713 22
-23.857 -14.928 -4.606 5
-22.799 -14.175 -4.537 6
-21.778 -13.456 -4.459 6
-20.865 -12.822 -4.403 9
-15.661 -9.574 -2.753 0
-15.706 -9.558 -2.973 39
-18.546 -11.237 -4.298 3
-17.826 -10.762 -4.259 20
-15.266 -9.183 -3.43 27
-14.749 -8.846 -3.427 20
-14.722 -8.804 -3.634 4
-14.938 -8.912 -3.963 19
-14.302 -8.514 -3.895 11
-13.83 -8.215 -3.893 14
-13.374 -7.93 -3.893 14
-32.126 -24.26 -1.278 24
-32.02 -23.807 -1.628 25
0.0 -0.0 3.0 0
-11.799 -8.517 1.034 19
-12.065 -8.589 0.858 2
-13.058 -9.169 0.543 26
-12.31 -8.532 0.554 14
-11.374 -7.786 0.62 17
-31.183 -21.084 -3.851 10
-13.215 -8.834 -0.042 21
-12.81 -8.464 -0.081 28
-12.543 -8.205 -0.15 12
-12.796 -8.287 -0.348 10
-12.561 -8.06 -0.421 17
-12.633 -8.034 -0.577 32
-26.668 -16.823 -4.845 4
-25.262 -15.812 -4.712 24
-24.007 -14.923 -4.604 4
-22.928 -14.161 -4.529 6
-21.911 -13.449 -4.455 6
-20.982 -12.81 -4.396 8
-15.732 -9.554 -2.74 4
-15.777 -9.539 -2.961 10
-18.606 -11.201 -4.274 3
-17.917 -10.749 -4.25 23
-15.338 -9.168 -3.42 8
-14.849 -8.851 -3.431 18
-15.541 -9.236 -3.96 31
-14.983 -8.885 -3.942 32
-14.365 -8.501 -3.884 10
-13.895 -8.205 -3.885 12
-13.442 -7.924 -3.888 14
-32.082 -24.084 -1.247 25
-31.977 -23.634 -1.594 26
0.0 -0.0 3.0 0
-11.718 -8.408 1.059 7
-13.765 -9.739 0.572 21
-12.908 -9.007 0.587 21
-12.132 -8.355 0.604 22
-11.412 -7.762 0.627 17
-13.34 -8.961 0.088 7
-13.237 -8.791 -0.027 20
-12.884 -8.457 -0.078 31
-12.511 -8.131 -0.121 18
-12.508 -8.047 -0.251 16
-12.582 -8.02 -0.404 23
-12.657 -7.995 -0.56 40
-26.848 -16.824 -4.845 4
-25.416 -15.802 -4.707 26
-24.162 -14.919 -4.601 5
-23.073 -14.156 -4.527 5
-22.041 -13.438 -4.449 6
-21.104 -12.799 -4.389 9
-15.809 -9.538 -2.731 15
-19.447 -11.682 -4.3 35
-18.152 -10.858 -4.051 21
-18.018 -10.74 -4.244 24
-15.463 -9.185 -3.431 23
-14.888 -8.819 -3.408 22
-15.153 -8.951 -3.745 60
-15.071 -8.883 -3.94 38
-14.438 -8.493 -3.878 10
-13.96 -8.195 -3.876 12
-13.503 -7.913 -3.879 14
-32.039 -23.912 -1.216 25
-31.954 -23.476 -1.563 18
-11.958 -8.655 1.16 0
-11.792 -8.408 1.059 3
-11.884 -8.355 0.917 2
-13.417 -9.303 0.507 18
-12.65 -8.656 0.518 26
-11.45 -7.737 0.634 10
-13.369 -8.922 0.101 4
-13.263 -8.749 -0.013 23
-12.922 -8.426 -0.067 23
-12.568 -8.113 -0.114 21
-12.522 -8.001 -0.233 39
-12.741 -8.067 -0.424 16
-12.691 -7.963 -0.545 9
-27.021 -16.818 -4.843 5
-25.586 -15.801 -4.707 26
-24.316 -14.913 -4.599 4
-23.212 -14.146 -4.521 5
-22.164 -13.424 -4.441 7
-21.218 -12.783 -4.38 9
-15.879 -9.517 -2.719 17
-19.561 -11.674 -4.295 32
-18.178 -10.804 -4.016 29
-18.113 -10.727 -4.236 17
-15.509 -9.154 -3.41 21
-14.93 -8.788 -3.385 21
-15.686 -9.209 -3.939 39
-15.129 -8.863 -3.924 39
-14.502 -8.48 -3.867 10
-14.016 -8.18 -3.863 13
-13.573 -7.909 -3.875 14
-32.003 -23.743 -1.187 24
-11.685 -8.533 1.341 14
-11.813 -8.498 1.194 15
-11.888 -8.424 1.055 1
-12.078 -8.439 0.896 2
-13.453 -9.268 0.517 19
-11.632 -7.909 0.732 3
-11.465 -7.697 0.647 2
-13.411 -8.891 0.111 11
-13.413 -8.79 -0.027 24
-12.95 -8.388 -0.053 25
-12.45 -7.983 -0.064 20
-12.566 -7.976 -0.222 15
-12.772 -8.032 -0.409 15
-26.933 -16.786 -4.474 2
-27.222 -16.829 -4.848 5
-25.744 -15.791 -4.702 30
-24.458 -14.899 -4.592 5
-23.351 -14.136 -4.516 5
-22.308 -13.422 -4.44 7
-21.343 -12.774 -4.375 9
-20.499 -12.206 -4.334 7
-19.666 -11.66 -4.286 34
-18.244 -10.773 -3.996 10
-18.204 -10.713 -4.226 12
-15.533 -9.111 -3.379 17
-14.998 -8.774 -3.374 20
-15.823 -9.232 -3.957 39
-15.2 -8.851 -3.915 35
-14.571 -8.47 -3.859 11
-14.085 -8.171 -3.857 13
-13.631 -7.897 -3.865 14
-31.962 -23.573 -1.157 25
-11.581 -8.407 1.366 18
-13.108 -9.372 1.008 12
-12.03 -8.473 1.044 19
-12.133 -8.425 0.899 5
-13.455 -9.211 0.532 15
-11.503 -7.772 0.772 9
-13.136 -8.762 0.321 26
-13.357 -8.799 0.141 8
-13.359 -8.697 0.005 22
-13.017 -8.375 -0.048 26
-12.48 -7.95 -0.052 22
-31.413 -19.805 -5.002 20
-12.69 -7.927 -0.365 14
-27.189 -16.832 -4.494 2
-27.392 -16.821 -4.844 5
-25.912 -15.788 -4.7 31
-24.609 -14.892 -4.588 5
-23.483 -14.12 -4.508 6
-22.448 -13.416 -4.436 5
-21.458 -12.758 -4.366 10
-20.615 -12.195 -4.327 7
-19.777 -11.65 -4.28 31
-18.735 -10.991 -4.138 16
-18.292 -10.696 -4.214 16
-15.628 -9.109 -3.378 16
-16.576 -9.637 -4.002 2
-15.906 -9.223 -3.95 20
-15.262 -8.833 -3.901 36
-14.641 -8.459 -3.85 11
-14.15 -8.16 -3.847 12
-13.692 -7.887 -3.856 13
-31.924 -23.407 -1.127 25
-12.366 -8.923 1.266 0
-11.669 -8.293 1.237 1
-12.14 -8.498 1.038 13
-12.123 -8.364 0.915 18
-12.251 -8.334 0.767 5
-11.114 -7.461 0.861 15
-11.497 -7.619 0.671 3
-12.021 -7.867 0.444 0
-13.348 -8.633 0.027 23
-12.423 -7.94 0.11 13
-12.463 -7.886 -0.027 6
-31.646 -19.818 -5.007 20
-12.71 -7.887 -0.348 30
0.0 -0.0 3.0 0
-27.58 -16.822 -4.844 5
-26.083 -15.784 -4.698 31
-24.774 -14.89 -4.587 5
-23.626 -14.111 -4.503 5
-22.588 -13.409 -4.433 6
-21.583 -12.746 -4.359 9
-20.725 -12.179 -4.318 7
-19.885 -11.637 -4.271 33
-19.11 -11.138 -4.233 7
-18.396 -10.688 -4.209 27
-15.736 -9.113 -3.381 26
-15.326 -8.854 -3.433 2
-15.959 -9.197 -3.93 33
-15.33 -8.818 -3.89 39
-14.717 -8.452 -3.844 11
-14.212 -8.149 -3.838 12
-13.753 -7.876 -3.846 13
-31.895 -23.247 -1.099 25
-11.672 -8.372 1.373 7
-11.668 -8.241 1.248 12
-11.879 -8.263 1.092 16
-12.044 -8.259 0.941 15
-12.191 -8.241 0.792 8
-11.575 -7.719 0.787 48
-11.202 -7.375 0.745 2
-12.047 -7.831 0.455 40
-12.261 -7.878 0.288 6
-12.409 -7.879 0.132 19
-12.486 -7.848 -0.012 19
-31.898 -19.842 -5.017 21
-12.724 -7.842 -0.329 42
-29.4 -17.955 -4.994 4
-27.751 -16.812 -4.84 5
-26.251 -15.779 -4.696 30
-24.926 -14.881 -4.582 5
-23.769 -14.101 -4.498 5
-22.719 -13.396 -4.426 6
-21.705 -12.734 -4.352 10
-20.845 -12.168 -4.311 8
-19.996 -11.625 -4.264 33
-19.21 -11.124 -4.224 8
