# .PCD v0.7 - Point Cloud Data file format
VERSION 0.7
FIELDS x y z intensity
SIZE 4 4 4 4
TYPE F F F F
COUNT 1 1 1 1
WIDTH 2053
HEIGHT 1
VIEWPOINT 0 0 0 1 0 0 0
POINTS 2053
DATA ascii
10.748 -8.098 0.052 21
10.345 -7.714 0.039 24
26.297 -19.422 -4.847 5
24.908 -18.221 -4.734 6
9.48 -6.874 -0.061 28
22.492 -16.169 -4.54 8
21.458 -15.303 -4.464 5
20.511 -14.513 -4.395 5
19.691 -13.829 -4.353 5
18.904 -13.187 -4.31 6
18.152 -12.578 -4.262 6
17.458 -12.025 -4.225 6
11.755 -8.048 -2.029 28
11.827 -8.055 -2.231 24
15.661 -10.609 -4.156 9
15.127 -10.199 -4.141 12
14.619 -9.809 -4.126 17
14.085 -9.411 -4.092 26
13.51 -8.987 -4.022 23
12.801 -8.48 -3.867 9
12.264 -8.094 -3.792 15
11.854 -7.793 -3.774 13
9.591 -8.228 1.549 24
9.874 -8.355 1.376 18
9.302 -7.764 1.35 23
9.332 -7.687 1.225 19
10.179 -8.276 0.937 16
0.0 -0.0 3.0 0
9.17 -7.272 0.915 26
10.117 -7.928 0.576 28
10.144 -7.86 0.446 37
10.622 -8.139 0.197 27
10.721 -8.129 0.041 6
10.332 -7.754 0.024 25
26.125 -19.418 -4.846 5
24.731 -18.207 -4.729 6
9.454 -6.899 -0.072 24
22.345 -16.167 -4.539 8
21.326 -15.307 -4.466 5
20.401 -14.528 -4.403 5
19.576 -13.837 -4.357 4
18.791 -13.193 -4.313 6
18.051 -12.589 -4.268 6
17.365 -12.037 -4.232 6
11.794 -8.127 -2.078 19
11.826 -8.105 -2.263 34
11.886 -8.102 -2.465 15
15.049 -10.209 -4.148 18
14.545 -9.819 -4.134 15
14.01 -9.417 -4.096 20
13.434 -8.99 -4.024 23
12.714 -8.472 -3.861 13
12.191 -8.092 -3.79 24
11.797 -7.8 -3.78 14
9.597 -8.281 1.54 18
9.692 -8.249 1.397 24
9.276 -7.787 1.345 26
9.327 -7.729 1.216 23
10.166 -8.315 0.927 42
9.89 -7.988 0.86 23
9.159 -7.309 0.904 24
10.073 -7.943 0.572 17
10.099 -7.875 0.441 26
10.608 -8.18 0.183 1
29.246 -22.319 -5.123 5
10.318 -7.793 0.009 1
25.944 -19.409 -4.842 6
24.575 -18.21 -4.73 6
9.442 -6.936 -0.088 19
22.205 -16.169 -4.54 7
21.198 -15.313 -4.469 5
20.284 -14.538 -4.407 5
19.468 -13.849 -4.363 5
18.688 -13.204 -4.319 5
17.953 -12.6 -4.275 6
17.274 -12.05 -4.24 5
11.808 -8.187 -2.116 3
11.799 -8.137 -2.284 26
11.841 -8.122 -2.478 17
14.972 -10.219 -4.155 22
14.475 -9.831 -4.143 16
11.145 -7.536 -2.679 2
13.351 -8.988 -4.022 16
12.625 -8.462 -3.852 15
12.143 -8.108 -3.803 17
11.741 -7.807 -3.787 13
10.062 -8.733 1.46 15
9.707 -8.311 1.385 22
9.271 -7.829 1.336 20
9.267 -7.725 1.216 27
9.991 -8.222 0.95 20
9.865 -8.017 0.852 18
9.139 -7.338 0.896 30
10.048 -7.972 0.563 3
9.981 -7.832 0.455 25
9.885 -7.671 0.359 26
29.033 -22.297 -5.115 5
27.281 -20.737 -4.96 5
25.758 -19.392 -4.835 5
24.417 -18.209 -4.729 6
9.403 -6.951 -0.095 29
22.068 -16.173 -4.542 7
21.066 -15.317 -4.471 5
20.167 -14.548 -4.412 5
19.35 -13.854 -4.366 5
18.578 -13.211 -4.323 6
17.858 -12.613 -4.282 6
17.187 -12.065 -4.25 6
16.569 -11.561 -4.224 6
11.809 -8.195 -2.322 18
11.805 -8.147 -2.495 28
11.896 -8.17 -2.72 14
14.405 -9.843 -4.152 16
11.056 -7.522 -2.668 2
13.257 -8.978 -4.014 17
12.557 -8.467 -3.856 14
12.091 -8.12 -3.814 22
11.69 -7.819 -3.797 14
9.908 -8.649 1.475 25
9.664 -8.322 1.382 24
9.271 -7.877 1.326 26
9.249 -7.757 1.209 19
9.935 -8.226 0.949 8
9.84 -8.046 0.844 6
9.78 -7.902 0.734 27
34.267 -27.36 -5.365 22
9.894 -7.813 0.461 19
9.814 -7.663 0.361 30
28.826 -22.279 -5.109 5
27.091 -20.723 -4.955 5
25.59 -19.39 -4.834 5
24.249 -18.2 -4.726 6
9.379 -6.978 -0.107 0
21.928 -16.174 -4.542 7
20.938 -15.321 -4.473 5
20.045 -14.552 -4.415 5
19.245 -13.867 -4.373 5
18.472 -13.22 -4.328 5
17.76 -12.623 -4.288 6
17.091 -12.075 -4.255 6
16.481 -11.571 -4.231 7
11.816 -8.251 -2.358 1
11.793 -8.19 -2.524 22
11.835 -8.178 -2.727 31
11.174 -7.682 -2.581 2
10.976 -7.513 -2.661 2
11.187 -7.622 -2.955 0
12.45 -8.444 -3.838 53
12.027 -8.125 -3.818 21
11.64 -7.83 -3.806 17
9.894 -8.688 1.468 27
9.756 -8.452 1.357 9
9.437 -8.066 1.286 39
9.159 -7.728 1.216 27
9.442 -7.865 1.039 2
9.943 -8.179 0.808 15
9.749 -7.925 0.728 26
9.705 -7.798 0.616 1
9.811 -7.795 0.467 25
9.816 -7.714 0.344 29
28.608 -22.251 -5.099 6
26.898 -20.707 -4.949 6
25.407 -19.375 -4.828 5
24.091 -18.197 -4.724 6
22.868 -17.124 -4.624 6
21.797 -16.181 -4.545 7
20.81 -15.326 -4.475 5
19.925 -14.558 -4.418 5
19.134 -13.875 -4.378 5
18.373 -13.232 -4.335 6
17.665 -12.636 -4.296 6
17.004 -12.089 -4.264 6
16.392 -11.582 -4.237 6
15.818 -11.115 -4.218 8
11.791 -8.238 -2.557 17
11.808 -8.21 -2.749 43
11.127 -7.697 -2.592 5
10.894 -7.502 -2.653 3
11.107 -7.612 -2.947 2
12.406 -8.464 -3.854 34
11.967 -8.131 -3.823 20
11.571 -7.828 -3.805 22
9.827 -8.679 1.47 27
9.836 -8.571 1.334 12
9.311 -8.005 1.299 31
9.057 -7.688 1.225 31
10.389 -8.707 0.829 24
9.796 -8.107 0.828 26
9.773 -7.994 0.708 27
9.677 -7.824 0.608 25
9.825 -7.856 0.447 20
9.76 -7.718 0.342 28
28.405 -22.234 -5.092 6
26.712 -20.695 -4.944 5
25.243 -19.372 -4.827 6
23.93 -18.192 -4.722 6
22.722 -17.124 -4.624 6
21.661 -16.183 -4.546 7
20.679 -15.328 -4.476 5
19.809 -14.567 -4.422 5
19.02 -13.881 -4.381 5
18.257 -13.234 -4.335 5
17.564 -12.644 -4.3 6
16.915 -12.101 -4.271 6
16.304 -11.592 -4.244 9
15.731 -11.123 -4.224 6
11.797 -8.294 -2.594 2
11.775 -8.237 -2.767 33
11.071 -7.705 -2.598 4
10.821 -7.496 -2.649 4
11.021 -7.599 -2.937 2
12.326 -8.459 -3.85 37
11.912 -8.142 -3.832 24
11.533 -7.847 -3.822 14
9.849 -8.749 1.457 21
9.777 -8.57 1.334 22
9.583 -8.289 1.238 25
9.061 -7.738 1.214 29
10.35 -8.727 0.824 1
9.746 -8.116 0.825 29
9.774 -8.045 0.693 0
9.634 -7.837 0.604 22
9.745 -7.841 0.452 28
9.747 -7.757 0.329 3
28.202 -22.215 -5.086 6
26.523 -20.679 -4.938 5
25.066 -19.36 -4.822 6
23.779 -18.193 -4.723 7
22.583 -17.128 -4.626 6
21.525 -16.185 -4.547 7
20.552 -15.33 -4.477 5
19.69 -14.572 -4.425 5
18.912 -13.89 -4.386 5
18.161 -13.247 -4.343 6
17.473 -12.658 -4.308 6
16.822 -12.111 -4.277 6
16.225 -11.609 -4.254 7
15.654 -11.138 -4.233 6
15.114 -10.691 -4.211 10
11.778 -8.29 -2.804 19
11.015 -7.713 -2.604 4
10.75 -7.492 -2.646 6
10.942 -7.589 -2.929 2
11.178 -7.717 -3.249 2
11.849 -8.145 -3.835 27
11.479 -7.856 -3.829 12
9.797 -8.754 1.456 29
9.546 -8.417 1.364 20
9.683 -8.425 1.209 25
9.028 -7.756 1.209 22
10.163 -8.622 0.85 2
9.702 -8.129 0.822 29
35.296 -29.23 -5.382 25
9.609 -7.865 0.595 27
9.762 -7.903 0.432 16
29.916 -23.957 -5.249 4
28.0 -22.195 -5.078 6
26.343 -20.671 -4.935 5
24.888 -19.344 -4.816 6
23.615 -18.184 -4.719 6
22.438 -17.127 -4.625 7
21.386 -16.183 -4.546 7
20.425 -15.333 -4.478 5
19.577 -14.581 -4.429 5
18.805 -13.9 -4.391 5
18.065 -13.261 -4.35 6
17.372 -12.664 -4.312 6
16.735 -12.124 -4.285 6
16.137 -11.618 -4.259 7
15.571 -11.147 -4.239 8
15.038 -10.704 -4.22 9
11.789 -8.349 -2.846 5
10.957 -7.718 -2.608 4
10.668 -7.48 -2.636 5
10.856 -7.575 -2.918 2
11.096 -7.705 -3.24 2
11.773 -8.141 -3.831 29
11.425 -7.864 -3.836 13
9.744 -8.757 1.456 26
9.557 -8.476 1.352 21
9.568 -8.375 1.22 21
9.145 -7.904 1.175 27
10.02 -8.551 0.868 8
9.692 -8.17 0.811 19
10.104 -8.419 0.586 4
9.608 -7.914 0.581 24
31.857 -25.954 -5.433 10
29.682 -23.92 -5.236 4
27.789 -22.168 -5.069 5
26.149 -20.648 -4.926 5
24.721 -19.338 -4.813 6
23.471 -18.187 -4.72 7
22.294 -17.126 -4.625 6
21.253 -16.186 -4.548 7
20.304 -15.34 -4.482 6
19.465 -14.589 -4.434 5
18.694 -13.906 -4.394 5
17.959 -13.267 -4.354 6
17.287 -12.683 -4.322 6
16.645 -12.135 -4.292 6
16.055 -11.631 -4.268 6
15.49 -11.159 -4.246 6
14.959 -10.714 -4.227 9
14.454 -10.298 -4.211 10
10.904 -7.728 -2.615 4
10.595 -7.473 -2.631 4
10.774 -7.562 -2.908 2
11.004 -7.686 -3.224 2
11.692 -8.132 -3.823 10
11.375 -7.875 -3.846 17
9.701 -8.77 1.454 23
9.54 -8.512 1.345 21
9.409 -8.285 1.239 26
9.135 -7.944 1.166 28
9.819 -8.431 0.898 26
9.642 -8.178 0.809 20
9.583 -8.034 0.696 1
9.6 -7.956 0.567 10
31.624 -25.926 -5.424 12
29.466 -23.896 -5.228 4
27.591 -22.149 -5.061 6
25.973 -20.64 -4.923 6
24.552 -19.328 -4.809 6
23.317 -18.184 -4.718 6
22.152 -17.126 -4.625 7
21.13 -16.194 -4.551 7
20.189 -15.351 -4.487 5
19.355 -14.6 -4.439 6
18.584 -13.911 -4.397 5
17.854 -13.274 -4.358 5
17.19 -12.691 -4.327 6
16.559 -12.148 -4.299 6
15.973 -11.645 -4.276 6
15.413 -11.172 -4.255 6
14.886 -10.727 -4.236 9
14.385 -10.313 -4.221 9
10.845 -7.733 -2.618 3
10.516 -7.463 -2.624 4
10.695 -7.551 -2.9 2
10.922 -7.674 -3.214 2
11.174 -7.817 -3.559 4
11.318 -7.881 -3.851 13
9.731 -8.848 1.44 19
9.364 -8.404 1.366 25
9.363 -8.294 1.237 20
9.102 -7.962 1.162 30
10.008 -8.646 0.844 3
9.568 -8.166 0.812 30
9.975 -8.416 0.587 10
9.584 -7.992 0.556 22
9.769 -8.059 0.381 0
29.243 -23.864 -5.217 4
27.393 -22.129 -5.054 6
25.788 -20.623 -4.916 6
24.386 -19.32 -4.806 7
23.164 -18.18 -4.717 7
21.996 -17.113 -4.619 8
20.994 -16.193 -4.551 7
20.059 -15.349 -4.486 5
19.231 -14.599 -4.439 5
18.479 -13.922 -4.402 4
17.758 -13.285 -4.364 5
17.098 -12.703 -4.334 6
16.472 -12.161 -4.307 6
15.889 -11.655 -4.283 7
15.33 -11.18 -4.261 6
14.805 -10.734 -4.24 9
11.159 -8.048 -2.636 4
10.789 -7.74 -2.623 3
10.462 -7.469 -2.628 4
10.619 -7.542 -2.893 2
10.839 -7.661 -3.204 2
11.079 -7.796 -3.542 4
11.183 -7.832 -3.808 14
9.816 -8.978 1.417 40
9.386 -8.473 1.353 19
9.247 -8.239 1.249 18
9.348 -8.226 1.101 28
9.785 -8.504 0.88 21
9.567 -8.214 0.799 26
9.715 -8.246 0.636 28
9.699 -8.139 0.512 16
9.731 -8.077 0.375 28
29.022 -23.833 -5.206 5
27.195 -22.109 -5.047 6
25.61 -20.61 -4.911 6
24.221 -19.311 -4.802 6
23.001 -18.167 -4.712 6
21.84 -17.1 -4.614 14
20.871 -16.201 -4.555 7
19.944 -15.359 -4.491 5
19.121 -14.609 -4.443 6
18.375 -13.931 -4.407 5
17.662 -13.297 -4.371 5
17.004 -12.713 -4.34 6
16.386 -12.174 -4.315 6
15.81 -11.67 -4.292 6
15.25 -11.192 -4.268 6
14.732 -10.748 -4.25 9
11.105 -8.059 -2.643 5
10.737 -7.749 -2.63 4
10.401 -7.47 -2.629 5
10.54 -7.531 -2.884 2
10.754 -7.646 -3.192 2
10.988 -7.777 -3.526 3
11.1 -7.819 -3.797 11
9.658 -8.885 1.433 17
9.27 -8.418 1.364 24
9.18 -8.229 1.251 28
9.317 -8.248 1.096 25
9.877 -8.637 0.847 24
9.586 -8.281 0.781 15
9.679 -8.267 0.63 30
9.637 -8.137 0.512 30
9.653 -8.064 0.38 29
28.808 -23.806 -5.197 5
26.998 -22.087 -5.039 6
25.423 -20.59 -4.904 6
24.074 -19.315 -4.804 6
22.849 -18.161 -4.709 6
21.705 -17.103 -4.615 24
20.742 -16.204 -4.556 8
19.827 -15.366 -4.494 5
19.015 -14.62 -4.449 6
18.268 -13.938 -4.411 5
17.56 -13.304 -4.375 5
16.91 -12.722 -4.345 6
16.297 -12.183 -4.32 6
15.725 -11.68 -4.298 6
15.173 -11.204 -4.276 6
14.659 -10.761 -4.258 9
11.048 -8.066 -2.648 4
10.681 -7.755 -2.635 3
10.352 -7.479 -2.636 5
10.465 -7.522 -2.877 3
10.684 -7.641 -3.187 2
10.909 -7.766 -3.516 3
11.036 -7.818 -3.796 9
9.541 -8.829 1.443 21
9.315 -8.509 1.346 21
9.191 -8.287 1.239 23
9.262 -8.249 1.096 28
9.767 -8.593 0.858 23
9.494 -8.252 0.789 28
9.656 -8.298 0.621 23
9.623 -8.175 0.501 29
9.633 -8.097 0.369 32
28.583 -23.767 -5.184 5
26.796 -22.059 -5.029 6
25.252 -20.58 -4.9 5
23.903 -19.3 -4.798 6
22.711 -18.167 -4.711 7
21.571 -17.106 -4.616 34
20.604 -16.198 -4.553 7
19.716 -15.378 -4.5 5
18.903 -14.626 -4.452 5
18.161 -13.945 -4.415 5
17.461 -13.313 -4.38 6
16.816 -12.732 -4.351 6
16.213 -12.197 -4.329 6
15.641 -11.69 -4.305 6
15.102 -11.221 -4.287 6
14.581 -10.769 -4.264 9
10.983 -8.068 -2.649 4
10.619 -7.758 -2.636 3
10.307 -7.491 -2.645 5
10.395 -7.516 -2.873 3
10.597 -7.623 -3.173 2
10.827 -7.753 -3.505 3
10.977 -7.822 -3.799 9
9.518 -8.858 1.438 22
9.032 -8.299 1.387 14
9.13 -8.282 1.24 22
9.284 -8.318 1.08 27
9.752 -8.632 0.848 30
9.427 -8.244 0.791 28
9.407 -8.133 0.668 24
9.597 -8.203 0.492 26
9.604 -8.123 0.361 29
28.391 -23.757 -5.18 5
26.614 -22.048 -5.025 6
25.071 -20.562 -4.893 6
23.735 -19.286 -4.792 6
22.559 -18.159 -4.708 6
21.439 -17.11 -4.618 36
20.479 -16.202 -4.555 7
19.596 -15.381 -4.502 5
18.795 -14.634 -4.456 5
18.058 -13.953 -4.419 5
17.368 -13.326 -4.387 6
16.725 -12.742 -4.357 6
16.127 -12.208 -4.336 6
15.553 -11.697 -4.309 7
15.016 -11.227 -4.291 6
14.508 -10.782 -4.272 9
10.932 -8.079 -2.657 3
10.57 -7.768 -2.644 4
10.255 -7.499 -2.651 4
10.32 -7.507 -2.865 3
10.527 -7.618 -3.169 2
10.748 -7.741 -3.495 3
10.926 -7.83 -3.807 8
9.471 -8.867 1.437 25
8.908 -8.234 1.4 14
9.055 -8.263 1.244 29
9.287 -8.371 1.067 20
9.611 -8.558 0.866 24
9.345 -8.222 0.797 25
9.28 -8.073 0.685 24
10.025 -8.623 0.364 19
9.706 -8.26 0.316 27
28.169 -23.719 -5.167 5
26.427 -22.031 -5.019 6
24.853 -20.512 -4.874 10
23.571 -19.274 -4.787 6
22.407 -18.152 -4.705 6
21.305 -17.111 -4.618 39
20.356 -16.208 -4.558 8
19.473 -15.381 -4.502 5
18.683 -14.64 -4.459 5
17.957 -13.963 -4.425 5
17.263 -13.329 -4.388 5
16.637 -12.756 -4.364 6
16.041 -12.219 -4.342 6
15.478 -11.713 -4.319 6
14.942 -11.24 -4.299 8
14.433 -10.792 -4.279 9
10.869 -8.083 -2.659 3
10.517 -7.777 -2.65 4
10.197 -7.502 -2.653 4
10.244 -7.496 -2.857 2
10.451 -7.608 -3.161 3
10.66 -7.723 -3.48 3
10.876 -7.84 -3.815 9
9.506 -8.951 1.422 18
9.029 -8.395 1.368 21
9.019 -8.278 1.24 31
9.262 -8.398 1.061 20
9.522 -8.53 0.873 26
9.313 -8.244 0.791 26
9.207 -8.059 0.689 26
9.63 -8.335 0.452 0
9.679 -8.288 0.307 24
27.949 -23.68 -5.154 5
26.229 -22.003 -5.009 6
24.685 -20.503 -4.87 25
23.416 -19.268 -4.785 6
22.264 -18.15 -4.704 6
21.175 -17.114 -4.62 40
20.234 -16.213 -4.56 7
19.368 -15.395 -4.509 6
18.574 -14.647 -4.463 5
17.854 -13.97 -4.428 5
17.165 -13.337 -4.393 5
16.54 -12.761 -4.368 6
15.958 -12.232 -4.35 6
15.39 -11.719 -4.323 6
14.865 -11.252 -4.307 8
14.355 -10.8 -4.284 9
10.813 -8.09 -2.665 3
10.467 -7.787 -2.658 4
10.149 -7.511 -2.66 4
10.167 -7.483 -2.847 2
10.373 -7.595 -3.151 2
10.581 -7.711 -3.47 3
10.815 -7.84 -3.815 18
9.491 -8.989 1.415 1
8.856 -8.283 1.39 18
9.014 -8.324 1.231 28
9.326 -8.508 1.036 2
9.66 -8.706 0.829 12
9.284 -8.269 0.784 29
9.164 -8.07 0.686 25
30.95 -26.953 -5.24 38
29.687 -25.58 -5.312 5
27.749 -23.659 -5.146 4
26.052 -21.991 -5.004 6
24.521 -20.494 -4.867 33
23.261 -19.262 -4.783 6
22.124 -18.151 -4.704 6
21.047 -17.118 -4.622 38
20.109 -16.215 -4.561 7
19.239 -15.391 -4.507 5
18.463 -14.651 -4.465 5
17.75 -13.978 -4.432 5
17.069 -13.347 -4.398 6
16.453 -12.773 -4.375 6
15.872 -12.242 -4.356 6
15.315 -11.735 -4.333 6
14.785 -11.261 -4.313 8
14.285 -10.813 -4.293 9
10.756 -8.097 -2.669 3
10.409 -7.791 -2.66 4
10.097 -7.518 -2.665 4
10.095 -7.475 -2.84 2
10.295 -7.583 -3.14 2
10.503 -7.698 -3.459 3
10.733 -7.826 -3.803 8
29.183 -27.803 -1.902 10
8.86 -8.335 1.38 14
9.0 -8.36 1.223 29
9.28 -8.516 1.034 9
9.668 -8.766 0.814 18
9.349 -8.377 0.755 32
9.164 -8.121 0.671 24
30.763 -26.956 -5.241 18
29.462 -25.545 -5.3 5
27.55 -23.635 -5.138 5
25.857 -21.965 -4.994 6
24.363 -20.491 -4.866 35
23.104 -19.253 -4.779 7
21.976 -18.143 -4.701 6
20.919 -17.123 -4.624 32
19.984 -16.217 -4.562 7
19.138 -15.406 -4.514 5
18.361 -14.663 -4.471 5
17.653 -13.989 -4.438 5
16.971 -13.353 -4.402 6
16.353 -12.776 -4.376 6
15.786 -12.252 -4.362 6
15.233 -11.745 -4.339 6
14.708 -11.272 -4.32 8
14.213 -10.825 -4.301 9
10.706 -8.108 -2.677 3
10.356 -7.798 -2.666 3
10.045 -7.524 -2.669 4
10.023 -7.466 -2.833 2
10.217 -7.57 -3.13 2
10.425 -7.686 -3.449 3
10.654 -7.814 -3.792 12
8.99 -8.615 1.481 17
8.944 -8.464 1.355 18
8.983 -8.394 1.216 27
0.0 -0.0 3.0 0
9.649 -8.803 0.805 14
9.46 -8.529 0.715 34
9.294 -8.286 0.624 31
30.553 -26.937 -5.236 20
29.246 -25.516 -5.291 5
27.336 -23.599 -5.126 5
25.672 -21.944 -4.987 6
24.203 -20.484 -4.863 33
22.944 -19.24 -4.774 6
21.837 -18.143 -4.701 6
20.804 -17.137 -4.63 22
19.862 -16.22 -4.564 7
19.025 -15.412 -4.517 5
18.247 -14.664 -4.471 5
17.544 -13.991 -4.439 5
16.879 -13.365 -4.408 5
16.272 -12.792 -4.385 6
15.703 -12.264 -4.369 6
15.149 -11.753 -4.344 7
14.632 -11.282 -4.327 8
14.138 -10.834 -4.307 9
10.655 -8.119 -2.685 4
10.307 -7.808 -2.673 4
9.991 -7.528 -2.673 4
9.951 -7.456 -2.826 2
10.151 -7.565 -3.126 2
10.349 -7.675 -3.44 3
10.57 -7.797 -3.778 9
8.933 -8.611 1.482 26
8.896 -8.468 1.354 27
8.981 -8.442 1.206 26
0.0 -0.0 3.0 0
9.616 -8.826 0.8 26
9.488 -8.607 0.694 17
9.253 -8.301 0.62 28
30.319 -26.896 -5.223 18
29.011 -25.467 -5.275 5
27.141 -23.577 -5.118 5
25.487 -21.922 -4.979 6
24.051 -20.484 -4.863 28
22.796 -19.237 -4.772 6
21.692 -18.136 -4.698 6
20.677 -17.139 -4.631 11
19.738 -16.22 -4.564 8
18.911 -15.418 -4.52 5
18.142 -14.672 -4.476 5
17.45 -14.003 -4.445 5
16.789 -13.378 -4.415 6
16.178 -12.798 -4.389 5
15.615 -12.271 -4.373 6
15.065 -11.76 -4.349 6
14.555 -11.293 -4.334 8
14.054 -10.836 -4.309 10
10.604 -8.13 -2.693 4
10.26 -7.82 -2.681 4
9.942 -7.536 -2.679 4
9.883 -7.449 -2.82 2
10.07 -7.549 -3.113 2
10.277 -7.666 -3.433 3
10.491 -7.784 -3.766 6
8.868 -8.597 1.484 16
8.842 -8.467 1.354 25
8.978 -8.49 1.195 26
0.0 -0.0 3.0 0
9.588 -8.854 0.793 24
9.531 -8.698 0.669 33
9.221 -8.322 0.614 22
30.119 -26.884 -5.219 20
28.787 -25.429 -5.262 6
26.951 -23.559 -5.112 5
25.296 -21.895 -4.969 5
23.918 -20.499 -4.869 13
22.645 -19.23 -4.769 7
21.556 -18.137 -4.699 6
20.544 -17.137 -4.63 7
19.623 -16.227 -4.567 7
18.804 -15.428 -4.525 6
18.043 -14.684 -4.482 5
17.35 -14.01 -4.449 5
16.697 -13.388 -4.421 5
16.091 -12.809 -4.395 6
15.532 -12.283 -4.38 6
14.987 -11.772 -4.356 6
14.475 -11.3 -4.338 8
13.996 -10.858 -4.324 9
10.548 -8.136 -2.697 4
10.211 -7.829 -2.688 4
9.894 -7.545 -2.685 4
9.808 -7.438 -2.811 1
9.993 -7.536 -3.103 2
10.199 -7.652 -3.421 3
10.413 -7.771 -3.755 5
8.888 -8.667 1.472 25
8.799 -8.476 1.353 20
9.059 -8.617 1.168 22
0.0 -0.0 3.0 0
9.546 -8.868 0.789 25
9.501 -8.723 0.663 32
9.316 -8.46 0.574 71
29.918 -26.87 -5.215 21
28.573 -25.396 -5.252 5
26.745 -23.524 -5.1 5
25.133 -21.89 -4.967 6
23.746 -20.479 -4.861 5
22.501 -19.228 -4.769 7
21.421 -18.137 -4.699 6
20.408 -17.132 -4.628 6
19.504 -16.232 -4.569 8
18.682 -15.424 -4.523 6
17.941 -14.693 -4.486 6
17.247 -14.015 -4.452 5
16.594 -13.389 -4.422 5
16.007 -12.822 -4.403 5
15.443 -12.289 -4.384 6
14.903 -11.779 -4.36 6
14.405 -11.315 -4.348 8
13.918 -10.863 -4.327 8
10.5 -8.148 -2.706 4
10.155 -7.834 -2.692 4
9.851 -7.558 -2.695 4
9.74 -7.43 -2.805 2
9.927 -7.53 -3.098 2
10.124 -7.64 -3.411 3
10.338 -7.759 -3.745 5
8.805 -8.637 1.477 17
8.817 -8.542 1.34 5
9.027 -8.638 1.164 20
0.0 -0.0 3.0 0
9.527 -8.904 0.78 27
9.514 -8.789 0.645 26
31.425 -28.713 -5.233 3
29.724 -26.861 -5.212 18
28.359 -25.362 -5.241 6
26.56 -23.507 -5.094 5
24.952 -21.868 -4.959 6
23.569 -20.455 -4.852 5
22.348 -19.217 -4.764 7
21.285 -18.136 -4.698 6
20.276 -17.128 -4.626 7
19.386 -16.236 -4.571 7
18.57 -15.428 -4.525 6
17.833 -14.697 -4.488 5
17.147 -14.022 -4.456 5
16.505 -13.401 -4.428 6
15.914 -12.827 -4.406 6
15.364 -12.301 -4.391 6
14.831 -11.795 -4.37 6
14.325 -11.322 -4.353 8
13.849 -10.876 -4.336 9
10.444 -8.154 -2.71 4
10.106 -7.843 -2.698 4
9.805 -7.568 -2.703 4
9.695 -7.44 -2.813 4
9.855 -7.52 -3.09 2
10.047 -7.626 -3.399 3
10.26 -7.745 -3.733 4
8.799 -8.683 1.469 21
8.785 -8.562 1.336 18
9.009 -8.672 1.157 23
9.545 -9.081 0.904 2
9.462 -8.897 0.782 24
9.849 -9.154 0.547 20
9.777 -8.987 0.423 20
29.496 -26.819 -5.2 11
28.146 -25.328 -5.229 5
26.369 -23.483 -5.086 4
24.768 -21.843 -4.95 5
23.41 -20.444 -4.848 5
22.198 -19.209 -4.761 7
21.147 -18.132 -4.697 6
20.153 -17.132 -4.628 6
19.271 -16.242 -4.574 7
18.463 -15.436 -4.529 5
17.726 -14.7 -4.49 5
17.048 -14.029 -4.459 5
16.416 -13.412 -4.434 5
15.832 -12.841 -4.414 6
15.284 -12.314 -4.399 6
14.747 -11.801 -4.374 6
14.252 -11.333 -4.36 8
13.777 -10.886 -4.343 8
10.393 -8.164 -2.717 4
10.059 -7.855 -2.707 4
9.757 -7.576 -2.709 4
9.692 -7.482 -2.846 4
9.787 -7.513 -3.084 2
9.978 -7.619 -3.393 3
10.183 -7.731 -3.721 3
8.731 -8.665 1.472 22
8.765 -8.593 1.33 0
9.019 -8.735 1.143 20
9.551 -9.141 0.89 14
9.458 -8.946 0.769 25
9.415 -8.804 0.641 30
9.762 -9.03 0.411 21
29.236 -26.748 -5.178 8
27.927 -25.287 -5.216 5
26.164 -23.446 -5.073 5
24.591 -21.823 -4.943 6
23.248 -20.431 -4.843 5
22.051 -19.203 -4.758 7
21.012 -18.13 -4.696 6
20.021 -17.126 -4.625 7
19.157 -16.246 -4.576 8
18.353 -15.442 -4.531 5
17.615 -14.701 -4.491 5
16.948 -14.035 -4.463 5
16.327 -13.423 -4.441 4
15.737 -12.844 -4.416 6
15.199 -12.322 -4.404 6
14.669 -11.812 -4.381 6
14.178 -11.344 -4.367 8
13.702 -10.894 -4.348 8
10.337 -8.169 -2.72 4
10.01 -7.863 -2.712 4
9.714 -7.588 -2.718 4
9.695 -7.529 -2.883 4
9.716 -7.502 -3.075 2
9.904 -7.606 -3.382 3
10.111 -7.722 -3.712 3
8.815 -8.8 1.448 9
51.721 -51.008 -6.915 10
47.529 -46.302 -6.842 15
9.659 -9.3 0.853 20
9.381 -8.928 0.774 25
9.445 -8.885 0.619 29
9.716 -9.043 0.407 33
28.985 -26.681 -5.157 6
27.72 -25.257 -5.206 5
25.991 -23.436 -5.07 5
24.429 -21.815 -4.94 6
23.09 -20.419 -4.838 5
21.911 -19.2 -4.757 7
20.875 -18.125 -4.694 6
19.903 -17.134 -4.628 7
19.036 -16.246 -4.576 7
18.247 -15.449 -4.535 6
17.52 -14.714 -4.497 5
16.855 -14.045 -4.468 6
16.23 -13.427 -4.443 5
15.653 -12.856 -4.422 6
15.119 -12.334 -4.411 6
14.591 -11.821 -4.387 6
14.102 -11.353 -4.373 8
13.633 -10.905 -4.356 9
10.284 -8.177 -2.726 4
9.96 -7.872 -2.719 4
9.688 -7.613 -2.737 5
9.69 -7.569 -2.914 4
9.71 -7.541 -3.107 4
9.83 -7.594 -3.372 3
10.033 -7.707 -3.7 4
8.92 -8.957 1.421 33
33.789 -33.521 -3.516 17
8.96 -8.781 1.133 0
9.591 -9.291 0.855 28
9.387 -8.988 0.759 21
9.448 -8.943 0.604 27
9.659 -9.044 0.407 30
28.79 -26.666 -5.153 6
27.511 -25.221 -5.195 5
25.796 -23.406 -5.059 5
24.258 -21.798 -4.934 5
22.937 -20.411 -4.835 5
21.762 -19.19 -4.753 7
20.746 -18.127 -4.694 6
19.781 -17.135 -4.629 7
18.922 -16.251 -4.578 8
18.135 -15.451 -4.536 5
17.413 -14.716 -4.498 5
16.753 -14.048 -4.469 5
16.138 -13.435 -4.447 5
15.569 -12.866 -4.428 5
15.037 -12.344 -4.417 6
14.514 -11.831 -4.393 6
14.023 -11.359 -4.377 8
13.561 -10.914 -4.361 8
10.233 -8.187 -2.733 4
9.914 -7.882 -2.727 4
9.691 -7.661 -2.773 6
9.692 -7.617 -2.951 4
9.704 -7.582 -3.139 4
9.761 -7.585 -3.364 3
9.967 -7.701 -3.694 4
9.282 -9.375 1.347 4
33.293 -33.224 -3.458 27
46.953 -46.29 -6.839 19
9.5 -9.259 0.863 21
9.348 -9.004 0.755 17
9.713 -9.25 0.521 22
9.653 -9.094 0.392 25
28.618 -26.67 -5.154 7
27.306 -25.189 -5.184 5
25.592 -23.366 -5.046 4
24.082 -21.775 -4.926 6
22.779 -20.398 -4.83 5
21.619 -19.184 -4.751 7
20.609 -18.12 -4.692 6
19.652 -17.132 -4.628 7
18.801 -16.249 -4.577 7
18.029 -15.458 -4.539 6
17.312 -14.723 -4.502 6
16.659 -14.058 -4.475 5
16.052 -13.448 -4.454 5
15.482 -12.875 -4.433 6
14.952 -12.35 -4.42 6
14.436 -11.842 -4.399 6
13.952 -11.372 -4.385 7
13.492 -10.925 -4.369 9
10.18 -8.194 -2.737 4
9.862 -7.888 -2.731 4
9.693 -7.709 -2.809 4
9.689 -7.66 -2.984 4
9.7 -7.624 -3.174 4
9.71 -7.589 -3.368 4
9.888 -7.683 -3.679 3
9.229 -9.376 1.347 17
27.787 -27.894 -2.422 12
46.581 -46.197 -6.82 19
9.344 -9.161 0.885 13
9.433 -9.141 0.721 13
9.735 -9.327 0.501 22
9.65 -9.147 0.377 2
28.449 -26.677 -5.156 6
27.115 -25.168 -5.177 5
25.398 -23.333 -5.034 13
23.917 -21.762 -4.921 6
22.613 -20.376 -4.822 5
21.476 -19.177 -4.748 7
20.481 -18.121 -4.692 6
19.535 -17.137 -4.63 7
18.687 -16.253 -4.579 7
17.923 -15.463 -4.542 5
17.214 -14.732 -4.506 5
16.56 -14.062 -4.477 5
15.964 -13.458 -4.46 5
15.395 -12.883 -4.438 6
14.87 -12.359 -4.426 6
14.358 -11.851 -4.405 6
13.879 -11.382 -4.392 8
13.417 -10.931 -4.373 8
10.13 -8.203 -2.744 5
9.815 -7.899 -2.739 4
9.693 -7.755 -2.844 4
9.693 -7.709 -3.023 4
9.705 -7.672 -3.213 4
9.706 -7.631 -3.403 4
9.816 -7.672 -3.669 3
26.978 -27.572 -1.862 23
27.432 -27.701 -2.385 24
46.085 -45.978 -6.773 13
9.322 -9.194 0.877 25
9.368 -9.133 0.723 31
9.827 -9.474 0.462 21
30.008 -28.619 -5.206 12
28.286 -26.688 -5.159 6
26.913 -25.135 -5.167 5
25.224 -23.318 -5.029 24
23.742 -21.737 -4.912 6
22.467 -20.372 -4.82 5
21.339 -19.175 -4.747 7
20.347 -18.116 -4.69 6
19.413 -17.138 -4.63 7
18.579 -16.261 -4.583 8
17.817 -15.469 -4.545 5
17.107 -14.733 -4.507 6
16.47 -14.074 -4.483 5
15.87 -13.463 -4.462 5
15.306 -12.888 -4.441 6
14.79 -12.369 -4.432 6
14.281 -11.86 -4.411 6
13.806 -11.393 -4.398 7
13.348 -10.942 -4.381 8
10.076 -8.21 -2.749 4
9.766 -7.907 -2.745 4
9.694 -7.803 -2.88 4
9.695 -7.757 -3.06 4
9.701 -7.715 -3.247 3
9.707 -7.677 -3.442 4
9.74 -7.657 -3.656 3
26.697 -27.444 -1.839 46
27.243 -27.673 -2.379 25
28.049 -28.152 -2.984 21
9.361 -9.288 0.856 22
9.362 -9.183 0.71 26
9.868 -9.57 0.436 6
29.798 -28.594 -5.199 16
28.129 -26.704 -5.164 5
26.703 -25.094 -5.154 5
25.041 -23.293 -5.02 26
23.584 -21.728 -4.908 6
22.313 -20.359 -4.815 5
21.2 -19.169 -4.745 7
20.219 -18.116 -4.69 6
19.291 -17.137 -4.63 6
18.465 -16.263 -4.583 8
17.705 -15.47 -4.545 5
17.009 -14.741 -4.511 6
16.374 -14.079 -4.486 5
15.779 -13.469 -4.466 5
15.216 -12.893 -4.444 6
14.708 -12.377 -4.437 6
14.206 -11.872 -4.418 6
13.727 -11.397 -4.401 7
13.28 -10.952 -4.388 8
10.026 -8.219 -2.755 4
9.719 -7.917 -2.752 4
9.693 -7.849 -2.915 4
9.691 -7.799 -3.093 4
9.702 -7.762 -3.285 4
9.708 -7.723 -3.48 4
9.716 -7.683 -3.679 4
26.635 -27.542 -1.856 37
27.063 -27.654 -2.375 21
27.465 -27.731 -2.894 22
9.189 -9.173 0.882 24
9.325 -9.202 0.706 23
31.829 -31.059 -5.322 12
29.069 -28.065 -5.048 1
27.967 -26.713 -5.167 5
26.514 -25.071 -5.146 5
24.857 -23.266 -5.011 30
23.418 -21.709 -4.902 6
22.176 -20.362 -4.816 5
21.058 -19.16 -4.741 7
20.089 -18.112 -4.688 6
19.166 -17.133 -4.628 7
18.349 -16.262 -4.583 7
17.608 -15.481 -4.551 6
16.909 -14.746 -4.513 5
16.276 -14.083 -4.488 5
15.685 -13.473 -4.468 5
15.139 -12.908 -4.452 6
14.629 -12.388 -4.443 6
14.128 -11.88 -4.423 7
13.66 -11.411 -4.41 7
13.205 -10.958 -4.392 8
9.967 -8.22 -2.756 4
9.681 -7.933 -2.764 5
9.686 -7.891 -2.946 6
9.695 -7.849 -3.132 4
9.7 -7.806 -3.322 4
9.706 -7.767 -3.517 4
9.714 -7.726 -3.716 4
26.541 -27.607 -1.868 25
26.86 -27.61 -2.367 19
27.1 -27.525 -2.851 33
9.153 -9.192 0.878 28
9.288 -9.221 0.701 16
31.616 -31.04 -5.317 12
29.427 -28.585 -5.197 19
27.819 -26.736 -5.174 5
26.319 -25.041 -5.136 5
24.678 -23.242 -5.003 27
23.252 -21.691 -4.895 5
22.023 -20.347 -4.81 5
20.925 -19.159 -4.741 8
19.959 -18.108 -4.687 6
19.047 -17.134 -4.629 6
18.238 -16.266 -4.585 7
17.503 -15.486 -4.553 6
16.814 -14.756 -4.518 5
16.189 -14.096 -4.495 6
15.602 -13.486 -4.475 5
15.052 -12.914 -4.456 6
14.548 -12.395 -4.448 6
14.054 -11.891 -4.43 6
13.587 -11.42 -4.416 7
13.136 -10.969 -4.398 8
9.917 -8.229 -2.762 1
9.688 -7.987 -2.803 6
9.69 -7.941 -2.984 6
9.69 -7.892 -3.166 4
9.637 -7.801 -3.317 2
9.704 -7.811 -3.554 4
9.714 -7.771 -3.755 4
26.294 -27.511 -1.851 44
26.513 -27.415 -2.329 46
26.888 -27.475 -2.84 22
9.135 -9.23 0.869 30
9.262 -9.251 0.693 24
31.266 -30.884 -5.275 10
28.822 -28.171 -5.078 4
27.656 -26.745 -5.177 7
26.13 -25.016 -5.128 5
24.503 -23.221 -4.996 26
23.101 -21.685 -4.893 6
21.858 -20.322 -4.801 7
20.784 -19.149 -4.737 7
19.835 -18.108 -4.687 6
18.917 -17.125 -4.625 7
18.125 -16.267 -4.586 7
17.397 -15.489 -4.555 5
16.713 -14.76 -4.521 6
16.09 -14.098 -4.496 5
15.514 -13.494 -4.48 5
14.977 -12.93 -4.465 6
14.469 -12.405 -4.454 6
13.974 -11.896 -4.434 6
13.511 -11.427 -4.421 7
13.068 -10.978 -4.405 8
9.864 -8.235 -2.766 0
9.689 -8.036 -2.839 4
9.69 -7.99 -3.021 4
9.688 -7.938 -3.202 4
9.318 -7.587 -3.144 2
9.707 -7.859 -3.595 4
9.711 -7.815 -3.793 4
26.166 -27.539 -1.856 33
26.336 -27.394 -2.325 38
26.722 -27.469 -2.839 36
9.143 -9.293 0.855 27
9.252 -9.298 0.682 23
30.985 -30.794 -5.251 11
28.629 -28.154 -5.073 9
27.508 -26.766 -5.183 8
25.93 -24.979 -5.116 5
24.325 -23.197 -4.987 26
22.927 -21.656 -4.882 5
21.702 -20.303 -4.794 18
20.648 -19.143 -4.734 7
19.71 -18.109 -4.687 6
18.81 -17.135 -4.629 6
18.017 -16.273 -4.588 8
17.292 -15.493 -4.556 6
16.613 -14.764 -4.523 5
15.992 -14.1 -4.497 5
15.418 -13.495 -4.48 6
14.888 -12.934 -4.467 6
14.393 -12.416 -4.46 6
13.899 -11.907 -4.44 6
13.441 -11.438 -4.428 7
13.005 -10.992 -4.414 8
12.59 -10.575 -4.405 8
9.689 -8.086 -2.875 4
9.685 -8.033 -3.054 6
9.636 -7.943 -3.206 3
9.253 -7.58 -3.138 3
9.707 -7.905 -3.633 4
9.719 -7.867 -3.838 4
26.024 -27.55 -1.858 43
26.27 -27.488 -2.343 39
26.684 -27.595 -2.865 27
9.103 -9.309 0.851 30
9.253 -9.356 0.667 20
30.765 -30.762 -5.243 16
28.352 -28.053 -5.044 17
27.355 -26.781 -5.188 8
25.745 -24.954 -5.108 5
24.156 -23.179 -4.981 25
22.768 -21.641 -4.877 6
21.57 -20.306 -4.795 25
20.516 -19.14 -4.733 7
19.586 -18.108 -4.686 6
18.692 -17.135 -4.629 6
17.904 -16.272 -4.588 7
17.19 -15.498 -4.559 5
16.516 -14.769 -4.525 5
15.911 -14.116 -4.506 5
15.342 -13.512 -4.49 5
14.811 -12.947 -4.475 6
14.311 -12.423 -4.465 6
13.822 -11.913 -4.444 6
13.371 -11.448 -4.435 7
12.93 -10.997 -4.417 8
12.522 -10.583 -4.41 8
9.686 -8.133 -2.909 4
9.688 -8.085 -3.092 6
9.396 -7.791 -3.087 5
9.188 -7.571 -3.131 4
9.344 -7.655 -3.423 3
9.719 -7.913 -3.879 4
25.914 -27.596 -1.866 30
26.179 -27.556 -2.356 40
26.444 -27.51 -2.847 39
9.237 -9.503 0.806 30
9.304 -9.464 0.64 21
30.704 -30.889 -5.277 15
28.201 -28.075 -5.051 21
27.199 -26.793 -5.191 9
25.561 -24.93 -5.1 5
23.982 -23.155 -4.973 25
22.618 -21.632 -4.873 5
21.417 -20.289 -4.788 27
20.38 -19.134 -4.731 8
19.46 -18.104 -4.685 6
18.579 -17.139 -4.631 7
17.8 -16.279 -4.591 8
17.085 -15.501 -4.56 6
16.419 -14.776 -4.529 6
15.816 -14.12 -4.508 5
15.243 -13.509 -4.488 5
14.719 -12.947 -4.475 6
14.229 -12.429 -4.468 6
13.748 -11.923 -4.45 6
13.301 -11.459 -4.442 7
12.867 -11.01 -4.427 8
12.458 -10.593 -4.417 8
9.684 -8.179 -2.943 4
9.685 -8.131 -3.127 4
9.353 -7.802 -3.096 4
9.132 -7.57 -3.13 3
9.282 -7.648 -3.418 3
9.71 -7.952 -3.912 4
25.861 -27.703 -1.885 36
26.014 -27.545 -2.354 38
26.3 -27.524 -2.85 39
9.284 -9.609 0.782 16
9.294 -9.512 0.628 23
27.985 -28.326 -4.59 19
28.051 -28.098 -5.057 16
27.032 -26.794 -5.192 9
25.371 -24.898 -5.09 5
23.816 -23.138 -4.967 24
22.459 -21.615 -4.867 6
21.274 -20.279 -4.784 29
20.246 -19.126 -4.728 8
19.334 -18.1 -4.683 6
18.461 -17.138 -4.63 6
17.687 -16.278 -4.591 7
16.98 -15.503 -4.561 5
16.325 -14.783 -4.533 5
15.724 -14.126 -4.511 5
15.163 -13.523 -4.496 5
14.636 -12.955 -4.479 6
14.154 -12.441 -4.475 6
13.674 -11.933 -4.456 7
13.222 -11.462 -4.443 7
12.793 -11.015 -4.429 8
12.391 -10.6 -4.422 8
9.683 -8.23 -2.979 5
9.685 -8.18 -3.164 4
9.304 -7.808 -3.1 4
9.068 -7.561 -3.123 3
9.214 -7.638 -3.409 3
9.385 -7.73 -3.72 2
25.698 -27.691 -1.883 34
25.998 -27.693 -2.383 34
9.401 -9.898 0.896 4
9.317 -9.701 0.76 3
9.261 -9.536 0.622 4
27.268 -27.77 -4.441 24
27.914 -28.132 -5.067 16
26.862 -26.79 -5.19 12
25.187 -24.871 -5.081 5
23.643 -23.113 -4.958 23
22.306 -21.602 -4.862 6
21.141 -20.279 -4.785 27
20.111 -19.12 -4.725 7
19.216 -18.103 -4.684 6
18.347 -17.139 -4.631 6
17.578 -16.279 -4.591 7
16.884 -15.512 -4.565 5
16.219 -14.781 -4.531 6
15.631 -14.131 -4.514 5
15.073 -13.526 -4.498 5
14.556 -12.964 -4.485 6
14.075 -12.448 -4.48 7
13.605 -11.946 -4.465 7
13.152 -11.472 -4.45 7
12.728 -11.025 -4.436 8
12.327 -10.609 -4.429 8
9.68 -8.276 -3.013 0
9.687 -8.231 -3.203 4
9.255 -7.814 -3.105 4
9.003 -7.553 -3.116 2
9.155 -7.633 -3.405 3
9.301 -7.707 -3.699 3
25.647 -27.8 -1.902 42
25.831 -27.679 -2.38 27
9.357 -9.911 0.893 20
26.325 -27.576 -3.367 39
26.628 -27.584 -3.878 24
27.098 -27.765 -4.44 34
27.596 -27.984 -5.024 37
26.679 -26.772 -5.185 13
25.004 -24.844 -5.072 5
23.478 -23.095 -4.952 22
22.149 -21.584 -4.856 6
21.015 -20.284 -4.786 20
19.982 -19.117 -4.724 8
19.093 -18.1 -4.683 7
18.232 -17.139 -4.631 6
17.477 -16.288 -4.595 7
16.774 -15.508 -4.564 5
16.128 -14.79 -4.536 5
15.545 -14.142 -4.519 5
14.994 -13.54 -4.505 5
14.47 -12.969 -4.488 6
13.996 -12.456 -4.484 7
13.534 -11.957 -4.472 6
13.082 -11.481 -4.456 7
12.662 -11.036 -4.444 8
12.262 -10.619 -4.436 7
11.896 -10.233 -4.435 9
9.686 -8.28 -3.239 4
9.207 -7.819 -3.109 4
8.947 -7.55 -3.114 4
9.091 -7.625 -3.398 3
9.239 -7.7 -3.694 3
25.507 -27.813 -1.904 43
25.779 -27.789 -2.402 36
9.343 -9.956 0.884 17
26.172 -27.582 -3.368 32
26.498 -27.617 -3.886 27
26.931 -27.763 -4.439 21
27.385 -27.941 -5.012 20
26.497 -26.753 -5.179 13
24.821 -24.815 -5.063 5
23.308 -23.071 -4.944 16
21.999 -21.572 -4.852 5
20.886 -20.287 -4.787 9
19.854 -19.113 -4.722 8
18.964 -18.092 -4.679 6
18.117 -17.138 -4.63 6
17.37 -16.291 -4.597 7
16.681 -15.519 -4.569 6
16.029 -14.791 -4.536 5
15.445 -14.139 -4.518 5
14.904 -13.543 -4.507 5
14.393 -12.98 -4.494 6
13.918 -12.463 -4.489 6
13.457 -11.964 -4.476 6
13.01 -11.489 -4.461 7
12.591 -11.041 -4.447 7
12.198 -10.628 -4.441 8
11.836 -10.243 -4.442 9
9.706 -8.348 -3.291 3
9.152 -7.82 -3.11 4
8.889 -7.546 -3.111 3
9.029 -7.618 -3.392 3
9.177 -7.694 -3.688 3
25.472 -27.939 -1.926 35
25.628 -27.792 -2.402 45
25.821 -27.68 -2.883 26
26.029 -27.599 -3.372 24
26.333 -27.612 -3.884 21
26.712 -27.707 -4.424 20
27.135 -27.857 -4.988 20
26.32 -26.74 -5.175 11
24.652 -24.8 -5.058 5
23.141 -23.049 -4.937 15
21.853 -21.563 -4.848 6
20.724 -20.256 -4.776 5
19.717 -19.101 -4.717 7
18.85 -18.096 -4.681 6
18.006 -17.139 -4.631 6
17.258 -16.287 -4.595 7
16.574 -15.517 -4.568 6
15.943 -14.805 -4.544 5
15.364 -14.154 -4.526 6
14.822 -13.553 -4.513 5
14.313 -12.989 -4.499 6
13.84 -12.471 -4.493 8
13.383 -11.972 -4.481 6
12.946 -11.503 -4.47 7
12.531 -11.057 -4.458 8
12.134 -10.637 -4.448 9
11.773 -10.251 -4.448 9
10.087 -8.728 -3.577 4
9.109 -7.83 -3.117 4
8.841 -7.55 -3.114 4
8.97 -7.613 -3.388 3
9.115 -7.686 -3.681 3
25.357 -27.979 -1.933 41
25.511 -27.831 -2.41 35
25.656 -27.668 -2.881 37
25.895 -27.623 -3.377 32
26.157 -27.596 -3.88 21
26.521 -27.677 -4.416 25
26.929 -27.816 -4.976 20
26.116 -26.697 -5.162 10
24.464 -24.764 -5.046 5
22.975 -23.026 -4.929 12
21.699 -21.545 -4.842 5
20.593 -20.254 -4.775 5
19.592 -19.099 -4.716 7
18.719 -18.084 -4.676 6
17.897 -17.144 -4.633 6
17.157 -16.295 -4.598 7
16.47 -15.517 -4.568 6
15.844 -14.806 -4.544 5
15.27 -14.155 -4.527 5
14.735 -13.558 -4.516 5
14.233 -12.997 -4.504 6
13.761 -12.478 -4.498 7
13.311 -11.982 -4.487 6
12.873 -11.509 -4.474 7
12.46 -11.062 -4.461 8
12.07 -10.646 -4.454 8
11.713 -10.261 -4.455 9
9.959 -8.67 -3.533 22
9.055 -7.831 -3.118 4
8.793 -7.554 -3.117 4
8.903 -7.602 -3.379 3
9.054 -7.679 -3.675 3
25.31 -28.093 -1.954 41
25.478 -27.961 -2.435 40
25.673 -27.853 -2.92 35
25.815 -27.705 -3.396 34
26.095 -27.699 -3.906 34
26.35 -27.668 -4.414 22
26.712 -27.762 -4.961 31
25.923 -26.665 -5.152 9
24.28 -24.73 -5.035 5
22.814 -23.008 -4.922 12
21.542 -21.524 -4.834 5
20.459 -20.248 -4.773 5
19.459 -19.088 -4.712 8
18.605 -18.087 -4.677 6
17.777 -17.137 -4.63 6
17.051 -16.296 -4.599 7
16.383 -15.532 -4.575 6
15.751 -14.811 -4.547 6
15.184 -14.164 -4.531 5
14.651 -13.566 -4.52 5
14.151 -13.003 -4.508 6
13.686 -12.487 -4.503 7
13.235 -11.988 -4.491 6
12.801 -11.516 -4.478 7
12.394 -11.072 -4.468 8
12.005 -10.654 -4.46 8
11.655 -10.273 -4.464 9
9.859 -8.635 -3.507 27
9.009 -7.838 -3.124 4
8.754 -7.565 -3.126 4
8.845 -7.596 -3.374 3
8.995 -7.674 -3.671 3
25.22 -28.16 -1.965 44
25.396 -28.038 -2.45 40
25.582 -27.923 -2.935 37
25.727 -27.777 -3.413 36
26.003 -27.769 -3.924 26
26.268 -27.751 -4.436 30
26.523 -27.736 -4.953 23
25.715 -26.614 -5.137 11
24.106 -24.707 -5.028 5
22.665 -23.0 -4.92 22
21.397 -21.513 -4.83 6
20.323 -20.24 -4.77 5
19.339 -19.091 -4.713 7
18.486 -18.085 -4.677 6
17.674 -17.145 -4.633 6
16.942 -16.295 -4.598 8
16.273 -15.526 -4.572 5
15.66 -14.818 -4.55 5
15.1 -14.175 -4.537 6
14.567 -13.573 -4.523 5
14.074 -13.013 -4.513 6
13.611 -12.496 -4.508 8
13.164 -11.997 -4.496 6
12.737 -11.529 -4.487 7
12.326 -11.079 -4.473 8
11.947 -10.667 -4.469 7
11.592 -10.28 -4.469 9
9.832 -8.663 -3.528 25
8.969 -7.85 -3.133 4
8.709 -7.572 -3.131 4
8.786 -7.591 -3.37 3
8.928 -7.662 -3.661 3
25.144 -28.243 -1.98 41
25.287 -28.086 -2.459 44
25.432 -27.927 -2.936 34
25.624 -27.836 -3.426 31
25.889 -27.817 -3.936 32
26.134 -27.78 -4.444 31
26.335 -27.709 -4.945 32
25.534 -26.592 -5.13 13
23.923 -24.671 -5.016 5
22.51 -22.986 -4.915 23
21.26 -21.509 -4.829 5
20.184 -20.229 -4.765 5
19.212 -19.084 -4.71 8
18.372 -18.086 -4.677 6
17.561 -17.142 -4.632 6
16.839 -16.297 -4.6 7
16.175 -15.529 -4.574 6
15.564 -14.821 -4.552 5
15.006 -14.176 -4.537 6
14.485 -13.582 -4.529 5
13.991 -13.018 -4.516 6
13.538 -12.507 -4.515 9
13.09 -12.004 -4.501 6
12.667 -11.537 -4.492 7
12.261 -11.088 -4.479 8
11.885 -10.678 -4.477 8
11.535 -10.292 -4.477 9
9.783 -8.672 -3.535 20
8.92 -7.854 -3.136 4
8.664 -7.578 -3.136 3
8.733 -7.59 -3.369 3
8.867 -7.655 -3.654 3
25.004 -28.253 -1.982 36
25.228 -28.189 -2.479 42
25.397 -28.057 -2.964 40
25.573 -27.948 -3.452 36
25.73 -27.815 -3.935 35
25.928 -27.731 -4.43 45
26.141 -27.676 -4.936 22
25.354 -26.568 -5.123 13
23.756 -24.652 -5.01 5
22.358 -22.975 -4.911 22
21.099 -21.481 -4.818 5
20.048 -20.219 -4.761 5
19.087 -19.08 -4.709 8
18.256 -18.085 -4.677 6
17.45 -17.142 -4.632 6
16.739 -16.303 -4.602 7
16.08 -15.536 -4.577 6
15.471 -14.825 -4.554 6
14.92 -14.184 -4.542 5
14.404 -13.59 -4.533 5
13.915 -13.028 -4.522 6
13.46 -12.512 -4.518 11
13.022 -12.016 -4.509 6
12.598 -11.545 -4.498 7
12.201 -11.102 -4.488 8
11.819 -10.683 -4.48 8
11.464 -10.291 -4.477 9
9.742 -8.689 -3.547 24
8.877 -7.863 -3.144 4
8.619 -7.584 -3.141 4
8.67 -7.58 -3.361 3
8.808 -7.65 -3.65 3
24.922 -28.328 -1.995 51
25.156 -28.277 -2.496 39
25.311 -28.132 -2.98 39
25.454 -27.989 -3.462 37
25.659 -27.908 -3.958 36
25.875 -27.844 -4.461 34
25.935 -27.627 -4.922 20
25.172 -26.541 -5.114 10
23.576 -24.618 -4.999 5
22.215 -22.97 -4.909 13
20.955 -21.468 -4.814 5
19.918 -20.214 -4.76 5
18.966 -19.078 -4.708 8
18.14 -18.084 -4.676 6
17.342 -17.144 -4.633 7
16.634 -16.303 -4.602 7
15.982 -15.538 -4.579 6
15.386 -14.837 -4.56 5
14.835 -14.191 -4.545 5
14.315 -13.591 -4.533 6
13.835 -13.035 -4.526 6
13.382 -12.518 -4.521 13
12.945 -12.021 -4.511 6
12.531 -11.555 -4.504 7
12.13 -11.106 -4.491 8
11.757 -10.693 -4.487 8
11.412 -10.307 -4.489 9
9.712 -8.715 -3.567 24
8.834 -7.873 -3.151 4
8.572 -7.587 -3.144 4
8.612 -7.574 -3.356 3
8.75 -7.644 -3.644 3
24.939 -28.518 -2.028 36
25.025 -28.3 -2.501 42
25.233 -28.215 -2.997 37
25.375 -28.072 -3.481 35
25.577 -27.989 -3.978 36
25.781 -27.915 -4.48 35
25.798 -27.652 -4.929 22
24.984 -26.507 -5.104 7
23.407 -24.594 -4.991 5
22.067 -22.96 -4.906 8
20.813 -21.456 -4.809 6
19.785 -20.206 -4.756 5
18.831 -19.062 -4.701 8
18.022 -18.08 -4.674 7
17.234 -17.145 -4.633 7
16.534 -16.307 -4.604 8
15.887 -15.544 -4.581 6
15.288 -14.835 -4.559 5
14.746 -14.196 -4.548 5
14.239 -13.604 -4.541 5
13.758 -13.044 -4.531 6
13.307 -12.526 -4.526 22
12.874 -12.029 -4.517 7
12.461 -11.563 -4.509 7
12.065 -11.114 -4.497 8
11.696 -10.703 -4.494 8
11.349 -10.313 -4.493 9
9.631 -8.695 -3.552 25
8.785 -7.877 -3.154 4
8.529 -7.595 -3.151 4
8.556 -7.57 -3.352 3
8.683 -7.631 -3.633 3
24.785 -28.512 -2.027 35
24.918 -28.349 -2.511 46
25.162 -28.306 -3.017 36
25.307 -28.167 -3.503 34
25.484 -28.059 -3.996 37
25.68 -27.976 -4.496 38
25.609 -27.619 -4.92 21
24.789 -26.463 -5.091 7
23.238 -24.57 -4.983 5
21.9 -22.93 -4.895 5
20.664 -21.437 -4.802 5
19.65 -20.195 -4.752 5
18.71 -19.06 -4.701 8
17.906 -18.077 -4.673 7
17.124 -17.143 -4.633 7
16.431 -16.309 -4.605 8
15.787 -15.544 -4.581 6
15.198 -14.841 -4.562 5
14.661 -14.203 -4.552 5
14.153 -13.607 -4.542 5
13.679 -13.051 -4.535 6
13.232 -12.533 -4.531 28
12.806 -12.04 -4.524 5
12.395 -11.572 -4.515 5
12.002 -11.126 -4.504 8
11.635 -10.712 -4.501 8
11.287 -10.319 -4.497 9
9.535 -8.66 -3.526 24
8.742 -7.885 -3.161 4
8.484 -7.601 -3.155 4
8.491 -7.557 -3.341 3
8.628 -7.627 -3.63 3
24.728 -28.617 -2.046 33
24.952 -28.559 -2.551 37
25.07 -28.374 -3.031 39
25.227 -28.25 -3.522 35
25.393 -28.131 -4.014 37
25.57 -28.028 -4.51 36
25.427 -27.594 -4.912 24
24.608 -26.433 -5.082 7
23.067 -24.542 -4.974 5
21.731 -22.896 -4.884 5
20.529 -21.43 -4.8 5
19.521 -20.188 -4.75 4
18.581 -19.047 -4.696 9
17.788 -18.071 -4.671 7
17.017 -17.143 -4.632 6
16.332 -16.313 -4.607 7
15.695 -15.551 -4.585 5
15.105 -14.844 -4.563 6
14.57 -14.203 -4.552 5
14.072 -13.614 -4.547 6
13.6 -13.056 -4.538 6
13.157 -12.541 -4.535 32
12.733 -12.046 -4.527 7
12.325 -11.579 -4.52 7
11.934 -11.131 -4.508 8
11.568 -10.717 -4.504 8
11.235 -10.335 -4.509 9
9.518 -8.698 -3.555 19
8.694 -7.89 -3.164 4
8.442 -7.609 -3.162 4
8.438 -7.555 -3.34 3
8.572 -7.624 -3.627 3
24.797 -28.87 -2.09 33
24.899 -28.671 -2.573 29
25.022 -28.492 -3.056 35
25.066 -28.242 -3.52 37
25.294 -28.194 -4.03 38
25.476 -28.098 -4.529 38
25.241 -27.562 -4.903 31
24.429 -26.406 -5.073 6
22.916 -24.533 -4.971 5
21.584 -22.883 -4.879 5
20.393 -21.423 -4.797 5
19.378 -20.167 -4.741 5
18.463 -19.046 -4.695 8
17.678 -18.074 -4.672 6
16.909 -17.143 -4.632 7
16.232 -16.316 -4.608 8
15.592 -15.547 -4.583 6
15.018 -14.852 -4.567 5
14.49 -14.215 -4.558 5
13.994 -13.625 -4.552 5
13.521 -13.062 -4.541 6
13.077 -12.542 -4.536 35
12.662 -12.054 -4.532 6
12.259 -11.589 -4.526 7
11.869 -11.139 -4.513 7
11.507 -10.727 -4.511 7
11.172 -10.34 -4.513 9
9.464 -8.701 -3.557 20
8.651 -7.898 -3.171 4
8.4 -7.617 -3.168 4
8.378 -7.546 -3.332 7
8.517 -7.619 -3.623 3
24.759 -28.998 -2.113 32
24.843 -28.779 -2.594 28
24.957 -28.592 -3.077 33
25.007 -28.348 -3.545 39
25.151 -28.207 -4.033 37
25.384 -28.171 -4.548 41
25.077 -27.553 -4.901 28
24.241 -26.366 -5.061 6
22.732 -24.489 -4.957 5
21.434 -22.867 -4.874 5
20.258 -21.415 -4.794 4
19.257 -20.168 -4.742 5
18.345 -19.044 -4.694 8
17.563 -18.07 -4.67 7
16.802 -17.143 -4.632 7
16.125 -16.311 -4.606 7
15.503 -15.556 -4.587 6
14.934 -14.861 -4.572 5
14.4 -14.215 -4.558 5
13.91 -13.629 -4.554 5
13.447 -13.073 -4.548 6
13.002 -12.549 -4.54 35
12.592 -12.062 -4.537 7
12.192 -11.598 -4.532 7
11.807 -11.149 -4.52 8
11.446 -10.735 -4.517 8
11.112 -10.348 -4.519 8
9.439 -8.732 -3.58 23
8.605 -7.904 -3.176 4
8.355 -7.622 -3.172 4
8.325 -7.545 -3.331 5
8.451 -7.606 -3.611 3
24.675 -29.074 -2.126 33
24.799 -28.903 -2.618 28
24.906 -28.707 -3.102 33
25.018 -28.534 -3.588 35
25.083 -28.304 -4.057 44
25.305 -28.257 -4.571 37
24.928 -27.56 -4.903 24
24.056 -26.328 -5.049 6
22.581 -24.479 -4.954 5
21.274 -22.84 -4.864 5
20.118 -21.401 -4.789 5
19.129 -20.16 -4.739 4
18.207 -19.02 -4.684 14
17.453 -18.071 -4.671 7
16.704 -17.149 -4.635 7
16.034 -16.322 -4.611 8
15.404 -15.554 -4.586 6
14.836 -14.858 -4.57 5
14.317 -14.223 -4.563 5
13.83 -13.635 -4.558 5
13.368 -13.078 -4.551 6
12.935 -12.563 -4.548 30
12.521 -12.069 -4.542 5
12.121 -11.601 -4.534 7
11.747 -11.162 -4.529 8
11.385 -10.744 -4.523 8
11.05 -10.354 -4.523 9
9.393 -8.743 -3.588 25
8.559 -7.911 -3.18 4
8.31 -7.627 -3.176 4
8.276 -7.545 -3.331 4
8.401 -7.605 -3.611 3
24.562 -29.115 -2.134 30
24.745 -29.015 -2.64 38
24.854 -28.822 -3.126 34
24.955 -28.637 -3.611 36
25.031 -28.419 -4.086 42
25.2 -28.314 -4.587 39
24.795 -27.583 -4.909 28
23.876 -26.295 -5.039 6
22.42 -24.457 -4.946 4
21.123 -22.819 -4.857 5
19.979 -21.387 -4.784 5
18.995 -20.145 -4.733 5
18.084 -19.012 -4.681 15
17.344 -18.072 -4.671 7
16.597 -17.148 -4.635 6
15.932 -16.321 -4.611 8
15.32 -15.568 -4.593 6
14.752 -14.867 -4.575 5
14.235 -14.232 -4.567 5
13.746 -13.639 -4.56 6
13.289 -13.083 -4.554 6
12.863 -12.572 -4.554 7
12.448 -12.074 -4.545 5
12.059 -11.616 -4.543 6
11.682 -11.17 -4.534 8
11.324 -10.753 -4.529 7
10.993 -10.364 -4.53 9
9.342 -8.748 -3.592 23
8.519 -7.921 -3.189 3
8.279 -7.644 -3.19 4
8.275 -7.589 -3.368 4
8.344 -7.599 -3.605 3
24.482 -29.196 -2.148 32
24.705 -29.144 -2.665 41
24.801 -28.937 -3.151 33
24.895 -28.743 -3.636 36
24.949 -28.502 -4.106 49
25.147 -28.429 -4.618 39
24.639 -27.581 -4.909 23
23.697 -26.261 -5.029 6
22.261 -24.436 -4.94 5
20.969 -22.796 -4.849 5
19.836 -21.368 -4.777 5
18.872 -20.142 -4.732 5
17.975 -19.016 -4.683 14
17.227 -18.063 -4.667 6
16.49 -17.146 -4.634 7
15.833 -16.323 -4.611 8
15.223 -15.568 -4.593 6
14.665 -14.874 -4.578 5
14.15 -14.236 -4.569 5
13.663 -13.642 -4.562 5
13.221 -13.098 -4.562 6
12.789 -12.577 -4.557 6
12.377 -12.081 -4.549 7
11.99 -11.621 -4.547 6
11.62 -11.179 -4.541 7
11.263 -10.761 -4.535 8
10.935 -10.373 -4.537 9
9.27 -8.734 -3.582 25
8.47 -7.924 -3.191 2
8.275 -7.687 -3.225 3
8.276 -7.636 -3.407 5
8.281 -7.587 -3.595 8
24.693 -29.626 -2.224 21
24.599 -29.195 -2.675 19
24.768 -29.076 -3.18 32
24.849 -28.867 -3.665 33
24.945 -28.673 -4.149 38
25.08 -28.53 -4.645 36
24.491 -27.587 -4.91 20
23.526 -26.235 -5.021 6
22.098 -24.409 -4.931 5
20.818 -22.774 -4.842 5
19.692 -21.347 -4.77 5
18.747 -20.135 -4.729 5
17.855 -19.01 -4.681 4
17.118 -18.063 -4.667 6
16.386 -17.146 -4.634 7
15.737 -16.326 -4.613 8
15.127 -15.568 -4.593 6
14.576 -14.877 -4.58 5
14.068 -14.243 -4.573 5
13.591 -13.656 -4.57 6
13.139 -13.1 -4.563 6
12.719 -12.588 -4.564 7
12.312 -12.093 -4.557 7
11.927 -11.631 -4.553 7
11.549 -11.181 -4.541 7
11.199 -10.767 -4.539 8
10.873 -10.378 -4.54 9
9.221 -8.741 -3.587 12
8.438 -7.942 -3.205 0
8.274 -7.732 -3.261 3
8.274 -7.681 -3.445 4
8.277 -7.628 -3.631 3
24.678 -29.787 -2.252 27
24.672 -29.461 -2.727 21
24.745 -29.227 -3.212 25
24.8 -28.988 -3.692 36
24.896 -28.795 -4.179 39
25.015 -28.633 -4.672 38
24.325 -27.571 -4.906 14
23.34 -26.191 -5.007 6
21.92 -24.365 -4.917 5
20.657 -22.74 -4.83 5
19.553 -21.331 -4.764 5
18.622 -20.127 -4.726 5
17.749 -19.017 -4.683 15
17.006 -18.059 -4.666 7
16.28 -17.144 -4.633 6
15.636 -16.324 -4.612 8
15.033 -15.569 -4.594 6
14.489 -14.883 -4.583 5
13.983 -14.247 -4.575 5
13.51 -13.661 -4.573 6
13.063 -13.106 -4.567 6
12.642 -12.59 -4.565 8
12.242 -12.1 -4.561 7
11.86 -11.64 -4.559 6
11.487 -11.19 -4.548 7
11.141 -10.778 -4.547 8
10.818 -10.389 -4.548 8
9.165 -8.742 -3.588 4
8.952 -8.478 -3.624 21
8.282 -7.787 -3.306 3
8.28 -7.733 -3.489 3
8.282 -7.679 -3.676 3
24.719 -30.017 -2.293 27
24.724 -29.703 -2.774 24
24.737 -29.396 -3.248 25
24.771 -29.133 -3.726 32
24.847 -28.915 -4.209 35
24.953 -28.74 -4.701 36
24.131 -27.522 -4.892 9
23.17 -26.163 -4.999 6
21.762 -24.342 -4.909 5
20.504 -22.715 -4.821 5
19.415 -21.314 -4.758 5
18.505 -20.127 -4.726 5
17.614 -18.992 -4.673 19
16.9 -18.061 -4.666 7
16.185 -17.152 -4.636 6
15.543 -16.331 -4.615 8
14.945 -15.577 -4.597 6
14.403 -14.888 -4.586 5
13.896 -14.249 -4.576 5
13.433 -13.669 -4.577 5
12.987 -13.113 -4.571 6
12.573 -12.601 -4.571 7
12.174 -12.109 -4.566 7
11.792 -11.644 -4.562 7
11.422 -11.197 -4.552 7
11.085 -10.791 -4.556 8
10.759 -10.397 -4.554 9
9.129 -8.761 -3.602 9
8.928 -8.506 -3.646 25
8.283 -7.835 -3.345 3
8.281 -7.78 -3.528 3
8.278 -7.721 -3.712 3
24.588 -30.041 -2.297 22
24.627 -29.767 -2.786 21
24.727 -29.565 -3.284 23
24.747 -29.284 -3.761 26
24.807 -29.049 -4.243 34
24.815 -28.76 -4.706 42
23.925 -27.458 -4.873 8
22.998 -26.132 -4.989 6
21.613 -24.328 -4.905 5
20.351 -22.689 -4.812 5
19.274 -21.293 -4.75 6
18.37 -20.108 -4.719 5
17.506 -18.996 -4.675 29
16.792 -18.059 -4.666 7
16.081 -17.151 -4.636 7
15.439 -16.325 -4.613 8
14.851 -15.578 -4.598 6
14.316 -14.893 -4.588 5
13.817 -14.257 -4.581 5
13.355 -13.676 -4.581 6
12.912 -13.118 -4.574 6
12.499 -12.605 -4.574 7
12.109 -12.12 -4.573 6
11.733 -11.66 -4.572 6
11.365 -11.21 -4.562 7
11.022 -10.795 -4.559 8
10.699 -10.404 -4.559 9
9.065 -8.753 -3.596 16
8.862 -8.496 -3.638 16
8.283 -7.883 -3.383 3
8.281 -7.827 -3.568 3
8.275 -7.765 -3.75 3
24.08 -29.599 -2.219 19
24.654 -29.982 -2.828 22
24.742 -29.766 -3.327 21
24.734 -29.45 -3.799 23
24.772 -29.188 -4.277 32
24.648 -28.744 -4.702 36
23.776 -27.457 -4.873 10
22.826 -26.1 -4.98 5
21.451 -24.298 -4.895 5
20.21 -22.674 -4.807 5
19.146 -21.287 -4.748 6
18.251 -20.104 -4.717 5
17.385 -18.984 -4.67 32
16.684 -18.057 -4.665 7
15.976 -17.147 -4.634 6
15.346 -16.331 -4.615 7
14.763 -15.584 -4.601 6
14.228 -14.895 -4.59 5
13.735 -14.263 -4.584 6
13.278 -13.683 -4.585 6
12.838 -13.126 -4.579 6
12.427 -12.613 -4.578 7
12.037 -12.123 -4.575 7
11.662 -11.662 -4.573 7
11.303 -11.219 -4.567 8
10.963 -10.805 -4.566 7
10.645 -10.414 -4.566 8
8.979 -8.724 -3.574 22
8.784 -8.472 -3.619 10
8.285 -7.934 -3.425 3
8.281 -7.874 -3.607 3
8.282 -7.819 -3.797 3
27.664 -34.211 -3.032 5
24.703 -30.226 -2.875 28
24.794 -30.012 -3.379 20
24.731 -29.629 -3.84 22
24.725 -29.314 -4.309 40
24.549 -28.808 -4.719 33
23.657 -27.492 -4.883 12
22.65 -26.061 -4.968 5
21.303 -24.282 -4.89 5
20.068 -22.657 -4.802 6
19.016 -21.277 -4.744 6
18.129 -20.098 -4.715 6
17.287 -18.998 -4.676 21
16.576 -18.055 -4.664 7
15.881 -17.154 -4.637 7
15.251 -16.333 -4.616 7
14.672 -15.587 -4.602 6
14.144 -14.902 -4.593 5
13.656 -14.271 -4.588 5
13.198 -13.688 -4.587 6
12.763 -13.132 -4.582 6
12.358 -12.622 -4.584 8
11.972 -12.134 -4.582 7
11.598 -11.671 -4.579 7
11.238 -11.225 -4.571 8
10.897 -10.807 -4.567 7
10.59 -10.426 -4.575 9
8.951 -8.75 -3.594 19
8.676 -8.42 -3.579 26
9.435 -9.091 -4.361 25
8.283 -7.925 -3.65 3
8.282 -7.866 -3.838 3
27.556 -34.285 -3.045 8
24.808 -30.541 -2.937 1
24.704 -30.088 -3.395 38
24.709 -29.787 -3.877 27
24.729 -29.502 -4.356 23
24.445 -28.865 -4.734 33
23.538 -27.526 -4.893 12
22.479 -26.028 -4.958 6
21.144 -24.254 -4.881 6
19.927 -22.641 -4.796 6
18.889 -21.268 -4.741 6
18.008 -20.09 -4.712 5
17.169 -18.989 -4.672 16
16.465 -18.049 -4.661 7
15.778 -17.152 -4.636 7
