# .PCD v0.7 - Point Cloud Data file format
VERSION 0.7
FIELDS x y z intensity
SIZE 4 4 4 4
TYPE F F F F
COUNT 1 1 1 1
WIDTH 2363
HEIGHT 1
VIEWPOINT 0 0 0 1 0 0 0
POINTS 2363
DATA ascii
-1.225 -0.787 2.428 1
-1.22 -0.782 2.411 3
-1.203 -0.768 2.4 20
-1.198 -0.762 2.383 27
-1.19 -0.754 2.368 14
-1.181 -0.745 2.352 10
-1.856 -1.528 2.731 14
-1.849 -1.502 2.708 12
-1.833 -1.467 2.688 3
-1.79 -1.413 2.674 1
-1.678 -1.307 2.674 0
-1.693 -1.302 2.651 14
0.0 -0.0 3.0 0
-1.794 -1.346 2.589 0
0.0 -0.0 3.0 0
-2.112 -1.548 2.467 1
0.0 -0.0 3.0 0
0.0 -0.0 3.0 0
0.0 -0.0 3.0 0
-1.544 -1.087 2.539 0
-1.501 -1.046 2.534 0
-1.46 -1.01 2.529 0
0.0 -0.0 3.0 0
-1.424 -0.969 2.506 0
-1.388 -0.938 2.501 0
-1.384 -0.929 2.485 0
-1.36 -0.907 2.477 0
-1.272 -0.843 2.493 0
-1.26 -0.831 2.481 0
-1.276 -0.837 2.457 9
-1.257 -0.82 2.447 2
-1.21 -0.786 2.45 1
-1.203 -0.778 2.435 5
-1.211 -0.78 2.412 14
-1.197 -0.768 2.4 24
-1.192 -0.762 2.383 16
-1.187 -0.757 2.365 11
-1.178 -0.748 2.35 4
-1.852 -1.534 2.73 13
-1.839 -1.502 2.708 14
-1.825 -1.47 2.688 1
-1.736 -1.38 2.681 0
-1.668 -1.308 2.674 0
-1.68 -1.299 2.652 17
0.0 -0.0 3.0 0
-1.758 -1.327 2.594 0
-1.706 -1.273 2.586 0
-2.11 -1.556 2.464 2
0.0 -0.0 3.0 0
0.0 -0.0 3.0 0
0.0 -0.0 3.0 0
-1.576 -1.116 2.526 0
-1.491 -1.046 2.534 0
-1.469 -1.022 2.523 0
0.0 -0.0 3.0 0
-1.411 -0.967 2.508 0
-1.382 -0.939 2.501 0
-1.368 -0.924 2.488 0
-1.353 -0.908 2.476 0
-1.269 -0.846 2.491 1
-1.263 -0.838 2.476 0
-1.27 -0.838 2.456 5
-1.229 -0.807 2.456 4
-1.216 -0.795 2.443 1
-1.216 -0.791 2.425 3
-1.208 -0.783 2.41 21
-1.197 -0.773 2.396 24
-1.186 -0.763 2.382 16
-1.184 -0.759 2.363 10
-1.172 -0.748 2.349 1
-1.851 -1.541 2.728 8
-1.837 -1.509 2.707 10
-1.83 -1.482 2.685 1
-1.71 -1.367 2.684 0
-1.642 -1.295 2.677 0
-1.669 -1.3 2.652 18
0.0 -0.0 3.0 0
-1.742 -1.323 2.596 0
-1.736 -1.304 2.576 0
-2.099 -1.558 2.464 1
0.0 -0.0 3.0 0
0.0 -0.0 3.0 0
0.0 -0.0 3.0 0
0.0 -0.0 3.0 0
0.0 -0.0 3.0 0
-1.434 -1.004 2.532 0
-1.424 -0.99 2.517 0
-1.401 -0.967 2.508 0
-1.366 -0.935 2.503 0
-1.355 -0.921 2.49 0
-1.344 -0.907 2.476 0
-1.266 -0.85 2.489 1
-1.248 -0.833 2.479 0
-1.261 -0.837 2.456 4
-1.217 -0.804 2.458 1
-1.198 -0.788 2.448 3
-1.213 -0.794 2.423 12
-1.211 -0.79 2.405 20
-1.191 -0.774 2.395 18
-1.184 -0.766 2.38 13
-1.184 -0.764 2.359 7
-1.185 -0.761 2.338 0
-1.84 -1.541 2.728 12
-1.821 -1.504 2.708 3
-1.822 -1.485 2.684 0
-1.685 -1.355 2.687 0
-1.638 -1.3 2.676 0
-1.669 -1.306 2.65 18
0.0 -0.0 3.0 0
-1.719 -1.314 2.598 0
0.0 -0.0 3.0 0
-2.103 -1.571 2.459 1
0.0 -0.0 3.0 0
-1.647 -1.205 2.538 0
0.0 -0.0 3.0 0
0.0 -0.0 3.0 0
-1.477 -1.051 2.532 0
-1.433 -1.011 2.529 0
-1.421 -0.994 2.515 0
0.0 -0.0 3.0 0
-1.369 -0.943 2.499 0
-1.374 -0.94 2.479 0
-1.331 -0.904 2.478 0
-1.256 -0.849 2.49 0
-1.238 -0.832 2.48 0
-1.236 -0.826 2.464 5
-1.22 -0.811 2.453 1
-1.21 -0.801 2.439 2
-1.203 -0.793 2.424 21
-1.205 -0.791 2.404 18
-1.185 -0.775 2.395 12
-1.178 -0.766 2.38 10
-1.185 -0.768 2.355 1
-1.176 -0.76 2.339 0
-1.838 -1.55 2.727 13
-1.828 -1.52 2.704 1
0.0 -0.0 3.0 0
-1.662 -1.345 2.69 0
-1.634 -1.304 2.675 0
-1.655 -1.304 2.651 20
0.0 -0.0 3.0 0
-1.705 -1.311 2.599 0
0.0 -0.0 3.0 0
-2.057 -1.546 2.468 0
0.0 -0.0 3.0 0
0.0 -0.0 3.0 0
0.0 -0.0 3.0 0
-1.485 -1.072 2.545 0
-1.461 -1.046 2.535 0
-1.436 -1.019 2.525 0
0.0 -0.0 3.0 0
-1.398 -0.976 2.503 0
-1.359 -0.942 2.499 0
-1.348 -0.929 2.485 0
-1.303 -0.891 2.485 0
-1.25 -0.85 2.489 0
-1.248 -0.844 2.473 0
-1.239 -0.834 2.459 1
-1.202 -0.804 2.458 2
-1.21 -0.806 2.436 8
-1.21 -0.802 2.418 20
-1.199 -0.792 2.403 20
-1.18 -0.775 2.394 10
-1.178 -0.772 2.375 8
-1.173 -0.765 2.358 0
-1.164 -0.756 2.343 0
-1.828 -1.55 2.727 7
-1.821 -1.523 2.704 1
0.0 -0.0 3.0 0
-1.664 -1.355 2.687 0
-1.624 -1.304 2.675 0
-1.642 -1.302 2.651 20
0.0 -0.0 3.0 0
-1.676 -1.297 2.603 0
-1.677 -1.283 2.583 0
-2.036 -1.54 2.47 1
0.0 -0.0 3.0 0
0.0 -0.0 3.0 0
0.0 -0.0 3.0 0
0.0 -0.0 3.0 0
-1.451 -1.046 2.535 0
-1.414 -1.01 2.529 0
-1.414 -1.002 2.511 0
-1.36 -0.956 2.513 0
-1.356 -0.946 2.497 0
-1.342 -0.93 2.484 0
-1.29 -0.888 2.487 0
-1.238 -0.847 2.491 1
-1.22 -0.83 2.481 1
-1.217 -0.824 2.465 0
-1.202 -0.809 2.455 2
-1.198 -0.803 2.438 17
-1.201 -0.801 2.418 18
-1.19 -0.791 2.404 14
-1.183 -0.782 2.389 9
-1.184 -0.779 2.369 3
-1.176 -0.772 2.353 0
0.0 -0.0 3.0 0
-1.823 -1.555 2.726 1
-1.78 -1.497 2.709 0
0.0 -0.0 3.0 0
-1.645 -1.347 2.689 0
-1.601 -1.294 2.677 0
-1.632 -1.301 2.651 18
0.0 -0.0 3.0 0
-1.65 -1.285 2.607 0
0.0 -0.0 3.0 0
-2.069 -1.576 2.457 0
-2.025 -1.526 2.445 0
0.0 -0.0 3.0 0
0.0 -0.0 3.0 0
-1.472 -1.077 2.543 0
-1.454 -1.054 2.531 0
-1.407 -1.011 2.528 0
-1.401 -0.999 2.513 0
-1.344 -0.95 2.516 0
-1.343 -0.943 2.499 0
-1.307 -0.912 2.495 0
-1.265 -0.876 2.494 0
-1.235 -0.85 2.489 0
-1.22 -0.835 2.478 1
-1.214 -0.827 2.463 1
-1.208 -0.818 2.448 5
-1.204 -0.812 2.431 17
-1.198 -0.804 2.416 22
-1.187 -0.794 2.402 11
-1.174 -0.781 2.39 8
-1.172 -0.777 2.371 0
-1.152 -0.76 2.362 0
0.0 -0.0 3.0 0
-1.825 -1.565 2.724 1
0.0 -0.0 3.0 0
0.0 -0.0 3.0 0
-1.622 -1.336 2.692 0
-1.604 -1.304 2.675 0
-1.621 -1.302 2.651 16
0.0 -0.0 3.0 0
-1.661 -1.302 2.602 0
0.0 -0.0 3.0 0
-1.989 -1.524 2.475 0
0.0 -0.0 3.0 0
0.0 -0.0 3.0 0
0.0 -0.0 3.0 0
-1.446 -1.065 2.548 0
-1.438 -1.049 2.533 0
-1.397 -1.011 2.529 0
-1.391 -0.998 2.513 0
-1.344 -0.957 2.513 0
-1.337 -0.945 2.498 0
-1.304 -0.915 2.493 0
-1.259 -0.878 2.493 0
-1.222 -0.847 2.491 1
-1.223 -0.843 2.473 0
-1.208 -0.828 2.462 2
-1.205 -0.821 2.446 14
-1.195 -0.811 2.432 15
-1.195 -0.807 2.414 15
-1.19 -0.8 2.397 11
-1.174 -0.786 2.386 3
-1.172 -0.781 2.367 0
-1.134 -0.752 2.369 0
0.0 -0.0 3.0 0
-1.805 -1.557 2.725 1
0.0 -0.0 3.0 0
0.0 -0.0 3.0 0
-1.621 -1.343 2.69 0
-1.6 -1.308 2.674 0
-1.62 -1.309 2.649 15
-1.643 -1.312 2.624 0
-1.629 -1.285 2.607 0
0.0 -0.0 3.0 0
0.0 -0.0 3.0 0
-2.056 -1.568 2.429 0
0.0 -0.0 3.0 0
0.0 -0.0 3.0 0
0.0 -0.0 3.0 0
-1.431 -1.051 2.532 0
-1.406 -1.024 2.522 0
-1.369 -0.989 2.518 0
-1.35 -0.967 2.507 0
-1.305 -0.929 2.506 0
-1.288 -0.91 2.496 0
-1.24 -0.87 2.498 0
-1.229 -0.857 2.485 3
-1.211 -0.839 2.476 1
-1.217 -0.84 2.455 5
-1.202 -0.824 2.444 15
-1.198 -0.818 2.427 17
-1.189 -0.807 2.413 12
-1.181 -0.799 2.398 10
-1.162 -0.782 2.389 0
-1.163 -0.78 2.368 0
-1.137 -0.759 2.363 0
0.0 -0.0 3.0 0
0.0 -0.0 3.0 0
0.0 -0.0 3.0 0
0.0 -0.0 3.0 0
-1.593 -1.328 2.693 0
-1.568 -1.291 2.678 0
-1.607 -1.306 2.65 12
-1.612 -1.295 2.629 0
-1.607 -1.275 2.61 0
-1.641 -1.288 2.582 0
-1.555 -1.207 2.584 0
-2.057 -1.58 2.425 1
0.0 -0.0 3.0 0
-1.459 -1.099 2.556 0
-1.451 -1.082 2.541 0
-1.43 -1.057 2.529 0
-1.378 -1.01 2.529 0
-1.375 -1.0 2.512 0
-1.334 -0.962 2.51 0
-1.308 -0.937 2.502 0
-1.269 -0.903 2.5 0
-1.231 -0.869 2.498 0
-1.219 -0.856 2.486 1
-1.205 -0.841 2.475 2
-1.208 -0.838 2.456 13
-1.202 -0.829 2.441 13
-1.189 -0.817 2.428 13
-1.186 -0.81 2.411 12
-1.184 -0.806 2.393 5
-1.159 -0.785 2.387 0
-1.139 -0.768 2.378 0
-1.137 -0.764 2.359 0
0.0 -0.0 3.0 0
0.0 -0.0 3.0 0
0.0 -0.0 3.0 0
0.0 -0.0 3.0 0
-1.595 -1.337 2.691 0
-1.582 -1.31 2.673 0
-1.6 -1.308 2.65 8
0.0 -0.0 3.0 0
-1.606 -1.282 2.608 0
0.0 -0.0 3.0 0
-1.669 -1.303 2.551 0
-2.057 -1.59 2.421 0
-1.476 -1.129 2.567 0
-1.443 -1.093 2.558 0
-1.401 -1.052 2.553 0
-1.405 -1.046 2.535 0
-1.381 -1.019 2.525 0
-1.356 -0.992 2.516 0
-1.318 -0.957 2.513 0
-1.289 -0.929 2.506 0
-1.244 -0.891 2.506 0
-1.221 -0.868 2.499 1
-1.219 -0.861 2.483 1
-1.211 -0.85 2.469 3
-1.208 -0.844 2.452 15
-1.193 -0.828 2.441 14
-1.186 -0.82 2.426 10
-1.183 -0.813 2.41 11
-1.178 -0.807 2.392 0
-1.156 -0.787 2.385 0
-1.136 -0.771 2.376 0
0.0 -0.0 3.0 0
0.0 -0.0 3.0 0
0.0 -0.0 3.0 0
0.0 -0.0 3.0 0
0.0 -0.0 3.0 0
-1.584 -1.337 2.691 0
-1.572 -1.309 2.674 0
-1.587 -1.305 2.65 5
-1.603 -1.304 2.626 0
0.0 -0.0 3.0 0
-1.578 -1.254 2.593 0
0.0 -0.0 3.0 0
-2.031 -1.579 2.425 0
0.0 -0.0 3.0 0
0.0 -0.0 3.0 0
-1.407 -1.063 2.549 0
-1.383 -1.035 2.539 0
-1.371 -1.018 2.525 0
-1.346 -0.991 2.517 0
-1.296 -0.947 2.518 0
-1.274 -0.923 2.509 0
-1.235 -0.89 2.507 1
-1.221 -0.873 2.496 1
-1.204 -0.856 2.486 2
-1.211 -0.855 2.466 11
-1.202 -0.844 2.452 13
-1.187 -0.829 2.441 13
-1.183 -0.822 2.424 12
-1.186 -0.82 2.404 8
-1.172 -0.807 2.392 0
-1.117 -0.765 2.402 0
-1.139 -0.777 2.371 0
-1.104 -0.75 2.37 0
0.0 -0.0 3.0 0
0.0 -0.0 3.0 0
0.0 -0.0 3.0 0
0.0 -0.0 3.0 0
-1.565 -1.329 2.693 0
-1.553 -1.302 2.675 0
-1.586 -1.312 2.648 3
-1.599 -1.309 2.625 0
-1.567 -1.267 2.613 0
-1.592 -1.273 2.586 0
0.0 -0.0 3.0 0
-2.062 -1.614 2.412 0
0.0 -0.0 3.0 0
-1.417 -1.088 2.561 0
-1.394 -1.06 2.55 0
-1.398 -1.054 2.531 0
-1.361 -1.017 2.526 0
-1.33 -0.985 2.519 0
-1.274 -0.937 2.523 0
-1.249 -0.912 2.515 0
-1.21 -0.877 2.514 1
-1.221 -0.879 2.492 1
-1.213 -0.868 2.479 2
-1.208 -0.859 2.464 16
-1.196 -0.845 2.451 14
-1.184 -0.832 2.439 10
-1.183 -0.828 2.42 12
-1.18 -0.821 2.404 1
-1.169 -0.81 2.389 0
-1.12 -0.772 2.397 0
-1.112 -0.763 2.382 0
-1.119 -0.765 2.358 0
-1.108 -0.754 2.344 0
0.0 -0.0 3.0 0
0.0 -0.0 3.0 0
0.0 -0.0 3.0 0
-1.618 -1.382 2.681 0
0.0 -0.0 3.0 0
-1.566 -1.305 2.65 2
-1.577 -1.298 2.628 0
-1.539 -1.251 2.617 0
-1.6 -1.287 2.582 0
0.0 -0.0 3.0 0
-2.051 -1.615 2.412 0
-1.458 -1.137 2.563 0
-1.414 -1.092 2.559 0
-1.381 -1.056 2.552 0
-1.376 -1.044 2.535 0
-1.355 -1.019 2.525 0
-1.302 -0.971 2.526 0
-1.277 -0.945 2.519 0
-1.236 -0.908 2.517 0
-1.22 -0.89 2.507 1
-1.206 -0.873 2.496 1
-1.21 -0.871 2.476 9
-1.205 -0.862 2.461 13
-1.196 -0.851 2.447 14
-1.181 -0.835 2.436 12
-1.177 -0.829 2.42 9
-1.164 -0.815 2.408 0
-1.151 -0.802 2.395 0
-1.123 -0.779 2.392 0
-1.115 -0.77 2.376 0
-1.122 -0.771 2.353 0
0.0 -0.0 3.0 0
0.0 -0.0 3.0 0
0.0 -0.0 3.0 0
0.0 -0.0 3.0 0
-2.499 -2.147 2.504 4
0.0 -0.0 3.0 0
-1.562 -1.309 2.649 2
-1.57 -1.3 2.627 0
-1.532 -1.254 2.617 0
-1.544 -1.25 2.594 0
0.0 -0.0 3.0 0
-2.039 -1.617 2.411 0
-1.442 -1.132 2.566 0
-1.395 -1.084 2.562 0
-1.384 -1.066 2.548 0
-1.372 -1.047 2.534 0
-1.342 -1.015 2.527 0
-1.308 -0.982 2.521 0
-1.255 -0.935 2.524 0
-1.212 -0.896 2.524 1
-1.213 -0.89 2.506 1
-1.209 -0.881 2.491 2
-1.204 -0.872 2.476 14
-1.198 -0.863 2.461 12
-1.193 -0.853 2.446 10
-1.181 -0.84 2.433 12
-1.177 -0.833 2.416 1
-1.161 -0.818 2.405 0
-1.148 -0.805 2.393 0
-1.105 -0.771 2.398 0
-1.116 -0.775 2.373 0
-1.113 -0.77 2.354 0
0.0 -0.0 3.0 0
0.0 -0.0 3.0 0
0.0 -0.0 3.0 0
0.0 -0.0 3.0 0
-1.559 -1.347 2.689 0
0.0 -0.0 3.0 0
-1.549 -1.306 2.65 1
-1.563 -1.302 2.627 0
-1.54 -1.269 2.612 0
-1.519 -1.237 2.598 0
-1.48 -1.193 2.589 0
-1.479 -1.18 2.571 0
-1.396 -1.103 2.577 0
-1.434 -1.122 2.547 0
-1.377 -1.068 2.547 0
-1.359 -1.045 2.535 0
-1.298 -0.989 2.539 0
-1.292 -0.976 2.524 0
-1.237 -0.927 2.528 0
-1.221 -0.908 2.517 0
-1.21 -0.894 2.505 2
-1.209 -0.887 2.488 7
-1.207 -0.88 2.471 13
-1.195 -0.866 2.459 13
-1.186 -0.855 2.445 13
-1.174 -0.841 2.433 11
-1.174 -0.837 2.414 0
-1.161 -0.823 2.402 0
-1.136 -0.802 2.396 0
-1.117 -0.784 2.388 0
-1.095 -0.764 2.381 0
-1.108 -0.77 2.354 0
0.0 -0.0 3.0 0
0.0 -0.0 3.0 0
0.0 -0.0 3.0 0
0.0 -0.0 3.0 0
-1.543 -1.342 2.69 0
-1.552 -1.332 2.668 0
-1.545 -1.311 2.649 0
-1.543 -1.294 2.629 0
-1.502 -1.245 2.619 0
-1.497 -1.227 2.601 0
-1.482 -1.201 2.586 0
-1.475 -1.184 2.569 0
-2.077 -1.651 2.366 1
-2.116 -1.666 2.327 0
-1.367 -1.067 2.547 0
-1.353 -1.045 2.535 0
-1.283 -0.983 2.541 0
-1.28 -0.973 2.526 0
-1.218 -0.919 2.532 0
-1.214 -0.909 2.517 1
-1.204 -0.895 2.504 2
-1.205 -0.89 2.486 12
-1.197 -0.878 2.472 11
-1.189 -0.867 2.458 10
-1.186 -0.86 2.442 13
-1.183 -0.853 2.425 2
-1.159 -0.83 2.419 0
-1.146 -0.817 2.406 0
-1.142 -0.811 2.389 0
-1.117 -0.788 2.384 0
-1.092 -0.767 2.379 0
-1.099 -0.769 2.355 0
0.0 -0.0 3.0 0
0.0 -0.0 3.0 0
0.0 -0.0 3.0 0
0.0 -0.0 3.0 0
-1.515 -1.326 2.694 0
-1.533 -1.324 2.67 0
-1.52 -1.297 2.652 0
-1.563 -1.319 2.622 0
-1.513 -1.262 2.614 0
-1.499 -1.236 2.598 0
-1.475 -1.203 2.586 0
0.0 -0.0 3.0 0
-1.437 -1.149 2.559 0
-2.138 -1.694 2.316 0
-1.342 -1.054 2.553 0
-1.306 -1.016 2.548 0
-1.279 -0.987 2.54 0
-1.234 -0.944 2.54 0
-1.221 -0.927 2.528 0
-1.208 -0.91 2.516 1
-1.204 -0.901 2.501 8
-1.205 -0.896 2.483 13
-1.197 -0.884 2.469 13
-1.183 -0.868 2.458 10
-1.183 -0.863 2.439 11
-1.168 -0.847 2.429 0
-1.159 -0.835 2.415 0
-1.149 -0.824 2.401 0
-1.13 -0.807 2.392 0
-1.117 -0.793 2.38 0
-1.11 -0.785 2.365 0
-1.093 -0.769 2.354 0
0.0 -0.0 3.0 0
0.0 -0.0 3.0 0
0.0 -0.0 3.0 0
0.0 -0.0 3.0 0
-2.443 -2.15 2.504 5
-1.52 -1.32 2.671 0
0.0 -0.0 3.0 0
-1.544 -1.311 2.624 0
-1.509 -1.267 2.613 0
-1.465 -1.216 2.605 0
-1.459 -1.198 2.587 0
0.0 -0.0 3.0 0
-1.43 -1.151 2.558 0
-1.362 -1.086 2.561 0
-1.348 -1.065 2.548 0
-1.291 -1.011 2.55 0
-1.252 -0.972 2.547 0
-1.218 -0.938 2.543 0
-1.212 -0.925 2.529 0
-1.211 -0.918 2.512 2
-1.207 -0.909 2.496 13
-1.202 -0.898 2.481 10
-1.191 -0.885 2.468 11
-1.183 -0.873 2.454 13
-1.192 -0.875 2.432 3
-1.15 -0.839 2.434 0
-1.132 -0.822 2.425 0
-1.161 -0.838 2.391 0
-1.127 -0.809 2.39 0
-1.123 -0.803 2.373 0
-1.124 -0.799 2.353 0
-1.09 -0.771 2.353 0
0.0 -0.0 3.0 0
0.0 -0.0 3.0 0
0.0 -0.0 3.0 0
0.0 -0.0 3.0 0
-1.489 -1.318 2.696 0
-1.507 -1.317 2.672 0
0.0 -0.0 3.0 0
-1.516 -1.295 2.629 0
-1.481 -1.251 2.618 0
0.0 -0.0 3.0 0
-1.434 -1.185 2.592 0
-1.424 -1.165 2.576 0
-1.402 -1.135 2.564 0
-1.428 -1.145 2.537 0
-1.323 -1.052 2.554 0
-1.293 -1.019 2.546 0
-1.254 -0.98 2.543 0
-1.227 -0.951 2.536 0
-1.214 -0.933 2.524 1
-1.208 -0.921 2.51 7
-1.206 -0.914 2.493 14
-1.196 -0.9 2.48 13
-1.182 -0.884 2.469 9
-1.177 -0.874 2.454 13
-1.183 -0.873 2.433 0
-1.144 -0.839 2.434 0
-1.138 -0.831 2.418 0
-1.119 -0.813 2.409 0
-1.127 -0.815 2.386 0
-1.099 -0.79 2.383 0
-1.092 -0.781 2.367 0
-1.084 -0.772 2.352 0
0.0 -0.0 3.0 0
0.0 -0.0 3.0 0
0.0 -0.0 3.0 0
0.0 -0.0 3.0 0
-1.479 -1.317 2.696 0
-1.494 -1.314 2.672 1
0.0 -0.0 3.0 0
-1.512 -1.299 2.627 0
-1.477 -1.255 2.616 0
-1.451 -1.219 2.604 0
-1.442 -1.199 2.587 0
-1.405 -1.157 2.579 0
-1.419 -1.157 2.556 0
-1.366 -1.103 2.554 0
-1.322 -1.058 2.551 0
-1.278 -1.013 2.549 0
-1.236 -0.972 2.547 0
-1.23 -0.959 2.532 0
-1.208 -0.935 2.524 2
-1.21 -0.929 2.506 11
-1.203 -0.917 2.491 12
-1.193 -0.903 2.479 10
-1.182 -0.889 2.466 13
-1.182 -0.884 2.448 5
-1.171 -0.87 2.435 0
-1.147 -0.847 2.429 0
-1.129 -0.829 2.42 0
-1.11 -0.811 2.411 0
-1.106 -0.804 2.394 0
-1.088 -0.786 2.386 0
-1.101 -0.792 2.359 0
-1.072 -0.768 2.355 0
0.0 -0.0 3.0 0
0.0 -0.0 3.0 0
0.0 -0.0 3.0 0
-1.537 -1.394 2.704 0
-1.469 -1.317 2.696 0
-1.481 -1.31 2.673 3
0.0 -0.0 3.0 0
-1.52 -1.314 2.623 0
-1.458 -1.247 2.619 0
-1.453 -1.229 2.601 0
-1.432 -1.198 2.588 0
-1.389 -1.151 2.581 0
-1.361 -1.116 2.572 0
-1.33 -1.081 2.563 0
-1.28 -1.031 2.563 0
-1.253 -1.0 2.555 0
-1.229 -0.972 2.547 0
-1.217 -0.956 2.534 1
-1.214 -0.945 2.519 6
-1.207 -0.933 2.504 13
-1.197 -0.918 2.491 14
-1.186 -0.903 2.478 8
-1.181 -0.894 2.463 13
-1.164 -0.876 2.453 0
-1.161 -0.869 2.436 0
-1.132 -0.841 2.433 0
-1.129 -0.834 2.416 0
-1.125 -0.827 2.399 0
-1.112 -0.813 2.387 0
-1.096 -0.798 2.377 0
-1.098 -0.795 2.356 0
0.0 -0.0 3.0 0
0.0 -0.0 3.0 0
0.0 -0.0 3.0 0
0.0 -0.0 3.0 0
-1.515 -1.382 2.706 0
-1.442 -1.3 2.7 0
-1.468 -1.307 2.674 4
0.0 -0.0 3.0 0
-1.501 -1.306 2.626 0
0.0 -0.0 3.0 0
-1.455 -1.238 2.598 0
-1.419 -1.195 2.589 0
0.0 -0.0 3.0 0
-1.355 -1.118 2.571 0
-1.275 -1.043 2.579 0
-1.285 -1.041 2.558 0
-1.232 -0.989 2.56 0
-1.214 -0.967 2.549 1
-1.214 -0.958 2.533 1
-1.213 -0.951 2.515 10
-1.201 -0.934 2.504 10
-1.19 -0.919 2.491 13
-1.189 -0.911 2.474 13
-1.181 -0.899 2.46 7
-1.17 -0.885 2.447 0
-1.129 -0.849 2.449 0
-1.135 -0.848 2.428 0
-1.12 -0.833 2.417 0
-1.113 -0.823 2.402 0
-1.106 -0.814 2.387 0
-1.096 -0.802 2.373 0
-1.08 -0.786 2.363 0
-1.072 -0.777 2.348 0
0.0 -0.0 3.0 0
0.0 -0.0 3.0 0
0.0 -0.0 3.0 0
-1.505 -1.382 2.706 0
-1.446 -1.312 2.697 0
-1.458 -1.306 2.674 8
0.0 -0.0 3.0 0
-1.485 -1.3 2.627 0
-1.453 -1.258 2.615 0
-1.445 -1.237 2.598 0
-1.388 -1.177 2.595 0
0.0 -0.0 3.0 0
-1.363 -1.132 2.565 0
-1.277 -1.051 2.575 0
-1.261 -1.028 2.564 0
-1.231 -0.995 2.557 0
-1.214 -0.972 2.547 1
-1.213 -0.965 2.529 5
-1.207 -0.952 2.515 12
-1.194 -0.934 2.503 13
-1.184 -0.92 2.49 10
-1.183 -0.913 2.473 13
-1.169 -0.896 2.462 0
-1.161 -0.884 2.448 0
-1.143 -0.865 2.438 0
-1.123 -0.845 2.43 0
-1.122 -0.84 2.412 0
-1.116 -0.83 2.397 0
-1.13 -0.836 2.37 0
-1.07 -0.788 2.385 0
-1.092 -0.8 2.352 0
-1.069 -0.779 2.346 0
0.0 -0.0 3.0 0
0.0 -0.0 3.0 0
0.0 -0.0 3.0 0
-1.478 -1.364 2.71 0
-1.431 -1.305 2.699 0
-1.451 -1.307 2.674 11
0.0 -0.0 3.0 0
-1.481 -1.304 2.626 0
-1.437 -1.252 2.617 0
-1.441 -1.242 2.597 0
-1.405 -1.198 2.588 0
-1.375 -1.16 2.578 0
-1.296 -1.083 2.584 0
-1.274 -1.055 2.574 0
-1.242 -1.019 2.567 0
-1.216 -0.989 2.56 0
-1.213 -0.978 2.544 1
-1.213 -0.97 2.527 9
-1.201 -0.953 2.514 10
-1.191 -0.938 2.501 12
-1.181 -0.923 2.488 15
-1.179 -0.915 2.471 8
-1.145 -0.883 2.47 0
-1.134 -0.868 2.457 0
-1.134 -0.864 2.439 0
-1.117 -0.846 2.43 0
-1.102 -0.829 2.42 0
-1.095 -0.819 2.405 0
-1.109 -0.826 2.378 0
-1.07 -0.792 2.381 0
-1.068 -0.787 2.363 0
0.0 -0.0 3.0 0
0.0 -0.0 3.0 0
0.0 -0.0 3.0 0
0.0 -0.0 3.0 0
-1.465 -1.361 2.711 0
-1.43 -1.312 2.697 0
-1.438 -1.304 2.675 13
0.0 -0.0 3.0 0
-1.465 -1.298 2.628 0
-1.436 -1.259 2.615 0
-1.404 -1.218 2.604 0
-1.369 -1.174 2.596 0
-1.344 -1.142 2.584 0
-1.281 -1.078 2.586 0
-1.252 -1.043 2.578 0
-1.221 -1.008 2.572 0
-1.218 -0.997 2.556 1
-1.216 -0.987 2.54 3
-1.21 -0.974 2.525 11
-1.197 -0.956 2.513 12
-1.185 -0.939 2.501 9
-1.184 -0.931 2.484 16
-1.17 -0.914 2.472 0
-1.165 -0.904 2.457 0
-1.148 -0.886 2.447 0
-1.128 -0.865 2.438 0
-1.128 -0.859 2.421 0
-1.104 -0.836 2.414 0
-1.116 -0.84 2.39 0
-1.103 -0.826 2.378 0
-1.073 -0.799 2.376 0
-1.063 -0.787 2.362 0
-1.052 -0.775 2.349 0
0.0 -0.0 3.0 0
0.0 -0.0 3.0 0
0.0 -0.0 3.0 0
-1.461 -1.364 2.71 0
-1.426 -1.316 2.696 0
-1.44 -1.313 2.673 16
0.0 -0.0 3.0 0
-1.466 -1.308 2.625 0
-1.418 -1.25 2.618 0
-1.403 -1.224 2.602 0
-1.391 -1.201 2.586 0
-1.317 -1.126 2.59 0
-1.277 -1.081 2.585 0
-1.246 -1.044 2.578 0
-1.223 -1.017 2.568 0
-1.212 -0.998 2.556 1
-1.209 -0.988 2.539 8
-1.203 -0.975 2.525 9
-1.191 -0.957 2.512 12
-1.187 -0.947 2.497 13
-1.18 -0.935 2.482 13
-1.158 -0.91 2.475 0
-1.135 -0.887 2.467 0
-1.122 -0.87 2.456 0
-1.125 -0.867 2.437 0
-1.104 -0.846 2.429 0
-1.101 -0.839 2.412 0
-1.095 -0.829 2.398 0
-1.103 -0.83 2.374 0
-1.064 -0.797 2.377 0
-1.088 -0.811 2.343 0
0.0 -0.0 3.0 0
-1.073 -0.791 2.312 0
0.0 -0.0 3.0 0
0.0 -0.0 3.0 0
-1.448 -1.361 2.711 0
-1.407 -1.307 2.698 0
-1.424 -1.307 2.674 19
0.0 -0.0 3.0 0
-1.433 -1.286 2.631 0
-1.393 -1.236 2.622 0
-1.399 -1.228 2.601 0
-1.352 -1.174 2.596 0
-1.298 -1.116 2.594 0
-1.262 -1.075 2.587 0
-1.225 -1.033 2.583 0
-1.22 -1.02 2.567 0
-1.215 -1.007 2.552 2
-1.209 -0.993 2.537 11
-1.2 -0.978 2.523 11
-1.188 -0.961 2.51 9
-1.181 -0.948 2.496 14
-1.168 -0.93 2.484 1
-1.161 -0.918 2.47 0
-1.153 -0.906 2.456 0
-1.115 -0.871 2.456 0
-1.119 -0.868 2.436 0
-1.128 -0.87 2.413 0
-1.098 -0.842 2.411 0
-1.089 -0.83 2.397 0
-1.091 -0.827 2.377 0
-1.075 -0.811 2.366 0
0.0 -0.0 3.0 0
0.0 -0.0 3.0 0
0.0 -0.0 3.0 0
0.0 -0.0 3.0 0
0.0 -0.0 3.0 0
-1.429 -1.351 2.713 0
-1.386 -1.295 2.701 0
-1.423 -1.314 2.672 20
0.0 -0.0 3.0 0
-1.443 -1.302 2.627 0
-1.407 -1.255 2.616 0
-1.363 -1.204 2.609 0
-1.325 -1.158 2.601 0
-1.289 -1.115 2.594 0
-1.238 -1.061 2.593 0
-1.227 -1.042 2.579 0
-1.208 -1.016 2.569 1
-1.214 -1.013 2.549 8
-1.206 -0.997 2.535 10
-1.191 -0.976 2.524 12
-1.181 -0.962 2.51 13
-1.178 -0.951 2.494 11
-1.174 -0.941 2.478 0
-1.157 -0.921 2.468 0
-1.135 -0.897 2.461 0
-1.098 -0.862 2.461 0
-1.107 -0.864 2.439 0
-1.095 -0.85 2.427 0
-1.086 -0.837 2.414 0
-1.089 -0.834 2.394 0
-1.096 -0.836 2.37 0
-1.081 -0.82 2.36 0
-1.074 -0.81 2.344 0
0.0 -0.0 3.0 0
-1.084 -0.809 2.297 0
0.0 -0.0 3.0 0
0.0 -0.0 3.0 0
-1.411 -1.342 2.715 0
-1.396 -1.312 2.697 0
-1.41 -1.309 2.674 21
-1.418 -1.302 2.651 0
-1.428 -1.296 2.628 0
-1.391 -1.249 2.618 0
-1.35 -1.2 2.61 0
-1.294 -1.139 2.608 0
-1.279 -1.114 2.594 0
-1.234 -1.064 2.591 0
-1.229 -1.051 2.575 1
-1.213 -1.027 2.564 2
-1.208 -1.013 2.549 11
-1.196 -0.995 2.536 10
-1.187 -0.98 2.522 9
-1.181 -0.967 2.507 14
-1.174 -0.955 2.492 2
-1.147 -0.925 2.487 0
0.0 -0.0 3.0 0
-1.114 -0.887 2.467 0
-1.109 -0.877 2.452 0
-1.092 -0.857 2.443 0
-1.11 -0.866 2.416 0
-1.083 -0.841 2.411 0
-1.077 -0.831 2.396 0
-1.079 -0.828 2.376 0
-1.055 -0.804 2.372 0
-1.059 -0.804 2.349 0
0.0 -0.0 3.0 0
0.0 -0.0 3.0 0
0.0 -0.0 3.0 0
0.0 -0.0 3.0 0
-1.41 -1.349 2.713 0
-1.372 -1.298 2.7 0
-1.403 -1.311 2.673 20
0.0 -0.0 3.0 0
-1.409 -1.287 2.631 0
-1.378 -1.245 2.619 0
-1.361 -1.217 2.605 0
-1.302 -1.153 2.603 0
-1.24 -1.087 2.604 0
-1.219 -1.058 2.594 0
-1.214 -1.044 2.578 1
-1.209 -1.031 2.563 8
-1.204 -1.017 2.547 11
-1.193 -0.999 2.534 12
-1.184 -0.984 2.52 11
-1.175 -0.968 2.507 13
-1.168 -0.956 2.492 0
-1.146 -0.93 2.484 0
-1.133 -0.913 2.473 0
-1.114 -0.892 2.464 0
-1.097 -0.872 2.455 0
-1.103 -0.872 2.434 0
-1.092 -0.857 2.422 0
-1.094 -0.855 2.401 0
-1.08 -0.838 2.391 0
-1.079 -0.833 2.372 0
-1.052 -0.807 2.37 0
-1.07 -0.817 2.339 0
-1.088 -0.826 2.307 0
-1.089 -0.822 2.286 0
0.0 -0.0 3.0 0
0.0 -0.0 3.0 0
-1.423 -1.369 2.709 0
-1.362 -1.296 2.701 0
-1.39 -1.307 2.674 21
0.0 -0.0 3.0 0
-1.414 -1.3 2.627 0
-1.368 -1.244 2.62 0
-1.325 -1.192 2.613 0
-1.278 -1.139 2.608 0
-1.234 -1.088 2.604 0
-1.227 -1.072 2.589 0
-1.214 -1.05 2.576 2
-1.209 -1.036 2.56 9
-1.198 -1.018 2.547 9
-1.192 -1.005 2.531 10
-1.186 -0.992 2.516 14
-1.177 -0.976 2.503 3
-1.162 -0.956 2.491 0
-1.137 -0.929 2.485 0
-1.121 -0.909 2.475 0
-1.125 -0.906 2.455 0
-1.097 -0.877 2.452 0
-1.109 -0.882 2.427 0
-1.086 -0.858 2.421 0
-1.088 -0.855 2.402 0
-1.068 -0.834 2.394 0
-1.084 -0.842 2.366 0
-1.057 -0.816 2.362 0
-1.047 -0.804 2.349 0
-1.051 -0.803 2.326 0
0.0 -0.0 3.0 0
0.0 -0.0 3.0 0
0.0 -0.0 3.0 0
-1.379 -1.335 2.716 0
-1.361 -1.303 2.699 0
-1.383 -1.308 2.674 20
0.0 -0.0 3.0 0
-1.412 -1.306 2.625 0
-1.344 -1.229 2.624 0
-1.304 -1.181 2.616 0
-1.237 -1.109 2.618 0
-1.233 -1.094 2.602 0
-1.212 -1.065 2.591 1
-1.213 -1.056 2.573 7
-1.205 -1.04 2.559 10
-1.197 -1.024 2.544 12
-1.183 -1.003 2.532 9
-1.183 -0.995 2.515 12
-1.174 -0.98 2.501 0
-1.141 -0.945 2.498 0
-1.125 -0.925 2.487 0
-1.103 -0.9 2.48 0
-1.09 -0.884 2.469 0
-1.105 -0.89 2.444 0
-1.103 -0.882 2.427 0
-1.094 -0.87 2.413 0
-1.077 -0.851 2.404 0
-1.076 -0.845 2.386 0
-1.061 -0.829 2.375 0
-1.046 -0.812 2.366 0
-1.05 -0.811 2.343 0
-1.09 -0.838 2.297 0
0.0 -0.0 3.0 0
0.0 -0.0 3.0 0
0.0 -0.0 3.0 0
-1.377 -1.342 2.715 0
-1.354 -1.304 2.699 0
-1.376 -1.31 2.673 19
-1.398 -1.315 2.648 0
-1.394 -1.297 2.628 0
-1.334 -1.228 2.625 0
-1.262 -1.15 2.626 0
-1.25 -1.128 2.612 0
-1.229 -1.098 2.6 0
-1.214 -1.074 2.588 1
-1.209 -1.06 2.572 9
-1.202 -1.043 2.557 9
-1.188 -1.023 2.545 10
-1.179 -1.007 2.53 14
-1.176 -0.996 2.514 5
-1.15 -0.965 2.508 0
-1.143 -0.953 2.493 0
-1.11 -0.919 2.491 0
-1.094 -0.898 2.481 0
-1.11 -0.905 2.456 0
-1.093 -0.886 2.447 0
-1.091 -0.878 2.43 0
-1.071 -0.857 2.422 0
-1.076 -0.856 2.401 0
-1.076 -0.85 2.382 0
-1.058 -0.831 2.374 0
-1.065 -0.832 2.35 0
0.0 -0.0 3.0 0
0.0 -0.0 3.0 0
0.0 -0.0 3.0 0
0.0 -0.0 3.0 0
0.0 -0.0 3.0 0
-2.249 -2.205 2.531 5
-1.345 -1.302 2.699 0
-1.37 -1.312 2.673 16
0.0 -0.0 3.0 0
-1.384 -1.296 2.628 0
-1.304 -1.208 2.631 0
-1.27 -1.164 2.622 0
-1.229 -1.115 2.616 0
-1.217 -1.094 2.602 0
-1.216 -1.082 2.585 5
-1.203 -1.061 2.571 10
-1.195 -1.044 2.557 11
-1.181 -1.023 2.544 9
-1.179 -1.012 2.528 13
-1.161 -0.989 2.518 0
-1.135 -0.959 2.511 0
-1.122 -0.941 2.5 0
-1.113 -0.927 2.486 0
-1.108 -0.916 2.471 0
-1.095 -0.898 2.46 0
-1.087 -0.886 2.446 0
-1.088 -0.881 2.428 0
-1.082 -0.871 2.412 0
-1.087 -0.87 2.391 0
-1.081 -0.859 2.376 0
-1.066 -0.843 2.365 0
-1.085 -0.852 2.334 0
0.0 -0.0 3.0 0
-1.05 -0.816 2.316 0
0.0 -0.0 3.0 0
0.0 -0.0 3.0 0
0.0 -0.0 3.0 0
-2.234 -2.203 2.532 5
-1.343 -1.309 2.698 0
-1.36 -1.309 2.674 13
-1.384 -1.318 2.647 0
-1.337 -1.259 2.639 0
-1.295 -1.207 2.631 0
-1.238 -1.142 2.629 0
-1.223 -1.116 2.616 0
-1.213 -1.097 2.601 1
-1.212 -1.086 2.583 9
-1.199 -1.064 2.57 8
-1.189 -1.045 2.556 9
-1.178 -1.027 2.543 13
-1.175 -1.016 2.526 6
-1.172 -1.005 2.51 0
-1.137 -0.967 2.507 0
0.0 -0.0 3.0 0
-1.103 -0.925 2.487 0
-1.105 -0.919 2.469 0
-1.115 -0.921 2.447 0
-1.093 -0.896 2.44 0
-1.09 -0.889 2.423 0
-1.079 -0.874 2.411 0
-1.076 -0.866 2.394 0
-1.061 -0.849 2.383 0
-1.054 -0.838 2.368 0
-1.056 -0.835 2.347 0
0.0 -0.0 3.0 0
-1.053 -0.823 2.31 0
0.0 -0.0 3.0 0
0.0 -0.0 3.0 0
0.0 -0.0 3.0 0
-1.368 -1.357 2.712 0
-1.328 -1.303 2.699 0
-1.353 -1.311 2.673 10
-1.383 -1.326 2.645 0
-1.327 -1.258 2.639 0
-1.257 -1.179 2.64 0
-1.217 -1.129 2.633 0
-1.225 -1.126 2.612 0
-1.213 -1.103 2.598 3
-1.206 -1.087 2.583 10
-1.199 -1.07 2.568 11
-1.182 -1.046 2.556 8
-1.18 -1.035 2.539 13
-1.163 -1.011 2.528 0
-1.148 -0.991 2.517 0
-1.137 -0.972 2.505 0
-1.124 -0.955 2.492 0
-1.097 -0.925 2.487 0
-1.11 -0.929 2.464 0
-1.086 -0.903 2.458 0
-1.092 -0.902 2.436 0
-1.092 -0.896 2.418 0
-1.061 -0.865 2.417 0
-1.075 -0.871 2.39 0
-1.044 -0.84 2.39 0
-1.063 -0.85 2.36 0
-1.07 -0.851 2.335 0
0.0 -0.0 3.0 0
-1.061 -0.834 2.3 0
0.0 -0.0 3.0 0
0.0 -0.0 3.0 0
0.0 -0.0 3.0 0
-1.341 -1.338 2.716 0
-1.327 -1.308 2.698 0
-1.349 -1.315 2.672 8
-1.351 -1.301 2.651 0
-1.306 -1.246 2.643 0
-1.247 -1.177 2.64 0
-1.224 -1.143 2.628 0
-1.221 -1.129 2.611 1
-1.209 -1.107 2.597 8
-1.205 -1.093 2.58 8
-1.192 -1.071 2.567 10
-1.182 -1.053 2.553 11
-1.174 -1.036 2.539 7
-1.142 -1.0 2.534 0
-1.131 -0.982 2.521 0
-1.113 -0.958 2.512 0
-1.112 -0.95 2.495 0
-1.117 -0.948 2.475 0
-1.098 -0.925 2.466 0
-1.091 -0.912 2.452 0
-1.086 -0.902 2.437 0
-1.086 -0.897 2.418 0
-1.081 -0.886 2.402 0
-1.064 -0.866 2.393 0
-1.066 -0.863 2.373 0
-1.082 -0.871 2.344 0
-1.036 -0.829 2.352 0
0.0 -0.0 3.0 0
0.0 -0.0 3.0 0
0.0 -0.0 3.0 0
0.0 -0.0 3.0 0
0.0 -0.0 3.0 0
-1.323 -1.328 2.718 0
-1.317 -1.307 2.698 0
-1.342 -1.316 2.672 5
-1.324 -1.284 2.656 0
-1.288 -1.236 2.646 0
-1.235 -1.173 2.642 0
-1.226 -1.152 2.626 0
-1.212 -1.127 2.612 2
-1.205 -1.111 2.596 10
-1.199 -1.094 2.58 10
-1.183 -1.069 2.568 8
-1.178 -1.055 2.552 11
-1.173 -1.042 2.536 0
-1.139 -1.003 2.532 0
-1.133 -0.99 2.517 0
-1.104 -0.956 2.513 0
-1.098 -0.944 2.498 0
-1.085 -0.926 2.486 0
-1.089 -0.923 2.467 0
-1.082 -0.91 2.453 0
-1.08 -0.902 2.436 0
-1.063 -0.883 2.427 0
-1.058 -0.872 2.412 0
-1.072 -0.879 2.385 0
-1.043 -0.849 2.383 0
-1.073 -0.869 2.346 0
-1.041 -0.838 2.345 0
0.0 -0.0 3.0 0
-1.027 -0.817 2.315 0
0.0 -0.0 3.0 0
0.0 -0.0 3.0 0
0.0 -0.0 3.0 0
-1.33 -1.343 2.715 0
-1.327 -1.325 2.694 0
-1.335 -1.317 2.672 4
-1.297 -1.266 2.661 0
-1.253 -1.21 2.653 0
-1.231 -1.176 2.64 0
-1.211 -1.145 2.628 1
-1.205 -1.128 2.612 8
-1.202 -1.114 2.595 8
-1.195 -1.097 2.579 10
-1.182 -1.076 2.565 10
-1.174 -1.059 2.55 8
-1.149 -1.027 2.543 0
-1.15 -1.019 2.525 0
-1.132 -0.995 2.515 0
-1.118 -0.975 2.503 0
-1.1 -0.952 2.494 0
-1.099 -0.944 2.477 0
-1.08 -0.921 2.468 0
-1.09 -0.923 2.445 0
-1.074 -0.903 2.436 0
-1.071 -0.895 2.419 0
-1.057 -0.877 2.408 0
-1.054 -0.869 2.391 0
-1.054 -0.863 2.373 0
-1.05 -0.856 2.355 0
-1.046 -0.847 2.338 0
0.0 -0.0 3.0 0
0.0 -0.0 3.0 0
0.0 -0.0 3.0 0
0.0 -0.0 3.0 0
0.0 -0.0 3.0 0
-1.323 -1.345 2.714 0
-1.315 -1.32 2.695 0
-1.32 -1.31 2.673 3
-1.299 -1.275 2.658 0
-1.23 -1.194 2.658 0
-1.219 -1.171 2.642 0
-1.216 -1.157 2.624 1
-1.21 -1.14 2.608 10
-1.195 -1.115 2.594 9
-1.188 -1.098 2.579 8
-1.181 -1.081 2.563 11
-1.165 -1.057 2.551 0
-1.154 -1.038 2.538 0
-1.138 -1.014 2.527 0
-1.112 -0.984 2.52 0
-1.109 -0.973 2.504 0
-1.094 -0.953 2.493 0
-1.098 -0.949 2.474 0
-1.083 -0.929 2.464 0
-1.067 -0.909 2.454 0
-1.065 -0.901 2.437 0
-1.085 -0.912 2.408 0
-1.051 -0.878 2.408 0
-1.045 -0.867 2.393 0
-1.062 -0.876 2.364 0
-1.055 -0.865 2.349 0
-1.04 -0.847 2.338 0
0.0 -0.0 3.0 0
0.0 -0.0 3.0 0
0.0 -0.0 3.0 0
0.0 -0.0 3.0 0
0.0 -0.0 3.0 0
-1.317 -1.345 2.714 0
-1.311 -1.324 2.694 0
-1.316 -1.314 2.672 2
-1.267 -1.252 2.665 0
-1.229 -1.201 2.656 0
-1.212 -1.172 2.642 1
-1.209 -1.158 2.624 7
-1.204 -1.14 2.607 9
-1.191 -1.118 2.593 10
-1.185 -1.101 2.577 10
-1.175 -1.082 2.563 8
-1.164 -1.063 2.549 0
-1.162 -1.052 2.532 0
-1.134 -1.018 2.525 0
-1.111 -0.989 2.518 0
-1.099 -0.971 2.505 0
-1.093 -0.958 2.491 0
-1.081 -0.94 2.479 0
-1.074 -0.927 2.465 0
-1.072 -0.919 2.448 0
-1.045 -0.889 2.444 0
-1.056 -0.893 2.42 0
-1.034 -0.868 2.414 0
-1.081 -0.903 2.368 0
0.0 -0.0 3.0 0
-1.071 -0.884 2.334 0
-1.029 -0.843 2.342 0
0.0 -0.0 3.0 0
0.0 -0.0 3.0 0
0.0 -0.0 3.0 0
0.0 -0.0 3.0 0
0.0 -0.0 3.0 0
-1.29 -1.326 2.718 0
-1.287 -1.309 2.698 0
-1.298 -1.304 2.675 1
-1.241 -1.233 2.67 0
-1.219 -1.199 2.656 0
-1.211 -1.179 2.64 1
-1.203 -1.158 2.624 9
-1.2 -1.144 2.606 8
-1.188 -1.122 2.592 8
-1.181 -1.105 2.576 12
-1.168 -1.083 2.562 1
-1.164 -1.069 2.546 0
-1.141 -1.04 2.537 0
-1.108 -1.001 2.533 0
-1.111 -0.995 2.515 0
-1.099 -0.977 2.502 0
-1.09 -0.961 2.489 0
-1.089 -0.953 2.472 0
-1.09 -0.947 2.453 0
-1.085 -0.937 2.437 0
-1.047 -0.897 2.44 0
-1.073 -0.913 2.407 0
-1.028 -0.869 2.414 0
-1.047 -0.88 2.384 0
-1.03 -0.859 2.376 0
-1.018 -0.845 2.363 0
-1.014 -0.836 2.347 0
0.0 -0.0 3.0 0
0.0 -0.0 3.0 0
0.0 -0.0 3.0 0
0.0 -0.0 3.0 0
0.0 -0.0 3.0 0
-1.297 -1.342 2.715 0
-1.3 -1.329 2.693 0
-1.285 -1.299 2.676 0
-1.228 -1.228 2.671 0
-1.215 -1.203 2.655 0
-1.21 -1.185 2.638 6
-1.205 -1.168 2.62 9
-1.19 -1.142 2.607 11
-1.181 -1.123 2.591 9
-1.177 -1.108 2.575 10
-1.17 -1.091 2.559 0
-1.14 -1.054 2.552 0
-1.124 -1.03 2.541 0
-1.11 -1.009 2.53 0
-1.093 -0.985 2.519 0
-1.081 -0.967 2.507 0
-1.092 -0.969 2.485 0
-1.085 -0.955 2.47 0
-1.087 -0.95 2.451 0
-1.071 -0.93 2.441 0
-1.06 -0.914 2.429 0
-1.064 -0.911 2.409 0
-1.053 -0.895 2.396 0
-1.038 -0.878 2.385 0
0.0 -0.0 3.0 0
-1.043 -0.87 2.344 0
-0.989 -0.821 2.359 0
0.0 -0.0 3.0 0
0.0 -0.0 3.0 0
0.0 -0.0 3.0 0
0.0 -0.0 3.0 0
-1.329 -1.398 2.728 0
-1.277 -1.329 2.718 0
-1.276 -1.313 2.697 0
-1.24 -1.261 2.685 0
-1.219 -1.226 2.671 0
-1.217 -1.211 2.653 1
-1.209 -1.191 2.636 9
-1.201 -1.171 2.62 8
-1.184 -1.143 2.606 9
-1.177 -1.126 2.59 10
-1.176 -1.114 2.572 2
-1.155 -1.085 2.562 0
0.0 -0.0 3.0 0
-1.115 -1.028 2.542 0
-1.084 -0.992 2.538 0
-1.092 -0.991 2.517 0
-1.084 -0.975 2.503 0
-1.077 -0.961 2.489 0
-1.076 -0.954 2.471 0
-1.069 -0.941 2.457 0
-1.065 -0.93 2.441 0
-1.06 -0.919 2.426 0
-1.055 -0.909 2.41 0
-1.03 -0.881 2.406 0
-1.06 -0.901 2.369 0
0.0 -0.0 3.0 0
-1.064 -0.894 2.327 0
0.0 -0.0 3.0 0
0.0 -0.0 3.0 0
0.0 -0.0 3.0 0
0.0 -0.0 3.0 0
0.0 -0.0 3.0 0
-1.311 -1.388 2.73 0
-1.267 -1.326 2.718 0
-1.261 -1.306 2.699 0
-1.225 -1.253 2.688 0
-1.218 -1.233 2.67 0
-1.213 -1.215 2.652 4
-1.205 -1.195 2.635 10
-1.197 -1.175 2.618 11
-1.18 -1.147 2.605 8
-1.174 -1.129 2.589 10
-1.161 -1.107 2.575 0
-1.135 -1.072 2.567 0
0.0 -0.0 3.0 0
-1.128 -1.047 2.534 0
-1.1 -1.012 2.528 0
-1.094 -0.999 2.513 0
-1.088 -0.986 2.498 0
-1.077 -0.968 2.485 0
-1.081 -0.964 2.466 0
-1.083 -0.958 2.447 0
-1.07 -0.94 2.435 0
-1.065 -0.929 2.419 0
-1.049 -0.909 2.41 0
-1.004 -0.865 2.417 0
-1.051 -0.9 2.37 0
-0.982 -0.835 2.394 0
-1.017 -0.859 2.353 0
0.0 -0.0 3.0 0
0.0 -0.0 3.0 0
0.0 -0.0 3.0 0
0.0 -0.0 3.0 0
0.0 -0.0 3.0 0
-1.285 -1.369 2.734 0
-1.266 -1.333 2.717 0
-1.244 -1.295 2.701 0
-1.226 -1.263 2.685 0
-1.206 -1.228 2.671 1
-1.209 -1.219 2.651 10
-1.202 -1.199 2.633 8
-1.182 -1.168 2.621 9
-1.179 -1.153 2.603 10
-1.173 -1.136 2.587 2
-1.158 -1.111 2.574 0
-1.156 -1.099 2.556 0
-1.129 -1.064 2.549 0
-1.121 -1.047 2.534 0
-1.108 -1.026 2.522 0
-1.077 -0.989 2.518 0
-1.077 -0.981 2.5 0
-1.079 -0.976 2.481 0
-1.066 -0.957 2.469 0
-1.071 -0.954 2.449 0
-1.055 -0.933 2.439 0
-1.05 -0.922 2.424 0
-1.04 -0.907 2.411 0
-1.004 -0.87 2.413 0
-1.023 -0.881 2.383 0
-1.003 -0.858 2.377 0
-1.019 -0.866 2.348 0
0.0 -0.0 3.0 0
0.0 -0.0 3.0 0
0.0 -0.0 3.0 0
0.0 -0.0 3.0 0
0.0 -0.0 3.0 0
-1.27 -1.361 2.735 1
-1.246 -1.319 2.72 0
-1.234 -1.293 2.702 0
-1.22 -1.263 2.685 0
-1.21 -1.239 2.668 2
-1.205 -1.223 2.649 10
-1.198 -1.202 2.633 12
-1.184 -1.176 2.618 8
-1.173 -1.153 2.603 9
-1.161 -1.131 2.588 0
-1.126 -1.087 2.583 0
-1.133 -1.084 2.562 0
-1.103 -1.046 2.556 0
-1.118 -1.051 2.532 0
-1.104 -1.03 2.52 0
-1.11 -1.026 2.5 0
-1.084 -0.995 2.493 0
-1.075 -0.978 2.48 0
-1.06 -0.958 2.469 0
-1.067 -0.956 2.448 0
-1.041 -0.926 2.444 0
-1.058 -0.935 2.416 0
-1.036 -0.909 2.409 0
-1.006 -0.877 2.408 0
-1.042 -0.902 2.369 0
-0.951 -0.818 2.406 0
0.0 -0.0 3.0 0
0.0 -0.0 3.0 0
0.0 -0.0 3.0 0
0.0 -0.0 3.0 0
0.0 -0.0 3.0 0
0.0 -0.0 3.0 0
-1.255 -1.353 2.737 0
-1.25 -1.331 2.717 0
-1.222 -1.288 2.703 1
-1.213 -1.264 2.685 1
-1.203 -1.24 2.668 9
-1.201 -1.225 2.649 9
-1.191 -1.202 2.632 11
-1.177 -1.177 2.618 9
-1.174 -1.162 2.6 3
-1.16 -1.137 2.586 0
-1.142 -1.11 2.574 0
-1.099 -1.058 2.573 0
-1.122 -1.071 2.545 0
-1.103 -1.044 2.535 0
-1.092 -1.024 2.522 0
-1.087 -1.011 2.507 0
-1.061 -0.979 2.501 0
-1.066 -0.976 2.481 0
-1.021 -0.928 2.486 0
-1.072 -0.967 2.442 0
-1.018 -0.911 2.452 0
-1.044 -0.927 2.42 0
-1.044 -0.922 2.401 0
-0.995 -0.873 2.411 0
-1.038 -0.905 2.366 0
-0.967 -0.837 2.392 0
-1.018 -0.875 2.34 0
0.0 -0.0 3.0 0
0.0 -0.0 3.0 0
0.0 -0.0 3.0 0
0.0 -0.0 3.0 0
0.0 -0.0 3.0 0
-1.256 -1.363 2.735 0
-1.238 -1.327 2.718 0
-1.229 -1.303 2.699 2
-1.212 -1.27 2.683 2
-1.205 -1.25 2.665 10
-1.197 -1.229 2.648 11
-1.184 -1.203 2.632 7
-1.173 -1.181 2.616 9
-1.165 -1.16 2.601 0
-1.131 -1.116 2.594 0
-1.119 -1.094 2.58 0
-1.131 -1.096 2.557 0
-1.118 -1.074 2.544 0
-1.102 -1.049 2.533 0
-1.078 -1.017 2.526 0
-1.091 -1.022 2.501 0
-1.061 -0.985 2.498 0
-1.074 -0.99 2.474 0
-1.051 -0.96 2.468 0
0.0 -0.0 3.0 0
-1.034 -0.931 2.44 0
-1.04 -0.931 2.418 0
-1.032 -0.918 2.404 0
-1.002 -0.884 2.403 0
-1.008 -0.884 2.381 0
0.0 -0.0 3.0 0
0.0 -0.0 3.0 0
0.0 -0.0 3.0 0
0.0 -0.0 3.0 0
0.0 -0.0 3.0 0
0.0 -0.0 3.0 0
0.0 -0.0 3.0 0
-1.247 -1.36 2.736 0
-1.228 -1.324 2.719 0
-1.222 -1.304 2.699 3
-1.208 -1.274 2.682 10
-1.204 -1.257 2.663 10
-1.194 -1.233 2.646 11
-1.18 -1.207 2.631 8
-1.172 -1.187 2.614 5
-1.158 -1.161 2.6 0
-1.127 -1.12 2.592 0
-1.115 -1.097 2.579 0
-1.1 -1.072 2.567 0
-1.104 -1.066 2.547 0
-1.093 -1.047 2.534 0
-1.088 -1.033 2.518 0
-1.063 -1.002 2.512 0
-1.057 -0.987 2.497 0
-1.048 -0.972 2.483 0
-1.047 -0.964 2.466 0
-1.071 -0.978 2.435 0
-1.036 -0.939 2.436 0
-1.045 -0.941 2.412 0
-1.021 -0.913 2.407 0
0.0 -0.0 3.0 0
-0.991 -0.874 2.388 0
-0.966 -0.846 2.385 0
0.0 -0.0 3.0 0
0.0 -0.0 3.0 0
0.0 -0.0 3.0 0
0.0 -0.0 3.0 0
0.0 -0.0 3.0 0
-1.949 -2.163 2.619 0
-1.237 -1.358 2.736 0
-1.219 -1.322 2.719 0
-1.218 -1.308 2.698 10
-1.206 -1.281 2.681 12
-1.2 -1.259 2.663 11
-1.187 -1.234 2.646 9
-1.177 -1.21 2.63 9
-1.168 -1.19 2.613 0
-1.144 -1.153 2.603 0
-1.137 -1.137 2.586 0
-1.12 -1.109 2.574 0
-1.105 -1.084 2.562 0
-1.097 -1.067 2.547 0
-1.095 -1.055 2.53 0
-1.087 -1.039 2.516 0
-1.054 -0.999 2.513 0
-1.062 -0.998 2.491 0
-1.05 -0.98 2.479 0
-1.052 -0.974 2.46 0
-1.034 -0.951 2.451 0
-1.033 -0.942 2.434 0
-1.031 -0.933 2.417 0
-1.004 -0.903 2.414 0
0.0 -0.0 3.0 0
-1.007 -0.894 2.374 0
0.0 -0.0 3.0 0
0.0 -0.0 3.0 0
0.0 -0.0 3.0 0
0.0 -0.0 3.0 0
0.0 -0.0 3.0 0
0.0 -0.0 3.0 0
-1.934 -2.159 2.619 0
-1.22 -1.347 2.738 1
-1.207 -1.318 2.72 0
-1.209 -1.305 2.699 35
-1.205 -1.286 2.679 14
-1.193 -1.26 2.662 13
-1.183 -1.237 2.645 8
-1.173 -1.213 2.629 6
-1.145 -1.174 2.619 0
-1.164 -1.182 2.593 0
0.0 -0.0 3.0 0
-1.127 -1.123 2.569 0
-1.098 -1.084 2.562 0
-1.11 -1.086 2.539 0
-1.094 -1.062 2.527 0
-1.078 -1.037 2.517 0
-1.083 -1.034 2.496 0
-1.069 -1.012 2.485 0
-1.039 -0.975 2.482 0
0.0 -0.0 3.0 0
-1.031 -0.953 2.45 0
-1.013 -0.93 2.441 0
-1.022 -0.931 2.418 0
-0.992 -0.899 2.416 0
-0.982 -0.882 2.405 0
-0.984 -0.879 2.384 0
-0.981 -0.87 2.368 0
0.0 -0.0 3.0 0
0.0 -0.0 3.0 0
0.0 -0.0 3.0 0
0.0 -0.0 3.0 0
0.0 -0.0 3.0 0
-1.936 -2.174 2.617 0
-1.229 -1.365 2.735 1
-1.203 -1.32 2.719 0
-1.213 -1.317 2.696 91
-1.204 -1.293 2.678 14
-1.186 -1.261 2.662 10
-1.176 -1.237 2.645 8
-1.166 -1.214 2.629 0
-1.144 -1.18 2.616 0
-1.139 -1.163 2.6 0
-1.119 -1.132 2.588 0
-1.104 -1.107 2.575 0
-1.094 -1.088 2.561 0
-1.09 -1.073 2.545 0
-1.082 -1.056 2.53 0
-1.066 -1.032 2.519 0
-1.066 -1.024 2.501 0
-1.06 -1.01 2.485 0
-1.035 -0.978 2.48 0
-1.026 -0.962 2.467 0
-1.03 -0.959 2.447 0
-0.985 -0.91 2.453 0
-1.037 -0.951 2.406 0
-0.997 -0.908 2.41 0
-0.992 -0.897 2.395 0
-0.986 -0.887 2.379 0
-0.957 -0.853 2.38 0
0.0 -0.0 3.0 0
0.0 -0.0 3.0 0
0.0 -0.0 3.0 0
0.0 -0.0 3.0 0
0.0 -0.0 3.0 0
-1.243 -1.405 2.752 0
-1.214 -1.357 2.736 0
-1.191 -1.316 2.72 0
-1.208 -1.321 2.695 117
-1.202 -1.3 2.676 17
-1.182 -1.265 2.661 8
-1.175 -1.244 2.643 7
-1.143 -1.198 2.634 0
-1.13 -1.173 2.619 0
0.0 -0.0 3.0 0
-1.11 -1.13 2.589 0
-1.103 -1.112 2.573 0
-1.096 -1.096 2.557 0
-1.067 -1.057 2.551 0
-1.079 -1.06 2.528 0
-1.079 -1.051 2.51 0
-1.065 -1.029 2.498 0
-1.065 -1.02 2.48 0
-1.043 -0.991 2.473 0
-1.031 -0.973 2.461 0
-1.04 -0.974 2.437 0
-1.003 -0.933 2.44 0
-1.007 -0.929 2.42 0
-0.978 -0.896 2.418 0
0.0 -0.0 3.0 0
0.0 -0.0 3.0 0
-0.956 -0.858 2.377 0
0.0 -0.0 3.0 0
0.0 -0.0 3.0 0
0.0 -0.0 3.0 0
0.0 -0.0 3.0 0
0.0 -0.0 3.0 0
-1.223 -1.39 2.755 0
-1.202 -1.352 2.737 0
-1.2 -1.334 2.716 1
-1.199 -1.319 2.696 99
-1.193 -1.298 2.676 13
-1.181 -1.271 2.66 7
-1.174 -1.251 2.641 1
-1.156 -1.218 2.628 0
-1.137 -1.187 2.614 0
-1.126 -1.164 2.599 0
-1.125 -1.153 2.58 0
-1.102 -1.119 2.571 0
-1.09 -1.096 2.557 0
-1.083 -1.079 2.542 0
-1.072 -1.06 2.528 0
-1.062 -1.04 2.515 0
-1.043 -1.014 2.505 0
-1.048 -1.011 2.485 0
-1.028 -0.983 2.477 0
-1.0 -0.95 2.474 0
-1.021 -0.961 2.445 0
-0.989 -0.925 2.444 0
-0.998 -0.927 2.421 0
0.0 -0.0 3.0 0
0.0 -0.0 3.0 0
0.0 -0.0 3.0 0
0.0 -0.0 3.0 0
0.0 -0.0 3.0 0
0.0 -0.0 3.0 0
0.0 -0.0 3.0 0
0.0 -0.0 3.0 0
0.0 -0.0 3.0 0
-1.227 -1.403 2.753 0
-1.193 -1.349 2.738 1
-1.18 -1.319 2.72 1
-1.198 -1.325 2.694 107
-1.184 -1.295 2.677 10
-1.172 -1.268 2.66 7
-1.156 -1.24 2.644 0
0.0 -0.0 3.0 0
-1.119 -1.176 2.618 0
-1.119 -1.164 2.599 0
-1.105 -1.139 2.585 0
-1.107 -1.13 2.566 0
-1.073 -1.086 2.561 0
-1.09 -1.093 2.536 0
-1.058 -1.053 2.531 0
-1.061 -1.047 2.512 0
-1.042 -1.02 2.503 0
-1.071 -1.039 2.471 0
-1.038 -0.999 2.469 0
-1.024 -0.978 2.458 0
-0.998 -0.946 2.454 0
-0.988 -0.93 2.441 0
-0.979 -0.914 2.429 0
-0.971 -0.901 2.415 0
0.0 -0.0 3.0 0
0.0 -0.0 3.0 0
0.0 -0.0 3.0 0
0.0 -0.0 3.0 0
0.0 -0.0 3.0 0
0.0 -0.0 3.0 0
0.0 -0.0 3.0 0
0.0 -0.0 3.0 0
-1.202 -1.383 2.756 0
-1.186 -1.35 2.738 0
-1.176 -1.323 2.719 0
-1.191 -1.325 2.694 160
-1.182 -1.301 2.676 8
-1.168 -1.272 2.659 2
0.0 -0.0 3.0 0
-1.113 -1.189 2.637 0
-1.124 -1.188 2.614 0
-1.123 -1.176 2.595 0
-1.088 -1.128 2.589 0
-1.084 -1.114 2.572 0
0.0 -0.0 3.0 0
-1.078 -1.088 2.538 0
-1.084 -1.085 2.517 0
-1.057 -1.05 2.511 0
-1.036 -1.02 2.503 0
-1.038 -1.013 2.484 0
-1.035 -1.002 2.467 0
0.0 -0.0 3.0 0
-1.003 -0.957 2.448 0
-0.977 -0.926 2.444 0
-0.997 -0.937 2.414 0
-0.965 -0.901 2.415 0
0.0 -0.0 3.0 0
0.0 -0.0 3.0 0
-0.936 -0.856 2.378 0
0.0 -0.0 3.0 0
0.0 -0.0 3.0 0
0.0 -0.0 3.0 0
0.0 -0.0 3.0 0
0.0 -0.0 3.0 0
-1.216 -1.407 2.752 1
-1.18 -1.35 2.738 0
-1.164 -1.317 2.72 0
-1.184 -1.326 2.694 46
-1.173 -1.299 2.676 7
-1.156 -1.267 2.661 0
0.0 -0.0 3.0 0
0.0 -0.0 3.0 0
-1.12 -1.192 2.613 0
-1.103 -1.162 2.6 0
-1.1 -1.148 2.582 0
-1.094 -1.131 2.566 0
-1.079 -1.106 2.553 0
-1.077 -1.094 2.536 0
-1.059 -1.066 2.525 0
-1.064 -1.063 2.504 0
-1.067 -1.057 2.484 0
-1.037 -1.02 2.481 0
-1.004 -0.979 2.479 0
0.0 -0.0 3.0 0
-0.997 -0.957 2.448 0
-0.987 -0.941 2.435 0
-0.977 -0.924 2.423 0
0.0 -0.0 3.0 0
0.0 -0.0 3.0 0
-0.943 -0.874 2.388 0
0.0 -0.0 3.0 0
0.0 -0.0 3.0 0
0.0 -0.0 3.0 0
0.0 -0.0 3.0 0
0.0 -0.0 3.0 0
0.0 -0.0 3.0 0
-1.212 -1.41 2.751 4
-1.176 -1.353 2.737 1
-1.162 -1.323 2.719 0
-1.172 -1.321 2.695 30
-1.171 -1.306 2.674 4
0.0 -0.0 3.0 0
0.0 -0.0 3.0 0
-1.113 -1.203 2.632 0
0.0 -0.0 3.0 0
-1.092 -1.157 2.602 0
-1.091 -1.146 2.583 0
-1.087 -1.132 2.566 0
-1.078 -1.112 2.551 0
-1.055 -1.078 2.542 0
-1.058 -1.072 2.523 0
-1.05 -1.056 2.508 0
-1.028 -1.026 2.5 0
-1.028 -1.017 2.482 0
-1.009 -0.99 2.474 0
-1.029 -1.002 2.444 0
-1.012 -0.978 2.436 0
-0.978 -0.938 2.436 0
-0.99 -0.942 2.411 0
-0.961 -0.908 2.41 0
0.0 -0.0 3.0 0
0.0 -0.0 3.0 0
0.0 -0.0 3.0 0
0.0 -0.0 3.0 0
0.0 -0.0 3.0 0
0.0 -0.0 3.0 0
0.0 -0.0 3.0 0
0.0 -0.0 3.0 0
-1.207 -1.414 2.751 11
-1.158 -1.343 2.739 1
-1.158 -1.327 2.718 0
-1.163 -1.318 2.696 23
-1.172 -1.315 2.672 1
0.0 -0.0 3.0 0
0.0 -0.0 3.0 0
0.0 -0.0 3.0 0
-1.112 -1.198 2.611 0
-1.074 -1.146 2.605 0
-1.074 -1.135 2.587 0
-1.065 -1.115 2.572 0
-1.084 -1.126 2.545 0
-1.07 -1.1 2.533 0
-1.075 -1.097 2.511 0
-1.038 -1.05 2.51 0
-1.03 -1.034 2.496 0
-1.035 -1.03 2.475 0
-1.003 -0.99 2.474 0
0.0 -0.0 3.0 0
-0.998 -0.97 2.44 0
-0.977 -0.944 2.433 0
0.0 -0.0 3.0 0
-0.96 -0.913 2.407 0
0.0 -0.0 3.0 0
-0.937 -0.879 2.385 0
0.0 -0.0 3.0 0
0.0 -0.0 3.0 0
0.0 -0.0 3.0 0
0.0 -0.0 3.0 0
0.0 -0.0 3.0 0
0.0 -0.0 3.0 0
-1.208 -1.424 2.749 12
-1.152 -1.342 2.739 0
-1.141 -1.316 2.72 0
-1.156 -1.319 2.696 22
-1.166 -1.315 2.672 0
0.0 -0.0 3.0 0
0.0 -0.0 3.0 0
-1.121 -1.227 2.625 0
0.0 -0.0 3.0 0
-1.1 -1.181 2.593 0
-1.067 -1.135 2.587 0
-1.08 -1.137 2.563 0
-1.078 -1.127 2.545 0
-1.06 -1.098 2.534 0
-1.042 -1.07 2.524 0
-1.037 -1.056 2.508 0
-1.013 -1.023 2.501 0
-1.01 -1.012 2.485 0
-0.994 -0.987 2.475 0
0.0 -0.0 3.0 0
-0.97 -0.95 2.452 0
-0.95 -0.923 2.446 0
0.0 -0.0 3.0 0
-0.941 -0.9 2.415 0
0.0 -0.0 3.0 0
-0.933 -0.881 2.383 0
0.0 -0.0 3.0 0
0.0 -0.0 3.0 0
0.0 -0.0 3.0 0
0.0 -0.0 3.0 0
0.0 -0.0 3.0 0
0.0 -0.0 3.0 0
-1.206 -1.431 2.748 6
-1.148 -1.346 2.738 0
-1.145 -1.328 2.718 0
-1.147 -1.316 2.696 22
0.0 -0.0 3.0 0
0.0 -0.0 3.0 0
0.0 -0.0 3.0 0
-1.099 -1.21 2.63 0
-1.091 -1.19 2.613 0
-1.07 -1.155 2.602 0
-1.079 -1.155 2.58 0
-1.068 -1.133 2.565 0
-1.066 -1.121 2.547 0
-1.059 -1.104 2.531 0
-1.057 -1.092 2.514 0
-1.05 -1.075 2.499 0
0.0 -0.0 3.0 0
-1.012 -1.02 2.48 0
-0.99 -0.99 2.473 0
-0.971 -0.963 2.466 0
-0.996 -0.981 2.434 0
-0.965 -0.943 2.433 0
0.0 -0.0 3.0 0
-0.954 -0.918 2.404 0
0.0 -0.0 3.0 0
-0.928 -0.881 2.383 0
0.0 -0.0 3.0 0
0.0 -0.0 3.0 0
0.0 -0.0 3.0 0
0.0 -0.0 3.0 0
0.0 -0.0 3.0 0
0.0 -0.0 3.0 0
-1.192 -1.422 2.749 10
-1.139 -1.343 2.739 0
-1.154 -1.347 2.714 0
-1.143 -1.319 2.695 21
0.0 -0.0 3.0 0
0.0 -0.0 3.0 0
0.0 -0.0 3.0 0
-1.1 -1.219 2.627 0
-1.1 -1.208 2.608 0
-1.087 -1.181 2.593 0
-1.07 -1.153 2.58 0
-1.064 -1.135 2.564 0
-1.062 -1.124 2.546 0
-1.071 -1.123 2.523 0
-1.043 -1.085 2.517 0
-1.046 -1.079 2.497 0
0.0 -0.0 3.0 0
-1.03 -1.044 2.468 0
-0.982 -0.988 2.475 0
0.0 -0.0 3.0 0
-0.974 -0.965 2.443 0
-0.941 -0.925 2.444 0
0.0 -0.0 3.0 0
-0.919 -0.891 2.422 0
0.0 -0.0 3.0 0
-0.911 -0.871 2.39 0
0.0 -0.0 3.0 0
0.0 -0.0 3.0 0
0.0 -0.0 3.0 0
0.0 -0.0 3.0 0
0.0 -0.0 3.0 0
0.0 -0.0 3.0 0
-1.19 -1.428 2.748 11
-1.124 -1.335 2.741 0
-1.132 -1.329 2.718 0
-1.134 -1.317 2.696 20
0.0 -0.0 3.0 0
0.0 -0.0 3.0 0
0.0 -0.0 3.0 0
-1.086 -1.211 2.63 0
-1.086 -1.2 2.61 0
0.0 -0.0 3.0 0
-1.051 -1.139 2.585 0
-1.06 -1.138 2.563 0
-1.046 -1.113 2.55 0
-1.047 -1.104 2.531 0
-1.034 -1.082 2.518 0
-1.032 -1.07 2.501 0
-1.002 -1.032 2.497 0
-0.997 -1.018 2.481 0
-0.973 -0.985 2.476 0
0.0 -0.0 3.0 0
-0.971 -0.968 2.441 0
-0.932 -0.923 2.446 0
0.0 -0.0 3.0 0
-0.934 -0.91 2.409 0
0.0 -0.0 3.0 0
-0.898 -0.863 2.396 0
0.0 -0.0 3.0 0
0.0 -0.0 3.0 0
0.0 -0.0 3.0 0
0.0 -0.0 3.0 0
0.0 -0.0 3.0 0
0.0 -0.0 3.0 0
-1.181 -1.425 2.749 5
-1.12 -1.338 2.74 0
-1.125 -1.329 2.718 0
-1.127 -1.317 2.696 18
0.0 -0.0 3.0 0
0.0 -0.0 3.0 0
-1.102 -1.249 2.642 0
0.0 -0.0 3.0 0
0.0 -0.0 3.0 0
-1.076 -1.185 2.592 0
-1.073 -1.17 2.574 0
-1.038 -1.122 2.569 0
-1.057 -1.133 2.542 0
-1.04 -1.105 2.531 0
-1.033 -1.087 2.516 0
-1.023 -1.068 2.502 0
-1.015 -1.051 2.487 0
-1.001 -1.028 2.476 0
-0.959 -0.977 2.48 0
0.0 -0.0 3.0 0
-0.962 -0.965 2.443 0
0.0 -0.0 3.0 0
0.0 -0.0 3.0 0
-0.912 -0.895 2.419 0
0.0 -0.0 3.0 0
-0.9 -0.87 2.391 0
0.0 -0.0 3.0 0
-0.881 -0.84 2.367 0
0.0 -0.0 3.0 0
0.0 -0.0 3.0 0
0.0 -0.0 3.0 0
0.0 -0.0 3.0 0
-1.174 -1.426 2.749 3
-1.121 -1.348 2.738 0
-1.116 -1.326 2.718 0
-1.118 -1.314 2.697 16
0.0 -0.0 3.0 0
0.0 -0.0 3.0 0
-1.09 -1.243 2.643 0
-1.078 -1.218 2.628 0
-1.078 -1.205 2.608 0
-1.07 -1.186 2.592 0
-1.056 -1.16 2.578 0
-1.037 -1.128 2.567 0
-1.048 -1.13 2.543 0
-1.026 -1.097 2.535 0
-1.029 -1.09 2.515 0
-1.019 -1.07 2.501 0
0.0 -0.0 3.0 0
-1.0 -1.034 2.473 0
-0.971 -0.996 2.471 0
0.0 -0.0 3.0 0
-0.974 -0.983 2.432 0
0.0 -0.0 3.0 0
0.0 -0.0 3.0 0
0.0 -0.0 3.0 0
0.0 -0.0 3.0 0
-0.891 -0.867 2.393 0
0.0 -0.0 3.0 0
0.0 -0.0 3.0 0
0.0 -0.0 3.0 0
0.0 -0.0 3.0 0
0.0 -0.0 3.0 0
0.0 -0.0 3.0 0
-1.17 -1.429 2.748 4
-1.115 -1.347 2.738 0
0.0 -0.0 3.0 0
-1.114 -1.318 2.696 13
0.0 -0.0 3.0 0
-1.109 -1.285 2.656 0
0.0 -0.0 3.0 0
-1.079 -1.226 2.625 0
-1.074 -1.209 2.607 0
-1.069 -1.191 2.59 0
-1.076 -1.188 2.568 0
-1.043 -1.142 2.562 0
-1.034 -1.122 2.547 0
-1.014 -1.091 2.537 0
-1.023 -1.091 2.514 0
-1.007 -1.065 2.503 0
0.0 -0.0 3.0 0
-0.978 -1.018 2.481 0
-0.944 -0.974 2.482 0
0.0 -0.0 3.0 0
-0.965 -0.981 2.434 0
-0.933 -0.941 2.435 0
0.0 -0.0 3.0 0
0.0 -0.0 3.0 0
0.0 -0.0 3.0 0
-0.888 -0.87 2.391 0
0.0 -0.0 3.0 0
0.0 -0.0 3.0 0
0.0 -0.0 3.0 0
0.0 -0.0 3.0 0
0.0 -0.0 3.0 0
0.0 -0.0 3.0 0
-1.163 -1.429 2.748 2
-1.098 -1.335 2.74 0
0.0 -0.0 3.0 0
-1.107 -1.318 2.696 11
0.0 -0.0 3.0 0
0.0 -0.0 3.0 0
-1.082 -1.25 2.642 0
0.0 -0.0 3.0 0
0.0 -0.0 3.0 0
-1.062 -1.191 2.59 0
-1.066 -1.185 2.569 0
-1.053 -1.16 2.555 0
-1.038 -1.134 2.542 0
-1.008 -1.091 2.537 0
-1.016 -1.091 2.514 0
-1.001 -1.065 2.503 0
0.0 -0.0 3.0 0
-0.99 -1.036 2.472 0
-0.969 -1.006 2.465 0
0.0 -0.0 3.0 0
-0.944 -0.965 2.443 0
0.0 -0.0 3.0 0
0.0 -0.0 3.0 0
-0.915 -0.915 2.406 0
0.0 -0.0 3.0 0
0.0 -0.0 3.0 0
0.0 -0.0 3.0 0
0.0 -0.0 3.0 0
0.0 -0.0 3.0 0
0.0 -0.0 3.0 0
0.0 -0.0 3.0 0
0.0 -0.0 3.0 0
-1.154 -1.426 2.748 0
-1.094 -1.338 2.74 0
0.0 -0.0 3.0 0
-1.1 -1.319 2.696 10
0.0 -0.0 3.0 0
0.0 -0.0 3.0 0
0.0 -0.0 3.0 0
-1.066 -1.227 2.625 0
-1.056 -1.203 2.609 0
-1.063 -1.201 2.587 0
-1.042 -1.165 2.576 0
-1.036 -1.148 2.559 0
-1.045 -1.148 2.536 0
-1.017 -1.108 2.53 0
-1.02 -1.102 2.509 0
-1.003 -1.074 2.499 0
-0.961 -1.021 2.502 0
-0.994 -1.048 2.466 0
-0.955 -0.998 2.469 0
0.0 -0.0 3.0 0
-0.95 -0.978 2.435 0
0.0 -0.0 3.0 0
0.0 -0.0 3.0 0
0.0 -0.0 3.0 0
0.0 -0.0 3.0 0
-0.884 -0.877 2.386 0
0.0 -0.0 3.0 0
0.0 -0.0 3.0 0
0.0 -0.0 3.0 0
0.0 -0.0 3.0 0
0.0 -0.0 3.0 0
0.0 -0.0 3.0 0
0.0 -0.0 3.0 0
-1.08 -1.33 2.742 0
0.0 -0.0 3.0 0
-1.096 -1.322 2.695 8
0.0 -0.0 3.0 0
0.0 -0.0 3.0 0
0.0 -0.0 3.0 0
-1.07 -1.239 2.621 0
-1.06 -1.216 2.605 0
-1.046 -1.189 2.591 0
-1.048 -1.18 2.57 0
-1.035 -1.154 2.557 0
-1.03 -1.139 2.54 0
-1.029 -1.128 2.521 0
-0.996 -1.083 2.518 0
-1.001 -1.079 2.497 0
-0.95 -1.016 2.505 0
-0.983 -1.043 2.469 0
-0.952 -1.001 2.468 0
0.0 -0.0 3.0 0
-0.939 -0.973 2.438 0
0.0 -0.0 3.0 0
0.0 -0.0 3.0 0
-0.898 -0.91 2.409 0
0.0 -0.0 3.0 0
-0.888 -0.886 2.38 0
0.0 -0.0 3.0 0
0.0 -0.0 3.0 0
0.0 -0.0 3.0 0
0.0 -0.0 3.0 0
0.0 -0.0 3.0 0
0.0 -0.0 3.0 0
-1.096 -1.372 2.758 0
-1.078 -1.335 2.74 0
0.0 -0.0 3.0 0
-1.09 -1.321 2.695 7
0.0 -0.0 3.0 0
0.0 -0.0 3.0 0
-1.081 -1.272 2.635 0
-1.056 -1.23 2.624 0
-1.03 -1.189 2.614 0
-1.055 -1.206 2.585 0
-1.019 -1.155 2.58 0
-1.028 -1.154 2.557 0
-1.027 -1.143 2.538 0
-1.005 -1.109 2.529 0
-0.992 -1.086 2.517 0
-0.977 -1.06 2.506 0
0.0 -0.0 3.0 0
-0.956 -1.02 2.48 0
-0.951 -1.006 2.465 0
0.0 -0.0 3.0 0
-0.928 -0.968 2.441 0
0.0 -0.0 3.0 0
0.0 -0.0 3.0 0
-0.897 -0.914 2.406 0
0.0 -0.0 3.0 0
-0.88 -0.883 2.381 0
0.0 -0.0 3.0 0
0.0 -0.0 3.0 0
0.0 -0.0 3.0 0
0.0 -0.0 3.0 0
0.0 -0.0 3.0 0
0.0 -0.0 3.0 0
-1.089 -1.371 2.758 0
-1.064 -1.327 2.742 0
0.0 -0.0 3.0 0
-1.086 -1.325 2.694 6
0.0 -0.0 3.0 0
0.0 -0.0 3.0 0
-1.071 -1.269 2.636 0
-1.052 -1.234 2.623 0
-1.054 -1.224 2.602 0
-1.041 -1.198 2.588 0
-1.058 -1.207 2.561 0
-1.022 -1.154 2.557 0
-1.015 -1.137 2.54 0
0.0 -0.0 3.0 0
-0.996 -1.097 2.512 0
-0.976 -1.066 2.503 0
0.0 -0.0 3.0 0
-0.945 -1.015 2.483 0
-0.929 -0.989 2.474 0
0.0 -0.0 3.0 0
-0.917 -0.961 2.445 0
0.0 -0.0 3.0 0
0.0 -0.0 3.0 0
-0.871 -0.894 2.42 0
0.0 -0.0 3.0 0
-0.892 -0.901 2.369 0
0.0 -0.0 3.0 0
0.0 -0.0 3.0 0
0.0 -0.0 3.0 0
0.0 -0.0 3.0 0
0.0 -0.0 3.0 0
0.0 -0.0 3.0 0
-1.087 -1.378 2.757 0
-1.065 -1.336 2.74 0
0.0 -0.0 3.0 0
-1.081 -1.328 2.693 4
0.0 -0.0 3.0 0
-1.074 -1.293 2.654 0
0.0 -0.0 3.0 0
-1.058 -1.248 2.618 0
-1.05 -1.228 2.601 0
-1.042 -1.207 2.584 0
-1.026 -1.177 2.571 0
-1.023 -1.163 2.553 0
-1.016 -1.146 2.537 0
-1.0 -1.117 2.526 0
-1.003 -1.111 2.505 0
-0.977 -1.074 2.499 0
0.0 -0.0 3.0 0
-0.949 -1.026 2.477 0
-0.928 -0.995 2.471 0
0.0 -0.0 3.0 0
-0.906 -0.956 2.448 0
