# .PCD v0.7 - Point Cloud Data file format
VERSION 0.7
FIELDS x y z intensity
SIZE 4 4 4 4
TYPE F F F F
COUNT 1 1 1 1
WIDTH 2187
HEIGHT 1
VIEWPOINT 0 0 0 1 0 0 0
POINTS 2187
DATA ascii
-26.977 -7.848 -2.702 41
-25.794 -7.634 -2.753 14
-24.519 -7.39 -2.774 13
-23.363 -7.173 -2.809 14
-22.295 -6.97 -2.848 15
-21.261 -6.771 -2.886 15
-18.468 -7.332 1.707 24
-17.542 -6.715 1.695 19
-17.554 -6.483 1.622 12
-16.631 -5.926 1.632 1
-16.742 -5.763 1.563 25
-16.875 -5.616 1.495 11
-16.014 -5.156 1.522 21
-16.256 -5.073 1.449 21
-18.005 -5.453 1.228 15
-16.604 -4.894 1.315 15
-19.489 -5.599 0.962 15
-19.236 -5.405 0.925 23
-19.601 -5.399 0.819 23
-21.821 -5.915 0.489 13
-62.546 -16.73 -4.449 12
-54.855 -14.538 -3.779 28
-55.806 -14.696 -4.168 9
-49.743 -13.068 -3.659 30
-46.436 -12.212 -3.493 5
-43.112 -11.377 -3.306 6
-38.588 -10.254 -2.92 17
-37.313 -10.004 -3.011 11
-35.005 -9.496 -2.934 7
-32.963 -9.06 -2.884 5
-27.397 -7.646 -2.157 27
-27.227 -7.72 -2.406 28
-27.107 -7.822 -2.683 35
-25.945 -7.62 -2.742 14
-24.654 -7.377 -2.763 13
-23.493 -7.163 -2.8 19
-22.401 -6.957 -2.838 15
-21.351 -6.757 -2.874 15
-18.477 -7.288 1.715 17
-17.419 -6.622 1.713 23
-17.488 -6.411 1.637 13
-17.567 -6.211 1.566 19
-16.685 -5.696 1.58 23
-16.568 -5.466 1.535 8
-15.903 -5.073 1.545 21
-16.298 -5.038 1.46 24
-18.159 -5.445 1.231 11
-16.592 -4.84 1.334 24
-19.565 -5.561 0.976 18
-19.395 -5.39 0.931 27
-19.538 -5.321 0.85 24
-21.799 -5.841 0.521 17
-63.01 -16.658 -4.417 3
-62.967 -16.493 -4.691 3
-56.38 -14.674 -4.157 8
-49.627 -12.888 -3.567 14
-46.866 -12.186 -3.48 5
-43.485 -11.349 -3.291 7
-38.689 -10.171 -2.872 9
-37.558 -9.966 -2.988 10
-35.22 -9.46 -2.911 7
-33.18 -9.033 -2.866 6
-27.563 -7.622 -2.141 22
-27.683 -7.782 -2.449 13
-27.283 -7.808 -2.673 38
-26.108 -7.609 -2.734 13
-24.774 -7.359 -2.75 13
-23.615 -7.151 -2.791 13
-22.507 -6.945 -2.828 15
-21.455 -6.748 -2.866 15
-34.572 -13.546 0.611 8
-17.435 -6.582 1.721 2
-17.496 -6.367 1.647 12
-17.737 -6.224 1.563 18
-16.685 -5.65 1.591 23
-16.492 -5.394 1.555 17
-15.933 -5.036 1.556 22
-16.625 -5.09 1.444 21
-20.974 -6.227 0.977 19
-16.63 -4.8 1.347 15
-19.647 -5.524 0.99 27
-20.368 -5.598 0.851 17
-19.591 -5.275 0.869 19
-21.915 -5.804 0.536 17
0.0 -0.0 3.0 0
-63.782 -16.51 -4.699 6
-56.923 -14.642 -4.141 6
-49.41 -12.684 -3.463 12
-47.266 -12.15 -3.46 5
-43.828 -11.312 -3.27 7
-38.885 -10.113 -2.839 2
-37.771 -9.918 -2.959 12
-35.435 -9.422 -2.888 8
-31.203 -8.414 -2.464 25
-27.778 -7.612 -2.135 12
-27.337 -7.619 -2.335 29
-27.417 -7.783 -2.655 35
-26.256 -7.593 -2.722 13
-24.913 -7.346 -2.739 12
-23.744 -7.14 -2.782 13
-22.594 -6.927 -2.812 8
-21.549 -6.736 -2.856 15
-34.755 -13.53 0.614 13
-19.024 -7.132 1.614 2
-17.486 -6.317 1.657 15
-17.621 -6.134 1.584 0
-16.723 -5.616 1.6 20
-16.469 -5.34 1.569 12
-15.909 -4.983 1.571 21
-16.571 -5.024 1.464 25
-20.985 -6.167 0.996 23
-16.63 -4.75 1.364 4
-19.692 -5.476 1.007 12
-20.555 -5.585 0.856 14
-19.693 -5.241 0.883 11
-21.958 -5.748 0.56 2
0.0 -0.0 3.0 0
-62.98 -16.109 -4.512 7
-49.349 -12.543 -3.118 28
-51.851 -13.154 -3.702 10
-47.646 -12.108 -3.438 10
-44.182 -11.275 -3.25 6
-39.863 -10.254 -2.92 12
-37.878 -9.842 -2.914 21
-35.665 -9.388 -2.867 8
-31.25 -8.346 -2.42 16
-27.905 -7.578 -2.111 16
-27.343 -7.554 -2.29 39
-27.57 -7.762 -2.639 38
-26.403 -7.576 -2.709 14
-25.048 -7.332 -2.728 13
-23.87 -7.129 -2.773 14
-22.733 -6.924 -2.81 14
-21.646 -6.725 -2.846 16
-35.851 -13.865 0.555 30
-38.26 -14.245 0.231 28
-15.972 -5.728 1.782 0
-18.372 -6.346 1.535 36
-16.775 -5.587 1.607 21
-16.499 -5.303 1.579 0
-16.688 -5.179 1.515 20
-16.528 -4.963 1.483 18
-20.651 -6.008 1.048 21
-18.549 -5.243 1.195 1
-121.617 -33.452 -9.175 33
-20.546 -5.519 0.881 18
-20.687 -5.441 0.801 9
0.0 -0.0 3.0 0
0.0 -0.0 3.0 0
0.0 -0.0 3.0 0
-49.346 -12.393 -3.044 66
-52.471 -13.154 -3.702 4
-38.551 -9.683 -2.148 6
-38.667 -9.756 -2.408 3
-37.983 -9.664 -2.579 6
-37.957 -9.759 -2.864 14
-35.873 -9.348 -2.841 7
-33.784 -8.935 -2.803 4
-28.101 -7.561 -2.1 9
-27.549 -7.545 -2.283 25
-27.629 -7.715 -2.605 40
-26.551 -7.56 -2.697 17
-25.186 -7.319 -2.718 13
-23.97 -7.109 -2.757 14
-22.828 -6.907 -2.796 14
-21.732 -6.71 -2.833 15
-35.889 -13.79 0.568 49
-38.447 -14.215 0.237 27
-15.934 -5.672 1.794 2
-17.478 -5.99 1.617 25
-16.828 -5.558 1.614 2
-17.596 -5.606 1.498 26
-16.717 -5.141 1.526 4
-16.623 -4.943 1.489 13
-19.559 -5.632 1.17 1
-19.912 -5.567 1.083 19
-121.711 -33.107 -9.05 63
-20.572 -5.464 0.903 19
-20.682 -5.377 0.828 26
0.0 -0.0 3.0 0
0.0 -0.0 3.0 0
-64.922 -16.208 -4.558 17
-49.674 -12.325 -3.011 37
-38.589 -9.558 -1.87 5
-38.634 -9.59 -2.099 255
-44.871 -11.192 -3.204 6
-40.601 -10.216 -2.898 11
-38.059 -9.682 -2.817 12
-36.103 -9.313 -2.819 9
-33.989 -8.903 -2.782 4
-28.13 -7.499 -2.058 2
-27.565 -7.484 -2.241 27
-27.747 -7.684 -2.583 31
-26.688 -7.54 -2.681 14
-25.332 -7.307 -2.709 17
-24.077 -7.091 -2.742 14
-22.93 -6.893 -2.784 15
-21.832 -6.7 -2.824 15
-35.856 -13.688 0.586 50
-17.447 -6.407 1.755 8
-17.524 -6.192 1.684 25
-17.38 -5.91 1.636 23
-17.611 -5.769 1.562 26
-18.204 -5.749 1.46 19
-17.59 -5.359 1.463 20
-16.576 -4.881 1.508 0
-19.817 -5.648 1.165 6
-19.871 -5.496 1.108 18
-121.82 -32.767 -8.926 64
-20.674 -5.427 0.917 19
-20.727 -5.324 0.849 12
0.0 -0.0 3.0 0
0.0 -0.0 3.0 0
0.0 -0.0 3.0 0
-59.623 -14.612 -4.127 4
-38.614 -9.45 -1.815 24
-38.598 -9.468 -2.034 255
-45.237 -11.154 -3.183 6
-38.621 -9.61 -2.548 4
-38.395 -9.663 -2.806 26
-36.345 -9.279 -2.798 7
-34.198 -8.87 -2.761 4
-30.692 -8.106 -2.467 10
-27.787 -7.478 -2.236 23
-27.851 -7.649 -2.557 38
-26.843 -7.524 -2.67 14
-25.452 -7.288 -2.694 21
-24.199 -7.078 -2.732 10
-23.028 -6.878 -2.771 15
-21.933 -6.689 -2.815 14
-35.114 -13.318 0.652 10
-17.481 -6.374 1.761 17
-17.478 -6.131 1.697 28
-17.398 -5.87 1.645 24
-16.773 -5.449 1.642 0
-18.364 -5.748 1.46 19
-17.57 -5.303 1.479 25
-17.703 -5.162 1.422 14
-19.631 -5.537 1.201 11
-20.038 -5.483 1.112 16
-121.908 -32.422 -8.801 63
-20.696 -5.369 0.939 21
-20.745 -5.265 0.873 1
0.0 -0.0 3.0 0
0.0 -0.0 3.0 0
0.0 -0.0 3.0 0
-60.261 -14.586 -4.114 4
-38.655 -9.345 -1.761 255
-38.577 -9.35 -1.971 255
-45.583 -11.109 -3.158 6
-38.335 -9.432 -2.445 4
-38.766 -9.651 -2.799 22
-36.56 -9.238 -2.772 7
-34.403 -8.836 -2.738 5
-31.424 -8.222 -2.546 12
-27.776 -7.41 -2.188 27
-28.068 -7.644 -2.554 37
-27.002 -7.51 -2.659 14
-25.59 -7.274 -2.683 20
-24.336 -7.069 -2.724 11
-23.133 -6.864 -2.76 12
-22.018 -6.674 -2.802 16
-34.975 -13.179 0.676 23
-17.484 -6.331 1.769 0
-17.613 -6.133 1.696 28
-17.67 -5.915 1.634 27
-17.634 -5.68 1.584 20
-18.474 -5.732 1.464 22
-17.608 -5.265 1.49 27
-17.718 -5.115 1.436 20
-19.977 -5.576 1.188 16
-20.151 -5.453 1.122 18
-121.875 -32.045 -8.664 58
-20.663 -5.298 0.966 16
-114.545 -28.723 -8.605 12
0.0 -0.0 3.0 0
0.0 -0.0 3.0 0
0.0 -0.0 3.0 0
-60.976 -14.575 -4.109 3
-38.625 -9.222 -1.699 255
-38.586 -9.239 -1.913 255
-45.953 -11.068 -3.135 5
-38.271 -9.31 -2.375 9
-38.929 -9.586 -2.76 21
-36.798 -9.201 -2.75 6
-34.596 -8.798 -2.713 4
-31.412 -8.143 -2.492 33
-27.986 -7.4 -2.182 24
-28.471 -7.69 -2.587 29
-27.126 -7.485 -2.641 13
-25.74 -7.262 -2.674 19
-24.45 -7.053 -2.711 15
-23.242 -6.852 -2.75 15
-22.133 -6.669 -2.797 17
-35.24 -13.192 0.674 40
-36.402 -13.092 0.455 4
-17.352 -5.998 1.725 17
-17.829 -5.921 1.633 15
-17.466 -5.58 1.609 24
-18.493 -5.687 1.476 19
-17.707 -5.244 1.496 19
-17.744 -5.071 1.449 8
-19.921 -5.502 1.212 28
-19.99 -5.351 1.157 13
-19.827 -5.154 1.124 1
-20.711 -5.248 0.986 11
-114.918 -28.464 -8.5 10
0.0 -0.0 3.0 0
0.0 -0.0 3.0 0
0.0 -0.0 3.0 0
-61.731 -14.57 -4.106 3
-38.595 -9.1 -1.637 255
-38.657 -9.143 -1.861 3
-46.308 -11.022 -3.11 5
-41.852 -10.065 -2.811 8
-38.854 -9.462 -2.686 12
-37.032 -9.163 -2.726 6
-34.824 -8.768 -2.694 4
-31.442 -8.074 -2.446 3
-28.082 -7.36 -2.153 28
-28.389 -7.604 -2.525 31
-27.278 -7.468 -2.628 12
-25.905 -7.255 -2.668 19
-24.56 -7.037 -2.698 15
-23.348 -6.838 -2.738 14
-22.234 -6.658 -2.788 12
-35.425 -13.177 0.677 36
-36.525 -13.046 0.464 9
-17.201 -5.901 1.746 20
-17.582 -5.794 1.662 17
-17.571 -5.567 1.612 13
-18.749 -5.714 1.469 23
-18.13 -5.319 1.475 23
-19.051 -5.391 1.352 5
-19.849 -5.424 1.238 23
-19.945 -5.28 1.182 0
-19.851 -5.101 1.144 22
-20.712 -5.185 1.01 13
0.0 -0.0 3.0 0
0.0 -0.0 3.0 0
0.0 -0.0 3.0 0
0.0 -0.0 3.0 0
-62.436 -14.548 -4.096 3
-38.581 -8.983 -1.577 255
-50.696 -11.844 -3.297 15
-46.717 -10.986 -3.09 5
-42.199 -10.031 -2.791 9
-39.525 -9.52 -2.72 15
-37.316 -9.136 -2.709 11
-35.037 -8.734 -2.672 5
-32.898 -8.368 -2.645 4
-28.067 -7.291 -2.105 8
-28.48 -7.565 -2.496 24
-27.436 -7.453 -2.616 13
-26.065 -7.246 -2.662 13
-24.686 -7.024 -2.688 14
-23.46 -6.827 -2.728 12
-22.349 -6.652 -2.783 12
-35.63 -13.168 0.678 41
-36.773 -13.043 0.465 9
-17.203 -5.859 1.755 19
-17.383 -5.683 1.688 24
-17.669 -5.551 1.616 2
-19.524 -5.898 1.42 24
-18.114 -5.264 1.491 20
-19.681 -5.513 1.314 18
-19.907 -5.383 1.251 24
-21.006 -5.498 1.107 1
-19.875 -5.047 1.163 23
-20.737 -5.129 1.031 0
0.0 -0.0 3.0 0
0.0 -0.0 3.0 0
0.0 -0.0 3.0 0
0.0 -0.0 3.0 0
-63.091 -14.511 -4.078 3
-38.6 -8.873 -1.521 198
-51.127 -11.796 -3.272 11
-47.056 -10.932 -3.06 19
-42.546 -9.996 -2.771 9
-39.819 -9.485 -2.699 12
-37.488 -9.081 -2.675 19
-35.242 -8.697 -2.648 4
-31.092 -7.834 -2.284 6
-28.032 -7.217 -2.053 22
-28.625 -7.54 -2.478 18
-27.58 -7.433 -2.601 13
-26.215 -7.234 -2.652 13
-24.807 -7.009 -2.676 14
-23.577 -6.816 -2.72 14
-22.46 -6.645 -2.776 12
-35.666 -13.096 0.691 44
-39.81 -14.024 0.274 29
-17.198 -5.814 1.764 16
-17.352 -5.629 1.701 24
-18.529 -5.772 1.561 17
-19.486 -5.833 1.437 24
-17.784 -5.119 1.532 20
-19.558 -5.424 1.342 22
-19.888 -5.321 1.271 19
-20.953 -5.423 1.133 5
-19.918 -4.999 1.181 23
-114.996 -28.094 -7.784 13
0.0 -0.0 3.0 0
0.0 -0.0 3.0 0
0.0 -0.0 3.0 0
0.0 -0.0 3.0 0
-63.859 -14.497 -4.07 3
-38.646 -8.769 -1.468 3
-51.656 -11.769 -3.257 4
-47.426 -10.885 -3.034 25
-42.878 -9.956 -2.748 12
-40.055 -9.434 -2.668 12
-37.688 -9.033 -2.644 10
-35.454 -8.661 -2.625 5
-31.009 -7.739 -2.22 32
-28.23 -7.202 -2.043 15
-28.709 -7.498 -2.448 11
-27.723 -7.413 -2.586 13
-26.357 -7.22 -2.641 14
-24.936 -6.997 -2.666 14
-23.697 -6.807 -2.712 14
-22.59 -6.643 -2.775 13
-35.96 -13.119 0.687 32
-39.996 -13.992 0.28 31
-18.165 -6.096 1.704 1
-17.361 -5.587 1.71 24
-18.566 -5.735 1.57 21
-19.665 -5.834 1.437 19
-17.936 -5.114 1.534 29
-19.639 -5.391 1.352 22
-19.796 -5.238 1.298 13
-20.973 -5.367 1.152 2
-19.957 -4.949 1.199 16
0.0 -0.0 3.0 0
0.0 -0.0 3.0 0
-102.749 -23.739 -7.077 22
0.0 -0.0 3.0 0
0.0 -0.0 3.0 0
-64.577 -14.466 -4.056 4
-57.802 -12.945 -3.596 5
-52.104 -11.72 -3.232 7
-47.832 -10.843 -3.01 26
-43.236 -9.921 -2.728 14
-40.319 -9.389 -2.641 11
-37.987 -9.007 -2.628 7
-35.667 -8.625 -2.601 5
-30.896 -7.637 -2.151 30
-28.161 -7.121 -1.986 27
-27.886 -7.222 -2.247 3
-27.855 -7.39 -2.569 14
-26.495 -7.205 -2.629 14
-25.058 -6.983 -2.655 12
-23.82 -6.799 -2.705 15
-22.682 -6.63 -2.763 11
-36.149 -13.104 0.689 31
-40.2 -13.968 0.285 29
-40.818 -13.598 0.11 27
-17.375 -5.548 1.719 28
-18.63 -5.706 1.577 33
-19.795 -5.82 1.44 28
-18.38 -5.19 1.512 12
-19.823 -5.386 1.353 20
-19.834 -5.192 1.313 10
-122.352 -30.952 -7.658 14
-19.972 -4.894 1.219 10
0.0 -0.0 3.0 0
0.0 -0.0 3.0 0
-102.596 -23.392 -6.929 16
0.0 -0.0 3.0 0
0.0 -0.0 3.0 0
-64.005 -14.146 -3.9 18
-58.39 -12.905 -3.576 4
-52.606 -11.681 -3.211 9
-48.237 -10.799 -2.986 25
-43.614 -9.889 -2.709 10
-40.566 -9.34 -2.612 11
-38.252 -8.973 -2.607 7
-35.887 -8.59 -2.579 4
-30.801 -7.541 -2.087 31
-28.305 -7.093 -1.966 25
-27.763 -7.13 -2.18 5
-28.014 -7.374 -2.557 15
-26.618 -7.185 -2.613 13
-25.187 -6.97 -2.645 12
-23.94 -6.789 -2.697 13
-22.782 -6.619 -2.754 16
-36.135 -13.015 0.705 21
-18.151 -6.263 1.783 0
-40.894 -13.524 0.125 51
-17.396 -5.511 1.728 21
-18.663 -5.667 1.587 20
-20.404 -5.945 1.407 17
-18.405 -5.147 1.524 1
-19.973 -5.371 1.358 20
0.0 -0.0 3.0 0
0.0 -0.0 3.0 0
-19.972 -4.835 1.24 6
0.0 -0.0 3.0 0
-123.238 -28.28 -8.426 41
-102.499 -23.059 -6.788 12
0.0 -0.0 3.0 0
0.0 -0.0 3.0 0
-63.941 -13.942 -3.8 11
-59.026 -12.873 -3.559 4
-53.159 -11.651 -3.195 11
-48.654 -10.756 -2.962 27
-44.019 -9.861 -2.693 12
-40.86 -9.299 -2.588 12
-38.54 -8.941 -2.587 8
-36.061 -8.544 -2.548 12
-30.786 -7.465 -2.035 23
-28.53 -7.085 -1.961 24
-27.643 -7.039 -2.114 21
-28.161 -7.354 -2.541 15
-26.771 -7.173 -2.604 14
-25.33 -6.963 -2.638 12
-24.068 -6.781 -2.69 13
-22.886 -6.61 -2.746 12
-36.136 -12.933 0.72 24
-18.138 -6.216 1.792 16
-40.845 -13.408 0.15 44
-17.409 -5.471 1.737 0
-18.704 -5.632 1.596 25
-20.508 -5.921 1.414 13
-20.871 -5.78 1.343 9
-20.0 -5.322 1.373 28
0.0 -0.0 3.0 0
0.0 -0.0 3.0 0
-20.003 -4.783 1.259 8
-122.95 -28.563 -7.964 45
-123.385 -27.942 -8.289 16
-102.351 -22.715 -6.642 17
0.0 -0.0 3.0 0
0.0 -0.0 3.0 0
0.0 -0.0 3.0 0
-59.642 -12.832 -3.538 4
-53.692 -11.613 -3.175 11
-49.075 -10.712 -2.938 25
-44.328 -9.809 -2.663 15
-41.123 -9.251 -2.559 10
-38.808 -8.906 -2.565 21
-36.319 -8.516 -2.53 6
-34.133 -8.197 -2.529 3
-28.578 -7.033 -1.924 31
-27.79 -7.017 -2.098 15
-28.315 -7.336 -2.528 13
-26.905 -7.156 -2.591 13
-25.459 -6.95 -2.628 15
-24.191 -6.773 -2.683 15
-22.985 -6.599 -2.736 16
-36.298 -12.908 0.724 26
-18.156 -6.18 1.799 24
-38.451 -12.529 0.337 8
-18.191 -5.672 1.69 14
-18.748 -5.598 1.604 14
-20.515 -5.869 1.427 14
-20.894 -5.73 1.357 16
-20.069 -5.286 1.384 25
-122.379 -30.995 -7.071 13
0.0 -0.0 3.0 0
0.0 -0.0 3.0 0
-122.032 -27.986 -7.743 16
0.0 -0.0 3.0 0
-102.256 -22.385 -6.502 27
-93.562 -20.154 -5.973 12
0.0 -0.0 3.0 0
0.0 -0.0 3.0 0
0.0 -0.0 3.0 0
-54.211 -11.57 -3.152 10
-49.496 -10.665 -2.912 27
-44.726 -9.776 -2.644 11
-41.402 -9.205 -2.531 10
-39.185 -8.894 -2.558 10
-36.562 -8.484 -2.51 6
-34.358 -8.171 -2.511 3
-28.726 -7.005 -1.905 24
-27.807 -6.962 -2.058 35
-28.47 -7.318 -2.514 12
-27.05 -7.141 -2.579 13
-25.584 -6.936 -2.617 15
-24.314 -6.764 -2.676 13
-23.107 -6.594 -2.732 11
-36.483 -12.891 0.727 22
-18.161 -6.139 1.807 29
-38.638 -12.498 0.343 11
-18.155 -5.616 1.703 20
-18.77 -5.556 1.615 10
-20.545 -5.824 1.439 10
-20.948 -5.688 1.369 9
-20.064 -5.23 1.401 27
0.0 -0.0 3.0 0
0.0 -0.0 3.0 0
0.0 -0.0 3.0 0
0.0 -0.0 3.0 0
-122.754 -27.062 -7.934 26
-102.506 -22.131 -6.394 21
-95.26 -20.231 -6.008 9
0.0 -0.0 3.0 0
-63.819 -13.345 -3.509 25
-61.136 -12.796 -3.52 2
-54.904 -11.561 -3.147 10
-49.948 -10.623 -2.889 26
-45.088 -9.733 -2.62 12
-41.715 -9.166 -2.508 10
-39.504 -8.867 -2.54 11
-36.828 -8.457 -2.492 16
-34.588 -8.145 -2.494 4
-27.946 -6.752 -1.728 6
-27.835 -6.911 -2.021 29
-28.601 -7.293 -2.496 10
-27.192 -7.126 -2.568 14
-25.72 -6.925 -2.608 11
-24.449 -6.758 -2.67 13
-23.237 -6.592 -2.73 12
-36.671 -12.875 0.73 26
-18.163 -6.099 1.815 0
-40.745 -13.083 0.219 47
-18.126 -5.563 1.716 26
-18.848 -5.532 1.621 6
-20.41 -5.733 1.464 1
-20.956 -5.635 1.384 0
-20.052 -5.171 1.419 20
0.0 -0.0 3.0 0
0.0 -0.0 3.0 0
0.0 -0.0 3.0 0
0.0 -0.0 3.0 0
-122.913 -26.728 -7.799 31
-103.153 -21.959 -6.321 14
0.0 -0.0 3.0 0
0.0 -0.0 3.0 0
0.0 -0.0 3.0 0
-61.905 -12.777 -3.51 3
-55.38 -11.504 -3.117 11
-50.389 -10.578 -2.863 23
-46.531 -9.92 -2.727 6
-41.998 -9.119 -2.479 10
-39.784 -8.83 -2.517 15
-37.033 -8.415 -2.465 22
-34.767 -8.107 -2.469 5
-27.901 -6.68 -1.678 4
-28.008 -6.894 -2.009 5
-28.725 -7.268 -2.477 9
-27.341 -7.113 -2.557 12
-25.86 -6.916 -2.6 11
-24.58 -6.751 -2.665 15
-23.344 -6.583 -2.723 12
-36.867 -12.863 0.732 19
-37.844 -12.62 0.547 37
-18.346 -5.848 1.757 1
-18.131 -5.521 1.725 16
-43.363 -12.621 -0.147 22
-19.918 -5.543 1.515 18
0.0 -0.0 3.0 0
-18.698 -4.771 1.541 3
0.0 -0.0 3.0 0
0.0 -0.0 3.0 0
0.0 -0.0 3.0 0
0.0 -0.0 3.0 0
0.0 -0.0 3.0 0
0.0 -0.0 3.0 0
-99.216 -20.474 -6.116 12
0.0 -0.0 3.0 0
0.0 -0.0 3.0 0
-62.546 -12.727 -3.485 3
-56.078 -11.489 -3.109 3
-50.873 -10.538 -2.841 5
-46.883 -9.869 -2.698 6
-42.307 -9.077 -2.454 10
-40.041 -8.787 -2.491 18
-37.272 -8.38 -2.442 23
-29.447 -6.799 -1.586 14
-29.089 -6.901 -1.832 2
-28.101 -6.859 -1.983 2
-28.574 -7.172 -2.405 3
-27.482 -7.098 -2.545 14
-26.015 -6.91 -2.596 11
-24.699 -6.741 -2.656 15
-23.462 -6.578 -2.718 20
-37.051 -12.846 0.735 16
-38.045 -12.602 0.55 31
-18.336 -5.802 1.767 18
-18.129 -5.476 1.736 25
-20.75 -5.988 1.507 7
-19.893 -5.486 1.53 20
0.0 -0.0 3.0 0
-20.061 -5.065 1.451 3
0.0 -0.0 3.0 0
0.0 -0.0 3.0 0
0.0 -0.0 3.0 0
-123.543 -26.871 -7.315 22
-123.933 -26.211 -7.59 29
0.0 -0.0 3.0 0
0.0 -0.0 3.0 0
0.0 -0.0 3.0 0
0.0 -0.0 3.0 0
-63.199 -12.676 -3.459 4
-56.648 -11.445 -3.085 3
-51.29 -10.482 -2.81 11
-47.25 -9.82 -2.669 7
-42.628 -9.035 -2.429 9
-40.263 -8.736 -2.459 18
-37.484 -8.339 -2.415 15
-29.399 -6.721 -1.534 30
-29.294 -6.886 -1.822 29
0.0 -0.0 3.0 0
-28.789 -7.17 -2.403 7
-27.619 -7.081 -2.532 13
-26.184 -6.908 -2.594 11
-24.83 -6.734 -2.65 11
-23.572 -6.57 -2.711 13
-37.258 -12.837 0.736 18
-38.113 -12.538 0.563 17
-18.357 -5.766 1.774 17
-18.149 -5.44 1.744 0
-20.776 -5.944 1.518 0
-19.941 -5.449 1.54 12
0.0 -0.0 3.0 0
-18.65 -4.659 1.576 14
0.0 -0.0 3.0 0
0.0 -0.0 3.0 0
0.0 -0.0 3.0 0
0.0 -0.0 3.0 0
0.0 -0.0 3.0 0
0.0 -0.0 3.0 0
-101.66 -20.368 -6.068 20
0.0 -0.0 3.0 0
0.0 -0.0 3.0 0
0.0 -0.0 3.0 0
-57.292 -11.413 -3.068 4
-51.809 -10.446 -2.79 17
-47.661 -9.778 -2.646 7
-42.968 -8.998 -2.407 10
-40.493 -8.686 -2.428 19
-37.742 -8.308 -2.395 7
-29.458 -6.668 -1.498 15
-29.41 -6.85 -1.796 28
0.0 -0.0 3.0 0
-28.805 -7.117 -2.363 19
-27.768 -7.067 -2.521 13
-26.351 -6.904 -2.591 16
-24.964 -6.728 -2.645 16
-23.694 -6.565 -2.707 12
-37.423 -12.813 0.741 20
-38.036 -12.429 0.584 22
-18.392 -5.735 1.781 16
-43.369 -12.897 0.023 22
-44.029 -12.49 -0.114 22
-19.959 -5.403 1.552 0
0.0 -0.0 3.0 0
-18.713 -4.625 1.586 19
0.0 -0.0 3.0 0
0.0 -0.0 3.0 0
0.0 -0.0 3.0 0
0.0 -0.0 3.0 0
0.0 -0.0 3.0 0
0.0 -0.0 3.0 0
-101.764 -20.084 -5.942 15
0.0 -0.0 3.0 0
0.0 -0.0 3.0 0
0.0 -0.0 3.0 0
-57.96 -11.381 -3.052 4
-52.305 -10.403 -2.766 21
-48.052 -9.73 -2.618 6
-43.282 -8.952 -2.379 10
-40.73 -8.637 -2.397 16
-29.432 -6.409 -1.162 21
-35.606 -7.98 -2.383 21
-29.561 -6.822 -1.777 29
0.0 -0.0 3.0 0
-28.859 -7.074 -2.33 7
-27.924 -7.055 -2.512 13
-26.498 -6.896 -2.584 19
-25.094 -6.721 -2.639 16
-23.808 -6.559 -2.701 11
-37.614 -12.799 0.743 18
-38.225 -12.407 0.588 23
-18.42 -5.702 1.788 18
-40.535 -11.958 0.239 5
-44.266 -12.45 -0.104 21
-44.966 -12.062 -0.232 24
0.0 -0.0 3.0 0
-18.726 -4.578 1.6 1
0.0 -0.0 3.0 0
0.0 -0.0 3.0 0
-118.173 -25.515 -6.287 10
0.0 -0.0 3.0 0
0.0 -0.0 3.0 0
0.0 -0.0 3.0 0
-101.809 -19.789 -5.81 12
0.0 -0.0 3.0 0
0.0 -0.0 3.0 0
0.0 -0.0 3.0 0
-58.534 -11.329 -3.024 4
-49.76 -9.76 -2.41 58
-48.462 -9.686 -2.592 6
-43.61 -8.91 -2.353 10
-40.983 -8.591 -2.368 12
-29.413 -6.337 -1.115 29
-35.796 -7.943 -2.358 16
-29.674 -6.785 -1.751 27
0.0 -0.0 3.0 0
-29.445 -7.161 -2.396 10
-28.065 -7.039 -2.499 12
-26.641 -6.887 -2.577 18
-25.221 -6.713 -2.633 16
-23.925 -6.553 -2.697 11
-37.809 -12.787 0.745 20
-38.413 -12.385 0.593 21
-18.416 -5.659 1.797 5
-40.692 -11.911 0.25 8
-44.495 -12.409 -0.094 24
-45.204 -12.013 -0.219 24
0.0 -0.0 3.0 0
0.0 -0.0 3.0 0
0.0 -0.0 3.0 0
0.0 -0.0 3.0 0
0.0 -0.0 3.0 0
0.0 -0.0 3.0 0
-116.573 -23.272 -6.402 17
0.0 -0.0 3.0 0
-102.119 -19.543 -5.701 12
0.0 -0.0 3.0 0
0.0 -0.0 3.0 0
0.0 -0.0 3.0 0
-59.159 -11.284 -3.0 3
-49.707 -9.613 -2.329 72
-48.892 -9.643 -2.567 6
-43.92 -8.861 -2.324 10
-41.243 -8.545 -2.339 10
-29.475 -6.282 -1.079 12
-36.013 -7.911 -2.336 6
-29.809 -6.754 -1.729 30
0.0 -0.0 3.0 0
-29.625 -7.148 -2.386 21
-28.228 -7.028 -2.491 12
-26.795 -6.88 -2.572 18
-25.355 -6.707 -2.628 17
-24.043 -6.547 -2.691 10
-38.007 -12.774 0.748 21
-38.62 -12.369 0.596 22
-39.679 -12.106 0.427 30
-40.994 -11.905 0.251 32
-44.747 -12.373 -0.085 25
-45.446 -11.966 -0.206 24
0.0 -0.0 3.0 0
0.0 -0.0 3.0 0
0.0 -0.0 3.0 0
0.0 -0.0 3.0 0
-118.199 -24.845 -6.043 18
-117.712 -23.883 -6.168 14
0.0 -0.0 3.0 0
0.0 -0.0 3.0 0
-102.405 -19.292 -5.589 19
-91.09 -16.976 -4.916 16
0.0 -0.0 3.0 0
0.0 -0.0 3.0 0
-59.836 -11.244 -2.979 2
-49.786 -9.494 -2.262 64
-49.307 -9.595 -2.54 5
-44.338 -8.834 -2.308 8
-29.426 -6.025 -0.765 24
-38.797 -8.178 -2.311 25
-36.296 -7.894 -2.324 4
-29.96 -6.724 -1.708 29
0.0 -0.0 3.0 0
-29.787 -7.131 -2.373 18
-28.373 -7.013 -2.479 11
-26.969 -6.879 -2.57 12
-25.493 -6.702 -2.623 13
-24.168 -6.544 -2.688 9
-38.198 -12.76 0.75 21
-38.824 -12.351 0.599 19
-39.868 -12.076 0.433 25
-44.277 -12.758 0.055 23
-44.975 -12.33 -0.074 24
-45.575 -11.889 -0.186 50
-46.328 -11.5 -0.298 5
0.0 -0.0 3.0 0
0.0 -0.0 3.0 0
0.0 -0.0 3.0 0
0.0 -0.0 3.0 0
0.0 -0.0 3.0 0
0.0 -0.0 3.0 0
-124.441 -23.516 -6.982 13
-102.639 -19.031 -5.473 21
-92.815 -17.022 -4.938 15
0.0 -0.0 3.0 0
-67.746 -12.414 -3.325 5
-60.489 -11.198 -2.954 3
-54.433 -10.232 -2.672 18
-49.741 -9.549 -2.513 6
-44.788 -8.811 -2.294 8
-29.414 -5.953 -0.72 28
-39.012 -8.135 -2.283 12
-36.54 -7.867 -2.306 6
-30.157 -6.706 -1.696 28
-29.731 -6.835 -1.966 28
-29.94 -7.111 -2.358 23
-28.536 -7.003 -2.471 11
-27.112 -6.869 -2.563 12
-25.63 -6.696 -2.619 13
-24.3 -6.542 -2.687 8
-38.397 -12.748 0.752 17
-39.027 -12.334 0.603 17
-40.092 -12.056 0.437 23
-41.529 -11.872 0.259 6
-45.208 -12.287 -0.064 22
-45.519 -11.764 -0.152 45
-46.663 -11.467 -0.288 21
0.0 -0.0 3.0 0
0.0 -0.0 3.0 0
0.0 -0.0 3.0 0
0.0 -0.0 3.0 0
0.0 -0.0 3.0 0
0.0 -0.0 3.0 0
-121.402 -22.582 -6.585 21
-103.092 -18.808 -5.374 20
-94.482 -17.049 -4.95 9
0.0 -0.0 3.0 0
0.0 -0.0 3.0 0
-61.271 -11.171 -2.94 4
-54.878 -10.167 -2.636 7
-50.178 -9.503 -2.486 7
-29.43 -5.716 -0.434 5
-29.495 -5.899 -0.686 7
-39.332 -8.111 -2.268 6
-36.78 -7.839 -2.287 17
-30.377 -6.692 -1.686 10
-29.769 -6.785 -1.929 32
-30.101 -7.093 -2.345 11
-28.711 -6.995 -2.465 12
-27.262 -6.862 -2.556 12
-25.756 -6.688 -2.612 13
-24.425 -6.539 -2.684 7
-38.61 -12.742 0.753 23
-39.261 -12.327 0.604 18
-40.147 -11.987 0.452 17
-44.743 -12.691 0.07 27
-45.451 -12.249 -0.054 22
-46.146 -11.816 -0.166 20
-46.906 -11.41 -0.272 26
0.0 -0.0 3.0 0
0.0 -0.0 3.0 0
0.0 -0.0 3.0 0
-116.854 -23.572 -5.58 11
-117.414 -22.806 -5.754 14
0.0 -0.0 3.0 0
0.0 -0.0 3.0 0
-103.808 -18.631 -5.295 17
-96.958 -17.208 -5.024 13
0.0 -0.0 3.0 0
0.0 -0.0 3.0 0
-61.662 -11.071 -2.886 5
-55.594 -10.149 -2.626 4
-50.612 -9.453 -2.458 6
-29.479 -5.652 -0.396 7
-42.334 -8.365 -2.227 15
-39.625 -8.082 -2.248 5
-36.993 -7.805 -2.264 20
-34.701 -7.574 -2.304 4
-29.888 -6.754 -1.907 25
-30.369 -7.1 -2.351 18
-28.89 -6.988 -2.459 12
-27.401 -6.851 -2.548 12
-25.905 -6.686 -2.61 13
-1.203 -0.321 2.721 0
-38.789 -12.724 0.756 19
-39.452 -12.306 0.608 21
-40.11 -11.89 0.473 21
-41.011 -11.542 0.335 20
-45.575 -12.178 -0.036 52
-46.406 -11.772 -0.154 23
-47.159 -11.355 -0.256 25
0.0 -0.0 3.0 0
0.0 -0.0 3.0 0
0.0 -0.0 3.0 0
0.0 -0.0 3.0 0
0.0 -0.0 3.0 0
-116.505 -21.548 -5.706 11
-123.777 -22.291 -6.462 13
-104.503 -18.445 -5.212 17
-98.655 -17.218 -5.029 26
0.0 -0.0 3.0 0
0.0 -0.0 3.0 0
-62.429 -11.035 -2.867 3
-56.184 -10.106 -2.602 4
-51.058 -9.404 -2.43 5
-29.462 -5.576 -0.351 1
-42.652 -8.327 -2.203 14
-39.921 -8.053 -2.23 6
-37.225 -7.774 -2.244 19
-34.935 -7.554 -2.29 8
-30.099 -6.744 -1.9 19
-30.691 -7.12 -2.366 12
-29.08 -6.984 -2.456 13
-27.547 -6.842 -2.541 12
-26.08 -6.691 -2.614 11
-1.219 -0.323 2.719 1
-38.998 -12.715 0.758 14
-39.651 -12.287 0.612 20
-40.318 -11.867 0.478 22
-41.401 -11.561 0.331 30
-45.529 -12.062 -0.007 36
-46.659 -11.726 -0.142 23
-47.412 -11.3 -0.24 25
0.0 -0.0 3.0 0
0.0 -0.0 3.0 0
0.0 -0.0 3.0 0
-116.646 -22.877 -5.327 14
0.0 -0.0 3.0 0
0.0 -0.0 3.0 0
-124.185 -21.999 -6.338 17
0.0 -0.0 3.0 0
0.0 -0.0 3.0 0
0.0 -0.0 3.0 0
0.0 -0.0 3.0 0
0.0 -0.0 3.0 0
-56.735 -10.053 -2.572 3
-51.586 -9.369 -2.409 12
-46.782 -8.739 -2.251 8
-29.335 -5.658 -0.536 2
-40.222 -8.024 -2.211 5
-37.442 -7.74 -2.22 9
-35.138 -7.528 -2.271 18
-30.117 -6.69 -1.861 11
-30.998 -7.135 -2.377 12
-29.231 -6.97 -2.445 11
-27.697 -6.835 -2.534 12
-26.248 -6.693 -2.616 11
-1.22 -0.321 2.721 2
-39.199 -12.706 0.76 12
-39.869 -12.275 0.614 23
-40.53 -11.845 0.482 24
-41.629 -11.535 0.337 32
-43.015 -11.299 0.183 7
-46.903 -11.678 -0.129 23
-47.681 -11.249 -0.225 24
0.0 -0.0 3.0 0
0.0 -0.0 3.0 0
0.0 -0.0 3.0 0
-116.257 -22.478 -5.181 13
0.0 -0.0 3.0 0
0.0 -0.0 3.0 0
-118.347 -20.617 -5.751 13
0.0 -0.0 3.0 0
0.0 -0.0 3.0 0
0.0 -0.0 3.0 0
0.0 -0.0 3.0 0
0.0 -0.0 3.0 0
-57.381 -10.014 -2.551 4
-29.465 -5.275 -0.046 7
-47.162 -8.694 -2.224 7
-29.372 -5.597 -0.497 255
-40.604 -8.01 -2.202 7
-37.728 -7.72 -2.207 5
-35.341 -7.501 -2.253 22
-33.223 -7.318 -2.317 22
-31.363 -7.163 -2.398 15
-29.406 -6.962 -2.439 12
-27.84 -6.825 -2.527 12
-26.435 -6.701 -2.623 12
-1.217 -0.318 2.723 3
0.0 -0.0 3.0 0
-40.083 -12.261 0.617 20
-40.752 -11.826 0.486 22
-41.85 -11.507 0.343 30
-43.264 -11.268 0.191 9
-47.159 -11.633 -0.117 22
-47.918 -11.189 -0.208 25
0.0 -0.0 3.0 0
0.0 -0.0 3.0 0
0.0 -0.0 3.0 0
-116.194 -22.144 -5.06 10
-116.998 -21.388 -5.21 12
0.0 -0.0 3.0 0
0.0 -0.0 3.0 0
-123.534 -20.708 -6.22 14
-104.315 -17.283 -5.059 10
0.0 -0.0 3.0 0
0.0 -0.0 3.0 0
0.0 -0.0 3.0 0
-52.32 -8.991 -1.984 36
0.0 -0.0 3.0 0
-47.569 -8.653 -2.199 7
-29.35 -5.525 -0.452 255
-41.033 -8.004 -2.198 9
-38.026 -7.701 -2.195 6
-35.551 -7.475 -2.234 21
-33.396 -7.293 -2.299 47
-31.554 -7.152 -2.389 8
-29.603 -6.959 -2.437 12
-27.99 -6.817 -2.52 12
-26.606 -6.704 -2.625 12
-1.21 -0.315 2.726 4
0.0 -0.0 3.0 0
-40.3 -12.249 0.619 17
-40.975 -11.807 0.49 16
-42.074 -11.479 0.35 29
-45.403 -11.726 0.076 40
-47.403 -11.584 -0.104 22
-48.187 -11.137 -0.193 23
0.0 -0.0 3.0 0
0.0 -0.0 3.0 0
0.0 -0.0 3.0 0
0.0 -0.0 3.0 0
-116.99 -21.055 -5.082 13
-116.533 -20.2 -5.161 10
0.0 -0.0 3.0 0
-123.675 -20.367 -6.068 19
0.0 -0.0 3.0 0
0.0 -0.0 3.0 0
0.0 -0.0 3.0 0
0.0 -0.0 3.0 0
-52.247 -8.84 -1.9 61
-53.021 -9.223 -2.325 14
-47.999 -8.615 -2.176 8
-29.343 -5.456 -0.409 255
-41.364 -7.978 -2.181 11
-38.281 -7.674 -2.176 18
-35.735 -7.444 -2.213 11
-33.593 -7.275 -2.286 46
-31.826 -7.157 -2.393 6
-29.789 -6.954 -2.433 12
-28.166 -6.816 -2.52 12
-26.731 -6.696 -2.618 5
-1.207 -0.313 2.728 5
0.0 -0.0 3.0 0
-40.514 -12.235 0.622 17
-41.178 -11.783 0.495 17
-42.297 -11.452 0.356 26
-43.827 -11.224 0.202 6
-47.658 -11.538 -0.092 22
-48.443 -11.082 -0.178 22
-62.106 -13.439 -1.109 12
0.0 -0.0 3.0 0
0.0 -0.0 3.0 0
-116.2 -21.506 -4.827 13
0.0 -0.0 3.0 0
-116.689 -19.889 -5.036 18
0.0 -0.0 3.0 0
0.0 -0.0 3.0 0
-103.188 -16.49 -4.69 35
-89.608 -14.272 -3.961 12
0.0 -0.0 3.0 0
0.0 -0.0 3.0 0
-29.467 -4.907 0.28 7
-53.392 -9.152 -2.284 7
-48.379 -8.567 -2.148 23
-29.309 -5.383 -0.363 30
-29.159 -5.562 -0.612 7
-38.524 -7.644 -2.156 21
-35.991 -7.428 -2.201 5
-33.813 -7.261 -2.275 31
-32.045 -7.151 -2.389 14
-29.963 -6.945 -2.426 12
-28.323 -6.811 -2.515 11
-4.865 -1.212 1.983 2
-1.208 -0.311 2.729 8
0.0 -0.0 3.0 0
-40.704 -12.215 0.626 21
-41.416 -11.77 0.498 19
-42.317 -11.369 0.375 14
-45.322 -11.509 0.131 48
-47.921 -11.494 -0.08 21
-48.711 -11.029 -0.163 23
-52.108 -11.148 -0.408 14
0.0 -0.0 3.0 0
0.0 -0.0 3.0 0
0.0 -0.0 3.0 0
0.0 -0.0 3.0 0
-116.587 -19.537 -4.893 15
-118.575 -19.265 -5.178 15
0.0 -0.0 3.0 0
-103.02 -16.161 -4.536 40
0.0 -0.0 3.0 0
0.0 -0.0 3.0 0
0.0 -0.0 3.0 0
0.0 -0.0 3.0 0
-53.971 -9.115 -2.263 5
-48.805 -8.525 -2.122 7
-29.286 -5.312 -0.319 13
-29.152 -5.497 -0.57 29
-38.763 -7.613 -2.135 20
-36.252 -7.412 -2.19 5
-33.998 -7.239 -2.259 10
-32.201 -7.131 -2.374 13
-30.148 -6.939 -2.421 13
-28.477 -6.804 -2.509 13
-4.88 -1.208 1.986 5
-1.208 -0.31 2.731 11
-40.707 -12.816 0.74 27
-40.91 -12.2 0.629 13
-41.63 -11.749 0.503 26
-42.32 -11.284 0.395 17
-43.364 -10.919 0.278 12
-48.179 -11.449 -0.068 22
-48.963 -10.973 -0.146 22
-49.738 -10.521 -0.217 2
0.0 -0.0 3.0 0
0.0 -0.0 3.0 0
0.0 -0.0 3.0 0
0.0 -0.0 3.0 0
-116.811 -19.239 -4.773 13
-119.214 -19.021 -5.074 14
0.0 -0.0 3.0 0
-102.847 -15.832 -4.383 51
0.0 -0.0 3.0 0
0.0 -0.0 3.0 0
0.0 -0.0 3.0 0
-60.409 -9.743 -2.401 3
-54.476 -9.064 -2.233 5
-47.957 -8.263 -1.965 56
-44.866 -8.036 -2.022 13
-29.18 -5.44 -0.533 255
-39.002 -7.582 -2.114 9
-36.508 -7.396 -2.179 10
-34.249 -7.231 -2.254 6
-32.377 -7.115 -2.362 11
-30.357 -6.939 -2.421 15
-28.588 -6.788 -2.496 10
-4.905 -1.207 1.987 5
-1.209 -0.308 2.732 13
-40.713 -12.745 0.753 27
-41.123 -12.187 0.631 13
-41.852 -11.73 0.507 18
-42.551 -11.26 0.4 22
-43.712 -10.914 0.279 28
-48.434 -11.404 -0.056 21
-49.242 -10.922 -0.132 25
-50.045 -10.466 -0.2 18
0.0 -0.0 3.0 0
-124.68 -23.262 -5.01 14
0.0 -0.0 3.0 0
0.0 -0.0 3.0 0
0.0 -0.0 3.0 0
0.0 -0.0 3.0 0
0.0 -0.0 3.0 0
-102.669 -15.504 -4.23 50
0.0 -0.0 3.0 0
0.0 -0.0 3.0 0
-29.475 -4.561 0.575 13
-61.004 -9.679 -2.365 3
-48.063 -7.876 -1.547 10
-47.986 -8.155 -1.9 29
-45.235 -8.001 -2.0 13
-29.16 -5.375 -0.491 255
-39.327 -7.566 -2.103 5
-36.718 -7.369 -2.16 20
-34.488 -7.22 -2.246 6
-32.556 -7.101 -2.351 13
-30.542 -6.933 -2.417 12
-28.714 -6.775 -2.486 2
-4.927 -1.206 1.988 6
-1.206 -0.306 2.734 14
0.0 -0.0 3.0 0
0.0 -0.0 3.0 0
-42.081 -11.714 0.51 25
-42.762 -11.231 0.407 15
-43.951 -10.883 0.287 26
-45.446 -10.601 0.16 4
-49.513 -10.87 -0.117 21
-50.239 -10.387 -0.175 43
0.0 -0.0 3.0 0
-124.403 -22.888 -4.881 16
-116.797 -20.351 -4.407 14
0.0 -0.0 3.0 0
-117.572 -18.692 -4.552 11
-119.102 -18.31 -4.772 16
0.0 -0.0 3.0 0
-102.552 -15.187 -4.082 58
-97.484 -14.4 -4.024 15
0.0 -0.0 3.0 0
0.0 -0.0 3.0 0
0.0 -0.0 3.0 0
-48.139 -7.77 -1.486 13
-50.135 -8.401 -2.048 10
-45.607 -7.966 -1.978 13
-29.14 -5.31 -0.448 255
-39.581 -7.537 -2.084 18
-36.932 -7.344 -2.142 19
-34.742 -7.213 -2.241 15
-32.731 -7.085 -2.339 11
-30.731 -6.928 -2.413 11
-5.235 -1.228 2.006 3
-4.956 -1.206 1.988 6
-1.203 -0.303 2.736 15
0.0 -0.0 3.0 0
0.0 -0.0 3.0 0
-42.295 -11.694 0.514 16
-43.019 -11.215 0.411 16
-44.198 -10.854 0.294 27
-45.644 -10.549 0.173 9
-49.796 -10.819 -0.102 21
-50.433 -10.308 -0.151 18
0.0 -0.0 3.0 0
-124.116 -22.516 -4.753 14
-116.707 -20.023 -4.288 12
-117.112 -19.111 -4.336 13
0.0 -0.0 3.0 0
-119.013 -17.95 -4.62 11
-103.176 -15.173 -3.755 15
-102.687 -14.907 -3.951 49
0.0 -0.0 3.0 0
0.0 -0.0 3.0 0
0.0 -0.0 3.0 0
-29.155 -4.474 0.52 6
-48.274 -7.672 -1.43 10
-50.655 -8.37 -2.029 7
-46.014 -7.935 -1.958 12
-29.12 -5.246 -0.407 255
-39.836 -7.508 -2.064 7
-37.16 -7.321 -2.126 18
-34.934 -7.192 -2.226 47
-32.953 -7.079 -2.335 13
-30.947 -6.93 -2.414 13
-5.261 -1.226 2.007 4
-4.981 -1.205 1.989 7
-1.203 -0.302 2.737 16
0.0 -0.0 3.0 0
0.0 -0.0 3.0 0
-42.516 -11.677 0.518 17
-43.237 -11.187 0.417 19
-44.407 -10.815 0.304 21
-49.239 -11.275 -0.021 22
-50.051 -10.764 -0.086 19
-50.881 -10.282 -0.143 23
0.0 -0.0 3.0 0
-123.828 -22.148 -4.626 15
0.0 -0.0 3.0 0
0.0 -0.0 3.0 0
-118.049 -18.097 -4.311 13
-118.582 -17.543 -4.446 11
0.0 -0.0 3.0 0
-103.046 -14.659 -3.835 16
0.0 -0.0 3.0 0
-29.464 -4.229 0.845 25
0.0 -0.0 3.0 0
-29.075 -4.387 0.568 6
-56.741 -8.878 -2.126 7
-51.196 -8.341 -2.012 7
-46.363 -7.894 -1.933 11
-29.142 -5.191 -0.371 192
-40.179 -7.495 -2.055 6
-37.393 -7.299 -2.111 8
-35.119 -7.171 -2.21 34
-33.12 -7.062 -2.322 9
-31.139 -6.926 -2.411 10
-5.294 -1.226 2.008 5
-5.022 -1.208 1.986 8
-1.208 -0.302 2.738 19
0.0 -0.0 3.0 0
-42.586 -12.316 0.606 8
-42.737 -11.66 0.522 14
-43.51 -11.175 0.42 17
-44.665 -10.789 0.31 20
-49.505 -11.232 -0.01 20
-50.208 -10.687 -0.064 34
-51.156 -10.218 -0.124 24
0.0 -0.0 3.0 0
-123.931 -21.852 -4.524 14
0.0 -0.0 3.0 0
0.0 -0.0 3.0 0
-118.075 -17.766 -4.178 16
0.0 -0.0 3.0 0
-104.578 -14.767 -3.575 16
0.0 -0.0 3.0 0
0.0 -0.0 3.0 0
0.0 -0.0 3.0 0
0.0 -0.0 3.0 0
-63.766 -9.457 -2.242 4
-57.249 -8.819 -2.091 3
-51.724 -8.308 -1.992 7
-46.778 -7.864 -1.914 9
-29.156 -5.133 -0.334 7
-40.492 -7.476 -2.043 18
-37.664 -7.284 -2.101 5
-35.338 -7.156 -2.199 25
-33.275 -7.042 -2.307 8
-5.666 -1.252 2.022 0
-5.316 -1.224 2.009 4
-1.264 -0.303 2.746 0
-1.204 -0.299 2.74 23
0.0 -0.0 3.0 0
-42.614 -12.251 0.619 52
-42.985 -11.65 0.524 14
-43.716 -11.146 0.427 18
-44.601 -10.686 0.336 13
-49.781 -11.193 0.001 22
-50.177 -10.572 -0.031 36
-51.451 -10.16 -0.106 21
0.0 -0.0 3.0 0
-123.621 -21.486 -4.398 19
0.0 -0.0 3.0 0
0.0 -0.0 3.0 0
0.0 -0.0 3.0 0
0.0 -0.0 3.0 0
0.0 -0.0 3.0 0
0.0 -0.0 3.0 0
-29.483 -4.016 1.041 1
0.0 -0.0 3.0 0
0.0 -0.0 3.0 0
0.0 -0.0 3.0 0
-57.911 -8.78 -2.069 3
-52.197 -8.264 -1.966 6
-47.185 -7.83 -1.893 8
-43.771 -7.619 -1.948 10
-40.758 -7.448 -2.024 29
-37.936 -7.27 -2.09 5
-35.533 -7.137 -2.185 12
-33.442 -7.026 -2.295 7
-5.676 -1.245 2.027 5
-5.353 -1.225 2.008 4
-1.452 -0.345 2.71 0
-1.209 -0.299 2.74 26
0.0 -0.0 3.0 0
0.0 -0.0 3.0 0
-43.213 -11.635 0.527 16
-43.996 -11.136 0.429 19
-44.722 -10.628 0.35 14
-45.891 -10.224 0.261 7
-50.13 -10.453 0.003 32
-51.741 -10.1 -0.088 22
0.0 -0.0 3.0 0
-123.363 -21.134 -4.277 32
0.0 -0.0 3.0 0
-119.545 -18.199 -3.986 11
0.0 -0.0 3.0 0
0.0 -0.0 3.0 0
-124.034 -16.791 -4.476 22
0.0 -0.0 3.0 0
-29.481 -3.931 1.083 5
-79.902 -10.797 -2.501 7
0.0 -0.0 3.0 0
0.0 -0.0 3.0 0
-58.534 -8.733 -2.042 4
-52.733 -8.229 -1.945 7
-47.608 -7.799 -1.873 9
-44.125 -7.593 -1.931 9
-41.003 -7.416 -2.002 28
-38.18 -7.25 -2.077 5
-35.775 -7.127 -2.178 5
-33.636 -7.015 -2.286 7
-5.706 -1.244 2.028 5
-5.398 -1.228 2.006 8
-1.425 -0.337 2.717 0
-1.209 -0.298 2.741 26
-42.66 -12.854 0.733 2
0.0 -0.0 3.0 0
0.0 -0.0 3.0 0
-44.19 -11.104 0.436 18
-44.968 -10.6 0.357 15
-46.216 -10.203 0.266 28
-50.094 -10.34 0.035 33
-51.996 -10.034 -0.068 21
0.0 -0.0 3.0 0
0.0 -0.0 3.0 0
0.0 -0.0 3.0 0
0.0 -0.0 3.0 0
0.0 -0.0 3.0 0
0.0 -0.0 3.0 0
0.0 -0.0 3.0 0
0.0 -0.0 3.0 0
0.0 -0.0 3.0 0
-79.385 -10.506 -2.353 10
0.0 -0.0 3.0 0
-65.972 -9.279 -2.143 3
-59.105 -8.677 -2.01 4
-53.183 -8.18 -1.915 7
-47.987 -7.76 -1.849 8
-44.459 -7.562 -1.911 9
-41.265 -7.388 -1.983 9
-38.408 -7.227 -2.061 5
-36.006 -7.115 -2.169 4
-33.849 -7.008 -2.281 3
-5.735 -1.242 2.029 5
-5.431 -1.228 2.006 5
-1.323 -0.312 2.739 0
-1.21 -0.296 2.742 26
-42.629 -12.778 0.747 60
0.0 -0.0 3.0 0
0.0 -0.0 3.0 0
-44.465 -11.094 0.439 16
-45.206 -10.571 0.364 19
-46.475 -10.168 0.275 29
-50.066 -10.23 0.067 30
-52.317 -9.98 -0.051 21
0.0 -0.0 3.0 0
0.0 -0.0 3.0 0
0.0 -0.0 3.0 0
0.0 -0.0 3.0 0
0.0 -0.0 3.0 0
0.0 -0.0 3.0 0
0.0 -0.0 3.0 0
-29.477 -3.764 1.245 16
-102.373 -13.065 -3.372 12
-79.167 -10.258 -2.227 60
0.0 -0.0 3.0 0
0.0 -0.0 3.0 0
-59.751 -8.63 -1.982 4
-53.537 -8.115 -1.876 12
-48.39 -7.724 -1.827 8
-44.808 -7.534 -1.893 9
-41.635 -7.378 -1.977 5
-38.737 -7.223 -2.058 5
-36.259 -7.107 -2.164 7
-6.163 -1.267 2.045 1
-5.773 -1.242 2.029 5
-1.825 -0.411 2.667 0
-1.289 -0.302 2.747 1
-1.207 -0.294 2.744 26
-42.67 -12.725 0.756 7
0.0 -0.0 3.0 0
-44.51 -11.756 0.501 9
-44.698 -11.073 0.444 14
-45.471 -10.548 0.37 15
-46.737 -10.134 0.285 28
-48.283 -9.765 0.2 6
-52.611 -9.922 -0.033 21
-53.404 -9.382 -0.049 9
0.0 -0.0 3.0 0
0.0 -0.0 3.0 0
-128.588 -18.537 -4.116 15
0.0 -0.0 3.0 0
0.0 -0.0 3.0 0
0.0 -0.0 3.0 0
-29.498 -3.681 1.283 2
0.0 -0.0 3.0 0
-79.234 -10.046 -2.119 55
0.0 -0.0 3.0 0
0.0 -0.0 3.0 0
-60.294 -8.565 -1.945 4
0.0 -0.0 3.0 0
-48.793 -7.688 -1.804 7
-45.142 -7.504 -1.873 9
-41.975 -7.363 -1.967 5
-38.996 -7.206 -2.046 16
-36.481 -7.093 -2.154 19
-6.189 -1.263 2.048 5
-5.821 -1.245 2.027 9
-1.876 -0.419 2.661 0
0.0 -0.0 3.0 0
-1.203 -0.292 2.746 26
0.0 -0.0 3.0 0
0.0 -0.0 3.0 0
-44.513 -11.684 0.517 37
-44.95 -11.058 0.447 16
-45.716 -10.521 0.377 16
-46.995 -10.099 0.294 25
-48.648 -9.741 0.207 7
-52.916 -9.865 -0.016 22
-53.789 -9.327 -0.031 21
0.0 -0.0 3.0 0
0.0 -0.0 3.0 0
0.0 -0.0 3.0 0
0.0 -0.0 3.0 0
-131.201 -16.771 -4.119 19
0.0 -0.0 3.0 0
0.0 -0.0 3.0 0
-79.619 -9.706 -1.734 9
-79.327 -9.839 -2.013 34
0.0 -0.0 3.0 0
0.0 -0.0 3.0 0
-53.662 -7.497 -1.329 2
-54.148 -7.969 -1.788 8
-49.2 -7.652 -1.781 13
-45.503 -7.477 -1.856 9
-42.333 -7.351 -1.958 6
-39.227 -7.185 -2.031 19
-36.684 -7.077 -2.141 25
-6.227 -1.262 2.049 4
-5.863 -1.246 2.027 6
0.0 -0.0 3.0 0
-1.371 -0.318 2.733 1
-1.208 -0.292 2.746 26
0.0 -0.0 3.0 0
0.0 -0.0 3.0 0
0.0 -0.0 3.0 0
-45.17 -11.035 0.452 17
-45.984 -10.501 0.382 17
-47.261 -10.066 0.303 22
-49.914 -9.894 0.163 42
-53.201 -9.804 0.002 24
-54.087 -9.257 -0.008 21
0.0 -0.0 3.0 0
0.0 -0.0 3.0 0
0.0 -0.0 3.0 0
-129.242 -16.921 -3.836 12
-129.068 -16.13 -3.847 12
-29.483 -3.563 1.413 41
0.0 -0.0 3.0 0
-79.355 -9.448 -1.608 29
-79.396 -9.629 -1.906 46
0.0 -0.0 3.0 0
0.0 -0.0 3.0 0
-53.602 -7.364 -1.252 35
-52.396 -7.598 -1.565 2
-49.582 -7.611 -1.756 10
-45.832 -7.445 -1.835 9
-42.735 -7.346 -1.955 5
-39.49 -7.169 -2.02 18
0.0 -0.0 3.0 0
-6.26 -1.26 2.051 5
-1.947 -0.411 2.679 0
-2.116 -0.468 2.621 0
-1.31 -0.302 2.746 1
-1.201 -0.288 2.749 26
0.0 -0.0 3.0 0
-44.538 -12.304 0.608 4
0.0 -0.0 3.0 0
-45.44 -11.025 0.455 15
-46.24 -10.477 0.388 17
-47.127 -9.95 0.334 16
-49.871 -9.787 0.194 50
-53.502 -9.748 0.02 23
-54.408 -9.191 0.014 20
0.0 -0.0 3.0 0
0.0 -0.0 3.0 0
0.0 -0.0 3.0 0
-129.718 -16.626 -3.717 18
0.0 -0.0 3.0 0
-29.531 -3.484 1.449 0
0.0 -0.0 3.0 0
0.0 -0.0 3.0 0
-79.508 -9.423 -1.801 7
-79.921 -9.801 -2.211 12
0.0 -0.0 3.0 0
-53.794 -7.266 -1.195 4
-52.441 -7.492 -1.501 30
-50.024 -7.579 -1.736 7
-46.181 -7.417 -1.817 9
-43.133 -7.341 -1.951 12
-39.717 -7.146 -2.004 7
-6.756 -1.283 2.068 4
-6.321 -1.263 2.048 6
-1.983 -0.416 2.675 0
-1.821 -0.4 2.676 0
-1.318 -0.303 2.746 1
-1.205 -0.288 2.75 25
0.0 -0.0 3.0 0
-44.536 -12.238 0.621 68
0.0 -0.0 3.0 0
-45.746 -11.024 0.455 4
-46.519 -10.46 0.392 18
-47.326 -9.906 0.346 20
-48.621 -9.447 0.291 5
-53.798 -9.691 0.037 23
-31.527 -5.257 1.292 9
0.0 -0.0 3.0 0
0.0 -0.0 3.0 0
0.0 -0.0 3.0 0
0.0 -0.0 3.0 0
0.0 -0.0 3.0 0
-119.635 -13.767 -3.129 14
-55.652 -6.3 0.062 8
-103.448 -11.729 -2.721 10
0.0 -0.0 3.0 0
0.0 -0.0 3.0 0
-53.657 -6.745 -0.739 3
-53.914 -7.159 -1.133 5
-52.406 -7.375 -1.431 19
-50.525 -7.555 -1.721 7
-46.537 -7.389 -1.799 9
-43.365 -7.307 -1.929 15
-40.054 -7.144 -2.002 4
-6.798 -1.281 2.069 4
-6.374 -1.265 2.046 9
0.0 -0.0 3.0 0
-1.898 -0.415 2.664 0
-1.273 -0.291 2.756 1
-1.205 -0.287 2.751 25
0.0 -0.0 3.0 0
0.0 -0.0 3.0 0
0.0 -0.0 3.0 0
-46.462 -11.122 0.432 26
-46.755 -10.433 0.399 13
-47.594 -9.875 0.354 20
-48.945 -9.416 0.3 26
-54.117 -9.638 0.053 22
-31.492 -5.183 1.316 14
-70.292 -10.696 -0.683 5
0.0 -0.0 3.0 0
-130.561 -17.105 -3.566 18
0.0 -0.0 3.0 0
-29.485 -3.434 1.542 227
-120.705 -13.542 -3.029 11
-55.693 -6.144 0.135 215
-103.834 -11.478 -2.598 10
0.0 -0.0 3.0 0
-79.932 -9.387 -1.991 57
-53.614 -6.609 -0.664 22
-52.788 -6.89 -0.978 28
-52.474 -7.274 -1.371 12
-50.989 -7.526 -1.703 7
-44.767 -7.027 -1.564 35
-43.661 -7.284 -1.913 16
-40.413 -7.145 -2.003 6
-6.844 -1.279 2.07 4
-2.136 -0.421 2.683 0
-3.095 -0.642 2.498 0
-2.157 -0.469 2.62 0
-1.25 -0.285 2.761 0
-1.206 -0.286 2.752 25
0.0 -0.0 3.0 0
0.0 -0.0 3.0 0
0.0 -0.0 3.0 0
-46.499 -11.057 0.447 12
-47.015 -10.413 0.404 15
-47.878 -9.85 0.361 15
-49.191 -9.371 0.313 26
-54.417 -9.583 0.07 21
-31.539 -5.123 1.336 8
0.0 -0.0 3.0 0
0.0 -0.0 3.0 0
-130.986 -16.822 -3.458 18
0.0 -0.0 3.0 0
0.0 -0.0 3.0 0
-120.155 -13.134 -2.848 18
-55.686 -5.983 0.21 255
0.0 -0.0 3.0 0
0.0 -0.0 3.0 0
-80.014 -9.19 -1.886 58
-53.658 -6.485 -0.595 2
-52.804 -6.773 -0.91 39
-52.348 -7.149 -1.295 46
-51.588 -7.516 -1.696 6
-44.732 -6.943 -1.509 16
-43.94 -7.259 -1.896 16
-7.436 -1.303 2.088 0
-6.889 -1.279 2.071 4
-2.16 -0.423 2.682 0
-1.966 -0.405 2.684 0
-2.135 -0.462 2.626 0
-1.243 -0.281 2.764 0
-1.203 -0.284 2.754 26
-44.554 -12.845 0.735 49
0.0 -0.0 3.0 0
0.0 -0.0 3.0 0
0.0 -0.0 3.0 0
-47.317 -10.402 0.406 15
-48.146 -9.822 0.368 16
-49.515 -9.342 0.321 23
-51.143 -8.905 0.277 6
-55.671 -8.925 0.1 20
-60.464 -8.926 -0.073 10
-130.184 -17.702 -3.443 15
-131.419 -16.542 -3.35 15
-29.481 -3.458 1.603 11
0.0 -0.0 3.0 0
-119.973 -12.769 -2.685 12
-55.627 -5.816 0.288 255
0.0 -0.0 3.0 0
0.0 -0.0 3.0 0
-53.68 -6.027 -0.205 2
-52.842 -6.259 -0.47 5
-52.914 -6.67 -0.851 24
-52.49 -7.061 -1.242 18
-52.195 -7.505 -1.69 5
-44.678 -6.857 -1.453 64
-44.239 -7.237 -1.881 13
-7.466 -1.298 2.091 4
-6.966 -1.283 2.068 9
0.0 -0.0 3.0 0
-2.009 -0.412 2.678 0
-2.143 -0.461 2.627 0
-1.236 -0.278 2.767 0
-1.199 -0.282 2.755 26
-44.57 -12.792 0.744 4
0.0 -0.0 3.0 0
-46.45 -11.696 0.514 15
0.0 -0.0 3.0 0
-47.56 -10.38 0.412 14
-48.449 -9.801 0.374 17
-49.639 -9.275 0.34 41
-51.453 -8.86 0.291 7
-55.97 -8.858 0.122 20
0.0 -0.0 3.0 0
-130.571 -17.444 -3.349 19
0.0 -0.0 3.0 0
-29.488 -3.38 1.634 255
0.0 -0.0 3.0 0
0.0 -0.0 3.0 0
-55.571 -5.649 0.366 255
0.0 -0.0 3.0 0
0.0 -0.0 3.0 0
-53.616 -5.883 -0.128 24
-52.773 -6.126 -0.396 40
0.0 -0.0 3.0 0
-52.75 -6.988 -1.199 2
-52.92 -7.511 -1.693 6
-44.635 -6.774 -1.399 5
-44.624 -7.23 -1.876 8
-7.523 -1.297 2.092 4
-2.333 -0.426 2.69 0
0.0 -0.0 3.0 0
-2.173 -0.443 2.654 1
-2.183 -0.467 2.621 1
-2.196 -0.492 2.587 2
-1.2 -0.281 2.756 26
0.0 -0.0 3.0 0
0.0 -0.0 3.0 0
-46.493 -11.642 0.525 20
0.0 -0.0 3.0 0
-47.842 -10.366 0.415 13
-48.72 -9.775 0.381 19
-50.01 -9.255 0.346 19
-54.822 -9.336 0.146 40
-56.298 -8.794 0.143 20
-57.196 -8.191 0.18 7
0.0 -0.0 3.0 0
0.0 -0.0 3.0 0
0.0 -0.0 3.0 0
0.0 -0.0 3.0 0
-119.286 -12.011 -2.348 16
-55.515 -5.483 0.443 255
0.0 -0.0 3.0 0
0.0 -0.0 3.0 0
-53.73 -5.759 -0.062 3
-52.8 -6.004 -0.328 37
0.0 -0.0 3.0 0
-59.412 -7.753 -1.658 3
-44.639 -6.254 -0.908 4
-48.356 -7.257 -1.713 8
-44.946 -7.212 -1.865 3
-7.569 -1.294 2.094 4
-2.631 -0.477 2.653 1
-3.111 -0.597 2.55 0
-2.173 -0.441 2.656 2
-2.168 -0.462 2.626 1
-2.185 -0.488 2.591 2
-1.2 -0.28 2.757 27
0.0 -0.0 3.0 0
0.0 -0.0 3.0 0
0.0 -0.0 3.0 0
0.0 -0.0 3.0 0
-48.111 -10.352 0.419 11
-49.015 -9.754 0.386 20
-49.928 -9.153 0.375 16
-54.757 -9.222 0.181 38
-56.625 -8.732 0.163 20
-57.607 -8.125 0.202 17
0.0 -0.0 3.0 0
-29.492 -3.49 1.66 9
0.0 -0.0 3.0 0
0.0 -0.0 3.0 0
0.0 -0.0 3.0 0
-55.478 -5.32 0.519 255
0.0 -0.0 3.0 0
-53.698 -5.342 0.278 2
0.0 -0.0 3.0 0
-52.944 -5.897 -0.269 14
0.0 -0.0 3.0 0
-60.009 -7.712 -1.634 3
-44.666 -6.177 -0.86 7
-48.766 -7.238 -1.7 8
-8.313 -1.321 2.109 2
-7.669 -1.3 2.09 8
-3.01 -0.542 2.606 9
-2.151 -0.411 2.69 0
-2.162 -0.435 2.66 1
-2.18 -0.462 2.626 1
-2.194 -0.487 2.591 2
-1.2 -0.279 2.758 24
0.0 -0.0 3.0 0
-46.453 -12.324 0.604 10
0.0 -0.0 3.0 0
0.0 -0.0 3.0 0
0.0 -0.0 3.0 0
-49.27 -9.726 0.394 15
-50.188 -9.115 0.386 20
-51.611 -8.598 0.371 2
-56.947 -8.669 0.183 20
-57.934 -8.048 0.229 20
0.0 -0.0 3.0 0
-29.49 -3.417 1.688 23
-130.479 -13.919 -2.624 12
0.0 -0.0 3.0 0
0.0 -0.0 3.0 0
-55.465 -5.16 0.594 69
0.0 -0.0 3.0 0
-53.64 -5.192 0.354 32
-54.763 -5.594 0.026 7
0.0 -0.0 3.0 0
0.0 -0.0 3.0 0
0.0 -0.0 3.0 0
-49.408 -6.746 -1.215 10
-49.157 -7.216 -1.686 8
-8.359 -1.316 2.112 4
-2.574 -0.432 2.697 1
-3.031 -0.542 2.606 5
-2.175 -0.413 2.689 1
-2.171 -0.435 2.66 1
-2.177 -0.46 2.628 1
-2.183 -0.483 2.595 1
-1.201 -0.278 2.759 20
0.0 -0.0 3.0 0
-46.456 -12.268 0.615 25
0.0 -0.0 3.0 0
-48.338 -11.072 0.444 16
0.0 -0.0 3.0 0
-49.591 -9.713 0.397 17
-50.467 -9.082 0.396 19
-51.883 -8.55 0.386 26
-57.273 -8.608 0.203 19
-58.273 -7.974 0.254 19
-80.795 -10.048 -0.657 6
0.0 -0.0 3.0 0
-120.965 -12.588 -2.086 10
0.0 -0.0 3.0 0
0.0 -0.0 3.0 0
-55.383 -4.992 0.672 8
0.0 -0.0 3.0 0
-53.705 -5.055 0.424 4
-54.844 -5.465 0.094 4
0.0 -0.0 3.0 0
-68.948 -7.95 -1.59 6
-61.22 -7.633 -1.586 3
-49.341 -6.651 -1.156 54
-49.338 -7.165 -1.653 12
-8.432 -1.315 2.113 4
-7.776 -1.297 2.092 1
-3.02 -0.537 2.61 5
-2.184 -0.412 2.689 2
-2.172 -0.433 2.662 2
-2.182 -0.458 2.629 1
-2.172 -0.479 2.598 1
-1.19 -0.274 2.762 17
0.0 -0.0 3.0 0
0.0 -0.0 3.0 0
0.0 -0.0 3.0 0
-48.384 -11.019 0.456 20
0.0 -0.0 3.0 0
-49.845 -9.687 0.404 16
-50.782 -9.056 0.403 15
-52.187 -8.509 0.399 29
-57.615 -8.55 0.222 20
0.0 -0.0 3.0 0
-29.488 -3.602 1.689 19
0.0 -0.0 3.0 0
0.0 -0.0 3.0 0
0.0 -0.0 3.0 0
0.0 -0.0 3.0 0
0.0 -0.0 3.0 0
-55.141 -4.85 0.634 7
-81.082 -7.416 -0.779 19
0.0 -0.0 3.0 0
0.0 -0.0 3.0 0
0.0 -0.0 3.0 0
0.0 -0.0 3.0 0
-49.328 -6.565 -1.102 32
-49.188 -7.067 -1.589 4
-8.533 -1.319 2.11 6
0.0 -0.0 3.0 0
-2.388 -0.421 2.694 0
-2.177 -0.408 2.692 1
-2.168 -0.43 2.664 3
-2.179 -0.455 2.631 1
-1.227 -0.269 2.774 0
-1.186 -0.273 2.763 16
-46.498 -13.017 0.705 28
0.0 -0.0 3.0 0
0.0 -0.0 3.0 0
0.0 -0.0 3.0 0
0.0 -0.0 3.0 0
-50.138 -9.669 0.409 16
-51.064 -9.025 0.412 15
-52.506 -8.471 0.41 26
-54.343 -7.964 0.412 3
-41.988 -5.574 1.081 2
-29.513 -3.54 1.711 2
0.0 -0.0 3.0 0
0.0 -0.0 3.0 0
0.0 -0.0 3.0 0
0.0 -0.0 3.0 0
0.0 -0.0 3.0 0
-53.66 -4.57 0.771 38
-54.781 -4.865 0.521 15
0.0 -0.0 3.0 0
0.0 -0.0 3.0 0
0.0 -0.0 3.0 0
0.0 -0.0 3.0 0
-49.466 -6.5 -1.062 67
-9.437 -1.341 2.129 4
-2.875 -0.44 2.703 1
-2.953 -0.485 2.66 0
-2.224 -0.39 2.717 1
-2.181 -0.407 2.694 1
-2.165 -0.427 2.666 2
-2.179 -0.454 2.633 1
-1.196 -0.261 2.781 0
-1.194 -0.273 2.762 14
0.0 -0.0 3.0 0
0.0 -0.0 3.0 0
-48.345 -11.736 0.506 15
0.0 -0.0 3.0 0
0.0 -0.0 3.0 0
-50.423 -9.652 0.414 13
-51.397 -9.005 0.418 15
-52.813 -8.432 0.422 21
-54.607 -7.904 0.432 8
-59.307 -7.756 0.329 8
0.0 -0.0 3.0 0
0.0 -0.0 3.0 0
0.0 -0.0 3.0 0
0.0 -0.0 3.0 0
0.0 -0.0 3.0 0
0.0 -0.0 3.0 0
-53.739 -4.426 0.841 4
-54.828 -4.725 0.593 3
0.0 -0.0 3.0 0
-81.067 -8.111 -1.496 21
0.0 -0.0 3.0 0
0.0 -0.0 3.0 0
-49.235 -6.389 -0.992 31
-9.515 -1.339 2.131 4
-8.68 -1.317 2.111 0
-2.789 -0.455 2.682 1
-2.217 -0.387 2.719 2
-2.178 -0.404 2.696 3
-2.162 -0.424 2.669 2
-1.333 -0.276 2.776 0
-1.189 -0.259 2.783 0
-1.183 -0.27 2.765 12
-126.532 -35.158 -3.199 20
0.0 -0.0 3.0 0
-48.374 -11.688 0.516 25
0.0 -0.0 3.0 0
-50.267 -10.394 0.409 42
-50.72 -9.638 0.418 11
-51.671 -8.975 0.426 17
-53.116 -8.394 0.434 18
-58.637 -8.383 0.276 21
-29.503 -3.801 1.691 12
0.0 -0.0 3.0 0
0.0 -0.0 3.0 0
0.0 -0.0 3.0 0
-121.682 -10.465 -1.442 12
0.0 -0.0 3.0 0
0.0 -0.0 3.0 0
-54.598 -4.344 0.881 6
0.0 -0.0 3.0 0
0.0 -0.0 3.0 0
-81.225 -7.949 -1.406 10
0.0 -0.0 3.0 0
-63.967 -7.509 -1.512 6
-49.09 -6.293 -0.932 37
-4.096 -0.57 2.63 1
0.0 -0.0 3.0 0
-2.88 -0.466 2.673 1
-2.198 -0.381 2.723 2
-2.175 -0.401 2.698 3
-2.178 -0.426 2.667 1
-1.183 -0.244 2.803 0
-1.128 -0.244 2.795 1
-1.149 -0.261 2.773 5
0.0 -0.0 3.0 0
0.0 -0.0 3.0 0
0.0 -0.0 3.0 0
0.0 -0.0 3.0 0
0.0 -0.0 3.0 0
0.0 -0.0 3.0 0
-51.996 -8.955 0.432 16
-52.96 -8.286 0.467 19
-58.957 -8.327 0.294 19
-59.435 -7.545 0.402 37
0.0 -0.0 3.0 0
0.0 -0.0 3.0 0
0.0 -0.0 3.0 0
0.0 -0.0 3.0 0
0.0 -0.0 3.0 0
-53.661 -4.067 1.104 43
-54.753 -4.204 0.95 21
0.0 -0.0 3.0 0
0.0 -0.0 3.0 0
-81.323 -7.784 -1.315 5
0.0 -0.0 3.0 0
0.0 -0.0 3.0 0
-10.832 -1.372 2.143 1
-4.101 -0.565 2.633 3
-2.976 -0.444 2.701 0
-3.113 -0.5 2.65 1
-2.211 -0.38 2.724 2
-2.183 -0.4 2.698 3
-1.487 -0.289 2.774 0
-1.121 -0.231 2.813 2
-1.105 -0.239 2.8 3
-1.103 -0.25 2.782 3
0.0 -0.0 3.0 0
-48.414 -12.466 0.577 25
0.0 -0.0 3.0 0
0.0 -0.0 3.0 0
0.0 -0.0 3.0 0
0.0 -0.0 3.0 0
-52.289 -8.932 0.439 15
-53.266 -8.251 0.477 19
-54.722 -7.636 0.519 6
-59.454 -7.438 0.439 8
-61.397 -6.849 0.507 15
0.0 -0.0 3.0 0
0.0 -0.0 3.0 0
0.0 -0.0 3.0 0
0.0 -0.0 3.0 0
-53.71 -3.916 1.174 4
-54.886 -4.062 1.019 3
0.0 -0.0 3.0 0
0.0 -0.0 3.0 0
-81.391 -7.618 -1.223 17
0.0 -0.0 3.0 0
0.0 -0.0 3.0 0
-10.918 -1.366 2.147 4
-4.098 -0.559 2.637 37
-2.985 -0.442 2.702 2
-3.11 -0.496 2.653 1
-2.18 -0.373 2.729 4
-2.176 -0.397 2.701 1
-1.577 -0.305 2.762 0
-1.133 -0.232 2.812 3
-1.109 -0.239 2.8 4
-1.1 -0.248 2.784 3
0.0 -0.0 3.0 0
-48.43 -12.423 0.585 2
0.0 -0.0 3.0 0
-50.288 -11.09 0.44 38
0.0 -0.0 3.0 0
-52.181 -9.71 0.398 23
-52.593 -8.911 0.445 15
-53.591 -8.222 0.486 17
-55.048 -7.592 0.533 23
-59.381 -7.322 0.479 4
-61.805 -6.771 0.535 20
0.0 -0.0 3.0 0
0.0 -0.0 3.0 0
0.0 -0.0 3.0 0
0.0 -0.0 3.0 0
-54.924 -3.847 1.206 4
0.0 -0.0 3.0 0
-115.73 -8.767 -1.467 25
0.0 -0.0 3.0 0
-81.439 -7.453 -1.131 60
0.0 -0.0 3.0 0
0.0 -0.0 3.0 0
-3.661 -0.453 2.717 0
-4.131 -0.558 2.638 1
-3.1 -0.455 2.693 2
-2.187 -0.347 2.757 2
-2.173 -0.37 2.731 5
-1.736 -0.315 2.763 1
-1.434 -0.276 2.784 0
-1.161 -0.236 2.809 3
-1.113 -0.239 2.8 7
-1.096 -0.246 2.786 5
0.0 -0.0 3.0 0
-126.24 -32.263 -3.271 22
0.0 -0.0 3.0 0
-50.292 -11.038 0.452 2
0.0 -0.0 3.0 0
-52.209 -9.651 0.414 9
-52.933 -8.899 0.448 14
-53.923 -8.194 0.495 18
-55.425 -7.557 0.545 24
-59.324 -7.211 0.517 2
-62.158 -6.689 0.566 19
0.0 -0.0 3.0 0
0.0 -0.0 3.0 0
0.0 -0.0 3.0 0
-53.673 -3.727 1.341 55
-54.79 -3.681 1.283 17
0.0 -0.0 3.0 0
-116.169 -8.503 -1.333 13
-81.303 -6.544 -0.48 17
-81.527 -7.295 -1.044 55
0.0 -0.0 3.0 0
-12.583 -1.393 2.163 0
-4.696 -0.573 2.642 1
-3.184 -0.426 2.723 0
-3.104 -0.452 2.695 2
-2.176 -0.342 2.76 3
-2.165 -0.366 2.734 2
0.0 -0.0 3.0 0
-1.399 -0.268 2.79 1
-1.142 -0.231 2.813 3
-1.117 -0.239 2.8 8
-1.097 -0.246 2.786 8
0.0 -0.0 3.0 0
0.0 -0.0 3.0 0
0.0 -0.0 3.0 0
0.0 -0.0 3.0 0
0.0 -0.0 3.0 0
