# .PCD v0.7 - Point Cloud Data file format
VERSION 0.7
FIELDS x y z intensity
SIZE 4 4 4 4
TYPE F F F F
COUNT 1 1 1 1
WIDTH 2021
HEIGHT 1
VIEWPOINT 0 0 0 1 0 0 0
POINTS 2021
DATA ascii
1.077 -12.841 -5.024 8
1.051 -12.418 -5.064 10
1.028 -12.004 -5.097 9
1.003 -11.606 -5.127 10
0.981 -11.23 -5.159 12
0.958 -10.857 -5.181 45
0.938 -10.505 -5.208 45
0.918 -10.161 -5.229 11
0.898 -9.837 -5.254 14
0.88 -9.522 -5.278 14
2.434 -37.362 -3.588 7
2.165 -32.977 -3.41 16
1.967 -29.654 -3.303 7
1.997 -29.877 -3.898 9
1.892 -28.012 -3.984 7
1.794 -26.356 -4.062 5
1.712 -24.896 -4.139 5
1.64 -23.603 -4.216 6
1.568 -22.388 -4.274 20
1.51 -21.328 -4.344 7
1.45 -20.384 -4.419 10
1.407 -19.513 -4.49 10
1.363 -18.749 -4.575 8
1.32 -17.967 -4.627 7
1.277 -17.241 -4.676 38
1.241 -16.584 -4.733 7
1.204 -15.955 -4.782 9
1.172 -15.369 -4.831 5
1.141 -14.799 -4.869 9
1.109 -14.261 -4.905 43
1.085 -13.797 -4.965 8
1.057 -13.331 -5.01 7
1.03 -12.841 -5.024 8
1.005 -12.417 -5.064 9
0.982 -12.004 -5.097 10
0.958 -11.602 -5.124 10
0.938 -11.229 -5.159 12
0.916 -10.859 -5.183 48
0.897 -10.504 -5.207 44
0.879 -10.167 -5.233 13
0.859 -9.839 -5.256 13
0.841 -9.521 -5.277 14
2.149 -34.633 -3.107 2
2.062 -32.984 -3.411 13
1.835 -29.035 -3.172 5
1.833 -28.778 -3.644 1
1.802 -28.002 -3.982 6
1.708 -26.334 -4.056 7
1.631 -24.89 -4.137 5
1.563 -23.604 -4.216 5
1.495 -22.392 -4.276 21
1.439 -21.325 -4.343 6
1.383 -20.387 -4.42 9
1.341 -19.513 -4.49 9
1.299 -18.747 -4.574 8
1.258 -17.961 -4.624 8
1.217 -17.245 -4.678 41
1.183 -16.584 -4.733 8
1.147 -15.951 -4.78 10
1.117 -15.364 -4.828 5
1.088 -14.796 -4.867 8
1.058 -14.265 -4.907 46
1.035 -13.806 -4.971 8
1.009 -13.334 -5.012 7
0.983 -12.843 -5.025 8
0.959 -12.42 -5.065 10
0.937 -12.006 -5.098 9
0.914 -11.604 -5.125 10
0.895 -11.228 -5.158 11
0.874 -10.862 -5.185 46
0.856 -10.503 -5.206 46
0.839 -10.169 -5.235 12
0.819 -9.837 -5.254 14
0.803 -9.524 -5.279 14
2.202 -37.36 -3.588 7
1.96 -32.985 -3.412 18
1.728 -28.779 -3.117 19
1.73 -28.585 -3.599 18
1.713 -28.008 -3.983 6
1.622 -26.311 -4.05 15
1.551 -24.899 -4.14 5
1.486 -23.601 -4.215 5
1.421 -22.397 -4.277 19
1.368 -21.33 -4.344 7
1.314 -20.384 -4.419 9
1.275 -19.513 -4.49 10
1.235 -18.747 -4.574 6
1.197 -17.967 -4.627 8
1.158 -17.245 -4.678 37
1.126 -16.583 -4.733 7
1.092 -15.958 -4.783 10
1.063 -15.364 -4.828 7
1.035 -14.791 -4.865 8
1.007 -14.268 -4.909 47
0.985 -13.806 -4.971 8
0.96 -13.336 -5.013 7
0.935 -12.842 -5.025 8
0.913 -12.426 -5.069 10
0.892 -12.005 -5.098 9
0.871 -11.61 -5.129 11
0.853 -11.234 -5.162 10
0.832 -10.863 -5.186 48
0.815 -10.502 -5.205 44
0.799 -10.168 -5.234 12
0.78 -9.839 -5.256 15
0.765 -9.522 -5.277 14
2.086 -37.339 -3.584 6
1.857 -32.984 -3.411 20
1.633 -28.689 -3.098 3
1.637 -28.551 -3.592 50
1.623 -27.998 -3.981 6
1.537 -26.312 -4.05 21
1.47 -24.888 -4.136 6
1.409 -23.605 -4.217 5
1.349 -22.412 -4.282 17
1.297 -21.326 -4.343 7
1.246 -20.384 -4.419 9
1.209 -19.509 -4.489 10
1.171 -18.749 -4.575 8
1.135 -17.971 -4.628 8
1.098 -17.248 -4.679 39
1.068 -16.59 -4.736 7
1.035 -15.95 -4.779 12
1.009 -15.37 -4.832 7
0.983 -14.797 -4.868 8
0.955 -14.263 -4.906 48
0.935 -13.805 -4.97 8
0.911 -13.335 -5.013 7
0.888 -12.845 -5.026 8
0.867 -12.428 -5.071 10
0.847 -12.004 -5.096 10
0.827 -11.612 -5.131 10
0.81 -11.232 -5.161 9
0.79 -10.862 -5.185 47
0.774 -10.504 -5.207 44
0.759 -10.17 -5.235 11
0.741 -9.841 -5.257 13
0.727 -9.524 -5.279 14
1.817 -34.438 -3.072 4
1.753 -32.965 -3.408 19
1.538 -28.597 -3.078 1
1.547 -28.54 -3.589 53
1.535 -28.013 -3.985 6
1.453 -26.313 -4.05 26
1.39 -24.892 -4.138 6
1.332 -23.605 -4.217 6
1.275 -22.408 -4.281 12
1.227 -21.334 -4.346 7
1.178 -20.391 -4.422 9
1.144 -19.509 -4.489 10
1.108 -18.749 -4.575 7
1.074 -17.967 -4.627 8
1.039 -17.248 -4.679 32
1.011 -16.589 -4.736 7
0.98 -15.949 -4.779 38
0.955 -15.366 -4.829 8
0.93 -14.793 -4.866 9
0.904 -14.266 -4.908 47
0.885 -13.804 -4.97 8
0.862 -13.335 -5.012 7
0.84 -12.843 -5.025 8
0.821 -12.431 -5.072 10
0.802 -12.009 -5.1 9
0.783 -11.607 -5.128 11
0.767 -11.235 -5.163 7
0.749 -10.864 -5.187 46
0.733 -10.506 -5.208 44
0.719 -10.174 -5.239 13
0.702 -9.843 -5.259 13
0.688 -9.519 -5.275 16
1.855 -37.339 -3.584 7
1.651 -32.97 -3.409 21
1.447 -28.574 -3.074 8
1.455 -28.522 -3.585 51
1.445 -28.006 -3.983 6
1.369 -26.318 -4.052 27
1.309 -24.895 -4.139 6
1.255 -23.605 -4.217 6
1.201 -22.412 -4.282 14
1.156 -21.326 -4.343 7
1.11 -20.391 -4.422 9
1.078 -19.519 -4.493 13
1.044 -18.752 -4.576 7
1.012 -17.97 -4.628 8
0.979 -17.247 -4.679 34
0.953 -16.588 -4.735 7
0.924 -15.952 -4.78 39
0.9 -15.365 -4.829 8
0.877 -14.799 -4.869 8
0.853 -14.268 -4.909 43
0.835 -13.81 -4.973 8
0.814 -13.34 -5.015 7
0.793 -12.846 -5.027 8
0.774 -12.422 -5.067 10
0.757 -12.004 -5.097 10
0.739 -11.613 -5.132 11
0.724 -11.236 -5.164 12
0.707 -10.866 -5.188 41
0.692 -10.504 -5.207 44
0.679 -10.17 -5.236 13
0.664 -9.844 -5.26 13
0.651 -9.524 -5.279 42
1.74 -37.352 -3.586 7
1.404 -29.904 -2.813 8
1.356 -28.555 -3.07 59
1.365 -28.514 -3.583 53
1.356 -28.003 -3.982 7
1.284 -26.317 -4.052 29
1.228 -24.884 -4.135 6
1.179 -23.609 -4.218 6
1.128 -22.416 -4.283 12
1.085 -21.329 -4.344 7
1.042 -20.386 -4.42 9
1.012 -19.511 -4.49 23
0.981 -18.755 -4.577 8
0.951 -17.969 -4.627 7
0.921 -17.26 -4.685 29
0.895 -16.591 -4.736 8
0.868 -15.947 -4.778 39
0.846 -15.375 -4.834 8
0.825 -14.805 -4.872 9
0.802 -14.274 -4.912 39
0.785 -13.812 -4.974 8
0.765 -13.339 -5.015 7
0.746 -12.851 -5.03 7
0.728 -12.434 -5.075 9
0.712 -12.014 -5.103 10
0.695 -11.611 -5.13 11
0.681 -11.238 -5.165 10
0.665 -10.865 -5.187 23
0.651 -10.506 -5.208 46
0.639 -10.172 -5.237 12
0.625 -9.846 -5.262 14
0.612 -9.525 -5.28 40
1.625 -37.341 -3.584 7
1.306 -29.795 -2.792 3
1.267 -28.559 -3.07 64
1.274 -28.499 -3.579 54
1.266 -27.999 -3.981 6
1.199 -26.313 -4.051 29
1.148 -24.884 -4.135 6
1.102 -23.613 -4.219 5
1.054 -22.418 -4.284 8
1.015 -21.324 -4.342 7
0.974 -20.393 -4.422 9
0.947 -19.507 -4.488 41
0.917 -18.754 -4.577 8
0.89 -17.976 -4.63 8
0.861 -17.26 -4.684 27
0.838 -16.597 -4.739 8
0.812 -15.95 -4.779 39
0.792 -15.377 -4.835 8
0.772 -14.8 -4.869 9
0.75 -14.269 -4.91 39
0.735 -13.81 -4.973 8
0.717 -13.347 -5.02 7
0.699 -12.853 -5.032 8
0.682 -12.43 -5.072 9
0.667 -12.008 -5.1 9
0.651 -11.613 -5.131 11
0.638 -11.24 -5.167 11
0.623 -10.873 -5.193 11
0.611 -10.51 -5.212 52
0.599 -10.177 -5.241 13
0.585 -9.841 -5.258 13
0.574 -9.527 -5.281 43
1.509 -37.338 -3.584 6
1.204 -29.555 -2.745 1
1.177 -28.558 -3.07 76
1.184 -28.495 -3.578 56
1.178 -28.007 -3.983 6
1.115 -26.317 -4.052 30
1.067 -24.872 -4.132 6
1.024 -23.604 -4.216 6
0.98 -22.415 -4.283 6
0.944 -21.331 -4.345 7
0.906 -20.396 -4.423 9
0.881 -19.502 -4.486 38
0.854 -18.76 -4.58 7
0.828 -17.975 -4.63 7
0.802 -17.261 -4.685 23
0.781 -16.603 -4.742 8
0.756 -15.944 -4.777 39
0.738 -15.376 -4.834 8
0.719 -14.806 -4.873 9
0.699 -14.271 -4.911 30
0.685 -13.812 -4.974 8
0.668 -13.342 -5.017 7
0.651 -12.848 -5.028 8
0.636 -12.435 -5.075 10
0.622 -12.013 -5.103 10
0.607 -11.615 -5.133 11
0.595 -11.232 -5.16 12
0.581 -10.868 -5.189 10
0.57 -10.509 -5.21 55
0.559 -10.177 -5.241 12
0.547 -9.849 -5.264 13
0.536 -9.522 -5.277 41
1.393 -37.322 -3.581 7
1.108 -29.437 -2.722 1
1.088 -28.561 -3.071 66
1.097 -28.576 -3.597 3
1.088 -27.995 -3.98 6
1.03 -26.308 -4.049 30
0.986 -24.879 -4.134 6
0.948 -23.615 -4.22 6
0.906 -22.398 -4.278 5
0.874 -21.334 -4.346 9
0.838 -20.395 -4.423 9
0.815 -19.508 -4.488 21
0.79 -18.76 -4.579 7
0.767 -17.976 -4.631 8
0.742 -17.26 -4.685 16
0.723 -16.598 -4.74 8
0.7 -15.953 -4.781 41
0.684 -15.374 -4.833 8
0.667 -14.804 -4.872 9
0.648 -14.273 -4.912 20
0.635 -13.811 -4.974 8
0.619 -13.344 -5.018 8
0.604 -12.85 -5.029 8
0.589 -12.426 -5.07 9
0.577 -12.012 -5.102 10
0.563 -11.616 -5.134 12
0.553 -11.243 -5.168 11
0.539 -10.869 -5.19 12
0.529 -10.51 -5.211 56
0.519 -10.172 -5.237 12
0.507 -9.846 -5.262 15
0.498 -9.526 -5.281 39
1.278 -37.319 -3.58 7
0.0 -0.0 3.0 0
0.999 -28.568 -3.072 66
1.004 -28.509 -3.582 5
0.999 -28.009 -3.984 6
0.946 -26.307 -4.049 29
0.906 -24.881 -4.135 6
0.871 -23.606 -4.217 5
0.833 -22.397 -4.277 5
0.803 -21.333 -4.345 7
0.77 -20.398 -4.424 9
0.75 -19.518 -4.492 10
0.727 -18.754 -4.577 6
0.706 -17.978 -4.631 7
0.683 -17.262 -4.686 14
0.666 -16.607 -4.744 8
0.644 -15.952 -4.781 39
0.63 -15.379 -4.836 8
0.614 -14.81 -4.874 9
0.597 -14.278 -4.914 14
0.585 -13.809 -4.973 8
0.57 -13.342 -5.017 7
0.557 -12.848 -5.028 8
0.543 -12.435 -5.075 10
0.532 -12.013 -5.103 11
0.519 -11.611 -5.13 10
0.51 -11.241 -5.167 12
0.498 -10.873 -5.194 11
0.488 -10.512 -5.213 47
0.479 -10.177 -5.241 11
0.468 -9.848 -5.263 14
0.46 -9.527 -5.282 43
1.163 -37.315 -3.58 7
0.0 -0.0 3.0 0
0.909 -28.575 -3.074 67
0.917 -28.582 -3.599 8
0.91 -28.009 -3.983 6
0.861 -26.298 -4.047 28
0.826 -24.88 -4.134 6
0.794 -23.601 -4.216 5
0.759 -22.403 -4.279 5
0.733 -21.331 -4.345 7
0.702 -20.392 -4.422 9
0.685 -19.52 -4.493 9
0.663 -18.759 -4.579 6
0.644 -17.973 -4.629 7
0.624 -17.268 -4.688 10
0.608 -16.598 -4.74 8
0.589 -15.954 -4.781 38
0.575 -15.374 -4.833 8
0.561 -14.808 -4.874 8
0.546 -14.28 -4.915 10
0.535 -13.807 -4.971 8
0.522 -13.344 -5.018 7
0.51 -12.859 -5.035 8
0.497 -12.432 -5.073 10
0.487 -12.014 -5.104 9
0.475 -11.612 -5.131 11
0.467 -11.243 -5.168 13
0.456 -10.874 -5.194 12
0.447 -10.516 -5.216 49
0.439 -10.181 -5.244 12
0.429 -9.849 -5.264 14
0.422 -9.531 -5.285 36
1.048 -37.322 -3.581 7
0.0 -0.0 3.0 0
0.82 -28.582 -3.075 67
0.826 -28.573 -3.597 14
0.821 -27.999 -3.981 6
0.777 -26.301 -4.047 27
0.745 -24.878 -4.134 6
0.717 -23.599 -4.215 6
0.686 -22.401 -4.279 5
0.662 -21.337 -4.347 9
0.634 -20.394 -4.423 9
0.619 -19.522 -4.494 9
0.6 -18.754 -4.577 7
0.583 -17.975 -4.63 8
0.564 -17.262 -4.686 9
0.55 -16.604 -4.742 8
0.533 -15.952 -4.78 38
0.521 -15.376 -4.834 7
0.509 -14.812 -4.876 8
0.495 -14.278 -4.914 9
0.485 -13.812 -4.974 8
0.473 -13.345 -5.018 8
0.462 -12.857 -5.034 8
0.451 -12.43 -5.072 9
0.442 -12.016 -5.105 10
0.432 -11.617 -5.134 10
0.424 -11.243 -5.169 12
0.414 -10.872 -5.193 11
0.406 -10.516 -5.216 45
0.399 -10.176 -5.24 25
0.39 -9.85 -5.265 14
0.384 -9.529 -5.284 39
0.842 -33.674 -2.938 29
0.732 -29.047 -2.646 1
0.731 -28.592 -3.077 66
0.736 -28.575 -3.597 26
0.732 -28.005 -3.983 7
0.693 -26.303 -4.048 23
0.665 -24.881 -4.135 6
0.64 -23.605 -4.217 6
0.612 -22.411 -4.282 5
0.591 -21.332 -4.345 7
0.566 -20.396 -4.423 10
0.554 -19.524 -4.495 9
0.536 -18.756 -4.578 7
0.521 -17.976 -4.631 8
0.505 -17.263 -4.686 9
0.492 -16.601 -4.741 7
0.477 -15.957 -4.783 40
0.467 -15.373 -4.833 8
0.456 -14.811 -4.875 8
0.443 -14.275 -4.913 9
0.436 -13.816 -4.977 8
0.425 -13.35 -5.021 7
0.415 -12.855 -5.033 9
0.405 -12.434 -5.075 10
0.397 -12.017 -5.105 10
0.388 -11.618 -5.135 10
0.381 -11.244 -5.169 13
0.372 -10.873 -5.194 12
0.366 -10.518 -5.218 46
0.36 -10.183 -5.246 13
0.351 -9.854 -5.268 13
0.345 -9.53 -5.284 40
0.735 -33.534 -2.913 28
0.641 -29.006 -2.638 5
0.642 -28.602 -3.079 58
0.647 -28.6 -3.603 6
0.643 -28.003 -3.982 6
0.608 -26.297 -4.046 23
0.584 -24.875 -4.133 6
0.563 -23.603 -4.216 5
0.539 -22.401 -4.278 5
0.521 -21.329 -4.344 7
0.498 -20.39 -4.421 10
0.488 -19.529 -4.496 9
0.473 -18.761 -4.58 8
0.46 -17.978 -4.631 7
0.445 -17.261 -4.685 8
0.435 -16.599 -4.74 8
0.421 -15.954 -4.781 36
0.413 -15.378 -4.836 7
0.403 -14.808 -4.874 9
0.392 -14.28 -4.915 9
0.385 -13.811 -4.974 8
0.376 -13.351 -5.022 7
0.368 -12.856 -5.033 8
0.359 -12.439 -5.078 10
0.352 -12.017 -5.106 10
0.344 -11.615 -5.133 11
0.338 -11.245 -5.17 11
0.33 -10.874 -5.194 12
0.325 -10.519 -5.218 46
0.32 -10.184 -5.247 14
0.312 -9.848 -5.264 14
0.307 -9.531 -5.285 32
0.629 -33.399 -2.889 36
0.549 -28.945 -2.626 20
0.552 -28.608 -3.081 64
0.556 -28.582 -3.599 15
0.554 -28.001 -3.982 6
0.524 -26.295 -4.046 19
0.504 -24.872 -4.132 6
0.486 -23.601 -4.216 5
0.465 -22.407 -4.28 4
0.451 -21.342 -4.349 7
0.43 -20.398 -4.424 10
0.422 -19.519 -4.493 9
0.409 -18.755 -4.577 8
0.398 -17.972 -4.629 5
0.386 -17.262 -4.686 8
0.377 -16.604 -4.742 7
0.366 -15.956 -4.782 38
0.358 -15.376 -4.834 8
0.351 -14.812 -4.876 8
0.341 -14.285 -4.918 9
0.336 -13.819 -4.978 8
0.327 -13.352 -5.022 7
0.32 -12.857 -5.034 8
0.313 -12.436 -5.076 9
0.307 -12.018 -5.106 9
0.3 -11.619 -5.136 10
0.295 -11.242 -5.168 13
0.288 -10.875 -5.195 12
0.284 -10.523 -5.221 47
0.28 -10.182 -5.245 13
0.273 -9.855 -5.27 14
0.269 -9.532 -5.286 43
0.526 -33.385 -2.887 10
0.459 -28.904 -2.618 22
0.463 -28.613 -3.082 63
0.466 -28.596 -3.602 3
0.465 -28.007 -3.983 7
0.44 -26.297 -4.046 16
0.424 -24.874 -4.133 6
0.409 -23.598 -4.215 4
0.392 -22.411 -4.282 4
0.38 -21.328 -4.344 9
0.362 -20.399 -4.425 9
0.357 -19.524 -4.495 9
0.346 -18.759 -4.579 8
0.337 -17.976 -4.631 7
0.326 -17.26 -4.684 8
0.32 -16.601 -4.741 7
0.31 -15.961 -4.784 39
0.304 -15.377 -4.835 7
0.298 -14.813 -4.876 8
0.29 -14.279 -4.915 9
0.286 -13.823 -4.981 8
0.278 -13.349 -5.021 7
0.273 -12.855 -5.033 8
0.267 -12.437 -5.077 10
0.262 -12.012 -5.102 10
0.256 -11.623 -5.139 10
0.253 -11.25 -5.174 11
0.246 -10.876 -5.195 12
0.243 -10.52 -5.219 48
0.24 -10.182 -5.245 11
0.234 -9.855 -5.27 13
0.231 -9.538 -5.291 35
0.426 -33.623 -2.929 13
0.369 -28.881 -2.614 33
0.373 -28.626 -3.085 64
0.376 -28.593 -3.601 32
0.376 -28.008 -3.983 7
0.356 -26.314 -4.051 8
0.343 -24.867 -4.131 6
0.333 -23.604 -4.216 4
0.318 -22.409 -4.281 4
0.309 -21.332 -4.345 9
0.294 -20.397 -4.424 9
0.291 -19.525 -4.495 10
0.282 -18.757 -4.578 7
0.276 -17.977 -4.631 8
0.267 -17.264 -4.686 8
0.262 -16.598 -4.74 7
0.254 -15.95 -4.779 35
0.25 -15.381 -4.837 8
0.246 -14.811 -4.875 8
0.239 -14.282 -4.917 9
0.236 -13.814 -4.975 8
0.23 -13.35 -5.021 8
0.226 -12.865 -5.039 8
0.22 -12.434 -5.075 10
0.217 -12.02 -5.107 10
0.212 -11.621 -5.137 11
0.21 -11.247 -5.172 12
0.205 -10.876 -5.196 12
0.202 -10.523 -5.222 31
0.2 -10.186 -5.248 13
0.195 -9.86 -5.273 13
0.193 -9.532 -5.286 45
0.358 -37.315 -3.58 7
0.279 -28.866 -2.611 42
0.284 -28.643 -3.088 65
0.286 -28.598 -3.602 57
0.287 -28.013 -3.984 7
0.272 -26.326 -4.054 6
0.263 -24.88 -4.134 6
0.256 -23.608 -4.218 4
0.245 -22.398 -4.278 4
0.239 -21.337 -4.347 9
0.226 -20.398 -4.424 9
0.226 -19.522 -4.494 10
0.219 -18.758 -4.579 7
0.215 -17.978 -4.631 8
0.208 -17.261 -4.685 8
0.205 -16.599 -4.74 8
0.198 -15.961 -4.785 36
0.196 -15.377 -4.835 8
0.193 -14.818 -4.879 8
0.188 -14.287 -4.919 9
0.186 -13.817 -4.977 8
0.181 -13.351 -5.022 7
0.179 -12.862 -5.037 8
0.174 -12.435 -5.076 10
0.172 -12.02 -5.107 9
0.168 -11.621 -5.137 10
0.167 -11.251 -5.174 12
0.163 -10.883 -5.201 11
0.161 -10.524 -5.222 12
0.16 -10.186 -5.249 11
0.156 -9.857 -5.271 13
0.155 -9.536 -5.29 42
0.243 -37.32 -3.58 7
0.189 -28.871 -2.612 48
0.194 -28.648 -3.089 65
0.196 -28.618 -3.607 52
0.198 -28.006 -3.983 7
0.187 -26.338 -4.057 5
0.183 -24.881 -4.135 7
0.179 -23.609 -4.218 5
0.171 -22.41 -4.282 5
0.168 -21.334 -4.346 9
0.159 -20.402 -4.426 10
0.16 -19.53 -4.497 9
0.155 -18.759 -4.579 7
0.153 -17.979 -4.632 7
0.148 -17.27 -4.689 8
0.147 -16.599 -4.74 7
0.142 -15.955 -4.782 37
0.141 -15.375 -4.834 7
0.14 -14.815 -4.877 8
0.137 -14.291 -4.922 9
0.136 -13.822 -4.98 8
0.132 -13.351 -5.022 7
0.131 -12.856 -5.033 9
0.128 -12.442 -5.08 9
0.127 -12.021 -5.108 10
0.124 -11.628 -5.142 10
0.124 -11.245 -5.17 11
0.121 -10.874 -5.194 11
0.12 -10.527 -5.225 12
0.12 -10.19 -5.251 14
0.117 -9.86 -5.274 14
0.117 -9.533 -5.287 41
0.128 -37.312 -3.579 7
0.1 -28.879 -2.614 47
0.105 -28.656 -3.091 66
0.105 -28.639 -3.612 53
0.109 -28.014 -3.985 7
0.103 -26.346 -4.059 5
0.103 -24.893 -4.138 6
0.102 -23.602 -4.216 6
0.098 -22.403 -4.279 5
0.098 -21.338 -4.347 9
0.091 -20.402 -4.426 10
0.095 -19.527 -4.496 9
0.092 -18.762 -4.58 8
0.092 -17.972 -4.629 7
0.089 -17.262 -4.686 8
0.09 -16.6 -4.741 7
0.087 -15.962 -4.785 37
0.087 -15.382 -4.837 8
0.088 -14.816 -4.878 8
0.085 -14.288 -4.92 9
0.086 -13.822 -4.98 8
0.084 -13.351 -5.022 7
0.084 -12.863 -5.038 12
0.082 -12.439 -5.078 10
0.082 -12.021 -5.108 11
0.081 -11.628 -5.142 11
0.081 -11.248 -5.172 12
0.079 -10.88 -5.199 12
0.079 -10.522 -5.221 11
0.08 -10.19 -5.251 13
0.078 -9.86 -5.274 14
0.078 -9.536 -5.29 32
0.013 -37.304 -3.578 7
0.01 -28.883 -2.614 36
0.015 -28.668 -3.094 67
0.015 -28.666 -3.618 51
0.02 -28.022 -3.987 7
0.019 -26.351 -4.061 5
0.022 -24.877 -4.133 6
0.026 -23.602 -4.216 5
0.024 -22.41 -4.282 5
0.027 -21.33 -4.345 9
0.023 -20.406 -4.427 17
0.029 -19.527 -4.496 9
0.028 -18.759 -4.579 8
0.031 -17.979 -4.632 7
0.03 -17.266 -4.687 8
0.032 -16.596 -4.739 7
0.031 -15.962 -4.785 36
0.033 -15.385 -4.839 7
0.035 -14.819 -4.88 8
0.034 -14.288 -4.92 9
0.036 -13.818 -4.978 7
0.035 -13.348 -5.02 7
0.037 -12.86 -5.036 11
0.036 -12.446 -5.083 10
0.037 -12.021 -5.108 11
0.037 -11.622 -5.138 11
0.038 -11.248 -5.172 13
0.037 -10.88 -5.199 12
0.039 -10.528 -5.225 10
0.04 -10.19 -5.251 13
0.039 -9.86 -5.274 13
0.04 -9.534 -5.288 42
-0.102 -37.312 -3.579 7
-0.08 -28.895 -2.617 25
-0.075 -28.679 -3.096 67
-0.075 -28.674 -3.62 52
-0.069 -28.018 -3.986 7
-0.066 -26.354 -4.062 5
-0.058 -24.869 -4.131 6
-0.051 -23.594 -4.213 5
-0.049 -22.41 -4.282 5
-0.043 -21.338 -4.347 9
-0.045 -20.391 -4.422 32
-0.036 -19.527 -4.496 9
-0.035 -18.766 -4.582 8
-0.031 -17.979 -4.632 5
-0.03 -17.27 -4.689 8
-0.026 -16.6 -4.741 8
-0.025 -15.962 -4.785 35
-0.021 -15.385 -4.839 7
-0.018 -14.819 -4.88 8
-0.017 -14.281 -4.916 9
-0.014 -13.822 -4.98 8
-0.014 -13.355 -5.024 7
-0.011 -12.863 -5.038 11
-0.01 -12.439 -5.078 9
-0.007 -12.021 -5.108 10
-0.007 -11.622 -5.138 10
-0.005 -11.249 -5.173 10
-0.005 -10.88 -5.199 12
-0.002 -10.528 -5.225 11
0.0 -10.187 -5.249 11
0.0 -9.858 -5.272 14
0.002 -9.539 -5.292 39
-0.217 -37.311 -3.579 7
-0.17 -28.899 -2.617 16
-0.165 -28.691 -3.098 66
-0.166 -28.697 -3.625 52
-0.158 -28.022 -3.987 7
-0.15 -26.358 -4.063 5
-0.138 -24.873 -4.132 7
-0.128 -23.598 -4.215 5
-0.122 -22.414 -4.283 5
-0.114 -21.342 -4.349 9
-0.113 -20.387 -4.42 32
-0.102 -19.523 -4.494 10
-0.099 -18.762 -4.58 8
-0.092 -17.983 -4.633 7
-0.089 -17.27 -4.689 8
-0.083 -16.596 -4.739 7
-0.081 -15.962 -4.785 32
-0.075 -15.378 -4.836 8
-0.07 -14.816 -4.878 8
-0.068 -14.291 -4.922 9
-0.064 -13.818 -4.978 7
-0.062 -13.355 -5.024 7
-0.058 -12.856 -5.034 9
-0.056 -12.443 -5.08 9
-0.052 -12.021 -5.108 9
-0.051 -11.625 -5.14 10
-0.048 -11.248 -5.172 14
-0.047 -10.88 -5.199 12
-0.043 -10.522 -5.221 13
-0.04 -10.196 -5.257 13
-0.039 -9.863 -5.276 14
-0.036 -9.539 -5.292 44
-0.332 -37.323 -3.581 7
-0.259 -28.918 -2.621 13
-0.254 -28.698 -3.1 66
-0.257 -28.708 -3.628 50
-0.247 -28.021 -3.986 6
-0.234 -26.35 -4.06 5
-0.219 -24.88 -4.134 7
-0.205 -23.609 -4.218 5
-0.196 -22.414 -4.283 5
-0.184 -21.334 -4.346 7
-0.181 -20.387 -4.42 30
-0.168 -19.526 -4.495 9
-0.162 -18.77 -4.583 8
-0.153 -17.982 -4.633 8
-0.148 -17.27 -4.689 8
-0.141 -16.603 -4.742 8
-0.136 -15.962 -4.785 36
-0.13 -15.385 -4.839 8
-0.123 -14.816 -4.878 7
-0.12 -14.295 -4.924 7
-0.114 -13.822 -4.98 8
-0.111 -13.351 -5.022 7
-0.105 -12.867 -5.04 8
-0.103 -12.442 -5.08 10
-0.097 -12.021 -5.108 10
-0.095 -11.625 -5.14 10
-0.091 -11.251 -5.175 11
-0.088 -10.88 -5.199 13
-0.084 -10.531 -5.227 12
-0.08 -10.19 -5.251 12
-0.078 -9.86 -5.274 14
-0.074 -9.536 -5.29 41
-0.447 -37.326 -3.582 8
-0.349 -28.917 -2.621 12
-0.344 -28.705 -3.101 67
-0.347 -28.727 -3.632 52
-0.336 -28.024 -3.987 7
-0.319 -26.349 -4.06 6
-0.299 -24.872 -4.132 7
-0.282 -23.604 -4.216 5
-0.269 -22.409 -4.281 5
-0.255 -21.349 -4.351 9
-0.249 -20.39 -4.421 21
-0.233 -19.53 -4.497 9
-0.226 -18.765 -4.582 8
-0.215 -17.986 -4.634 7
-0.208 -17.272 -4.69 8
-0.198 -16.603 -4.742 7
-0.192 -15.961 -4.785 35
-0.184 -15.382 -4.837 7
-0.175 -14.815 -4.877 8
-0.171 -14.287 -4.919 9
-0.164 -13.821 -4.979 8
-0.16 -13.351 -5.022 7
-0.152 -12.859 -5.035 8
-0.149 -12.445 -5.082 10
-0.143 -12.027 -5.113 9
-0.139 -11.625 -5.14 11
-0.133 -11.251 -5.175 12
-0.13 -10.884 -5.201 12
-0.125 -10.527 -5.225 12
-0.12 -10.193 -5.254 12
-0.117 -9.86 -5.274 13
-0.112 -9.536 -5.29 43
-0.563 -37.34 -3.584 7
-0.439 -28.931 -2.624 13
-0.434 -28.715 -3.104 68
-0.438 -28.733 -3.633 53
-0.426 -28.031 -3.989 6
-0.403 -26.363 -4.064 6
-0.379 -24.879 -4.134 6
-0.358 -23.607 -4.217 5
-0.343 -22.412 -4.282 5
-0.325 -21.34 -4.348 9
-0.317 -20.404 -4.427 10
-0.299 -19.532 -4.498 9
-0.289 -18.772 -4.584 8
-0.276 -17.988 -4.636 7
-0.267 -17.275 -4.691 8
-0.256 -16.602 -4.742 8
-0.248 -15.965 -4.787 37
-0.238 -15.388 -4.841 7
-0.228 -14.818 -4.879 8
-0.222 -14.287 -4.919 9
-0.214 -13.817 -4.977 8
-0.208 -13.353 -5.023 7
-0.2 -12.862 -5.037 11
-0.195 -12.445 -5.082 10
-0.188 -12.027 -5.112 10
-0.183 -11.631 -5.144 10
-0.176 -11.251 -5.174 10
-0.172 -10.883 -5.201 11
-0.166 -10.533 -5.229 12
-0.16 -10.19 -5.251 12
-0.156 -9.863 -5.276 13
-0.151 -9.542 -5.294 41
-0.678 -37.334 -3.583 8
-0.529 -28.945 -2.626 21
-0.524 -28.721 -3.105 66
-0.529 -28.743 -3.636 52
-0.515 -28.029 -3.988 6
-0.488 -26.37 -4.066 5
-0.46 -24.881 -4.135 7
-0.435 -23.602 -4.216 5
-0.416 -22.415 -4.283 5
-0.396 -21.332 -4.345 9
-0.385 -20.407 -4.428 9
-0.364 -19.539 -4.5 9
-0.353 -18.767 -4.582 8
-0.337 -17.984 -4.634 5
-0.327 -17.27 -4.689 8
-0.313 -16.601 -4.741 8
-0.304 -15.964 -4.786 37
-0.292 -15.38 -4.837 5
-0.281 -14.818 -4.879 8
-0.273 -14.282 -4.917 9
-0.264 -13.82 -4.979 8
-0.257 -13.356 -5.025 8
-0.247 -12.865 -5.039 7
-0.241 -12.441 -5.079 10
-0.233 -12.026 -5.111 10
-0.227 -11.63 -5.144 10
-0.219 -11.254 -5.177 13
-0.214 -10.885 -5.203 12
-0.207 -10.53 -5.227 12
-0.2 -10.192 -5.253 13
-0.195 -9.866 -5.278 14
-0.189 -9.545 -5.297 40
-0.793 -37.348 -3.585 7
-0.619 -28.948 -2.627 32
-0.615 -28.731 -3.107 66
-0.62 -28.753 -3.638 51
-0.604 -28.036 -3.99 7
-0.572 -26.364 -4.064 5
-0.54 -24.876 -4.133 7
-0.512 -23.604 -4.216 5
-0.49 -22.429 -4.288 5
-0.466 -21.338 -4.347 10
-0.453 -20.406 -4.427 10
-0.43 -19.531 -4.497 9
-0.416 -18.77 -4.583 8
-0.399 -17.99 -4.636 7
-0.386 -17.273 -4.691 8
-0.371 -16.6 -4.741 7
-0.36 -15.963 -4.786 38
-0.346 -15.383 -4.838 7
-0.334 -14.82 -4.88 8
-0.324 -14.292 -4.922 9
-0.314 -13.819 -4.978 8
-0.306 -13.352 -5.023 7
-0.294 -12.861 -5.036 9
-0.287 -12.447 -5.083 10
-0.278 -12.026 -5.111 10
-0.271 -11.63 -5.144 10
-0.262 -11.247 -5.171 12
-0.256 -10.889 -5.205 11
-0.248 -10.529 -5.226 12
-0.24 -10.194 -5.255 13
-0.234 -9.865 -5.278 14
-0.227 -9.535 -5.288 42
-0.908 -37.357 -3.587 7
-0.71 -28.962 -2.63 42
-0.705 -28.741 -3.109 67
-0.711 -28.755 -3.639 52
-0.693 -28.041 -3.991 7
-0.657 -26.37 -4.066 5
-0.62 -24.882 -4.135 7
-0.589 -23.599 -4.215 5
-0.564 -22.427 -4.287 5
-0.537 -21.332 -4.345 11
-0.521 -20.408 -4.428 9
-0.496 -19.532 -4.498 8
-0.48 -18.772 -4.585 8
-0.46 -17.989 -4.636 8
-0.445 -17.272 -4.69 7
-0.429 -16.606 -4.744 8
-0.415 -15.965 -4.787 35
-0.401 -15.382 -4.837 8
-0.386 -14.819 -4.88 8
-0.376 -14.291 -4.922 8
-0.364 -13.822 -4.98 8
-0.354 -13.358 -5.027 7
-0.342 -12.863 -5.038 9
-0.333 -12.443 -5.08 10
-0.323 -12.032 -5.115 10
-0.315 -11.629 -5.143 11
-0.305 -11.256 -5.178 11
-0.298 -10.888 -5.205 12
-0.289 -10.535 -5.231 13
-0.28 -10.19 -5.252 12
-0.274 -9.868 -5.28 13
-0.265 -9.54 -5.293 42
-1.023 -37.358 -3.587 7
-0.8 -28.982 -2.634 36
-0.795 -28.751 -3.111 67
-0.802 -28.768 -3.642 52
-0.782 -28.035 -3.99 7
-0.741 -26.36 -4.063 5
-0.701 -24.888 -4.137 7
-0.666 -23.605 -4.217 5
-0.637 -22.422 -4.285 5
-0.607 -21.331 -4.345 12
-0.589 -20.41 -4.429 9
-0.561 -19.534 -4.498 9
-0.544 -18.774 -4.585 8
-0.522 -17.987 -4.635 7
-0.505 -17.274 -4.691 8
-0.486 -16.609 -4.745 7
-0.471 -15.964 -4.786 36
-0.455 -15.384 -4.838 7
-0.439 -14.821 -4.881 8
-0.427 -14.294 -4.923 9
-0.414 -13.821 -4.979 8
-0.403 -13.353 -5.023 8
-0.389 -12.866 -5.039 8
-0.38 -12.449 -5.084 10
-0.368 -12.031 -5.115 10
-0.359 -11.635 -5.147 11
-0.348 -11.258 -5.18 11
-0.34 -10.887 -5.204 12
-0.33 -10.534 -5.23 11
-0.32 -10.193 -5.254 11
-0.313 -9.867 -5.279 16
-0.303 -9.539 -5.293 44
-1.139 -37.378 -3.591 7
-0.892 -29.035 -2.644 10
-0.885 -28.76 -3.113 68
-0.893 -28.778 -3.644 51
-0.871 -28.033 -3.989 7
-0.826 -26.373 -4.067 5
-0.781 -24.885 -4.136 7
-0.742 -23.598 -4.215 5
-0.711 -22.423 -4.286 5
-0.677 -21.325 -4.343 13
-0.657 -20.408 -4.428 9
-0.627 -19.537 -4.5 9
-0.607 -18.772 -4.585 8
-0.583 -17.986 -4.634 6
-0.565 -17.277 -4.692 8
-0.544 -16.611 -4.746 7
-0.527 -15.959 -4.784 34
-0.509 -15.383 -4.838 7
-0.492 -14.817 -4.878 8
-0.478 -14.292 -4.922 9
-0.464 -13.826 -4.982 8
-0.452 -13.356 -5.025 8
-0.436 -12.862 -5.037 8
-0.426 -12.44 -5.079 10
-0.413 -12.029 -5.114 9
-0.403 -11.63 -5.144 10
-0.391 -11.254 -5.177 11
-0.382 -10.886 -5.203 12
-0.371 -10.536 -5.232 9
-0.36 -10.192 -5.253 11
-0.352 -9.863 -5.276 13
-0.342 -9.542 -5.295 42
-1.254 -37.375 -3.59 7
0.0 -0.0 3.0 0
-0.976 -28.769 -3.115 66
-0.984 -28.786 -3.646 51
-0.961 -28.045 -3.992 7
-0.911 -26.367 -4.065 5
-0.862 -24.894 -4.138 7
-0.819 -23.604 -4.216 5
-0.785 -22.429 -4.288 4
-0.748 -21.331 -4.345 14
-0.725 -20.41 -4.429 9
-0.693 -19.539 -4.5 9
-0.671 -18.774 -4.585 8
-0.644 -17.987 -4.635 7
-0.624 -17.279 -4.693 8
-0.601 -16.605 -4.743 7
-0.583 -15.965 -4.787 37
-0.564 -15.388 -4.841 8
-0.545 -14.826 -4.883 8
-0.529 -14.291 -4.922 8
-0.514 -13.822 -4.98 7
-0.501 -13.359 -5.027 7
-0.484 -12.863 -5.038 7
-0.472 -12.443 -5.081 9
-0.458 -12.025 -5.111 9
-0.447 -11.629 -5.143 11
-0.434 -11.259 -5.18 10
-0.424 -10.888 -5.205 12
-0.412 -10.532 -5.229 10
-0.4 -10.195 -5.255 12
-0.391 -9.862 -5.275 13
-0.38 -9.544 -5.297 41
-1.37 -37.387 -3.592 7
0.0 -0.0 3.0 0
-1.066 -28.782 -3.118 68
-1.075 -28.791 -3.647 52
-1.05 -28.05 -3.994 7
-0.996 -26.379 -4.068 5
-0.942 -24.896 -4.139 7
-0.896 -23.597 -4.214 5
-0.858 -22.434 -4.289 5
-0.819 -21.332 -4.345 15
-0.793 -20.408 -4.428 9
-0.758 -19.536 -4.499 9
-0.735 -18.78 -4.588 8
-0.706 -17.986 -4.634 7
-0.684 -17.288 -4.697 8
-0.659 -16.611 -4.746 8
-0.639 -15.963 -4.786 34
-0.618 -15.386 -4.84 7
-0.597 -14.82 -4.88 8
-0.581 -14.296 -4.925 9
-0.564 -13.823 -4.981 8
-0.549 -13.36 -5.028 7
-0.531 -12.862 -5.037 8
-0.518 -12.445 -5.082 9
-0.503 -12.03 -5.114 10
-0.491 -11.634 -5.147 11
-0.477 -11.255 -5.177 11
-0.466 -10.89 -5.207 12
-0.453 -10.534 -5.23 10
-0.44 -10.2 -5.259 13
-0.43 -9.867 -5.279 13
-0.418 -9.544 -5.296 42
-1.486 -37.402 -3.595 7
0.0 -0.0 3.0 0
-1.157 -28.79 -3.12 65
-1.166 -28.795 -3.648 50
-1.14 -28.051 -3.994 7
-1.081 -26.388 -4.071 5
-1.023 -24.904 -4.141 7
-0.973 -23.594 -4.214 5
-0.932 -22.424 -4.286 5
-0.889 -21.326 -4.343 16
-0.861 -20.409 -4.428 9
-0.824 -19.542 -4.501 9
-0.798 -18.773 -4.585 8
-0.767 -17.987 -4.635 8
-0.743 -17.275 -4.691 8
-0.717 -16.605 -4.743 7
-0.695 -15.965 -4.787 37
-0.672 -15.388 -4.841 7
-0.65 -14.819 -4.879 8
-0.632 -14.291 -4.922 9
-0.614 -13.825 -4.982 8
-0.598 -13.359 -5.027 8
-0.578 -12.864 -5.038 8
-0.565 -12.447 -5.083 10
-0.548 -12.029 -5.114 10
-0.535 -11.63 -5.144 11
-0.52 -11.257 -5.178 11
-0.508 -10.889 -5.205 11
-0.493 -10.533 -5.23 12
-0.48 -10.192 -5.254 12
-0.469 -9.866 -5.279 13
-0.456 -9.545 -5.297 37
-1.602 -37.401 -3.595 7
-1.438 -33.322 -3.477 1
-1.248 -28.803 -3.122 64
-1.257 -28.804 -3.65 51
-1.229 -28.059 -3.996 7
-1.165 -26.38 -4.069 5
-1.104 -24.913 -4.144 6
-1.05 -23.595 -4.214 5
-1.006 -22.443 -4.292 5
-0.96 -21.331 -4.345 24
-0.93 -20.41 -4.429 9
-0.89 -19.543 -4.502 8
-0.862 -18.779 -4.587 8
-0.829 -17.993 -4.638 8
-0.803 -17.28 -4.693 8
-0.774 -16.607 -4.744 8
-0.75 -15.962 -4.785 37
-0.726 -15.386 -4.84 7
-0.703 -14.824 -4.882 8
-0.683 -14.296 -4.925 8
-0.664 -13.827 -4.983 7
-0.647 -13.357 -5.026 7
-0.626 -12.869 -5.042 13
-0.611 -12.446 -5.082 10
-0.593 -12.028 -5.113 9
-0.579 -11.632 -5.145 11
-0.563 -11.253 -5.175 11
-0.55 -10.891 -5.207 11
-0.535 -10.538 -5.233 10
-0.52 -10.2 -5.26 13
-0.508 -9.865 -5.278 13
-0.495 -9.544 -5.297 42
-1.718 -37.432 -3.6 8
-1.54 -33.278 -3.469 11
-1.338 -28.81 -3.124 44
-1.349 -28.812 -3.652 53
-1.319 -28.059 -3.996 7
-1.25 -26.389 -4.071 5
-1.185 -24.909 -4.143 7
-1.127 -23.597 -4.214 5
-1.08 -22.44 -4.291 5
-1.031 -21.332 -4.345 24
-0.998 -20.415 -4.43 10
-0.955 -19.536 -4.499 12
-0.926 -18.78 -4.588 8
-0.891 -17.998 -4.64 8
-0.862 -17.281 -4.694 7
-0.832 -16.608 -4.744 8
-0.807 -15.968 -4.788 35
-0.781 -15.392 -4.842 7
-0.755 -14.822 -4.881 8
-0.735 -14.298 -4.926 9
-0.714 -13.825 -4.982 8
-0.696 -13.359 -5.027 7
-0.673 -12.861 -5.036 21
-0.657 -12.444 -5.081 10
-0.638 -12.029 -5.114 10
-0.623 -11.637 -5.148 10
-0.606 -11.258 -5.179 12
-0.591 -10.887 -5.204 12
-0.576 -10.54 -5.235 12
-0.561 -10.202 -5.262 13
-0.548 -9.87 -5.282 14
-0.533 -9.546 -5.298 39
-1.834 -37.423 -3.599 7
-1.644 -33.286 -3.47 14
-1.429 -28.825 -3.127 61
-1.44 -28.823 -3.654 51
-1.408 -28.063 -3.997 7
-1.335 -26.392 -4.072 5
-1.266 -24.917 -4.145 7
-1.204 -23.6 -4.215 5
-1.153 -22.438 -4.29 5
-1.101 -21.332 -4.345 24
-1.066 -20.412 -4.429 9
-1.021 -19.533 -4.498 14
-0.989 -18.781 -4.588 7
-0.952 -17.991 -4.637 7
-0.922 -17.279 -4.693 8
-0.89 -16.609 -4.745 7
-0.863 -15.969 -4.788 35
-0.835 -15.389 -4.841 8
-0.808 -14.823 -4.882 8
-0.786 -14.296 -4.924 9
-0.764 -13.823 -4.981 8
-0.744 -13.353 -5.024 7
-0.721 -12.875 -5.045 20
-0.703 -12.442 -5.08 9
-0.683 -12.031 -5.115 10
-0.667 -11.632 -5.145 10
-0.649 -11.263 -5.183 12
-0.634 -10.895 -5.21 11
-0.617 -10.539 -5.234 12
-0.601 -10.201 -5.261 11
-0.587 -9.866 -5.278 13
-0.571 -9.545 -5.297 43
-1.95 -37.436 -3.601 8
-1.747 -33.28 -3.469 13
-1.52 -28.832 -3.129 61
-1.532 -28.826 -3.655 43
-1.498 -28.074 -4.0 6
-1.42 -26.4 -4.074 5
-1.346 -24.913 -4.144 6
-1.281 -23.604 -4.217 5
-1.228 -22.445 -4.293 5
-1.172 -21.34 -4.348 25
-1.134 -20.413 -4.43 9
-1.087 -19.542 -4.501 15
-1.053 -18.774 -4.585 8
-1.014 -17.999 -4.64 8
-0.982 -17.287 -4.697 8
-0.948 -16.611 -4.746 8
-0.918 -15.967 -4.788 34
-0.89 -15.391 -4.842 7
-0.861 -14.821 -4.881 8
-0.837 -14.297 -4.925 8
-0.814 -13.828 -4.983 8
-0.793 -13.354 -5.024 7
-0.768 -12.864 -5.038 12
-0.75 -12.447 -5.083 9
-0.729 -12.036 -5.118 10
-0.711 -11.634 -5.146 10
-0.692 -11.258 -5.179 12
-0.676 -10.89 -5.206 11
-0.658 -10.543 -5.237 12
-0.641 -10.206 -5.264 13
-0.626 -9.871 -5.282 13
-0.609 -9.543 -5.296 42
-2.066 -37.45 -3.603 7
-1.85 -33.278 -3.469 16
-1.612 -28.848 -3.132 60
-1.623 -28.825 -3.655 56
-1.587 -28.062 -3.997 6
-1.505 -26.399 -4.074 5
-1.427 -24.921 -4.146 6
-1.358 -23.604 -4.217 5
-1.301 -22.445 -4.293 5
-1.243 -21.34 -4.348 23
-1.202 -20.413 -4.43 9
-1.153 -19.546 -4.503 13
-1.117 -18.786 -4.59 8
-1.075 -17.997 -4.639 7
-1.041 -17.283 -4.695 8
-1.005 -16.611 -4.746 7
-0.975 -15.971 -4.79 35
-0.944 -15.392 -4.842 7
-0.913 -14.815 -4.877 8
-0.889 -14.295 -4.924 8
-0.864 -13.826 -4.982 8
-0.842 -13.359 -5.027 7
-0.815 -12.865 -5.039 27
-0.796 -12.448 -5.084 10
-0.774 -12.03 -5.115 9
-0.755 -11.638 -5.149 10
-0.735 -11.262 -5.182 12
-0.718 -10.894 -5.209 10
-0.699 -10.539 -5.234 13
-0.681 -10.198 -5.258 12
-0.665 -9.872 -5.284 13
-0.648 -9.548 -5.3 43
-2.183 -37.468 -3.607 7
-1.953 -33.265 -3.466 20
-1.703 -28.862 -3.135 59
-1.725 -29.015 -3.699 4
-1.678 -28.088 -4.003 6
-1.59 -26.406 -4.076 5
-1.508 -24.92 -4.146 6
-1.436 -23.619 -4.221 5
-1.375 -22.448 -4.294 5
-1.314 -21.34 -4.348 31
-1.27 -20.413 -4.43 9
-1.219 -19.542 -4.501 31
-1.181 -18.783 -4.589 8
-1.137 -18.0 -4.641 7
-1.101 -17.284 -4.695 8
-1.063 -16.608 -4.744 7
-1.03 -15.968 -4.788 36
-0.998 -15.393 -4.843 8
-0.967 -14.823 -4.882 8
-0.94 -14.296 -4.924 9
-0.914 -13.827 -4.983 7
-0.891 -13.353 -5.024 8
-0.863 -12.863 -5.037 20
-0.842 -12.449 -5.085 10
-0.819 -12.032 -5.116 10
-0.799 -11.637 -5.148 10
-0.778 -11.257 -5.179 12
-0.76 -10.889 -5.206 12
-0.74 -10.543 -5.237 11
-0.721 -10.206 -5.264 13
-0.704 -9.87 -5.282 13
-0.686 -9.547 -5.299 37
-2.299 -37.476 -3.608 6
-2.058 -33.279 -3.469 16
-1.794 -28.876 -3.138 57
-1.808 -28.866 -3.664 3
-1.769 -28.102 -4.007 6
-1.675 -26.413 -4.077 4
-1.589 -24.923 -4.147 6
-1.513 -23.614 -4.22 5
-1.449 -22.444 -4.293 5
-1.385 -21.343 -4.349 32
-1.339 -20.413 -4.43 10
-1.284 -19.528 -4.496 41
-1.245 -18.786 -4.59 8
-1.199 -18.004 -4.642 7
-1.16 -17.285 -4.696 8
-1.121 -16.613 -4.747 8
-1.087 -15.972 -4.79 31
-1.053 -15.393 -4.843 7
-1.019 -14.82 -4.88 7
-0.992 -14.296 -4.925 9
-0.964 -13.821 -4.979 8
-0.94 -13.361 -5.028 7
-0.91 -12.864 -5.038 12
-0.888 -12.444 -5.081 10
-0.864 -12.03 -5.114 10
-0.843 -11.637 -5.149 10
-0.821 -11.258 -5.179 12
-0.802 -10.89 -5.206 11
-0.781 -10.544 -5.238 14
-0.761 -10.204 -5.263 12
-0.744 -9.872 -5.283 13
-0.724 -9.545 -5.298 46
-2.418 -37.517 -3.615 7
-2.161 -33.268 -3.467 12
-1.886 -28.895 -3.142 54
-1.904 -28.941 -3.682 7
-1.859 -28.108 -4.008 7
-1.761 -26.427 -4.081 4
-1.669 -24.922 -4.146 6
-1.591 -23.625 -4.223 5
-1.523 -22.444 -4.292 5
-1.456 -21.343 -4.349 31
-1.407 -20.42 -4.432 10
-1.35 -19.538 -4.5 40
-1.308 -18.783 -4.589 8
-1.26 -17.997 -4.639 8
-1.22 -17.285 -4.696 8
-1.18 -16.623 -4.752 8
-1.143 -15.973 -4.791 39
-1.107 -15.39 -4.842 8
-1.072 -14.814 -4.877 8
-1.043 -14.297 -4.925 8
-1.015 -13.832 -4.986 8
-0.989 -13.362 -5.029 8
-0.958 -12.864 -5.039 25
-0.935 -12.448 -5.084 10
-0.909 -12.031 -5.115 9
-0.888 -11.639 -5.15 10
-0.864 -11.256 -5.178 12
-0.844 -10.892 -5.208 12
-0.822 -10.543 -5.237 13
-0.801 -10.202 -5.261 12
-0.783 -9.876 -5.287 14
-0.763 -9.549 -5.301 43
-2.313 -34.251 -3.039 7
-2.265 -33.278 -3.469 17
-1.978 -28.912 -3.145 53
-1.994 -28.917 -3.676 13
-1.949 -28.11 -4.009 7
-1.846 -26.418 -4.079 4
-1.751 -24.932 -4.149 6
-1.668 -23.628 -4.224 5
-1.597 -22.45 -4.295 5
-1.527 -21.346 -4.35 31
-1.475 -20.416 -4.431 9
-1.416 -19.534 -4.499 25
-1.373 -18.79 -4.592 8
-1.322 -17.993 -4.638 7
-1.279 -17.281 -4.694 8
-1.237 -16.613 -4.747 8
-1.198 -15.966 -4.787 36
-1.162 -15.39 -4.842 8
-1.125 -14.814 -4.877 8
-1.094 -14.294 -4.923 8
-1.064 -13.823 -4.98 8
-1.038 -13.36 -5.027 7
-1.006 -12.869 -5.041 8
-0.982 -12.452 -5.086 10
-0.955 -12.031 -5.115 9
-0.931 -11.633 -5.146 10
-0.907 -11.26 -5.181 12
-0.886 -10.893 -5.208 12
-0.863 -10.541 -5.235 12
-0.842 -10.203 -5.262 11
-0.822 -9.871 -5.283 13
-0.801 -9.55 -5.302 39
-2.426 -34.338 -3.055 36
-2.368 -33.267 -3.466 15
-2.07 -28.929 -3.149 52
-2.085 -28.906 -3.674 24
-2.039 -28.119 -4.011 7
-1.931 -26.424 -4.08 5
-1.832 -24.942 -4.152 6
-1.745 -23.627 -4.224 6
-1.671 -22.442 -4.292 5
-1.598 -21.349 -4.351 32
-1.544 -20.422 -4.433 9
-1.482 -19.541 -4.501 11
-1.436 -18.789 -4.591 8
-1.384 -18.0 -4.641 7
-1.339 -17.285 -4.696 8
-1.295 -16.613 -4.747 8
-1.255 -15.973 -4.791 40
-1.216 -15.394 -4.844 8
-1.178 -14.819 -4.879 8
-1.146 -14.302 -4.928 9
-1.115 -13.826 -4.983 8
-1.087 -13.36 -5.027 7
-1.053 -12.866 -5.04 8
-1.028 -12.449 -5.085 10
-1.0 -12.032 -5.116 10
-0.976 -11.634 -5.146 10
-0.95 -11.258 -5.179 12
-0.928 -10.891 -5.207 10
-0.904 -10.538 -5.233 11
-0.882 -10.201 -5.261 12
-0.862 -9.872 -5.284 14
-0.84 -9.549 -5.301 42
-2.524 -34.229 -3.035 26
-2.472 -33.268 -3.467 18
-2.164 -28.958 -3.155 49
-2.177 -28.907 -3.674 32
-2.129 -28.117 -4.01 7
-2.016 -26.418 -4.079 4
-1.913 -24.94 -4.151 6
-1.824 -23.645 -4.229 5
-1.745 -22.452 -4.295 5
-1.668 -21.341 -4.348 32
-1.613 -20.422 -4.433 9
-1.549 -19.552 -4.505 9
-1.501 -18.793 -4.593 7
-1.446 -18.004 -4.642 8
-1.399 -17.284 -4.695 8
-1.353 -16.613 -4.747 8
-1.311 -15.973 -4.791 39
-1.271 -15.394 -4.844 8
-1.231 -14.819 -4.879 8
-1.197 -14.295 -4.924 9
-1.165 -13.83 -4.985 8
-1.136 -13.361 -5.028 7
-1.101 -12.866 -5.04 8
-1.074 -12.447 -5.083 10
-1.045 -12.03 -5.114 10
-1.02 -11.638 -5.149 9
-0.994 -11.262 -5.182 12
-0.97 -10.891 -5.207 11
-0.945 -10.536 -5.232 12
-0.922 -10.199 -5.259 12
-0.901 -9.873 -5.284 13
-0.878 -9.547 -5.299 44
-2.62 -34.095 -3.012 28
-2.574 -33.248 -3.463 15
-2.257 -28.987 -3.161 45
-2.269 -28.921 -3.677 21
-2.219 -28.126 -4.013 6
-2.101 -26.419 -4.079 4
-1.994 -24.938 -4.151 6
-1.9 -23.635 -4.226 6
-1.82 -22.458 -4.297 6
-1.739 -21.34 -4.348 31
-1.681 -20.421 -4.433 9
-1.615 -19.551 -4.505 9
-1.564 -18.792 -4.593 8
-1.507 -18.003 -4.642 8
-1.459 -17.284 -4.695 8
-1.411 -16.616 -4.748 8
-1.367 -15.973 -4.791 41
-1.326 -15.394 -4.844 8
-1.284 -14.822 -4.881 8
-1.249 -14.295 -4.924 9
-1.215 -13.824 -4.981 8
-1.185 -13.361 -5.028 7
-1.148 -12.867 -5.04 8
-1.121 -12.454 -5.088 10
-1.09 -12.033 -5.117 10
-1.064 -11.632 -5.145 10
-1.036 -11.256 -5.178 12
-1.012 -10.892 -5.208 10
-0.986 -10.537 -5.232 12
-0.962 -10.2 -5.26 12
-0.94 -9.874 -5.285 16
-0.916 -9.548 -5.3 42
-2.719 -34.013 -2.997 27
-2.677 -33.236 -3.46 14
-2.35 -29.015 -3.167 41
-2.362 -28.933 -3.68 2
-2.31 -28.143 -4.017 7
-2.186 -26.421 -4.08 5
-2.075 -24.936 -4.15 6
-1.978 -23.637 -4.227 6
-1.893 -22.453 -4.295 5
-1.81 -21.338 -4.347 29
-1.75 -20.43 -4.436 8
-1.681 -19.557 -4.507 9
-1.628 -18.791 -4.592 8
-1.569 -17.999 -4.64 8
-1.519 -17.287 -4.697 8
-1.468 -16.612 -4.746 7
-1.423 -15.972 -4.79 39
-1.38 -15.39 -4.842 8
-1.337 -14.822 -4.881 8
-1.301 -14.302 -4.928 9
-1.266 -13.831 -4.985 8
-1.234 -13.361 -5.028 7
-1.195 -12.864 -5.038 8
-1.167 -12.448 -5.084 10
-1.135 -12.031 -5.115 8
-1.108 -11.636 -5.148 10
-1.08 -11.26 -5.181 12
-1.054 -10.89 -5.206 11
-1.028 -10.538 -5.233 12
-1.002 -10.201 -5.261 13
-0.98 -9.878 -5.289 14
-0.955 -9.555 -5.306 39
-2.826 -34.032 -3.001 36
-2.784 -33.271 -3.467 22
-2.446 -29.066 -3.178 31
-2.456 -28.953 -3.684 13
-2.401 -28.147 -4.018 7
-2.273 -26.437 -4.084 6
-2.156 -24.942 -4.152 7
-2.056 -23.642 -4.228 6
-1.968 -22.462 -4.298 4
-1.882 -21.351 -4.352 31
-1.818 -20.422 -4.433 6
-1.747 -19.552 -4.505 9
-1.693 -18.797 -4.594 7
-1.631 -18.001 -4.641 7
-1.579 -17.286 -4.696 8
-1.527 -16.615 -4.748 7
-1.48 -15.972 -4.79 38
-1.435 -15.397 -4.845 7
-1.39 -14.821 -4.881 8
-1.352 -14.295 -4.924 8
-1.316 -13.827 -4.983 8
-1.283 -13.361 -5.028 7
-1.243 -12.864 -5.038 8
-1.214 -12.451 -5.086 10
-1.181 -12.034 -5.117 10
-1.152 -11.63 -5.143 11
-1.123 -11.26 -5.181 11
-1.097 -10.893 -5.209 12
-1.069 -10.535 -5.231 11
-1.042 -10.201 -5.261 12
-1.019 -9.87 -5.282 13
-0.993 -9.549 -5.301 39
-2.931 -34.027 -3.0 28
-2.884 -33.224 -3.458 35
-2.543 -29.125 -3.191 25
-2.548 -28.954 -3.684 50
-2.492 -28.163 -4.022 7
-2.358 -26.438 -4.084 5
-2.238 -24.947 -4.153 7
-2.133 -23.636 -4.226 6
-2.043 -22.467 -4.3 5
-1.954 -21.361 -4.355 32
-1.886 -20.42 -4.432 6
-1.814 -19.558 -4.508 9
-1.757 -18.796 -4.594 7
-1.693 -18.0 -4.641 7
-1.639 -17.289 -4.697 7
-1.585 -16.618 -4.749 7
-1.537 -15.982 -4.795 9
-1.489 -15.393 -4.843 7
-1.443 -14.825 -4.883 8
-1.403 -14.295 -4.924 9
-1.366 -13.826 -4.983 8
-1.332 -13.361 -5.028 7
-1.291 -12.864 -5.038 8
-1.26 -12.451 -5.086 10
-1.226 -12.031 -5.115 10
-1.197 -11.636 -5.148 11
-1.166 -11.261 -5.182 10
-1.139 -10.89 -5.206 9
-1.11 -10.539 -5.234 12
-1.082 -10.199 -5.259 10
-1.058 -9.873 -5.284 13
-1.032 -9.553 -5.304 40
-3.034 -34.002 -2.996 29
-2.991 -33.258 -3.465 39
-2.644 -29.222 -3.211 13
-2.643 -28.992 -3.693 39
-2.583 -28.167 -4.023 7
-2.444 -26.45 -4.087 6
-2.319 -24.948 -4.154 7
-2.211 -23.645 -4.229 6
-2.118 -22.473 -4.302 5
-2.025 -21.363 -4.356 29
-1.955 -20.422 -4.433 8
-1.879 -19.549 -4.504 9
-1.821 -18.798 -4.595 7
-1.755 -18.002 -4.642 8
-1.699 -17.288 -4.697 8
-1.643 -16.617 -4.749 8
-1.593 -15.981 -4.795 9
-1.544 -15.393 -4.843 7
-1.496 -14.817 -4.878 8
-1.455 -14.294 -4.923 9
-1.416 -13.823 -4.981 8
-1.381 -13.361 -5.028 8
-1.339 -12.867 -5.04 8
-1.307 -12.448 -5.084 10
-1.271 -12.028 -5.113 9
-1.241 -11.64 -5.15 10
-1.21 -11.261 -5.182 11
-1.181 -10.891 -5.207 11
-1.151 -10.536 -5.232 14
-1.123 -10.199 -5.259 12
-1.098 -9.877 -5.288 13
-0.961 -8.573 -4.452 11
-3.148 -34.088 -3.011 27
-3.086 -33.162 -3.446 36
-2.749 -29.363 -3.241 13
-2.747 -29.113 -3.721 26
-2.673 -28.167 -4.023 7
-2.531 -26.462 -4.091 6
-2.401 -24.96 -4.157 7
-2.289 -23.654 -4.232 6
-2.193 -22.478 -4.304 5
-2.097 -21.371 -4.359 32
-2.024 -20.427 -4.435 9
-1.945 -19.551 -4.505 9
-1.886 -18.8 -4.596 7
-1.817 -18.005 -4.643 7
-1.758 -17.287 -4.697 8
-1.701 -16.619 -4.75 8
-1.649 -15.98 -4.794 9
-1.599 -15.399 -4.846 4
-1.549 -14.82 -4.88 8
-1.507 -14.298 -4.925 9
-1.467 -13.825 -4.982 7
-1.43 -13.36 -5.027 8
-1.386 -12.867 -5.04 10
-1.354 -12.458 -5.09 10
-1.317 -12.028 -5.113 9
-1.285 -11.633 -5.146 11
-1.253 -11.258 -5.179 11
-1.223 -10.891 -5.207 11
-1.193 -10.539 -5.234 12
-1.163 -10.197 -5.257 12
-1.136 -9.868 -5.281 13
-0.985 -8.487 -4.377 12
-3.254 -34.093 -3.012 29
-3.186 -33.118 -3.438 41
-2.86 -29.556 -3.282 3
-2.852 -29.248 -3.752 22
-2.766 -28.19 -4.028 7
-2.616 -26.458 -4.089 5
-2.483 -24.96 -4.157 7
-2.367 -23.65 -4.231 5
-2.267 -22.479 -4.304 4
-2.169 -21.38 -4.362 28
-2.093 -20.432 -4.437 18
-2.012 -19.556 -4.507 8
-1.949 -18.79 -4.592 5
-1.879 -18.007 -4.643 7
-1.819 -17.292 -4.699 8
-1.76 -16.625 -4.753 8
-1.705 -15.979 -4.794 9
-1.653 -15.394 -4.843 6
-1.601 -14.813 -4.876 7
-1.559 -14.3 -4.927 9
-1.517 -13.826 -4.982 8
-1.478 -13.356 -5.025 8
-1.434 -12.867 -5.04 9
-1.4 -12.447 -5.083 9
-1.362 -12.031 -5.115 10
-1.33 -11.64 -5.15 10
-1.296 -11.262 -5.182 12
-1.265 -10.892 -5.207 11
-1.233 -10.534 -5.23 11
-1.204 -10.2 -5.26 12
-1.176 -9.872 -5.283 13
-1.01 -8.406 -4.307 11
-3.341 -33.903 -2.978 15
-3.292 -33.143 -3.442 36
-3.222 -32.239 -3.853 24
-3.033 -30.112 -3.952 6
-2.856 -28.189 -4.028 6
-2.702 -26.466 -4.091 5
-2.564 -24.964 -4.158 6
-2.444 -23.65 -4.231 5
-2.342 -22.487 -4.306 5
-2.241 -21.389 -4.365 25
-2.162 -20.429 -4.436 22
-2.078 -19.558 -4.508 9
-2.013 -18.789 -4.591 5
-1.94 -18.001 -4.641 7
-1.879 -17.291 -4.698 7
-1.818 -16.623 -4.752 8
-1.761 -15.974 -4.791 9
-1.708 -15.393 -4.843 6
-1.655 -14.818 -4.879 7
-1.61 -14.292 -4.922 9
-1.568 -13.825 -4.982 8
-1.528 -13.359 -5.027 8
-1.481 -12.863 -5.038 8
-1.447 -12.451 -5.086 9
-1.408 -12.031 -5.115 9
-1.374 -11.633 -5.146 10
-1.339 -11.258 -5.18 11
-1.308 -10.892 -5.207 11
-1.275 -10.54 -5.234 11
-1.244 -10.203 -5.263 12
-1.051 -8.533 -4.16 11
-1.032 -8.311 -4.224 9
-3.463 -34.065 -3.007 35
-3.39 -33.086 -3.431 38
-3.326 -32.26 -3.857 27
-3.129 -30.121 -3.954 6
-2.946 -28.188 -4.028 7
-2.788 -26.469 -4.092 5
-2.647 -24.975 -4.161 7
-2.523 -23.662 -4.234 6
-2.417 -22.488 -4.307 5
-2.313 -21.386 -4.364 23
-2.229 -20.419 -4.432 32
-2.146 -19.567 -4.511 9
-2.077 -18.79 -4.592 5
-2.002 -18.0 -4.64 7
-1.939 -17.289 -4.697 7
-1.876 -16.622 -4.751 8
-1.818 -15.98 -4.794 9
-1.763 -15.395 -4.844 8
-1.708 -14.813 -4.876 8
-1.661 -14.291 -4.922 9
-1.618 -13.827 -4.983 8
-1.577 -13.355 -5.024 7
-1.53 -12.869 -5.042 8
-1.493 -12.447 -5.083 10
-1.453 -12.027 -5.112 10
-1.418 -11.636 -5.148 10
-1.383 -11.261 -5.182 11
-1.35 -10.888 -5.204 11
-1.316 -10.533 -5.23 12
-1.284 -10.2 -5.26 12
-1.073 -8.442 -4.084 10
-1.052 -8.209 -4.136 8
-3.559 -33.965 -2.989 17
-3.491 -33.057 -3.426 33
-3.429 -32.27 -3.859 19
-3.227 -30.136 -3.957 6
-3.038 -28.202 -4.032 6
-2.874 -26.472 -4.093 5
-2.729 -24.979 -4.163 6
-2.602 -23.674 -4.238 6
-2.493 -22.499 -4.311 5
-2.385 -21.394 -4.366 23
-2.297 -20.413 -4.43 27
-2.211 -19.56 -4.508 9
-2.142 -18.791 -4.592 7
-2.065 -18.004 -4.642 7
-1.999 -17.291 -4.698 7
-1.934 -16.623 -4.752 8
-1.874 -15.979 -4.793 9
-1.818 -15.397 -4.845 8
-1.761 -14.816 -4.878 7
-1.714 -14.297 -4.925 9
-1.668 -13.823 -4.981 7
-1.626 -13.358 -5.026 6
-1.577 -12.865 -5.039 7
-1.54 -12.449 -5.085 10
-1.499 -12.03 -5.114 10
-1.462 -11.633 -5.145 10
-1.426 -11.258 -5.179 12
-1.392 -10.888 -5.205 11
-1.358 -10.54 -5.235 11
-1.11 -8.549 -3.923 0
-1.095 -8.351 -4.007 12
-1.076 -8.135 -4.072 11
-3.678 -34.091 -3.011 38
-3.604 -33.14 -3.442 31
-3.531 -32.27 -3.859 13
-3.323 -30.133 -3.957 7
-3.131 -28.216 -4.035 7
-2.962 -26.49 -4.098 4
-2.811 -24.982 -4.163 6
-2.681 -23.678 -4.239 6
-2.566 -22.492 -4.308 5
-2.456 -21.395 -4.367 24
-2.367 -20.421 -4.433 13
-2.279 -19.572 -4.513 8
-2.205 -18.785 -4.59 7
-2.127 -18.006 -4.643 7
-2.059 -17.292 -4.699 7
-1.993 -16.625 -4.753 8
-1.931 -15.98 -4.794 8
-1.872 -15.392 -4.843 8
-1.814 -14.811 -4.875 7
-1.765 -14.296 -4.924 8
-1.72 -13.828 -4.984 7
-1.675 -13.357 -5.025 5
-1.625 -12.868 -5.041 8
-1.586 -12.445 -5.082 11
-1.544 -12.032 -5.116 9
-1.507 -11.639 -5.15 10
-1.469 -11.257 -5.179 11
-1.435 -10.89 -5.207 11
-1.399 -10.539 -5.234 12
-1.137 -8.497 -3.881 10
-1.119 -8.278 -3.946 10
-1.097 -8.048 -3.996 12
-3.781 -34.064 -3.006 34
-3.702 -33.086 -3.431 36
-3.634 -32.275 -3.86 14
-3.421 -30.151 -3.961 6
-3.222 -28.226 -4.038 6
-3.049 -26.496 -4.1 4
-2.892 -24.981 -4.163 6
-2.759 -23.685 -4.241 6
-2.643 -22.51 -4.314 5
-2.529 -21.402 -4.369 21
-2.438 -20.436 -4.438 10
-2.345 -19.568 -4.512 9
-2.27 -18.789 -4.591 8
-2.19 -18.011 -4.645 8
-2.121 -17.301 -4.703 7
-2.051 -16.627 -4.753 8
-1.988 -15.981 -4.795 9
-1.928 -15.394 -4.843 8
-1.867 -14.813 -4.876 7
-1.817 -14.294 -4.923 8
-1.77 -13.827 -4.983 8
-1.724 -13.352 -5.023 7
-1.673 -12.864 -5.038 9
-1.633 -12.451 -5.086 9
-1.589 -12.028 -5.113 10
-1.551 -11.635 -5.147 10
-1.513 -11.26 -5.181 12
-1.477 -10.894 -5.209 10
-1.441 -10.539 -5.234 10
-1.159 -8.41 -3.811 12
-1.141 -8.202 -3.882 8
-1.119 -7.973 -3.931 7
-3.883 -34.026 -3.0 29
-3.807 -33.098 -3.434 32
-3.734 -32.264 -3.858 19
-3.52 -30.179 -3.967 6
-3.314 -28.235 -4.04 6
-3.134 -26.495 -4.099 4
-2.975 -24.987 -4.165 6
-2.838 -23.688 -4.242 5
-2.718 -22.514 -4.315 5
-2.601 -21.405 -4.37 18
-2.507 -20.44 -4.44 9
-2.413 -19.577 -4.515 9
-2.334 -18.79 -4.592 8
-2.252 -18.008 -4.644 7
-2.18 -17.291 -4.698 7
-2.109 -16.624 -4.752 7
-2.044 -15.979 -4.794 9
-1.983 -15.395 -4.844 7
-1.92 -14.811 -4.875 7
-1.868 -14.289 -4.92 8
-1.82 -13.826 -4.982 7
-1.774 -13.358 -5.026 8
-1.721 -12.865 -5.039 8
-1.68 -12.45 -5.085 10
-1.635 -12.028 -5.113 10
-1.596 -11.634 -5.146 10
-1.557 -11.262 -5.183 12
-1.519 -10.887 -5.204 11
-1.201 -8.54 -3.672 5
-1.181 -8.334 -3.749 12
-1.162 -8.114 -3.809 10
-1.379 -9.549 -5.301 26
-3.999 -34.104 -3.013 39
-3.915 -33.13 -3.44 44
-3.836 -32.261 -3.857 19
-3.617 -30.183 -3.968 6
-3.405 -28.237 -4.04 6
-3.221 -26.501 -4.101 5
-3.057 -24.989 -4.166 6
-2.916 -23.687 -4.242 6
-2.793 -22.513 -4.315 5
-2.674 -21.413 -4.373 17
-2.577 -20.444 -4.441 9
-2.479 -19.569 -4.512 9
-2.398 -18.787 -4.59 7
-2.314 -18.009 -4.644 8
-2.24 -17.295 -4.7 8
-2.167 -16.618 -4.749 8
-2.101 -15.981 -4.795 9
-2.038 -15.397 -4.845 7
-1.976 -14.827 -4.884 8
-1.921 -14.294 -4.923 9
-1.871 -13.824 -4.981 5
-1.823 -13.356 -5.025 8
-1.769 -12.865 -5.039 8
-1.726 -12.446 -5.083 10
-1.681 -12.03 -5.114 10
-1.64 -11.633 -5.146 10
-1.599 -11.255 -5.177 11
-1.562 -10.896 -5.211 10
-1.225 -8.471 -3.618 12
-1.204 -8.259 -3.688 8
-1.182 -8.033 -3.74 10
-1.417 -9.546 -5.299 37
-4.121 -34.232 -3.036 30
-4.027 -33.192 -3.452 40
-3.944 -32.308 -3.867 14
-3.716 -30.204 -3.973 6
-3.499 -28.254 -4.044 6
-3.309 -26.518 -4.105 5
-3.14 -24.999 -4.168 7
-2.995 -23.697 -4.245 6
-2.868 -22.513 -4.315 5
-2.746 -21.42 -4.375 15
-2.646 -20.444 -4.441 9
-2.546 -19.573 -4.513 9
-2.463 -18.788 -4.591 8
-2.376 -18.005 -4.643 7
-2.3 -17.292 -4.699 8
-2.226 -16.623 -4.751 8
-2.157 -15.979 -4.793 9
-2.093 -15.395 -4.844 7
-2.028 -14.821 -4.881 7
-1.973 -14.296 -4.924 8
-1.922 -13.826 -4.982 4
-1.872 -13.351 -5.022 7
-1.816 -12.859 -5.036 8
-1.773 -12.448 -5.084 10
-1.726 -12.029 -5.113 9
-1.685 -11.633 -5.145 10
-1.643 -11.258 -5.179 11
-1.603 -10.885 -5.203 11
-1.245 -8.384 -3.55 9
-1.224 -8.176 -3.621 10
-1.204 -7.963 -3.682 7
-1.456 -9.549 -5.301 39
-4.209 -34.079 -3.009 5
-4.137 -33.238 -3.461 40
-4.048 -32.315 -3.869 14
-3.813 -30.2 -3.972 6
-3.59 -28.258 -4.046 6
-3.396 -26.519 -4.106 5
-3.222 -25.002 -4.169 6
-3.075 -23.707 -4.248 6
-2.944 -22.519 -4.317 5
-2.815 -21.401 -4.369 30
-2.715 -20.443 -4.441 8
-2.612 -19.573 -4.513 9
-2.528 -18.788 -4.591 8
-2.439 -18.009 -4.644 8
-2.361 -17.292 -4.699 8
-2.284 -16.62 -4.75 8
-2.214 -15.976 -4.792 9
-2.15 -15.41 -4.852 7
-2.083 -14.829 -4.885 7
-2.024 -14.291 -4.921 9
-1.972 -13.821 -4.979 8
-1.921 -13.353 -5.023 8
-1.865 -12.868 -5.041 8
-1.821 -12.453 -5.087 8
-1.772 -12.031 -5.115 10
-1.729 -11.634 -5.147 10
-1.687 -11.26 -5.181 10
-1.288 -8.515 -3.417 9
-1.265 -8.297 -3.482 6
-1.241 -8.078 -3.541 8
-1.532 -9.871 -5.282 11
-1.494 -9.542 -5.295 40
-4.344 -34.309 -3.05 2
-4.254 -33.339 -3.48 31
-4.15 -32.314 -3.869 12
-3.911 -30.212 -3.975 7
-3.682 -28.26 -4.046 5
-3.483 -26.528 -4.108 6
-3.305 -25.011 -4.172 7
-3.154 -23.713 -4.25 6
-3.019 -22.521 -4.318 5
-2.888 -21.404 -4.37 31
-2.785 -20.454 -4.444 9
-2.679 -19.573 -4.513 9
-2.593 -18.791 -4.592 8
-2.5 -18.002 -4.642 8
-2.422 -17.297 -4.701 8
-2.343 -16.621 -4.75 8
-2.27 -15.973 -4.791 9
-2.204 -15.403 -4.848 7
-2.136 -14.823 -4.882 7
-2.077 -14.295 -4.924 8
-2.023 -13.826 -4.982 8
-1.97 -13.351 -5.022 8
-1.912 -12.86 -5.036 7
-1.866 -12.445 -5.082 9
-1.818 -12.03 -5.114 9
-1.773 -11.63 -5.144 10
-1.73 -11.256 -5.178 12
