# .PCD v0.7 - Point Cloud Data file format
VERSION 0.7
FIELDS x y z intensity
SIZE 4 4 4 4
TYPE F F F F
COUNT 1 1 1 1
WIDTH 2176
HEIGHT 1
VIEWPOINT 0 0 0 1 0 0 0
POINTS 2176
DATA ascii
53.76 -8.836 -0.216 24
52.819 -8.2 -0.148 11
54.175 -8.015 -0.238 12
56.901 -8.089 -0.434 19
64.659 -8.942 -0.981 4
0.0 -0.0 3.0 0
78.346 -10.647 -2.193 6
71.567 -9.826 -2.006 6
63.867 -8.961 -1.765 7
7.344 -1.064 2.41 47
7.346 -1.106 2.362 63
7.345 -1.156 2.306 61
7.366 -1.214 2.241 62
7.365 -1.274 2.173 43
7.362 -1.336 2.099 30
7.356 -1.401 2.019 31
7.359 -1.468 1.933 39
7.372 -1.54 1.84 17
7.359 -1.606 1.745 25
7.367 -1.676 1.643 18
5.06 -1.198 1.995 5
4.804 -1.181 1.973 6
0.0 -0.0 3.0 0
0.0 -0.0 3.0 0
0.0 -0.0 3.0 0
0.0 -0.0 3.0 0
0.0 -0.0 3.0 0
0.0 -0.0 3.0 0
0.0 -0.0 3.0 0
0.0 -0.0 3.0 0
0.0 -0.0 3.0 0
0.0 -0.0 3.0 0
52.513 -8.77 -0.192 12
53.014 -8.376 -0.215 16
54.014 -8.144 -0.291 14
56.625 -8.213 -0.486 25
0.0 -0.0 3.0 0
92.577 -12.869 -3.001 13
0.0 -0.0 3.0 0
70.83 -9.922 -2.056 5
63.264 -9.046 -1.81 8
54.507 -8.037 -1.455 24
7.342 -1.123 2.352 64
7.346 -1.173 2.295 61
7.347 -1.227 2.233 61
7.365 -1.288 2.163 31
7.358 -1.349 2.09 41
7.356 -1.414 2.01 34
7.364 -1.482 1.923 23
7.365 -1.55 1.832 31
7.356 -1.616 1.738 35
7.363 -1.685 1.636 34
5.042 -1.2 1.993 5
4.79 -1.183 1.971 7
0.0 -0.0 3.0 0
0.0 -0.0 3.0 0
0.0 -0.0 3.0 0
0.0 -0.0 3.0 0
91.923 -22.49 -2.607 19
95.886 -22.058 -2.911 44
0.0 -0.0 3.0 0
111.644 -22.646 -3.923 49
110.701 -21.109 -3.859 15
0.0 -0.0 3.0 0
52.22 -8.859 -0.224 18
52.716 -8.473 -0.253 24
54.174 -8.322 -0.362 14
56.444 -8.35 -0.544 24
65.292 -9.41 -1.19 11
91.619 -13.003 -3.063 9
73.355 -10.39 -2.068 8
0.0 -0.0 3.0 0
62.621 -9.123 -1.851 7
54.137 -8.121 -1.502 18
7.343 -1.141 2.341 63
7.338 -1.188 2.286 62
7.344 -1.242 2.224 62
7.366 -1.304 2.153 41
7.362 -1.364 2.08 29
7.357 -1.427 2.001 32
7.36 -1.493 1.915 39
7.365 -1.561 1.824 35
7.364 -1.628 1.728 20
7.368 -1.696 1.627 18
5.021 -1.201 1.992 4
4.734 -1.176 1.978 4
0.0 -0.0 3.0 0
0.0 -0.0 3.0 0
0.0 -0.0 3.0 0
87.906 -23.03 -2.317 32
0.0 -0.0 3.0 0
0.0 -0.0 3.0 0
0.0 -0.0 3.0 0
0.0 -0.0 3.0 0
0.0 -0.0 3.0 0
111.274 -20.25 -3.973 9
52.158 -8.987 -0.271 13
52.702 -8.616 -0.307 20
53.015 -8.295 -0.351 13
56.649 -8.544 -0.627 4
0.0 -0.0 3.0 0
90.579 -13.12 -3.118 6
71.881 -10.388 -2.067 13
69.205 -10.082 -2.137 6
62.066 -9.21 -1.897 10
54.075 -8.252 -1.574 5
7.343 -1.16 2.331 44
7.346 -1.206 2.275 60
7.344 -1.257 2.214 61
7.366 -1.319 2.144 62
7.359 -1.377 2.071 43
7.361 -1.441 1.991 31
7.364 -1.506 1.906 21
7.361 -1.572 1.815 28
7.348 -1.636 1.722 36
7.36 -1.705 1.62 33
4.984 -1.199 1.994 1
4.713 -1.176 1.978 4
0.0 -0.0 3.0 0
0.0 -0.0 3.0 0
0.0 -0.0 3.0 0
0.0 -0.0 3.0 0
89.916 -22.369 -2.577 30
0.0 -0.0 3.0 0
96.626 -21.309 -3.11 44
0.0 -0.0 3.0 0
109.406 -21.399 -3.953 15
0.0 -0.0 3.0 0
52.376 -9.165 -0.336 8
51.903 -8.63 -0.313 26
52.964 -8.437 -0.409 25
56.687 -8.714 -0.699 25
0.0 -0.0 3.0 0
0.0 -0.0 3.0 0
70.944 -10.457 -2.1 9
68.385 -10.155 -2.174 6
61.474 -9.289 -1.939 8
54.087 -8.394 -1.653 3
50.392 -8.078 -1.664 10
7.347 -1.223 2.265 62
7.344 -1.274 2.204 62
7.347 -1.331 2.136 60
7.363 -1.392 2.061 28
7.353 -1.453 1.983 35
7.361 -1.518 1.897 33
7.369 -1.586 1.805 30
7.36 -1.649 1.711 19
7.368 -1.717 1.61 18
7.361 -1.781 1.505 19
4.696 -1.178 1.976 4
0.0 -0.0 3.0 0
0.0 -0.0 3.0 0
0.0 -0.0 3.0 0
85.94 -22.858 -2.277 35
0.0 -0.0 3.0 0
91.279 -21.591 -2.785 7
0.0 -0.0 3.0 0
0.0 -0.0 3.0 0
0.0 -0.0 3.0 0
0.0 -0.0 3.0 0
51.661 -9.178 -0.341 21
52.132 -8.814 -0.383 6
52.972 -8.589 -0.47 20
57.537 -9.013 -0.826 12
0.0 -0.0 3.0 0
65.749 -9.908 -1.62 21
70.19 -10.548 -2.145 14
67.549 -10.221 -2.208 7
60.828 -9.356 -1.975 8
0.0 -0.0 3.0 0
50.099 -8.155 -1.709 6
7.347 -1.241 2.254 60
7.352 -1.291 2.193 61
7.347 -1.346 2.126 63
7.363 -1.407 2.051 39
7.353 -1.467 1.973 29
7.361 -1.531 1.888 21
7.362 -1.596 1.797 28
7.356 -1.66 1.703 37
7.364 -1.727 1.602 33
7.361 -1.791 1.497 32
4.674 -1.178 1.976 3
0.0 -0.0 3.0 0
0.0 -0.0 3.0 0
0.0 -0.0 3.0 0
0.0 -0.0 3.0 0
87.901 -22.238 -2.544 35
90.264 -21.55 -2.774 9
96.629 -21.753 -3.238 18
57.765 -12.265 -0.75 4
0.0 -0.0 3.0 0
108.524 -20.594 -4.091 13
52.576 -9.484 -0.452 23
51.932 -8.924 -0.426 22
52.96 -8.74 -0.531 21
53.944 -8.607 -0.653 23
0.0 -0.0 3.0 0
0.0 -0.0 3.0 0
68.985 -10.567 -2.154 7
66.875 -10.307 -2.252 8
60.181 -9.421 -2.009 9
54.44 -8.733 -1.841 17
49.636 -8.203 -1.736 9
7.343 -1.258 2.244 44
7.348 -1.307 2.183 61
7.347 -1.361 2.116 62
7.363 -1.421 2.041 61
7.353 -1.481 1.963 37
7.365 -1.545 1.878 25
7.362 -1.608 1.788 26
7.356 -1.671 1.694 19
7.364 -1.738 1.593 18
7.365 -1.803 1.488 19
4.657 -1.18 1.974 3
0.0 -0.0 3.0 0
0.0 -0.0 3.0 0
81.903 -23.382 -1.97 17
83.928 -22.665 -2.233 32
0.0 -0.0 3.0 0
89.167 -21.487 -2.757 9
96.639 -21.981 -3.303 50
57.789 -12.41 -0.794 6
0.0 -0.0 3.0 0
0.0 -0.0 3.0 0
52.579 -9.628 -0.504 2
52.033 -9.087 -0.488 12
53.01 -8.899 -0.596 25
53.895 -8.757 -0.717 23
0.0 -0.0 3.0 0
0.0 -0.0 3.0 0
68.739 -10.727 -2.232 16
66.213 -10.392 -2.295 8
59.586 -9.491 -2.046 9
54.045 -8.811 -1.884 10
49.445 -8.296 -1.79 12
7.339 -1.274 2.234 0
7.352 -1.324 2.172 61
7.351 -1.377 2.106 62
7.34 -1.432 2.034 54
7.361 -1.496 1.953 26
7.368 -1.559 1.868 13
7.361 -1.621 1.779 31
7.356 -1.683 1.685 37
7.364 -1.748 1.584 30
7.369 -1.814 1.478 27
7.364 -1.876 1.37 8
0.0 -0.0 3.0 0
0.0 -0.0 3.0 0
0.0 -0.0 3.0 0
0.0 -0.0 3.0 0
85.923 -22.107 -2.512 34
88.09 -21.426 -2.741 8
0.0 -0.0 3.0 0
0.0 -0.0 3.0 0
0.0 -0.0 3.0 0
108.551 -21.171 -4.29 12
52.625 -9.78 -0.559 19
52.59 -9.333 -0.582 13
52.985 -9.049 -0.656 15
53.755 -8.891 -0.774 25
58.75 -9.502 -1.231 31
0.0 -0.0 3.0 0
66.071 -10.502 -2.122 44
65.515 -10.468 -2.334 9
58.936 -9.549 -2.077 9
53.591 -8.878 -1.921 11
49.068 -8.356 -1.824 6
38.034 -6.694 -1.022 12
7.348 -1.34 2.162 61
7.351 -1.393 2.095 62
7.343 -1.448 2.024 60
7.357 -1.509 1.943 36
7.376 -1.573 1.857 25
7.369 -1.635 1.768 26
7.36 -1.695 1.675 19
7.364 -1.759 1.575 18
7.373 -1.825 1.469 7
7.371 -1.888 1.359 18
0.0 -0.0 3.0 0
0.0 -0.0 3.0 0
79.879 -23.126 -1.916 27
0.0 -0.0 3.0 0
0.0 -0.0 3.0 0
87.091 -21.382 -2.729 8
96.629 -22.435 -3.433 45
0.0 -0.0 3.0 0
100.843 -20.999 -3.823 11
100.918 -19.95 -3.869 12
52.485 -9.899 -0.603 20
52.235 -9.417 -0.615 6
54.803 -9.517 -0.845 18
53.635 -9.028 -0.832 20
0.0 -0.0 3.0 0
0.0 -0.0 3.0 0
67.569 -10.937 -2.334 8
64.896 -10.553 -2.377 9
58.329 -9.61 -2.11 10
53.062 -8.931 -1.95 8
47.813 -8.263 -1.771 9
0.0 -0.0 3.0 0
7.348 -1.356 2.152 45
7.35 -1.409 2.085 62
7.343 -1.462 2.014 61
7.357 -1.523 1.933 56
7.372 -1.586 1.848 31
7.365 -1.646 1.759 33
7.36 -1.707 1.666 35
7.364 -1.771 1.566 28
7.376 -1.836 1.459 19
7.36 -1.894 1.353 27
0.0 -0.0 3.0 0
0.0 -0.0 3.0 0
0.0 -0.0 3.0 0
81.866 -22.626 -2.224 6
83.28 -21.794 -2.434 8
86.63 -21.469 -2.752 35
96.598 -22.66 -3.498 34
0.0 -0.0 3.0 0
0.0 -0.0 3.0 0
59.186 -11.859 -1.083 16
52.322 -10.012 -0.644 15
52.221 -9.563 -0.671 13
53.609 -9.464 -0.824 14
53.793 -9.212 -0.91 21
0.0 -0.0 3.0 0
58.939 -9.746 -1.545 9
67.401 -11.105 -2.416 7
64.218 -10.625 -2.414 10
57.742 -9.672 -2.143 9
52.616 -8.996 -1.986 10
47.575 -8.342 -1.816 11
0.0 -0.0 3.0 0
7.316 -1.368 2.145 0
7.346 -1.424 2.075 63
7.347 -1.478 2.003 61
7.341 -1.534 1.926 50
7.375 -1.6 1.837 17
7.368 -1.66 1.749 24
7.359 -1.719 1.657 19
7.363 -1.782 1.557 18
7.376 -1.847 1.45 24
7.367 -1.907 1.342 17
0.0 -0.0 3.0 0
75.918 -23.491 -1.566 29
77.871 -22.865 -1.86 30
0.0 -0.0 3.0 0
82.34 -21.732 -2.418 8
86.011 -21.515 -2.765 15
96.631 -22.9 -3.567 42
0.0 -0.0 3.0 0
0.0 -0.0 3.0 0
59.011 -11.982 -1.126 14
53.091 -10.306 -0.751 18
52.297 -9.725 -0.733 4
53.413 -9.585 -0.873 17
59.111 -10.298 -1.371 4
0.0 -0.0 3.0 0
58.728 -9.884 -1.609 8
73.083 -12.254 -2.977 10
63.544 -10.695 -2.449 11
57.123 -9.727 -2.172 10
52.131 -9.051 -2.017 11
47.23 -8.402 -1.851 9
0.0 -0.0 3.0 0
35.378 -6.696 -1.184 8
7.346 -1.44 2.065 62
7.343 -1.492 1.993 62
7.337 -1.548 1.916 60
7.367 -1.612 1.829 27
7.364 -1.672 1.74 34
7.355 -1.731 1.648 34
7.363 -1.794 1.547 27
7.371 -1.857 1.442 17
7.363 -1.916 1.334 26
0.0 -0.0 3.0 0
0.0 -0.0 3.0 0
0.0 -0.0 3.0 0
79.871 -22.421 -2.176 36
81.462 -21.685 -2.407 7
85.058 -21.476 -2.754 10
96.019 -22.989 -3.592 13
0.0 -0.0 3.0 0
0.0 -0.0 3.0 0
59.199 -12.18 -1.194 8
53.545 -10.543 -0.837 5
52.352 -9.885 -0.794 18
54.033 -9.853 -0.981 16
54.135 -9.59 -1.071 3
57.763 -10.024 -1.463 9
58.796 -10.069 -1.695 13
72.081 -12.296 -2.997 10
62.867 -10.759 -2.482 9
56.591 -9.793 -2.207 9
51.622 -9.1 -2.044 9
46.826 -8.45 -1.879 8
0.0 -0.0 3.0 0
35.369 -6.776 -1.234 15
7.349 -1.457 2.054 52
7.346 -1.508 1.983 61
7.34 -1.563 1.906 60
7.363 -1.625 1.82 42
7.364 -1.685 1.73 20
7.362 -1.744 1.637 18
7.366 -1.806 1.538 18
7.371 -1.868 1.433 23
7.366 -1.927 1.324 17
0.0 -0.0 3.0 0
74.444 -23.338 -1.537 20
0.0 -0.0 3.0 0
0.0 -0.0 3.0 0
80.65 -21.652 -2.399 8
86.627 -22.078 -2.916 38
94.902 -22.955 -3.582 9
0.0 -0.0 3.0 0
0.0 -0.0 3.0 0
59.108 -12.322 -1.243 6
52.993 -10.583 -0.852 17
51.419 -9.856 -0.783 7
53.851 -9.977 -1.031 8
53.133 -9.569 -1.062 24
53.726 -9.483 -1.222 13
0.0 -0.0 3.0 0
71.296 -12.37 -3.033 9
62.307 -10.842 -2.524 11
56.059 -9.857 -2.241 9
51.152 -9.155 -2.075 9
46.411 -8.495 -1.904 8
0.0 -0.0 3.0 0
35.359 -6.857 -1.285 32
7.333 -1.47 2.045 0
7.342 -1.523 1.973 62
7.34 -1.577 1.895 60
7.351 -1.636 1.811 46
7.367 -1.699 1.72 31
7.358 -1.756 1.628 32
7.362 -1.817 1.529 26
7.367 -1.878 1.424 26
7.362 -1.937 1.316 26
0.0 -0.0 3.0 0
0.0 -0.0 3.0 0
75.914 -22.774 -1.841 29
77.824 -22.19 -2.123 28
0.0 -0.0 3.0 0
86.601 -22.278 -2.969 40
93.766 -22.912 -3.57 13
0.0 -0.0 3.0 0
0.0 -0.0 3.0 0
53.396 -11.277 -0.883 7
52.683 -10.668 -0.883 23
51.345 -9.989 -0.835 4
52.725 -9.923 -1.009 21
53.187 -9.736 -1.133 24
0.0 -0.0 3.0 0
0.0 -0.0 3.0 0
58.767 -10.367 -2.056 32
61.633 -10.901 -2.554 15
55.563 -9.924 -2.277 9
50.737 -9.217 -2.109 10
46.042 -8.547 -1.934 7
0.0 -0.0 3.0 0
35.338 -6.936 -1.334 28
0.0 -0.0 3.0 0
7.353 -1.541 1.961 62
7.343 -1.593 1.885 60
7.343 -1.648 1.803 59
7.363 -1.711 1.711 19
7.357 -1.768 1.619 18
7.365 -1.83 1.518 19
7.366 -1.89 1.414 19
7.368 -1.949 1.306 17
70.455 -23.504 -1.144 52
72.445 -23.014 -1.473 40
0.0 -0.0 3.0 0
0.0 -0.0 3.0 0
78.891 -21.545 -2.372 7
0.0 -0.0 3.0 0
92.762 -22.898 -3.566 12
0.0 -0.0 3.0 0
97.742 -21.891 -4.113 13
101.303 -21.673 -4.462 12
52.783 -10.838 -0.945 21
52.374 -10.34 -0.969 12
52.943 -10.119 -1.088 20
54.396 -10.118 -1.295 22
53.766 -9.809 -1.367 11
57.755 -10.403 -1.851 25
58.734 -10.533 -2.137 3
60.956 -10.956 -2.582 15
55.07 -9.989 -2.311 8
50.33 -9.279 -2.143 10
45.686 -8.599 -1.964 7
0.0 -0.0 3.0 0
35.339 -7.02 -1.387 3
0.0 -0.0 3.0 0
7.344 -1.555 1.951 55
7.342 -1.607 1.874 60
7.346 -1.663 1.792 58
7.37 -1.726 1.699 40
7.357 -1.781 1.609 30
7.36 -1.841 1.51 26
7.369 -1.902 1.404 25
7.364 -1.959 1.297 25
0.0 -0.0 3.0 0
0.0 -0.0 3.0 0
74.417 -22.65 -1.814 18
75.706 -21.928 -2.063 9
78.044 -21.497 -2.36 6
86.62 -22.702 -3.083 40
91.616 -22.844 -3.55 21
0.0 -0.0 3.0 0
97.482 -22.094 -4.179 13
99.415 -21.543 -4.418 11
52.433 -10.915 -0.973 16
52.305 -10.478 -1.022 20
53.117 -10.308 -1.165 18
0.0 -0.0 3.0 0
0.0 -0.0 3.0 0
0.0 -0.0 3.0 0
68.757 -12.532 -3.112 5
60.311 -11.013 -2.611 14
54.581 -10.053 -2.345 10
49.88 -9.331 -2.172 9
45.372 -8.657 -1.998 8
0.0 -0.0 3.0 0
35.726 -7.183 -1.488 6
0.0 -0.0 3.0 0
7.336 -1.569 1.942 0
7.342 -1.622 1.864 60
7.345 -1.677 1.781 59
7.357 -1.737 1.691 49
7.36 -1.794 1.598 18
7.363 -1.853 1.499 19
7.361 -1.912 1.396 18
7.367 -1.971 1.287 16
0.0 -0.0 3.0 0
0.0 -0.0 3.0 0
0.0 -0.0 3.0 0
74.868 -21.857 -2.046 12
77.24 -21.458 -2.35 8
86.607 -22.91 -3.139 41
0.0 -0.0 3.0 0
0.0 -0.0 3.0 0
0.0 -0.0 3.0 0
98.875 -21.699 -4.472 7
52.891 -11.159 -1.062 12
52.436 -10.656 -1.09 8
53.001 -10.442 -1.219 24
0.0 -0.0 3.0 0
0.0 -0.0 3.0 0
0.0 -0.0 3.0 0
57.833 -10.71 -2.223 5
59.763 -11.085 -2.648 16
54.092 -10.115 -2.378 9
49.441 -9.383 -2.201 8
45.03 -8.71 -2.029 8
0.0 -0.0 3.0 0
35.38 -7.198 -1.498 3
0.0 -0.0 3.0 0
0.0 -0.0 3.0 0
7.345 -1.638 1.853 60
7.344 -1.692 1.771 58
7.345 -1.747 1.683 58
7.359 -1.807 1.588 29
7.363 -1.865 1.489 25
7.371 -1.926 1.384 24
7.362 -1.981 1.278 25
68.399 -23.243 -1.098 32
70.41 -22.819 -1.436 42
72.451 -22.374 -1.756 42
74.114 -21.808 -2.035 9
0.0 -0.0 3.0 0
86.616 -23.126 -3.197 40
0.0 -0.0 3.0 0
99.416 -24.129 -4.377 12
98.619 -22.884 -4.435 14
98.893 -21.979 -4.568 9
53.02 -11.338 -1.127 21
52.027 -10.724 -1.117 13
52.943 -10.586 -1.277 21
0.0 -0.0 3.0 0
0.0 -0.0 3.0 0
53.791 -10.167 -1.741 20
57.768 -10.867 -2.3 31
58.722 -11.061 -2.636 30
53.631 -10.179 -2.412 9
49.058 -9.444 -2.235 11
44.685 -8.761 -2.058 19
0.0 -0.0 3.0 0
35.385 -7.284 -1.552 7
0.0 -0.0 3.0 0
26.691 -5.824 -0.929 2
7.34 -1.653 1.843 58
7.347 -1.707 1.76 57
7.352 -1.763 1.672 58
7.354 -1.819 1.579 21
7.365 -1.878 1.479 8
7.363 -1.936 1.376 18
7.369 -1.994 1.266 17
0.0 -0.0 3.0 0
0.0 -0.0 3.0 0
0.0 -0.0 3.0 0
73.357 -21.756 -2.023 9
0.0 -0.0 3.0 0
86.034 -23.185 -3.212 13
0.0 -0.0 3.0 0
99.315 -24.367 -4.45 21
0.0 -0.0 3.0 0
98.609 -22.191 -4.641 13
100.448 -21.767 -4.923 11
51.786 -10.826 -1.156 18
0.0 -0.0 3.0 0
93.765 -18.556 -4.877 6
0.0 -0.0 3.0 0
53.759 -10.321 -1.813 6
0.0 -0.0 3.0 0
58.699 -11.225 -2.72 11
53.154 -10.238 -2.444 10
48.733 -9.514 -2.274 10
44.43 -8.828 -2.097 10
0.0 -0.0 3.0 0
35.385 -7.369 -1.605 10
29.308 -6.276 -1.076 1
26.67 -5.878 -0.965 8
7.343 -1.669 1.832 0
7.35 -1.722 1.749 57
7.347 -1.776 1.662 58
7.353 -1.832 1.568 47
7.38 -1.895 1.466 17
7.369 -1.949 1.364 24
7.36 -2.003 1.259 26
0.0 -0.0 3.0 0
0.0 -0.0 3.0 0
70.449 -22.075 -1.692 15
72.501 -21.672 -2.003 8
75.613 -21.552 -2.374 12
85.114 -23.15 -3.203 9
0.0 -0.0 3.0 0
125.33 -31.083 -6.503 21
96.403 -22.897 -4.44 9
98.532 -22.45 -4.73 17
0.0 -0.0 3.0 0
51.735 -10.966 -1.209 13
96.209 -19.807 -5.003 7
0.0 -0.0 3.0 0
0.0 -0.0 3.0 0
0.0 -0.0 3.0 0
65.824 -12.771 -3.229 4
56.35 -10.939 -2.574 15
52.697 -10.298 -2.476 10
48.407 -9.583 -2.312 12
44.061 -8.871 -2.122 7
0.0 -0.0 3.0 0
35.388 -7.457 -1.659 12
0.0 -0.0 3.0 0
26.636 -5.93 -1.0 7
26.489 -6.076 -1.254 1
7.349 -1.737 1.738 59
7.346 -1.79 1.651 58
7.341 -1.843 1.56 59
7.371 -1.905 1.457 20
7.364 -1.96 1.355 18
7.37 -2.017 1.246 16
66.396 -22.989 -1.054 42
68.402 -22.622 -1.397 38
69.621 -21.975 -1.671 10
71.725 -21.611 -1.989 9
75.73 -21.771 -2.428 8
84.236 -23.124 -3.196 11
0.0 -0.0 3.0 0
125.318 -31.416 -6.605 19
0.0 -0.0 3.0 0
0.0 -0.0 3.0 0
98.782 -21.974 -4.998 12
51.735 -11.117 -1.268 22
0.0 -0.0 3.0 0
0.0 -0.0 3.0 0
0.0 -0.0 3.0 0
0.0 -0.0 3.0 0
53.733 -10.583 -2.161 31
56.327 -11.098 -2.655 12
52.192 -10.348 -2.502 10
48.032 -9.641 -2.344 9
43.708 -8.916 -2.148 16
0.0 -0.0 3.0 0
35.384 -7.542 -1.713 3
0.0 -0.0 3.0 0
26.63 -5.988 -1.039 2
0.0 -0.0 3.0 0
7.348 -1.752 1.727 57
7.348 -1.804 1.64 57
7.336 -1.855 1.551 58
7.37 -1.918 1.447 15
7.371 -1.974 1.343 24
7.365 -2.028 1.238 28
0.0 -0.0 3.0 0
0.0 -0.0 3.0 0
68.949 -21.923 -1.66 13
71.011 -21.565 -1.979 10
75.827 -21.986 -2.482 21
83.404 -23.096 -3.189 12
121.541 -32.184 -6.228 12
125.331 -31.757 -6.709 21
95.395 -23.183 -4.533 10
96.784 -22.599 -4.782 12
99.748 -22.461 -5.175 18
51.96 -11.318 -1.345 2
0.0 -0.0 3.0 0
0.0 -0.0 3.0 0
0.0 -0.0 3.0 0
0.0 -0.0 3.0 0
64.43 -12.88 -3.282 3
54.665 -10.929 -2.569 6
51.743 -10.405 -2.532 10
47.582 -9.681 -2.366 8
43.444 -8.978 -2.183 23
0.0 -0.0 3.0 0
35.46 -7.645 -1.777 1
0.0 -0.0 3.0 0
0.0 -0.0 3.0 0
26.422 -6.173 -1.322 1
7.35 -1.767 1.717 2
7.351 -1.82 1.629 58
7.338 -1.869 1.54 59
7.361 -1.929 1.438 58
7.365 -1.985 1.334 17
7.371 -2.041 1.226 15
0.0 -0.0 3.0 0
0.0 -0.0 3.0 0
68.235 -21.856 -1.646 10
70.915 -21.707 -2.011 12
75.816 -22.171 -2.528 11
82.596 -23.083 -3.185 9
0.0 -0.0 3.0 0
85.952 -22.012 -3.73 14
89.251 -21.938 -4.128 15
95.451 -22.558 -4.767 6
100.043 -22.818 -5.305 10
0.0 -0.0 3.0 0
0.0 -0.0 3.0 0
0.0 -0.0 3.0 0
0.0 -0.0 3.0 0
0.0 -0.0 3.0 0
0.0 -0.0 3.0 0
53.745 -10.901 -2.554 18
51.22 -10.445 -2.554 10
46.964 -9.685 -2.368 16
43.169 -9.036 -2.217 7
39.875 -8.509 -2.113 9
35.443 -7.729 -1.83 1
0.0 -0.0 3.0 0
0.0 -0.0 3.0 0
26.415 -6.229 -1.361 2
0.0 -0.0 3.0 0
7.35 -1.834 1.618 58
7.341 -1.884 1.528 58
7.341 -1.936 1.432 59
7.368 -1.998 1.323 24
7.37 -2.053 1.216 25
64.437 -22.737 -1.009 57
66.396 -22.412 -1.356 41
67.631 -21.822 -1.638 10
70.372 -21.712 -2.013 11
77.166 -22.759 -2.675 21
81.631 -23.024 -3.169 40
0.0 -0.0 3.0 0
85.547 -22.14 -3.769 13
90.391 -22.47 -4.301 14
91.234 -21.823 -4.514 16
100.224 -23.151 -5.426 13
51.832 -11.596 -1.451 10
0.0 -0.0 3.0 0
0.0 -0.0 3.0 0
0.0 -0.0 3.0 0
0.0 -0.0 3.0 0
63.036 -12.974 -3.328 4
53.742 -11.057 -2.634 25
50.767 -10.497 -2.581 11
46.655 -9.75 -2.405 15
42.789 -9.071 -2.237 7
39.544 -8.541 -2.132 13
36.688 -8.092 -2.057 6
0.0 -0.0 3.0 0
26.555 -6.152 -1.149 1
26.393 -6.281 -1.398 3
26.412 -6.459 -1.692 1
7.352 -1.849 1.607 57
7.339 -1.897 1.518 57
7.343 -1.95 1.421 58
7.363 -2.01 1.314 17
7.369 -2.065 1.205 15
0.0 -0.0 3.0 0
0.0 -0.0 3.0 0
66.982 -21.773 -1.628 10
69.662 -21.664 -2.002 13
77.16 -22.952 -2.723 28
80.908 -23.03 -3.171 14
0.0 -0.0 3.0 0
0.0 -0.0 3.0 0
85.136 -21.402 -3.954 10
0.0 -0.0 3.0 0
0.0 -0.0 3.0 0
110.874 -25.135 -6.648 13
0.0 -0.0 3.0 0
0.0 -0.0 3.0 0
0.0 -0.0 3.0 0
0.0 -0.0 3.0 0
62.36 -13.02 -3.35 3
54.182 -11.306 -2.76 17
50.384 -10.561 -2.615 11
46.189 -9.781 -2.422 8
42.494 -9.122 -2.267 25
39.213 -8.571 -2.15 14
36.53 -8.148 -2.092 15
0.0 -0.0 3.0 0
26.547 -6.211 -1.189 2
0.0 -0.0 3.0 0
0.0 -0.0 3.0 0
7.347 -1.862 1.597 10
7.342 -1.911 1.507 57
7.341 -1.963 1.41 58
7.365 -2.023 1.303 54
7.367 -2.076 1.195 24
0.0 -0.0 3.0 0
64.411 -22.041 -1.284 9
66.258 -21.696 -1.612 10
68.891 -21.594 -1.985 7
77.172 -23.151 -2.772 36
80.112 -23.013 -3.166 11
0.0 -0.0 3.0 0
85.094 -22.49 -3.876 9
85.085 -21.63 -4.028 7
95.159 -23.308 -5.025 8
0.0 -0.0 3.0 0
0.0 -0.0 3.0 0
0.0 -0.0 3.0 0
0.0 -0.0 3.0 0
0.0 -0.0 3.0 0
0.0 -0.0 3.0 0
61.664 -13.058 -3.369 3
54.088 -11.444 -2.831 15
50.02 -10.628 -2.651 10
45.81 -9.828 -2.448 18
42.269 -9.188 -2.305 17
38.929 -8.61 -2.174 13
36.267 -8.181 -2.112 14
0.0 -0.0 3.0 0
26.52 -6.266 -1.226 9
0.0 -0.0 3.0 0
0.0 -0.0 3.0 0
20.886 -5.335 -1.02 0
7.344 -1.926 1.495 57
7.347 -1.978 1.398 58
7.348 -2.031 1.296 48
7.373 -2.09 1.183 15
62.461 -22.465 -0.961 12
63.808 -21.985 -1.273 10
65.629 -21.649 -1.602 14
71.446 -22.573 -2.211 38
75.842 -22.947 -2.721 21
0.0 -0.0 3.0 0
0.0 -0.0 3.0 0
84.969 -22.692 -3.938 9
84.195 -21.641 -4.032 10
89.687 -22.226 -4.653 10
0.0 -0.0 3.0 0
35.766 -8.321 -0.194 5
0.0 -0.0 3.0 0
0.0 -0.0 3.0 0
0.0 -0.0 3.0 0
0.0 -0.0 3.0 0
61.065 -13.113 -3.395 3
54.511 -11.692 -2.958 2
49.719 -10.706 -2.693 12
45.485 -9.885 -2.479 10
41.881 -9.217 -2.321 5
38.649 -8.649 -2.197 12
36.02 -8.216 -2.134 14
0.0 -0.0 3.0 0
26.489 -6.32 -1.263 11
0.0 -0.0 3.0 0
26.434 -6.631 -1.818 3
20.79 -5.354 -1.034 0
7.346 -1.941 1.483 56
7.342 -1.99 1.388 57
7.347 -2.044 1.285 58
7.368 -2.101 1.173 23
62.425 -22.597 -0.984 21
63.261 -21.947 -1.266 12
64.999 -21.6 -1.591 13
71.445 -22.752 -2.253 43
75.846 -23.143 -2.77 39
78.047 -22.831 -3.118 11
85.962 -24.142 -3.923 16
84.978 -22.93 -4.01 15
83.78 -21.773 -4.075 9
89.677 -22.484 -4.742 14
0.0 -0.0 3.0 0
35.743 -8.422 -0.233 6
0.0 -0.0 3.0 0
0.0 -0.0 3.0 0
0.0 -0.0 3.0 0
0.0 -0.0 3.0 0
60.374 -13.144 -3.411 3
55.177 -11.997 -3.113 6
49.468 -10.794 -2.74 13
45.028 -9.912 -2.494 8
41.508 -9.248 -2.339 18
38.326 -8.678 -2.214 10
35.765 -8.248 -2.154 13
29.383 -6.922 -1.495 0
26.477 -6.378 -1.302 9
0.0 -0.0 3.0 0
26.422 -6.684 -1.856 9
20.721 -5.378 -1.052 0
7.341 -1.954 1.473 24
7.348 -2.006 1.376 57
7.356 -2.059 1.272 57
7.369 -2.114 1.162 30
0.0 -0.0 3.0 0
62.64 -21.881 -1.253 12
64.45 -21.576 -1.586 11
67.986 -21.822 -2.038 6
75.441 -23.215 -2.788 32
78.022 -23.031 -3.171 34
83.971 -23.812 -3.828 7
82.816 -22.578 -3.903 12
85.96 -22.585 -4.338 12
0.0 -0.0 3.0 0
37.058 -9.105 -0.314 2
0.0 -0.0 3.0 0
0.0 -0.0 3.0 0
80.946 -18.455 -4.834 90
0.0 -0.0 3.0 0
66.041 -14.657 -3.835 4
59.788 -13.195 -3.435 3
54.603 -12.033 -3.131 8
49.162 -10.869 -2.779 11
44.656 -9.955 -2.518 17
41.264 -9.305 -2.373 27
38.049 -8.715 -2.236 10
35.53 -8.283 -2.176 14
0.0 -0.0 3.0 0
26.46 -6.437 -1.341 18
0.0 -0.0 3.0 0
26.41 -6.738 -1.896 4
20.614 -5.392 -1.064 0
20.558 -5.513 -1.307 0
7.35 -2.02 1.364 57
7.351 -2.071 1.262 56
7.356 -2.123 1.154 47
0.0 -0.0 3.0 0
62.053 -21.827 -1.243 16
64.483 -21.746 -1.622 15
71.422 -23.108 -2.335 37
74.902 -23.245 -2.796 12
0.0 -0.0 3.0 0
82.686 -23.675 -3.789 8
82.594 -22.749 -3.955 20
0.0 -0.0 3.0 0
88.678 -22.75 -4.833 5
36.024 -8.958 -0.26 6
100.876 -24.374 -6.356 10
0.0 -0.0 3.0 0
0.0 -0.0 3.0 0
0.0 -0.0 3.0 0
65.345 -14.7 -3.855 3
59.21 -13.244 -3.46 3
54.006 -12.06 -3.145 9
49.031 -10.981 -2.839 12
44.389 -10.021 -2.555 10
41.031 -9.365 -2.407 9
37.788 -8.756 -2.261 12
35.31 -8.322 -2.2 16
0.0 -0.0 3.0 0
26.444 -6.495 -1.381 38
0.0 -0.0 3.0 0
26.409 -6.795 -1.937 3
20.56 -5.422 -1.085 0
20.429 -5.518 -1.311 0
7.348 -2.034 1.353 56
7.352 -2.085 1.251 57
7.347 -2.133 1.146 57
60.462 -22.312 -0.934 58
61.488 -21.777 -1.233 17
63.911 -21.713 -1.615 14
71.43 -23.293 -2.378 43
74.15 -23.206 -2.786 10
76.25 -22.918 -3.141 16
82.445 -23.833 -3.834 6
83.655 -23.277 -4.117 23
0.0 -0.0 3.0 0
35.731 -9.271 -0.192 5
36.092 -9.081 -0.305 5
35.637 -8.718 -0.347 6
0.0 -0.0 3.0 0
0.0 -0.0 3.0 0
0.0 -0.0 3.0 0
64.646 -14.738 -3.873 3
58.613 -13.286 -3.48 3
53.494 -12.104 -3.167 9
48.361 -10.971 -2.834 8
44.072 -10.073 -2.584 7
40.69 -9.398 -2.426 7
37.55 -8.8 -2.287 11
35.089 -8.36 -2.224 13
0.0 -0.0 3.0 0
0.0 -0.0 3.0 0
0.0 -0.0 3.0 0
26.495 -6.875 -1.995 2
20.533 -5.457 -1.112 2
0.0 -0.0 3.0 0
7.342 -2.046 1.343 42
7.354 -2.099 1.239 57
7.349 -2.146 1.134 57
59.332 -22.038 -0.886 8
60.928 -21.728 -1.223 12
63.308 -21.668 -1.606 16
71.403 -23.468 -2.418 29
73.418 -23.171 -2.777 10
75.651 -22.943 -3.147 9
77.702 -22.676 -3.502 24
84.056 -23.627 -4.223 12
82.557 -22.403 -4.279 13
84.359 -22.137 -4.622 15
35.979 -9.16 -0.334 3
35.941 -8.901 -0.417 10
35.89 -8.683 -0.508 15
0.0 -0.0 3.0 0
0.0 -0.0 3.0 0
63.978 -14.78 -3.892 4
57.989 -13.318 -3.496 3
53.184 -12.191 -3.211 22
47.905 -11.006 -2.852 7
43.677 -10.106 -2.602 16
40.426 -9.449 -2.455 7
37.312 -8.843 -2.314 10
34.869 -8.398 -2.247 14
0.0 -0.0 3.0 0
0.0 -0.0 3.0 0
0.0 -0.0 3.0 0
27.143 -7.103 -2.161 14
20.521 -5.497 -1.142 7
20.397 -5.592 -1.369 0
18.744 -5.26 -1.259 1
7.352 -2.112 1.228 56
7.347 -2.159 1.123 56
58.82 -21.99 -0.877 12
60.383 -21.683 -1.215 12
62.585 -21.579 -1.587 6
70.717 -23.426 -2.408 15
72.678 -23.132 -2.767 11
75.033 -22.96 -3.152 49
77.161 -22.734 -3.519 15
82.393 -23.394 -4.152 11
82.425 -22.606 -4.345 8
35.362 -9.384 -0.231 2
35.228 -9.075 -0.303 2
35.769 -8.966 -0.442 5
35.877 -8.789 -0.551 8
0.0 -0.0 3.0 0
0.0 -0.0 3.0 0
63.264 -14.807 -3.905 3
57.384 -13.352 -3.512 3
52.809 -12.261 -3.247 9
47.425 -11.034 -2.867 6
43.422 -10.17 -2.637 22
40.073 -9.476 -2.471 8
37.051 -8.88 -2.336 11
34.618 -8.426 -2.265 13
0.0 -0.0 3.0 0
0.0 -0.0 3.0 0
0.0 -0.0 3.0 0
27.004 -7.126 -2.177 14
20.508 -5.537 -1.172 4
0.0 -0.0 3.0 0
18.627 -5.263 -1.262 0
7.354 -2.126 1.216 56
7.348 -2.172 1.112 55
58.339 -21.951 -0.871 15
59.823 -21.631 -1.205 16
66.458 -23.084 -1.907 44
70.065 -23.394 -2.401 13
71.988 -23.105 -2.761 11
75.033 -23.165 -3.207 23
76.991 -22.899 -3.566 13
0.0 -0.0 3.0 0
82.73 -22.931 -4.451 10
34.694 -9.309 -0.205 7
36.741 -9.575 -0.485 8
35.5 -9.007 -0.457 10
37.242 -9.237 -0.732 18
0.0 -0.0 3.0 0
0.0 -0.0 3.0 0
62.563 -14.833 -3.917 3
56.804 -13.388 -3.53 3
52.062 -12.242 -3.237 7
47.004 -11.072 -2.887 7
43.089 -10.215 -2.662 6
39.871 -9.539 -2.507 16
36.805 -8.92 -2.36 11
34.406 -8.464 -2.289 13
0.0 -0.0 3.0 0
0.0 -0.0 3.0 0
26.29 -6.849 -1.796 4
24.261 -6.456 -1.691 1
20.506 -5.58 -1.205 1
0.0 -0.0 3.0 0
18.537 -5.274 -1.271 0
7.355 -2.14 1.204 54
7.35 -2.186 1.099 57
57.797 -21.889 -0.86 15
59.308 -21.594 -1.197 17
66.444 -23.25 -1.942 41
69.413 -23.358 -2.393 11
0.0 -0.0 3.0 0
74.137 -23.092 -3.187 4
76.831 -23.068 -3.615 11
81.733 -23.675 -4.238 10
80.685 -22.601 -4.343 10
34.696 -9.412 -0.241 1
35.39 -9.329 -0.396 2
36.277 -9.314 -0.575 6
37.254 -9.355 -0.78 17
0.0 -0.0 3.0 0
0.0 -0.0 3.0 0
61.881 -14.86 -3.929 4
56.2 -13.415 -3.543 4
51.532 -12.27 -3.252 6
46.591 -11.11 -2.907 7
42.691 -10.241 -2.677 9
39.549 -9.572 -2.526 15
36.536 -8.953 -2.379 11
34.212 -8.505 -2.315 14
0.0 -0.0 3.0 0
0.0 -0.0 3.0 0
26.356 -6.928 -1.851 3
24.241 -6.505 -1.726 1
0.0 -0.0 3.0 0
20.389 -5.714 -1.465 0
18.462 -5.289 -1.283 0
8.519 -2.495 0.907 3
7.351 -2.2 1.088 56
57.327 -21.853 -0.853 17
59.262 -21.727 -1.223 9
61.982 -21.849 -1.644 7
68.769 -23.324 -2.385 14
0.0 -0.0 3.0 0
75.033 -23.579 -3.318 19
77.076 -23.359 -3.698 11
82.234 -24.057 -4.355 7
35.244 -9.975 -0.241 8
35.274 -9.675 -0.331 10
35.314 -9.415 -0.427 8
35.553 -9.237 -0.546 7
35.961 -9.14 -0.693 4
0.0 -0.0 3.0 0
0.0 -0.0 3.0 0
61.219 -14.887 -3.942 3
55.655 -13.452 -3.561 3
51.087 -12.315 -3.275 6
46.189 -11.149 -2.928 7
42.424 -10.299 -2.709 24
39.219 -9.6 -2.543 10
36.294 -8.991 -2.403 11
34.011 -8.545 -2.339 13
0.0 -0.0 3.0 0
0.0 -0.0 3.0 0
26.285 -6.971 -1.881 3
24.213 -6.552 -1.761 255
0.0 -0.0 3.0 0
20.349 -5.746 -1.489 2
18.379 -5.302 -1.293 0
0.0 -0.0 3.0 0
7.352 -2.214 1.076 55
56.835 -21.807 -0.845 16
58.945 -21.761 -1.23 17
66.411 -23.584 -2.013 9
68.148 -23.295 -2.378 13
0.0 -0.0 3.0 0
75.026 -23.786 -3.373 30
77.006 -23.557 -3.755 15
80.582 -23.807 -4.279 7
34.939 -9.992 -0.247 7
35.497 -9.842 -0.389 3
35.434 -9.555 -0.478 4
35.353 -9.293 -0.567 9
36.821 -9.472 -0.827 9
0.0 -0.0 3.0 0
0.0 -0.0 3.0 0
60.534 -14.906 -3.951 4
55.133 -13.493 -3.581 3
50.55 -12.337 -3.286 11
45.807 -11.191 -2.95 7
42.157 -10.354 -2.74 12
38.832 -9.614 -2.551 9
36.056 -9.03 -2.426 11
33.772 -8.572 -2.357 12
27.562 -7.11 -1.617 1
0.0 -0.0 3.0 0
26.289 -7.034 -1.925 10
24.197 -6.602 -1.797 189
0.0 -0.0 3.0 0
20.324 -5.781 -1.517 6
18.303 -5.316 -1.305 0
17.99 -5.338 -1.479 0
7.354 -2.228 1.063 54
56.387 -21.776 -0.84 15
58.442 -21.725 -1.223 20
65.79 -23.535 -2.003 15
67.535 -23.267 -2.372 15
0.0 -0.0 3.0 0
75.037 -24.0 -3.431 25
76.841 -23.727 -3.803 10
81.719 -24.381 -4.454 8
80.908 -23.377 -4.596 8
35.087 -9.833 -0.386 7
35.515 -9.684 -0.525 2
35.331 -9.395 -0.607 10
36.759 -9.569 -0.866 1
0.0 -0.0 3.0 0
0.0 -0.0 3.0 0
59.934 -14.941 -3.967 4
54.557 -13.517 -3.593 3
50.013 -12.355 -3.295 8
45.448 -11.236 -2.974 8
41.759 -10.376 -2.752 6
38.63 -9.672 -2.584 14
35.803 -9.064 -2.446 11
33.509 -8.594 -2.37 11
27.446 -7.15 -1.643 0
0.0 -0.0 3.0 0
26.293 -7.097 -1.969 3
26.331 -7.245 -2.264 14
0.0 -0.0 3.0 0
20.318 -5.822 -1.549 6
18.228 -5.332 -1.318 0
17.993 -5.374 -1.509 0
7.366 -2.245 1.048 15
55.873 -21.719 -0.83 14
57.935 -21.686 -1.215 22
65.226 -23.506 -1.996 14
66.455 -23.075 -2.327 34
0.0 -0.0 3.0 0
74.194 -23.938 -3.414 10
77.098 -24.027 -3.89 6
80.645 -24.295 -4.428 6
35.547 -10.377 -0.372 9
34.991 -9.912 -0.413 6
36.593 -10.09 -0.672 8
35.88 -9.651 -0.705 4
0.0 -0.0 3.0 0
0.0 -0.0 3.0 0
65.402 -16.684 -4.428 3
59.377 -14.985 -3.988 4
54.036 -13.552 -3.61 4
49.508 -12.378 -3.307 7
45.135 -11.292 -3.004 9
41.458 -10.42 -2.776 22
38.312 -9.7 -2.6 13
35.569 -9.102 -2.469 12
33.262 -8.619 -2.386 11
27.327 -7.189 -1.669 0
0.0 -0.0 3.0 0
26.301 -7.162 -2.015 5
26.195 -7.267 -2.28 19
0.0 -0.0 3.0 0
19.144 -5.526 -1.317 2
18.171 -5.352 -1.334 1
17.966 -5.401 -1.532 0
7.767 -2.382 0.929 3
55.422 -21.685 -0.824 18
57.148 -21.54 -1.187 15
64.681 -23.482 -1.991 13
0.0 -0.0 3.0 0
0.0 -0.0 3.0 0
74.849 -24.362 -3.528 11
77.718 -24.444 -4.009 12
35.644 -10.843 -0.315 10
35.497 -10.467 -0.401 7
34.872 -9.984 -0.438 6
34.402 -9.59 -0.491 10
35.488 -9.655 -0.706 4
0.0 -0.0 3.0 0
36.867 -9.649 -1.096 15
64.663 -16.695 -4.433 3
58.717 -14.998 -3.994 4
53.534 -13.589 -3.628 4
49.045 -12.41 -3.323 7
44.796 -11.339 -3.029 9
41.237 -10.484 -2.812 31
38.072 -9.746 -2.627 17
35.338 -9.14 -2.492 11
33.034 -8.647 -2.403 11
0.0 -0.0 3.0 0
0.0 -0.0 3.0 0
26.278 -7.218 -2.054 7
26.066 -7.292 -2.298 18
0.0 -0.0 3.0 0
19.018 -5.53 -1.321 1
18.118 -5.373 -1.351 0
17.984 -5.442 -1.566 0
7.805 -2.408 0.906 3
54.945 -21.639 -0.816 19
61.454 -23.325 -1.534 49
64.083 -23.436 -1.981 14
28.363 -10.003 0.691 2
75.058 -25.53 -3.365 8
75.04 -24.638 -3.602 25
77.538 -24.612 -4.057 9
79.55 -24.433 -4.47 18
35.488 -10.571 -0.435 5
34.941 -10.109 -0.481 4
34.49 -9.721 -0.538 8
0.0 -0.0 3.0 0
36.731 -9.903 -1.001 12
36.695 -9.719 -1.126 3
63.963 -16.712 -4.441 3
58.11 -15.022 -4.005 4
52.936 -13.598 -3.632 8
48.563 -12.434 -3.335 6
44.464 -11.386 -3.054 9
41.039 -10.552 -2.849 12
37.819 -9.788 -2.651 16
35.108 -9.176 -2.514 12
32.821 -8.679 -2.423 11
0.0 -0.0 3.0 0
0.0 -0.0 3.0 0
26.425 -7.322 -2.127 3
25.918 -7.31 -2.311 20
0.0 -0.0 3.0 0
18.915 -5.541 -1.329 1
18.079 -5.4 -1.373 1
17.96 -5.47 -1.59 0
7.913 -2.457 0.864 5
54.491 -21.601 -0.809 20
61.469 -23.492 -1.566 52
63.546 -23.411 -1.976 16
28.383 -10.088 0.671 6
75.046 -25.737 -3.417 16
75.04 -24.852 -3.659 25
77.107 -24.7 -4.082 8
81.548 -25.288 -4.731 11
35.17 -10.582 -0.438 8
36.128 -10.562 -0.637 8
34.512 -9.833 -0.579 8
35.804 -9.962 -0.824 2
36.701 -10.008 -1.044 7
0.0 -0.0 3.0 0
63.276 -16.729 -4.448 3
57.539 -15.052 -4.019 4
52.562 -13.663 -3.664 8
48.108 -12.462 -3.35 7
44.117 -11.428 -3.076 7
40.719 -10.587 -2.869 7
37.498 -9.811 -2.664 15
34.862 -9.208 -2.533 10
32.605 -8.709 -2.442 11
0.0 -0.0 3.0 0
0.0 -0.0 3.0 0
26.25 -7.337 -2.137 8
25.782 -7.331 -2.327 18
0.0 -0.0 3.0 0
18.816 -5.553 -1.338 1
18.048 -5.427 -1.395 2
17.922 -5.494 -1.61 0
7.876 -2.461 0.861 2
54.56 -21.77 -0.839 12
56.885 -21.891 -1.255 7
63.006 -23.383 -1.97 14
28.375 -10.164 0.654 9
28.399 -9.82 0.552 1
75.051 -25.071 -3.718 27
0.0 -0.0 3.0 0
81.572 -25.538 -4.808 17
35.534 -10.798 -0.509 11
35.385 -10.453 -0.599 7
34.362 -9.896 -0.602 20
35.511 -9.991 -0.835 7
36.898 -10.177 -1.112 16
0.0 -0.0 3.0 0
62.581 -16.739 -4.453 2
56.899 -15.06 -4.023 4
52.065 -13.693 -3.678 6
47.681 -12.495 -3.367 6
43.747 -11.461 -3.094 7
40.459 -10.638 -2.896 6
37.234 -9.848 -2.686 14
34.625 -9.241 -2.552 11
32.408 -8.743 -2.463 11
0.0 -0.0 3.0 0
0.0 -0.0 3.0 0
26.23 -7.395 -2.178 4
25.641 -7.352 -2.342 19
0.0 -0.0 3.0 0
18.75 -5.574 -1.355 1
18.043 -5.464 -1.424 1
17.917 -5.528 -1.639 1
17.772 -5.586 -1.856 1
54.194 -21.766 -0.838 19
56.449 -21.875 -1.252 5
62.473 -23.355 -1.964 17
28.349 -10.234 0.637 1
28.35 -9.882 0.536 0
75.057 -25.29 -3.776 27
77.977 -25.435 -4.293 6
0.0 -0.0 3.0 0
35.029 -10.751 -0.493 18
35.059 -10.464 -0.603 11
36.719 -10.689 -0.89 9
35.038 -9.966 -0.826 17
37.078 -10.342 -1.179 16
0.0 -0.0 3.0 0
61.959 -16.766 -4.465 4
56.337 -15.085 -4.034 4
51.606 -13.73 -3.697 7
47.257 -12.526 -3.383 7
43.419 -11.505 -3.117 6
40.208 -10.688 -2.925 3
36.967 -9.882 -2.705 10
34.398 -9.275 -2.573 11
32.203 -8.774 -2.483 11
30.328 -8.371 -2.436 12
0.0 -0.0 3.0 0
26.893 -7.648 -2.355 21
21.896 -6.33 -1.599 2
20.302 -5.973 -1.501 0
18.677 -5.593 -1.37 1
0.0 -0.0 3.0 0
17.886 -5.555 -1.661 14
17.752 -5.614 -1.88 1
53.781 -21.742 -0.834 21
60.425 -23.578 -1.583 16
61.488 -23.156 -1.922 43
0.0 -0.0 3.0 0
75.056 -26.378 -3.577 17
75.032 -25.498 -3.832 28
70.892 -23.333 -3.691 5
0.0 -0.0 3.0 0
34.426 -10.67 -0.467 17
33.608 -10.134 -0.489 7
37.291 -10.971 -0.993 1
35.032 -10.074 -0.867 11
35.819 -10.103 -1.082 2
0.0 -0.0 3.0 0
61.269 -16.77 -4.466 3
55.774 -15.107 -4.045 4
51.106 -13.754 -3.708 9
46.849 -12.56 -3.4 7
43.099 -11.548 -3.14 6
39.906 -10.725 -2.945 7
36.696 -9.914 -2.724 11
34.164 -9.307 -2.592 11
32.021 -8.812 -2.506 12
30.14 -8.398 -2.454 14
26.436 -7.467 -2.036 5
26.714 -7.663 -2.365 22
21.816 -6.358 -1.619 1
20.298 -6.018 -1.535 1
18.588 -5.607 -1.381 1
0.0 -0.0 3.0 0
17.877 -5.589 -1.69 10
17.762 -5.652 -1.913 1
53.327 -21.7 -0.826 21
59.933 -23.549 -1.577 17
61.426 -23.302 -1.953 25
76.973 -28.216 -3.514 15
75.057 -26.593 -3.63 21
28.371 -9.724 0.394 36
68.73 -22.824 -3.545 15
0.0 -0.0 3.0 0
35.195 -11.016 -0.579 12
33.915 -10.331 -0.557 7
33.69 -10.016 -0.645 11
0.0 -0.0 3.0 0
35.617 -10.158 -1.104 2
0.0 -0.0 3.0 0
60.648 -16.789 -4.475 3
55.209 -15.125 -4.053 5
50.614 -13.777 -3.719 13
46.453 -12.595 -3.418 7
42.791 -11.593 -3.164 7
39.659 -10.775 -2.973 12
36.444 -9.95 -2.745 11
33.926 -9.337 -2.61 10
31.816 -8.841 -2.525 12
29.971 -8.43 -2.474 14
26.472 -7.544 -2.089 1
26.568 -7.686 -2.382 20
21.682 -6.371 -1.629 1
20.399 -6.095 -1.593 3
18.552 -5.638 -1.405 0
0.0 -0.0 3.0 0
17.86 -5.62 -1.716 5
17.756 -5.685 -1.942 0
52.87 -21.655 -0.818 17
59.442 -23.517 -1.571 18
60.902 -23.272 -1.947 16
75.897 -28.036 -3.473 34
75.06 -26.811 -3.685 15
28.347 -9.799 0.374 1
0.0 -0.0 3.0 0
69.139 -22.475 -3.871 5
33.673 -10.642 -0.458 9
33.891 -10.428 -0.591 5
34.108 -10.246 -0.729 8
34.923 -10.261 -0.939 11
0.0 -0.0 3.0 0
0.0 -0.0 3.0 0
59.959 -16.787 -4.474 3
54.697 -15.155 -4.067 7
50.137 -13.801 -3.731 16
46.045 -12.625 -3.433 8
42.441 -11.625 -3.181 6
39.384 -10.816 -2.995 14
36.165 -9.978 -2.761 10
33.715 -9.373 -2.632 11
31.626 -8.875 -2.545 11
29.788 -8.457 -2.492 14
26.575 -7.641 -2.154 0
26.418 -7.708 -2.397 21
21.5 -6.369 -1.627 1
20.391 -6.14 -1.627 4
18.501 -5.664 -1.425 0
0.0 -0.0 3.0 0
17.835 -5.65 -1.741 2
17.758 -5.722 -1.974 0
56.478 -23.285 -1.106 45
58.939 -23.48 -1.564 17
60.381 -23.242 -1.94 17
75.266 -28.018 -3.468 6
75.066 -27.03 -3.739 23
67.935 -23.683 -3.346 19
0.0 -0.0 3.0 0
66.193 -21.717 -3.64 5
33.656 -10.74 -0.49 9
33.835 -10.516 -0.621 11
33.85 -10.274 -0.74 17
34.939 -10.375 -0.983 4
35.118 -10.237 -1.136 2
0.0 -0.0 3.0 0
59.393 -16.815 -4.486 4
54.201 -15.187 -4.082 10
49.638 -13.818 -3.739 20
45.653 -12.656 -3.449 8
42.129 -11.666 -3.203 7
38.74 -10.752 -2.96 7
35.879 -10.002 -2.775 10
33.508 -9.409 -2.654 11
31.417 -8.901 -2.562 12
29.589 -8.479 -2.506 11
27.803 -8.066 -2.441 20
26.276 -7.732 -2.414 22
21.401 -6.391 -1.643 1
20.375 -6.182 -1.659 3
18.439 -5.685 -1.442 0
0.0 -0.0 3.0 0
17.822 -5.682 -1.768 0
17.759 -5.758 -2.005 0
56.475 -23.436 -1.132 54
58.441 -23.443 -1.557 18
59.969 -23.252 -1.942 3
77.115 -28.926 -3.678 16
75.063 -27.247 -3.793 21
64.779 -22.775 -3.102 8
28.36 -9.672 0.227 255
66.064 -21.876 -3.688 14
33.631 -10.835 -0.521 4
33.958 -10.659 -0.67 9
34.444 -10.563 -0.845 8
34.966 -10.493 -1.028 13
35.068 -10.332 -1.175 5
0.0 -0.0 3.0 0
58.748 -16.817 -4.487 3
53.667 -15.205 -4.09 13
49.223 -13.854 -3.757 15
45.281 -12.691 -3.467 8
41.794 -11.698 -3.22 6
38.447 -10.784 -2.978 13
35.635 -10.036 -2.794 11
33.308 -9.447 -2.676 11
31.212 -8.928 -2.579 11
29.408 -8.505 -2.523 11
27.659 -8.096 -2.461 20
26.123 -7.752 -2.428 20
21.309 -6.415 -1.661 1
20.359 -6.225 -1.691 1
18.41 -5.718 -1.467 1
0.0 -0.0 3.0 0
17.801 -5.713 -1.794 1
17.742 -5.788 -2.031 0
56.481 -23.593 -1.16 34
58.013 -23.432 -1.555 18
28.378 -11.083 0.644 2
75.92 -28.696 -3.625 7
75.03 -27.455 -3.845 16
64.876 -23.0 -3.163 5
28.339 -9.75 0.204 5
65.953 -22.04 -3.738 19
35.058 -11.404 -0.705 3
33.693 -10.682 -0.678 13
34.342 -10.639 -0.872 10
35.004 -10.615 -1.075 1
0.0 -0.0 3.0 0
0.0 -0.0 3.0 0
58.198 -16.842 -4.499 4
53.148 -15.224 -4.099 18
48.698 -13.857 -3.759 5
44.908 -12.724 -3.483 9
41.452 -11.728 -3.236 9
38.078 -10.794 -2.983 11
35.387 -10.069 -2.813 11
33.097 -9.481 -2.697 11
31.015 -8.958 -2.597 12
29.209 -8.526 -2.537 12
27.522 -8.127 -2.481 16
25.977 -7.773 -2.443 21
21.239 -6.445 -1.682 1
20.346 -6.268 -1.724 3
18.373 -5.748 -1.491 0
0.0 -0.0 3.0 0
17.783 -5.744 -1.82 4
17.754 -5.827 -2.066 0
52.017 -21.871 -0.856 8
57.537 -23.4 -1.549 22
0.0 -0.0 3.0 0
75.3 -28.679 -3.621 9
74.252 -27.387 -3.828 14
65.284 -23.34 -3.254 11
64.523 -22.395 -3.422 9
0.0 -0.0 3.0 0
34.471 -11.319 -0.678 11
33.644 -10.771 -0.709 12
34.243 -10.716 -0.9 13
36.8 -11.277 -1.329 4
0.0 -0.0 3.0 0
0.0 -0.0 3.0 0
57.591 -16.849 -4.502 4
52.657 -15.249 -4.111 11
48.234 -13.875 -3.767 4
44.547 -12.758 -3.5 8
41.152 -11.767 -3.257 6
37.744 -10.811 -2.992 9
35.139 -10.101 -2.832 11
32.871 -9.509 -2.713 11
30.825 -8.988 -2.616 11
29.041 -8.555 -2.555 11
27.401 -8.163 -2.506 20
25.82 -7.792 -2.456 21
21.143 -6.467 -1.699 1
20.33 -6.311 -1.756 2
18.351 -5.783 -1.518 0
0.0 -0.0 3.0 0
17.766 -5.776 -1.847 4
17.718 -5.852 -2.087 0
55.783 -23.608 -1.163 15
56.493 -23.135 -1.497 37
0.0 -0.0 3.0 0
74.07 -28.426 -3.563 24
75.073 -27.912 -3.959 20
64.513 -23.257 -3.232 11
64.322 -22.521 -3.458 10
28.343 -9.645 0.051 5
36.034 -11.944 -0.881 10
34.075 -11.016 -0.793 11
34.148 -10.794 -0.929 8
36.832 -11.403 -1.377 8
35.56 -10.815 -1.37 5
35.376 -10.592 -1.496 11
57.038 -16.867 -4.51 4
52.071 -15.243 -4.108 5
47.789 -13.896 -3.778 21
44.152 -12.78 -3.512 5
40.84 -11.801 -3.275 7
37.436 -10.833 -3.005 10
34.929 -10.142 -2.855 11
32.652 -9.538 -2.731 12
30.662 -9.025 -2.64 12
28.88 -8.585 -2.575 12
27.275 -8.196 -2.528 16
25.674 -7.813 -2.471 20
21.043 -6.489 -1.714 1
20.309 -6.353 -1.788 2
18.344 -5.823 -1.549 0
0.0 -0.0 3.0 0
17.766 -5.815 -1.879 4
17.773 -5.907 -2.135 0
55.344 -23.576 -1.157 19
56.491 -23.293 -1.528 52
70.731 -28.23 -3.0 13
74.849 -28.944 -3.682 22
75.064 -28.131 -4.014 21
63.878 -23.221 -3.222 9
64.5 -22.78 -3.532 12
64.763 -22.24 -3.8 14
66.497 -22.249 -4.229 13
33.878 -11.059 -0.808 6
34.014 -10.859 -0.952 5
77.331 -24.187 -6.285 5
0.0 -0.0 3.0 0
34.963 -10.579 -1.491 15
56.413 -16.861 -4.507 4
51.569 -15.259 -4.115 5
47.379 -13.925 -3.791 26
43.743 -12.797 -3.52 5
40.529 -11.835 -3.293 6
37.148 -10.86 -3.02 10
34.689 -10.173 -2.873 10
32.433 -9.567 -2.749 13
30.457 -9.05 -2.655 11
28.715 -8.613 -2.593 12
27.127 -8.223 -2.546 12
25.516 -7.831 -2.483 21
20.955 -6.513 -1.732 1
20.296 -6.398 -1.821 2
18.336 -5.862 -1.58 0
0.0 -0.0 3.0 0
17.748 -5.847 -1.906 3
17.755 -5.938 -2.162 0
54.935 -23.555 -1.153 21
56.207 -23.336 -1.536 20
70.165 -28.207 -2.996 13
74.824 -29.153 -3.73 24
74.975 -28.321 -4.061 27
63.969 -23.447 -3.283 8
64.152 -22.853 -3.553 10
65.971 -22.859 -3.989 11
28.376 -9.583 -0.114 2
33.616 -11.079 -0.815 2
36.14 -11.653 -1.241 2
36.983 -11.686 -1.486 3
0.0 -0.0 3.0 0
61.435 -18.785 -4.974 2
55.865 -16.875 -4.513 3
51.079 -15.274 -4.122 5
46.879 -13.923 -3.791 14
43.386 -12.827 -3.535 7
40.203 -11.861 -3.307 6
36.863 -10.887 -3.035 11
34.438 -10.2 -2.889 10
32.222 -9.597 -2.766 15
30.278 -9.081 -2.674 11
28.55 -8.641 -2.612 12
26.968 -8.246 -2.562 13
25.397 -7.858 -2.502 18
20.881 -6.542 -1.753 1
20.279 -6.44 -1.853 3
18.336 -5.905 -1.614 0
0.0 -0.0 3.0 0
17.737 -5.882 -1.935 2
17.751 -5.973 -2.192 0
54.5 -23.522 -1.148 20
55.744 -23.303 -1.53 21
69.56 -28.165 -2.987 10
74.831 -29.377 -3.782 13
74.874 -28.507 -4.108 18
63.831 -23.59 -3.321 16
63.583 -22.846 -3.551 12
64.659 -22.605 -3.911 10
28.343 -9.661 -0.139 0
33.404 -11.115 -0.827 1
36.302 -11.82 -1.302 8
75.831 -24.202 -6.29 6
0.0 -0.0 3.0 0
0.0 -0.0 3.0 0
34.85 -10.638 -1.736 24
50.605 -15.292 -4.131 6
46.553 -13.972 -3.815 6
43.053 -12.861 -3.553 6
39.911 -11.897 -3.325 6
36.571 -10.911 -3.048 10
34.205 -10.231 -2.907 10
31.981 -9.617 -2.778 13
30.1 -9.111 -2.693 11
28.362 -8.662 -2.625 12
26.794 -8.263 -2.574 12
25.292 -7.891 -2.525 18
20.796 -6.567 -1.771 0
20.262 -6.484 -1.886 3
18.306 -5.938 -1.639 0
0.0 -0.0 3.0 0
17.734 -5.919 -1.967 2
17.773 -6.018 -2.231 0
54.098 -23.501 -1.144 20
55.303 -23.277 -1.525 19
0.0 -0.0 3.0 0
74.726 -29.557 -3.824 48
63.372 -24.318 -3.063 12
63.958 -23.832 -3.386 12
62.161 -22.526 -3.459 6
65.033 -22.939 -4.013 5
35.922 -12.358 -1.015 13
34.695 -11.655 -1.013 11
35.728 -11.747 -1.276 18
75.097 -24.208 -6.293 6
0.0 -0.0 3.0 0
28.373 -8.857 -0.76 4
54.771 -16.893 -4.521 4
34.715 -10.6 -1.943 16
46.132 -13.991 -3.824 5
42.697 -12.886 -3.566 6
39.619 -11.93 -3.343 5
36.332 -10.948 -3.069 11
33.969 -10.26 -2.924 10
31.763 -9.642 -2.793 16
29.922 -9.141 -2.712 11
28.197 -8.688 -2.642 12
26.646 -8.289 -2.591 13
25.213 -7.931 -2.553 20
20.741 -6.602 -1.796 0
20.263 -6.533 -1.923 2
18.301 -5.979 -1.672 0
17.711 -5.866 -1.75 0
17.741 -5.961 -2.001 1
17.773 -6.055 -2.264 0
53.69 -23.477 -1.14 21
0.0 -0.0 3.0 0
0.0 -0.0 3.0 0
74.95 -29.869 -3.896 18
63.394 -24.518 -3.113 6
64.024 -24.053 -3.445 7
0.0 -0.0 3.0 0
63.194 -22.488 -3.875 21
65.173 -22.627 -4.352 13
28.374 -9.622 -0.313 16
36.75 -12.201 -1.441 11
74.266 -24.179 -6.281 5
0.0 -0.0 3.0 0
28.297 -8.925 -0.788 9
54.25 -16.906 -4.527 4
34.708 -10.709 -1.994 3
34.797 -10.663 -2.201 14
42.341 -12.911 -3.579 5
39.377 -11.978 -3.369 6
36.044 -10.969 -3.08 10
33.729 -10.288 -2.94 10
31.59 -9.681 -2.817 15
29.736 -9.168 -2.729 11
28.017 -8.709 -2.656 11
26.491 -8.311 -2.606 12
25.093 -7.959 -2.573 16
20.689 -6.637 -1.822 0
20.278 -6.588 -1.965 2
18.3 -6.022 -1.705 0
17.688 -5.899 -1.777 1
17.729 -5.996 -2.031 1
17.78 -6.095 -2.299 0
53.266 -23.445 -1.134 19
0.0 -0.0 3.0 0
0.0 -0.0 3.0 0
75.091 -30.15 -3.961 18
74.835 -29.17 -4.273 14
61.918 -23.451 -3.284 5
61.554 -22.689 -3.506 17
62.909 -22.585 -3.905 12
65.054 -22.791 -4.405 16
34.678 -11.87 -1.087 6
0.0 -0.0 3.0 0
73.439 -24.146 -6.269 5
0.0 -0.0 3.0 0
28.274 -9.008 -0.824 2
53.716 -16.911 -4.529 4
49.177 -15.329 -4.148 5
34.771 -10.764 -2.25 4
41.978 -12.931 -3.589 4
39.096 -12.012 -3.387 6
35.775 -10.995 -3.095 10
33.497 -10.315 -2.956 10
31.387 -9.709 -2.834 14
29.546 -9.193 -2.744 11
27.845 -8.732 -2.671 11
26.343 -8.335 -2.622 12
24.951 -7.978 -2.586 15
20.637 -6.673 -1.848 0
20.279 -6.638 -2.002 2
18.307 -6.068 -1.741 0
17.71 -5.946 -1.815 5
17.721 -6.032 -2.061 1
17.79 -6.137 -2.334 1
52.873 -23.423 -1.13 23
28.348 -12.179 0.633 5
79.374 -33.074 -4.03 10
74.063 -29.96 -3.917 17
74.401 -29.228 -4.287 36
74.681 -28.516 -4.641 24
61.692 -22.932 -3.576 17
63.48 -22.99 -4.029 11
62.794 -22.199 -4.213 4
34.704 -11.99 -1.128 1
0.0 -0.0 3.0 0
0.0 -0.0 3.0 0
0.0 -0.0 3.0 0
58.356 -18.78 -4.972 3
53.128 -16.897 -4.523 4
48.711 -15.339 -4.153 6
44.949 -14.057 -3.856 5
34.773 -10.82 -2.513 27
38.858 -12.059 -3.412 6
35.488 -11.014 -3.105 12
33.246 -10.337 -2.968 10
31.199 -9.742 -2.853 14
29.372 -9.222 -2.762 11
27.672 -8.755 -2.685 11
26.187 -8.356 -2.636 12
24.819 -8.001 -2.602 14
20.607 -6.715 -1.879 0
20.39 -6.725 -2.067 1
18.305 -6.111 -1.774 0
17.731 -5.994 -1.854 0
17.728 -6.074 -2.096 1
17.781 -6.173 -2.366 2
52.483 -23.402 -1.126 24
28.339 -12.259 0.617 28
78.754 -33.049 -4.025 13
75.096 -30.604 -4.066 16
74.923 -29.663 -4.396 11
60.627 -23.338 -3.253 6
60.629 -22.727 -3.517 10
61.804 -22.578 -3.903 17
62.733 -22.378 -4.271 6
34.729 -12.111 -1.17 8
28.367 -9.692 -0.528 7
71.607 -24.007 -6.215 4
0.0 -0.0 3.0 0
57.764 -18.776 -4.97 3
52.644 -16.912 -4.53 21
48.269 -15.354 -4.16 5
44.579 -14.082 -3.868 5
34.753 -10.923 -2.565 7
38.615 -12.102 -3.435 6
35.377 -11.087 -3.146 20
33.007 -10.36 -2.981 10
31.003 -9.771 -2.871 12
29.19 -9.247 -2.778 10
27.493 -8.774 -2.698 12
26.047 -8.381 -2.653 12
24.681 -8.021 -2.616 15
0.0 -0.0 3.0 0
20.545 -6.826 -2.144 3
18.278 -6.145 -1.801 0
17.811 -6.062 -1.909 0
17.723 -6.112 -2.128 0
17.78 -6.21 -2.399 3
51.525 -23.125 -1.078 22
28.263 -12.309 0.607 26
78.16 -33.034 -4.022 11
75.053 -30.815 -4.114 23
61.208 -24.421 -3.089 7
64.791 -25.143 -3.737 5
61.284 -23.165 -3.643 11
61.773 -22.763 -3.959 22
61.6 -22.171 -4.204 18
76.257 -26.837 -6.241 19
77.951 -26.886 -6.786 5
70.753 -23.95 -6.194 6
0.0 -0.0 3.0 0
57.188 -18.774 -4.969 3
52.069 -16.895 -4.522 14
47.835 -15.369 -4.167 5
44.164 -14.092 -3.873 4
40.989 -13.011 -3.629 4
34.856 -11.032 -2.866 30
35.135 -11.118 -3.163 18
32.786 -10.389 -2.998 11
30.826 -9.805 -2.891 12
29.03 -9.28 -2.799 11
27.339 -8.802 -2.716 12
25.906 -8.407 -2.67 13
24.56 -8.046 -2.634 12
20.584 -6.812 -1.95 0
20.36 -6.815 -2.136 1
18.287 -6.192 -1.838 0
17.769 -6.089 -1.931 0
17.725 -6.153 -2.163 0
17.764 -6.243 -2.427 4
51.522 -23.275 -1.104 55
28.239 -12.382 0.593 13
0.0 -0.0 3.0 0
74.243 -30.709 -4.09 6
61.216 -24.613 -3.137 6
59.298 -23.196 -3.215 13
60.773 -23.164 -3.642 5
61.405 -22.824 -3.978 13
62.443 -22.675 -4.368 7
75.999 -26.992 -6.294 24
76.836 -26.751 -6.736 12
28.39 -9.702 -0.724 0
0.0 -0.0 3.0 0
56.608 -18.768 -4.966 3
51.566 -16.899 -4.524 15
47.382 -15.376 -4.17 5
43.757 -14.1 -3.877 5
40.676 -13.039 -3.644 5
34.844 -11.136 -2.921 12
34.878 -11.143 -3.176 18
32.532 -10.406 -3.008 12
30.631 -9.832 -2.908 11
28.863 -9.309 -2.817 12
27.178 -8.825 -2.731 12
25.755 -8.427 -2.684 12
24.444 -8.073 -2.653 14
20.532 -6.847 -1.975 0
20.297 -6.844 -2.158 0
18.274 -6.232 -1.869 0
17.753 -6.125 -1.96 2
17.735 -6.196 -2.199 0
17.766 -6.283 -2.462 4
51.333 -23.34 -1.116 26
28.254 -12.473 0.575 9
0.0 -0.0 3.0 0
75.06 -31.278 -4.221 15
60.564 -24.539 -3.118 6
59.164 -23.329 -3.251 12
61.294 -23.558 -3.755 14
60.606 -22.72 -3.946 9
65.639 -24.047 -4.813 16
12.373 -4.434 1.473 17
76.075 -26.733 -6.73 11
13.106 -4.521 1.264 0
61.704 -20.954 -5.466 4
56.044 -18.763 -4.964 3
51.128 -16.921 -4.534 15
46.874 -15.362 -4.163 8
43.425 -14.132 -3.893 5
40.374 -13.069 -3.659 4
37.9 -12.231 -3.503 8
34.535 -11.139 -3.174 13
32.327 -10.437 -3.026 10
30.435 -9.859 -2.924 12
28.689 -9.335 -2.833 11
27.021 -8.849 -2.747 11
25.607 -8.449 -2.699 12
24.328 -8.099 -2.671 15
0.0 -0.0 3.0 0
19.254 -6.541 -1.929 1
18.253 -6.269 -1.898 0
17.751 -6.167 -1.994 2
17.747 -6.24 -2.236 0
17.945 -6.386 -2.551 1
50.948 -23.316 -1.111 25
28.269 -12.564 0.558 7
0.0 -0.0 3.0 0
75.092 -31.522 -4.277 24
0.0 -0.0 3.0 0
59.396 -23.608 -3.326 11
59.581 -23.088 -3.62 14
60.495 -22.872 -3.993 18
61.988 -22.91 -4.444 14
12.314 -4.453 1.467 20
73.024 -25.9 -6.427 11
13.065 -4.55 1.253 21
61.149 -20.965 -5.471 9
55.507 -18.764 -4.965 3
50.796 -16.975 -4.558 8
46.497 -15.388 -4.176 20
43.004 -14.132 -3.893 14
40.08 -13.101 -3.675 4
34.078 -11.103 -2.903 10
34.341 -11.181 -3.198 16
32.103 -10.46 -3.039 11
30.259 -9.891 -2.943 12
28.503 -9.357 -2.847 14
26.867 -8.875 -2.763 11
25.47 -8.473 -2.715 13
24.204 -8.122 -2.687 14
20.762 -7.032 -2.109 1
19.152 -6.555 -1.939 2
18.28 -6.323 -1.94 2
17.767 -6.215 -2.033 2
17.735 -6.277 -2.267 0
18.102 -6.482 -2.635 17
50.508 -23.266 -1.102 17
0.0 -0.0 3.0 0
75.117 -32.661 -3.942 12
75.097 -31.756 -4.331 24
63.934 -26.304 -3.558 6
59.176 -23.708 -3.352 11
59.553 -23.267 -3.672 9
60.474 -23.06 -4.05 17
61.894 -23.076 -4.498 12
75.295 -27.476 -6.461 25
72.345 -25.895 -6.425 15
13.023 -4.578 1.243 6
28.371 -9.82 -0.968 6
54.975 -18.764 -4.965 3
50.212 -16.944 -4.544 4
46.094 -15.404 -4.183 19
42.718 -14.175 -3.914 25
39.786 -13.13 -3.69 4
34.072 -11.208 -2.959 20
34.081 -11.202 -3.209 18
31.886 -10.486 -3.054 12
30.059 -9.915 -2.957 12
28.314 -9.376 -2.859 15
26.721 -8.902 -2.781 11
25.329 -8.496 -2.731 13
24.069 -8.142 -2.701 15
22.828 -7.791 -2.66 15
19.038 -6.564 -1.946 1
18.04 -6.285 -1.91 0
17.736 -6.246 -2.058 1
17.736 -6.319 -2.302 0
18.023 -6.494 -2.645 17
0.0 -0.0 3.0 0
14.084 -6.345 1.767 25
74.23 -32.503 -3.909 15
75.097 -31.99 -4.385 24
57.636 -23.893 -2.957 10
55.822 -22.541 -3.04 3
60.109 -23.678 -3.789 15
59.836 -23.01 -4.035 18
61.379 -23.084 -4.5 8
12.479 -4.594 1.418 0
71.69 -25.895 -6.425 20
12.989 -4.609 1.231 1
28.365 -9.911 -1.004 0
54.412 -18.75 -4.959 4
49.76 -16.954 -4.548 4
45.685 -15.414 -4.188 17
42.406 -14.207 -3.929 7
39.482 -13.155 -3.703 4
33.745 -11.205 -2.958 17
33.847 -11.229 -3.224 17
31.677 -10.513 -3.07 11
29.864 -9.938 -2.971 12
28.132 -9.398 -2.872 14
26.579 -8.93 -2.799 11
25.204 -8.523 -2.749 13
23.945 -8.164 -2.717 15
22.702 -7.808 -2.673 14
18.953 -6.583 -1.961 1
17.993 -6.313 -1.932 0
17.737 -6.289 -2.092 1
17.734 -6.359 -2.336 0
17.927 -6.5 -2.65 18
0.0 -0.0 3.0 0
13.991 -6.346 1.766 24
75.116 -33.122 -4.04 16
75.111 -32.23 -4.441 21
57.568 -24.047 -2.996 3
59.435 -24.191 -3.482 6
57.273 -22.744 -3.522 8
58.06 -22.515 -3.884 12
64.562 -24.492 -4.958 13
12.379 -4.598 1.417 17
69.465 -25.321 -6.216 35
12.974 -4.647 1.216 0
59.351 -20.934 -5.458 8
0.0 -0.0 3.0 0
49.207 -16.927 -4.536 10
45.29 -15.429 -4.195 15
42.053 -14.225 -3.938 8
39.218 -13.192 -3.722 4
33.23 -11.138 -2.922 16
33.579 -11.243 -3.232 19
31.495 -10.548 -3.09 12
29.676 -9.964 -2.987 11
27.958 -9.42 -2.887 14
26.444 -8.959 -2.818 12
25.071 -8.548 -2.766 12
23.802 -8.18 -2.727 14
22.594 -7.83 -2.689 14
18.869 -6.602 -1.975 1
17.95 -6.342 -1.955 0
17.72 -6.325 -2.122 1
17.727 -6.398 -2.368 0
17.852 -6.512 -2.661 18
0.0 -0.0 3.0 0
13.974 -6.381 1.76 20
75.107 -33.351 -4.089 22
75.113 -32.467 -4.496 15
75.099 -31.608 -4.881 9
58.934 -24.174 -3.477 7
13.197 -5.283 1.485 1
57.713 -22.568 -3.9 8
12.317 -4.713 1.469 0
12.364 -4.633 1.405 13
