# .PCD v0.7 - Point Cloud Data file format
VERSION 0.7
FIELDS x y z intensity
SIZE 4 4 4 4
TYPE F F F F
COUNT 1 1 1 1
WIDTH 2319
HEIGHT 1
VIEWPOINT 0 0 0 1 0 0 0
POINTS 2319
DATA ascii
-1.387 -0.77 2.399 0
-1.358 -0.753 2.391 1
-1.333 -0.737 2.382 4
-1.314 -0.726 2.369 9
-2.041 -1.468 2.741 6
-2.044 -1.447 2.719 8
-2.02 -1.407 2.701 9
-1.979 -1.357 2.687 9
-1.94 -1.31 2.673 10
-1.911 -1.271 2.659 10
-1.9 -1.247 2.643 11
-1.888 -1.222 2.626 9
-1.876 -1.199 2.611 4
-1.857 -1.171 2.597 10
-1.84 -1.147 2.583 14
-1.836 -1.131 2.566 3
-1.818 -1.108 2.552 0
-1.779 -1.075 2.544 0
0.0 -0.0 3.0 0
0.0 -0.0 3.0 0
0.0 -0.0 3.0 0
0.0 -0.0 3.0 0
-1.665 -0.966 2.486 0
-1.62 -0.934 2.482 0
-1.514 -0.868 2.499 0
-1.472 -0.84 2.495 0
-1.482 -0.842 2.474 2
-1.476 -0.835 2.458 4
-1.445 -0.815 2.45 4
-1.435 -0.806 2.435 7
-1.43 -0.802 2.417 0
-1.422 -0.795 2.401 0
-1.381 -0.771 2.398 0
-1.336 -0.745 2.397 2
-1.324 -0.736 2.382 4
-1.304 -0.725 2.369 6
-2.047 -1.481 2.739 7
-2.04 -1.452 2.718 7
-2.01 -1.408 2.701 9
-1.965 -1.356 2.687 9
-1.927 -1.309 2.674 10
-1.9 -1.272 2.659 11
-1.893 -1.249 2.642 17
-1.884 -1.228 2.625 7
-1.859 -1.195 2.612 13
-1.846 -1.172 2.596 8
-1.833 -1.15 2.581 10
-1.829 -1.135 2.564 3
-1.801 -1.106 2.553 0
0.0 -0.0 3.0 0
-1.74 -1.048 2.533 0
-1.72 -1.027 2.521 0
0.0 -0.0 3.0 0
0.0 -0.0 3.0 0
0.0 -0.0 3.0 0
-1.603 -0.93 2.484 0
-1.501 -0.866 2.5 0
-1.449 -0.832 2.5 0
-1.473 -0.842 2.474 1
-1.469 -0.837 2.456 4
-1.436 -0.814 2.451 5
-1.422 -0.804 2.437 6
-1.427 -0.805 2.415 0
-1.403 -0.79 2.405 0
-1.368 -0.768 2.4 0
-1.33 -0.746 2.396 5
-1.318 -0.737 2.381 5
-1.302 -0.728 2.367 6
-2.043 -1.487 2.738 8
-2.042 -1.463 2.716 9
-1.993 -1.404 2.702 9
-1.948 -1.352 2.688 9
-1.916 -1.31 2.673 10
-1.9 -1.28 2.657 13
-1.892 -1.257 2.64 11
-1.877 -1.23 2.624 3
-1.852 -1.198 2.611 12
-1.846 -1.18 2.594 11
-1.829 -1.156 2.579 2
-1.825 -1.14 2.562 1
-1.787 -1.105 2.554 0
0.0 -0.0 3.0 0
0.0 -0.0 3.0 0
-1.713 -1.03 2.519 0
-1.653 -0.986 2.519 0
0.0 -0.0 3.0 0
0.0 -0.0 3.0 0
-1.616 -0.944 2.477 0
-1.488 -0.865 2.501 0
-1.459 -0.844 2.493 0
-1.456 -0.838 2.476 1
-1.46 -0.837 2.457 4
-1.423 -0.812 2.452 5
-1.412 -0.804 2.437 5
-1.418 -0.804 2.416 0
-1.393 -0.789 2.405 0
-1.339 -0.757 2.409 2
-1.321 -0.745 2.396 3
-1.308 -0.737 2.382 8
-1.296 -0.729 2.366 5
-2.042 -1.495 2.736 9
-2.022 -1.457 2.717 8
-1.982 -1.405 2.701 9
-1.941 -1.356 2.687 9
-1.906 -1.312 2.673 10
-1.889 -1.281 2.657 13
-1.891 -1.265 2.637 9
-1.863 -1.23 2.624 11
-1.858 -1.211 2.607 8
-1.835 -1.181 2.593 14
-1.828 -1.163 2.577 3
-1.801 -1.133 2.565 0
-1.783 -1.11 2.552 0
0.0 -0.0 3.0 0
0.0 -0.0 3.0 0
0.0 -0.0 3.0 0
0.0 -0.0 3.0 0
0.0 -0.0 3.0 0
0.0 -0.0 3.0 0
-1.586 -0.933 2.483 0
-1.475 -0.863 2.502 0
-1.44 -0.838 2.497 0
-1.443 -0.836 2.477 0
-1.457 -0.84 2.454 4
-1.42 -0.816 2.449 5
-1.4 -0.802 2.438 5
-1.405 -0.802 2.417 0
-1.39 -0.792 2.403 0
-1.33 -0.756 2.409 3
-1.312 -0.744 2.398 4
-1.302 -0.738 2.381 6
-1.29 -0.73 2.366 5
-2.044 -1.505 2.735 8
-2.005 -1.453 2.718 8
-1.968 -1.404 2.702 9
-1.92 -1.35 2.688 9
-1.898 -1.314 2.672 11
-1.895 -1.293 2.653 17
-1.891 -1.273 2.635 6
-1.856 -1.233 2.623 14
-1.847 -1.211 2.606 11
-1.831 -1.186 2.592 7
-1.821 -1.166 2.576 2
-1.807 -1.144 2.561 0
0.0 -0.0 3.0 0
0.0 -0.0 3.0 0
-1.732 -1.065 2.526 0
0.0 -0.0 3.0 0
0.0 -0.0 3.0 0
-1.616 -0.97 2.506 0
-1.625 -0.968 2.485 0
-1.576 -0.933 2.483 0
-1.472 -0.867 2.499 0
-1.446 -0.848 2.491 0
-1.427 -0.832 2.48 0
-1.447 -0.841 2.454 5
-1.411 -0.816 2.449 5
-1.393 -0.803 2.437 5
-1.392 -0.8 2.419 1
-1.355 -0.777 2.414 1
-1.327 -0.759 2.407 3
-1.312 -0.749 2.393 7
-1.297 -0.739 2.38 4
-1.274 -0.725 2.37 4
-2.026 -1.501 2.735 8
-1.991 -1.452 2.718 8
-1.948 -1.398 2.703 9
-1.916 -1.355 2.687 10
-1.894 -1.319 2.671 11
-1.888 -1.296 2.653 11
-1.887 -1.278 2.633 5
-1.856 -1.24 2.621 12
-1.837 -1.213 2.606 15
-1.837 -1.198 2.588 2
-1.804 -1.163 2.577 0
0.0 -0.0 3.0 0
0.0 -0.0 3.0 0
-1.754 -1.096 2.535 0
-1.705 -1.056 2.53 0
0.0 -0.0 3.0 0
0.0 -0.0 3.0 0
0.0 -0.0 3.0 0
0.0 -0.0 3.0 0
0.0 -0.0 3.0 0
-1.469 -0.87 2.497 1
-1.447 -0.853 2.487 0
-1.411 -0.828 2.482 0
-1.427 -0.834 2.458 5
-1.394 -0.812 2.452 5
-1.384 -0.803 2.438 5
-1.386 -0.802 2.418 1
-1.336 -0.771 2.419 3
-1.308 -0.753 2.412 3
-1.303 -0.748 2.394 6
-1.294 -0.741 2.378 5
-1.275 -0.729 2.366 3
-2.013 -1.5 2.736 8
-1.974 -1.448 2.719 8
-1.937 -1.399 2.703 9
-1.903 -1.354 2.687 9
-1.893 -1.328 2.669 14
-1.884 -1.301 2.651 9
-1.863 -1.27 2.636 14
-1.855 -1.248 2.619 8
-1.836 -1.221 2.603 11
-1.827 -1.199 2.587 2
-1.814 -1.177 2.572 0
-1.764 -1.132 2.566 0
-1.739 -1.104 2.554 0
0.0 -0.0 3.0 0
0.0 -0.0 3.0 0
0.0 -0.0 3.0 0
0.0 -0.0 3.0 0
0.0 -0.0 3.0 0
-1.614 -0.975 2.481 0
-1.57 -0.942 2.478 0
-1.456 -0.869 2.499 1
-1.414 -0.84 2.495 0
-1.418 -0.838 2.477 0
-1.421 -0.836 2.457 6
-1.391 -0.816 2.45 5
-1.378 -0.804 2.437 5
-1.37 -0.798 2.42 3
-1.336 -0.776 2.415 5
-1.312 -0.76 2.406 5
-1.297 -0.749 2.393 5
-1.285 -0.741 2.378 4
-1.259 -0.725 2.369 2
-1.999 -1.499 2.736 9
-1.957 -1.444 2.719 8
-1.927 -1.4 2.702 9
-1.902 -1.362 2.686 11
-1.889 -1.333 2.668 15
-1.889 -1.314 2.648 3
-1.862 -1.278 2.634 16
-1.844 -1.249 2.618 15
-1.829 -1.223 2.603 3
-1.813 -1.198 2.587 1
-1.806 -1.18 2.571 0
0.0 -0.0 3.0 0
0.0 -0.0 3.0 0
0.0 -0.0 3.0 0
0.0 -0.0 3.0 0
0.0 -0.0 3.0 0
-1.609 -0.993 2.516 0
-1.595 -0.978 2.502 0
-1.598 -0.972 2.483 0
-1.566 -0.947 2.475 0
-1.469 -0.882 2.49 1
-1.421 -0.849 2.49 0
-1.395 -0.83 2.482 0
-1.408 -0.834 2.458 7
-1.382 -0.815 2.45 6
-1.368 -0.804 2.437 5
-1.351 -0.791 2.425 4
-1.327 -0.776 2.416 3
-1.303 -0.759 2.407 7
-1.297 -0.754 2.389 5
-1.272 -0.738 2.38 3
-1.238 -0.717 2.377 3
-1.988 -1.5 2.736 9
-1.936 -1.438 2.721 9
-1.916 -1.401 2.702 9
-1.894 -1.365 2.685 11
-1.895 -1.345 2.665 10
-1.875 -1.313 2.648 4
-1.855 -1.281 2.633 18
-1.837 -1.252 2.617 15
-1.825 -1.229 2.601 2
-1.809 -1.203 2.586 0
0.0 -0.0 3.0 0
0.0 -0.0 3.0 0
0.0 -0.0 3.0 0
-1.713 -1.092 2.536 0
0.0 -0.0 3.0 0
-1.642 -1.029 2.52 0
0.0 -0.0 3.0 0
0.0 -0.0 3.0 0
-1.535 -0.94 2.5 0
0.0 -0.0 3.0 0
-1.44 -0.871 2.497 1
-24.998 -15.038 -6.036 10
-1.389 -0.831 2.481 0
-1.399 -0.834 2.459 7
-1.376 -0.817 2.449 6
-1.356 -0.802 2.439 5
-1.338 -0.789 2.427 5
-1.321 -0.776 2.415 4
-1.29 -0.756 2.409 6
-1.291 -0.755 2.389 5
-1.266 -0.739 2.38 2
-1.216 -0.708 2.385 6
-1.968 -1.493 2.737 8
-1.932 -1.443 2.719 9
-1.912 -1.406 2.701 10
-1.893 -1.372 2.683 16
-1.897 -1.356 2.662 8
-1.862 -1.311 2.649 5
-1.854 -1.289 2.63 31
-1.836 -1.26 2.615 8
-1.821 -1.234 2.599 2
-1.851 -1.239 2.573 0
0.0 -0.0 3.0 0
0.0 -0.0 3.0 0
-1.708 -1.107 2.553 0
-1.68 -1.078 2.542 0
0.0 -0.0 3.0 0
0.0 -0.0 3.0 0
0.0 -0.0 3.0 0
-1.569 -0.974 2.504 0
0.0 -0.0 3.0 0
-1.54 -0.943 2.477 0
-1.433 -0.873 2.496 1
-24.875 -15.063 -6.051 10
-1.376 -0.829 2.482 0
-1.389 -0.834 2.459 8
-1.366 -0.816 2.449 6
-1.349 -0.803 2.437 5
-1.329 -0.788 2.427 3
-1.311 -0.776 2.416 7
-1.294 -0.764 2.403 4
-1.279 -0.752 2.391 4
-1.254 -0.736 2.382 2
-1.22 -0.715 2.379 1
-1.957 -1.494 2.737 8
-1.918 -1.441 2.72 9
-1.895 -1.402 2.702 10
-1.893 -1.381 2.681 12
-1.922 -1.382 2.656 4
-1.854 -1.314 2.648 7
-1.85 -1.294 2.629 58
-1.829 -1.263 2.614 2
-1.804 -1.23 2.6 0
-1.824 -1.229 2.577 0
0.0 -0.0 3.0 0
0.0 -0.0 3.0 0
0.0 -0.0 3.0 0
0.0 -0.0 3.0 0
0.0 -0.0 3.0 0
0.0 -0.0 3.0 0
0.0 -0.0 3.0 0
-1.565 -0.978 2.501 0
-1.561 -0.968 2.485 0
-1.507 -0.93 2.485 0
-1.42 -0.87 2.498 1
-1.395 -0.851 2.489 0
-1.38 -0.837 2.477 0
-1.38 -0.833 2.459 9
-1.363 -0.82 2.447 6
-1.343 -0.805 2.436 5
-1.329 -0.794 2.423 6
-1.302 -0.775 2.416 6
-1.285 -0.762 2.404 6
-1.27 -0.751 2.392 2
-1.223 -0.722 2.394 10
-1.22 -0.719 2.375 1
-1.94 -1.49 2.737 8
-1.911 -1.445 2.719 9
-1.894 -1.41 2.7 11
-1.885 -1.383 2.681 8
-1.911 -1.382 2.655 3
-1.841 -1.313 2.648 4
-1.843 -1.297 2.628 29
-1.825 -1.268 2.612 2
-1.836 -1.26 2.591 0
-1.853 -1.256 2.567 0
0.0 -0.0 3.0 0
0.0 -0.0 3.0 0
0.0 -0.0 3.0 0
0.0 -0.0 3.0 0
0.0 -0.0 3.0 0
-1.595 -1.02 2.525 0
-1.582 -1.003 2.511 0
-1.529 -0.962 2.51 0
0.0 -0.0 3.0 0
-1.501 -0.931 2.484 0
-1.417 -0.874 2.495 1
-24.525 -15.047 -6.041 4
-1.36 -0.83 2.481 0
-1.367 -0.831 2.461 10
-1.354 -0.819 2.447 6
-1.334 -0.804 2.437 6
-1.32 -0.793 2.424 6
-1.303 -0.78 2.412 5
-1.279 -0.763 2.404 4
-1.27 -0.756 2.388 2
-1.23 -0.73 2.387 1
-1.202 -0.712 2.381 9
-1.923 -1.485 2.738 9
-1.907 -1.45 2.718 10
-1.893 -1.418 2.699 14
-1.875 -1.384 2.68 5
-1.923 -1.4 2.651 2
-1.833 -1.316 2.647 3
-1.835 -1.301 2.627 11
-1.834 -1.282 2.608 1
-1.806 -1.247 2.595 0
-1.855 -1.267 2.564 0
-1.848 -1.248 2.546 0
0.0 -0.0 3.0 0
0.0 -0.0 3.0 0
0.0 -0.0 3.0 0
0.0 -0.0 3.0 0
-1.563 -1.005 2.531 0
0.0 -0.0 3.0 0
-1.559 -0.987 2.497 0
-1.512 -0.95 2.495 0
-1.488 -0.929 2.485 0
-1.424 -0.884 2.49 1
-1.396 -0.862 2.482 0
-1.348 -0.828 2.483 0
-1.361 -0.832 2.46 12
-1.341 -0.817 2.449 6
-1.328 -0.805 2.436 6
-1.311 -0.792 2.425 8
-1.296 -0.781 2.411 6
-1.266 -0.76 2.406 3
-1.245 -0.746 2.396 3
-1.217 -0.727 2.39 1
-1.215 -0.724 2.371 3
-1.913 -1.485 2.738 9
-1.902 -1.456 2.717 10
-1.895 -1.428 2.696 9
-1.88 -1.396 2.678 3
-1.951 -1.429 2.644 2
-1.826 -1.319 2.647 4
-1.828 -1.303 2.626 3
-1.801 -1.267 2.613 0
0.0 -0.0 3.0 0
-1.877 -1.29 2.556 0
0.0 -0.0 3.0 0
0.0 -0.0 3.0 0
0.0 -0.0 3.0 0
0.0 -0.0 3.0 0
0.0 -0.0 3.0 0
-1.575 -1.02 2.525 0
-1.546 -0.993 2.516 0
-1.545 -0.985 2.498 0
0.0 -0.0 3.0 0
-1.494 -0.939 2.479 0
-1.424 -0.89 2.486 0
-24.177 -15.027 -6.029 6
-1.332 -0.823 2.485 0
-1.354 -0.834 2.459 14
-1.338 -0.82 2.447 6
-1.315 -0.803 2.438 6
-1.305 -0.793 2.424 8
-1.294 -0.784 2.409 5
-1.26 -0.762 2.405 2
-1.22 -0.735 2.405 3
-1.215 -0.73 2.387 3
-1.212 -0.727 2.368 13
-1.908 -1.49 2.737 9
-1.895 -1.459 2.716 11
-1.884 -1.428 2.696 7
-1.857 -1.388 2.679 8
-1.94 -1.43 2.644 1
-1.835 -1.334 2.643 3
-1.818 -1.304 2.626 2
-1.79 -1.268 2.612 0
-1.798 -1.258 2.591 0
-1.895 -1.31 2.549 0
0.0 -0.0 3.0 0
0.0 -0.0 3.0 0
0.0 -0.0 3.0 0
0.0 -0.0 3.0 0
0.0 -0.0 3.0 0
0.0 -0.0 3.0 0
-1.513 -0.978 2.523 0
-1.542 -0.989 2.496 0
0.0 -0.0 3.0 0
-1.474 -0.933 2.483 0
-1.427 -0.898 2.482 0
-1.37 -0.857 2.485 0
-1.325 -0.825 2.485 0
-1.345 -0.833 2.459 17
-1.332 -0.821 2.446 6
-1.306 -0.802 2.439 6
-1.302 -0.796 2.421 6
-1.278 -0.779 2.413 4
-1.248 -0.759 2.407 2
-1.221 -0.74 2.401 1
-1.206 -0.729 2.388 4
-1.213 -0.731 2.364 28
-1.901 -1.494 2.737 10
-1.891 -1.464 2.715 15
-1.88 -1.434 2.695 4
-1.862 -1.4 2.677 13
-1.92 -1.424 2.645 1
-1.821 -1.332 2.643 2
-1.813 -1.309 2.625 1
-1.783 -1.272 2.611 0
-1.819 -1.282 2.584 0
-2.045 -1.424 2.51 0
-1.784 -1.228 2.553 0
0.0 -0.0 3.0 0
0.0 -0.0 3.0 0
0.0 -0.0 3.0 0
0.0 -0.0 3.0 0
0.0 -0.0 3.0 0
0.0 -0.0 3.0 0
-1.529 -0.987 2.497 0
-1.505 -0.965 2.487 0
-1.468 -0.935 2.481 0
-1.418 -0.898 2.482 0
-1.338 -0.842 2.494 0
-1.319 -0.827 2.483 0
-1.342 -0.837 2.457 19
-1.319 -0.819 2.448 6
-1.303 -0.805 2.436 6
-1.299 -0.799 2.419 6
-1.275 -0.782 2.41 2
-1.217 -0.744 2.419 6
-1.212 -0.738 2.402 1
-1.219 -0.741 2.378 5
-1.207 -0.732 2.364 56
-1.897 -1.499 2.736 10
-1.893 -1.474 2.714 8
-1.873 -1.437 2.695 3
-1.851 -1.401 2.677 12
-1.887 -1.408 2.649 0
-1.794 -1.321 2.646 1
0.0 -0.0 3.0 0
0.0 -0.0 3.0 0
-1.77 -1.255 2.592 0
-2.099 -1.47 2.494 0
0.0 -0.0 3.0 0
0.0 -0.0 3.0 0
0.0 -0.0 3.0 0
-1.606 -1.079 2.542 0
0.0 -0.0 3.0 0
-1.545 -1.021 2.524 0
-1.526 -1.0 2.512 0
0.0 -0.0 3.0 0
-1.495 -0.965 2.487 0
-1.442 -0.925 2.487 0
-1.405 -0.895 2.483 0
-1.332 -0.844 2.493 0
-1.316 -0.83 2.481 0
-1.336 -0.838 2.456 20
-1.313 -0.82 2.447 6
-1.3 -0.808 2.434 5
-1.289 -0.798 2.42 4
-1.259 -0.778 2.414 2
-1.223 -0.753 2.412 1
-1.203 -0.738 2.402 5
-1.213 -0.742 2.378 17
-1.207 -0.736 2.36 89
-1.892 -1.504 2.735 10
-1.879 -1.472 2.714 6
-1.859 -1.435 2.695 11
-1.847 -1.406 2.675 8
-1.778 -1.335 2.667 0
-1.774 -1.314 2.648 1
0.0 -0.0 3.0 0
-1.785 -1.289 2.606 0
-1.763 -1.258 2.591 0
-2.129 -1.501 2.483 1
0.0 -0.0 3.0 0
0.0 -0.0 3.0 0
0.0 -0.0 3.0 0
0.0 -0.0 3.0 0
-1.593 -1.068 2.524 0
-1.535 -1.021 2.524 0
-1.512 -0.997 2.514 0
-1.477 -0.967 2.507 0
0.0 -0.0 3.0 0
-1.426 -0.92 2.49 0
-1.401 -0.899 2.481 0
-1.316 -0.839 2.496 0
-1.31 -0.831 2.481 0
-1.329 -0.84 2.455 20
-1.301 -0.817 2.449 6
-1.294 -0.81 2.433 4
-1.277 -0.796 2.421 3
-1.231 -0.765 2.424 6
-1.205 -0.746 2.417 1
-1.212 -0.748 2.394 5
-1.207 -0.743 2.377 29
-1.201 -0.737 2.359 80
-1.894 -1.515 2.733 13
-1.878 -1.48 2.712 3
-1.855 -1.441 2.694 13
-1.843 -1.411 2.674 11
-1.764 -1.333 2.668 0
-1.755 -1.308 2.65 2
0.0 -0.0 3.0 0
-1.793 -1.303 2.602 0
-1.807 -1.297 2.578 0
-2.14 -1.519 2.477 1
0.0 -0.0 3.0 0
0.0 -0.0 3.0 0
0.0 -0.0 3.0 0
-1.582 -1.078 2.542 0
-1.544 -1.043 2.536 0
0.0 -0.0 3.0 0
0.0 -0.0 3.0 0
-1.476 -0.973 2.504 0
-1.453 -0.95 2.495 0
-1.41 -0.916 2.492 0
-1.392 -0.898 2.481 0
-1.329 -0.853 2.487 0
-1.304 -0.832 2.48 0
-1.323 -0.84 2.454 18
-1.304 -0.825 2.444 5
-1.281 -0.807 2.435 5
-1.264 -0.793 2.424 2
-1.225 -0.766 2.423 1
-1.196 -0.745 2.418 5
-1.21 -0.75 2.392 13
-1.21 -0.749 2.371 42
-1.198 -0.74 2.357 36
-1.883 -1.515 2.733 8
-1.861 -1.475 2.713 6
-1.853 -1.448 2.692 10
-1.832 -1.412 2.674 13
-1.745 -1.326 2.67 0
-1.728 -1.296 2.653 3
0.0 -0.0 3.0 0
-1.811 -1.324 2.595 0
-1.812 -1.31 2.574 0
-2.135 -1.526 2.475 1
0.0 -0.0 3.0 0
-1.646 -1.15 2.558 0
0.0 -0.0 3.0 0
0.0 -0.0 3.0 0
-1.547 -1.051 2.532 0
-1.519 -1.023 2.523 0
0.0 -0.0 3.0 0
-1.45 -0.962 2.51 0
-1.424 -0.937 2.502 0
-1.397 -0.913 2.494 0
-1.401 -0.91 2.474 0
-1.306 -0.844 2.493 0
-1.294 -0.832 2.48 0
-1.307 -0.836 2.457 15
-1.291 -0.822 2.446 4
-1.278 -0.81 2.433 3
-1.249 -0.788 2.427 4
-1.219 -0.767 2.422 1
-1.199 -0.751 2.413 3
-1.204 -0.752 2.391 21
-1.204 -0.75 2.371 46
-1.19 -0.738 2.359 18
-1.873 -1.515 2.733 5
-1.853 -1.479 2.713 14
-1.852 -1.456 2.691 8
-1.825 -1.415 2.673 6
-1.718 -1.314 2.672 0
-1.721 -1.299 2.652 5
0.0 -0.0 3.0 0
-1.769 -1.302 2.602 0
-1.748 -1.271 2.587 0
-2.13 -1.531 2.473 1
0.0 -0.0 3.0 0
0.0 -0.0 3.0 0
-1.634 -1.138 2.54 0
0.0 -0.0 3.0 0
-1.563 -1.068 2.524 0
-1.486 -1.008 2.53 0
0.0 -0.0 3.0 0
-1.444 -0.964 2.509 0
-1.433 -0.949 2.495 0
-1.371 -0.903 2.5 0
-1.385 -0.906 2.477 0
-1.31 -0.852 2.488 0
-1.282 -0.829 2.482 0
-1.301 -0.837 2.456 12
-1.285 -0.823 2.445 4
-1.259 -0.803 2.438 2
-1.224 -0.778 2.435 2
-1.213 -0.768 2.421 2
-1.209 -0.762 2.405 8
-1.207 -0.758 2.386 25
-1.195 -0.749 2.372 33
-1.187 -0.741 2.356 14
-1.884 -1.534 2.73 3
-1.849 -1.483 2.712 15
-1.838 -1.454 2.691 12
-1.821 -1.42 2.672 1
-1.708 -1.314 2.672 0
-1.714 -1.301 2.651 8
0.0 -0.0 3.0 0
-1.831 -1.356 2.585 0
0.0 -0.0 3.0 0
-2.125 -1.538 2.471 2
0.0 -0.0 3.0 0
0.0 -0.0 3.0 0
-1.589 -1.114 2.55 0
0.0 -0.0 3.0 0
-1.556 -1.071 2.523 0
-1.476 -1.008 2.53 0
-1.479 -1.002 2.511 0
-1.431 -0.961 2.51 0
-1.43 -0.954 2.493 0
-1.377 -0.912 2.494 0
-1.376 -0.906 2.477 0
-1.288 -0.842 2.494 0
-1.282 -0.834 2.479 0
-1.292 -0.836 2.457 10
-1.276 -0.822 2.445 3
-1.253 -0.804 2.437 3
-1.224 -0.782 2.432 1
-1.201 -0.765 2.424 4
-1.203 -0.762 2.404 18
-1.198 -0.757 2.387 33
-1.196 -0.753 2.368 16
-1.187 -0.745 2.352 12
-1.861 -1.524 2.731 7
-1.851 -1.494 2.71 10
-1.834 -1.459 2.69 11
-1.81 -1.42 2.672 1
-1.685 -1.304 2.675 0
-1.704 -1.302 2.651 11
0.0 -0.0 3.0 0
-1.798 -1.34 2.59 0
0.0 -0.0 3.0 0
-2.13 -1.551 2.466 1
0.0 -0.0 3.0 0
-1.666 -1.188 2.544 0
0.0 -0.0 3.0 0
0.0 -0.0 3.0 0
0.0 -0.0 3.0 0
-1.476 -1.014 2.527 0
-1.444 -0.984 2.52 0
-1.437 -0.972 2.505 0
-1.398 -0.939 2.501 0
-1.39 -0.927 2.486 0
-1.36 -0.9 2.48 0
-1.284 -0.847 2.491 0
-1.266 -0.829 2.482 0
-1.282 -0.836 2.457 9
-1.267 -0.821 2.446 2
-1.222 -0.789 2.447 5
-1.225 -0.787 2.428 1
-1.211 -0.776 2.415 3
-1.2 -0.765 2.402 21
-1.195 -0.76 2.385 27
-1.193 -0.756 2.365 15
-1.181 -0.745 2.352 11
-1.856 -1.528 2.731 14
-1.843 -1.496 2.709 12
-1.83 -1.464 2.689 3
-1.781 -1.406 2.675 1
-1.681 -1.309 2.674 0
-1.69 -1.299 2.652 14
0.0 -0.0 3.0 0
-1.772 -1.329 2.594 0
0.0 -0.0 3.0 0
-2.112 -1.548 2.467 1
0.0 -0.0 3.0 0
0.0 -0.0 3.0 0
0.0 -0.0 3.0 0
-1.554 -1.094 2.536 0
-1.52 -1.06 2.528 0
-1.472 -1.018 2.525 0
0.0 -0.0 3.0 0
-1.415 -0.963 2.509 0
-1.385 -0.936 2.502 0
-1.371 -0.92 2.49 0
-1.341 -0.894 2.484 0
-1.275 -0.846 2.492 0
-1.27 -0.837 2.477 0
-1.276 -0.837 2.457 8
-1.264 -0.824 2.444 2
-1.207 -0.784 2.451 1
-1.203 -0.778 2.435 5
-1.211 -0.78 2.412 14
-1.203 -0.772 2.397 23
-1.192 -0.762 2.383 17
-1.187 -0.757 2.365 11
-1.175 -0.746 2.351 4
-1.858 -1.539 2.729 13
-1.839 -1.502 2.708 13
-1.834 -1.477 2.686 1
-1.733 -1.377 2.682 0
-1.662 -1.303 2.675 0
-1.68 -1.299 2.652 17
0.0 -0.0 3.0 0
-1.73 -1.305 2.601 0
0.0 -0.0 3.0 0
-2.113 -1.558 2.463 1
-1.665 -1.215 2.558 0
0.0 -0.0 3.0 0
0.0 -0.0 3.0 0
0.0 -0.0 3.0 0
-1.488 -1.045 2.535 0
-1.466 -1.021 2.524 0
0.0 -0.0 3.0 0
-1.389 -0.951 2.515 0
-1.385 -0.942 2.499 0
-1.374 -0.928 2.486 0
-1.341 -0.899 2.481 0
-1.259 -0.84 2.495 1
-1.27 -0.843 2.474 0
-1.273 -0.84 2.454 5
-1.235 -0.811 2.453 4
-1.21 -0.791 2.446 1
-1.216 -0.791 2.425 3
-1.208 -0.783 2.41 20
-1.194 -0.771 2.398 24
-1.19 -0.765 2.38 16
-1.187 -0.761 2.361 10
-1.172 -0.748 2.349 1
-1.854 -1.544 2.728 8
-1.834 -1.507 2.707 10
-1.833 -1.484 2.685 1
-1.713 -1.37 2.684 0
-1.648 -1.3 2.676 0
-1.669 -1.3 2.652 18
0.0 -0.0 3.0 0
-1.717 -1.304 2.601 0
0.0 -0.0 3.0 0
-2.099 -1.558 2.464 1
0.0 -0.0 3.0 0
0.0 -0.0 3.0 0
0.0 -0.0 3.0 0
-1.537 -1.095 2.535 0
-1.474 -1.042 2.536 0
-1.446 -1.013 2.528 0
-1.424 -0.99 2.517 0
-1.389 -0.958 2.512 0
-1.366 -0.935 2.503 0
-1.358 -0.923 2.488 0
-1.334 -0.901 2.48 0
-1.266 -0.85 2.489 1
-1.245 -0.831 2.481 0
-1.27 -0.843 2.452 4
-1.223 -0.809 2.455 1
-1.201 -0.789 2.447 3
-1.213 -0.794 2.423 12
-1.205 -0.786 2.408 21
-1.188 -0.772 2.397 18
-1.187 -0.767 2.379 13
-1.184 -0.764 2.359 7
-1.179 -0.757 2.342 0
-1.84 -1.541 2.728 12
-1.83 -1.513 2.706 3
-1.816 -1.481 2.685 0
-1.7 -1.367 2.684 0
-1.647 -1.307 2.674 0
-1.659 -1.299 2.652 18
0.0 -0.0 3.0 0
-1.684 -1.287 2.607 0
0.0 -0.0 3.0 0
-2.1 -1.568 2.46 1
0.0 -0.0 3.0 0
0.0 -0.0 3.0 0
-1.563 -1.132 2.542 0
0.0 -0.0 3.0 0
-1.461 -1.039 2.537 0
-1.44 -1.015 2.527 0
0.0 -0.0 3.0 0
-1.389 -0.964 2.509 0
-1.362 -0.938 2.501 0
-1.367 -0.936 2.481 0
-1.334 -0.907 2.476 0
-1.26 -0.851 2.488 0
-1.245 -0.836 2.477 0
-1.239 -0.828 2.463 5
-1.214 -0.807 2.455 1
-1.204 -0.797 2.442 2
-1.203 -0.793 2.424 21
-1.208 -0.793 2.403 18
-1.189 -0.776 2.393 12
-1.181 -0.769 2.378 9
-1.178 -0.764 2.359 1
0.0 -0.0 3.0 0
-1.838 -1.55 2.727 13
-1.825 -1.517 2.705 1
0.0 -0.0 3.0 0
-1.665 -1.347 2.689 0
-1.631 -1.302 2.675 0
-1.655 -1.304 2.651 20
0.0 -0.0 3.0 0
-1.696 -1.304 2.601 0
0.0 -0.0 3.0 0
-2.07 -1.556 2.464 1
0.0 -0.0 3.0 0
0.0 -0.0 3.0 0
0.0 -0.0 3.0 0
0.0 -0.0 3.0 0
-1.467 -1.05 2.532 0
-1.433 -1.017 2.526 0
0.0 -0.0 3.0 0
-1.376 -0.961 2.51 0
-1.372 -0.951 2.494 0
-1.332 -0.918 2.491 0
-1.299 -0.889 2.487 0
-1.253 -0.852 2.488 0
-1.242 -0.84 2.475 0
-1.226 -0.825 2.464 1
-1.202 -0.804 2.458 2
-1.207 -0.804 2.437 8
-1.21 -0.802 2.418 20
-1.199 -0.792 2.403 20
-1.18 -0.775 2.394 11
-1.175 -0.769 2.377 8
-1.182 -0.771 2.353 0
-1.164 -0.756 2.343 0
-1.825 -1.547 2.727 7
-1.827 -1.528 2.703 1
0.0 -0.0 3.0 0
-1.655 -1.346 2.689 0
-1.636 -1.314 2.672 0
-1.639 -1.299 2.652 20
0.0 -0.0 3.0 0
-1.682 -1.302 2.602 0
0.0 -0.0 3.0 0
-2.049 -1.55 2.466 0
0.0 -0.0 3.0 0
0.0 -0.0 3.0 0
-1.531 -1.123 2.546 0
0.0 -0.0 3.0 0
-1.432 -1.032 2.541 0
-1.433 -1.023 2.523 0
-1.41 -0.999 2.513 0
0.0 -0.0 3.0 0
-1.346 -0.939 2.501 0
-1.332 -0.923 2.488 0
-1.29 -0.888 2.487 0
-1.235 -0.845 2.492 1
-1.22 -0.83 2.481 1
-1.223 -0.828 2.462 1
-1.202 -0.809 2.455 2
-1.198 -0.803 2.438 17
-1.204 -0.803 2.416 17
-1.193 -0.792 2.403 14
-1.18 -0.78 2.391 9
-1.175 -0.774 2.373 2
-1.161 -0.761 2.361 0
0.0 -0.0 3.0 0
-1.826 -1.558 2.725 1
-1.801 -1.515 2.705 0
0.0 -0.0 3.0 0
-1.632 -1.336 2.691 0
-1.608 -1.299 2.676 0
-1.632 -1.301 2.651 18
0.0 -0.0 3.0 0
-1.666 -1.297 2.603 0
0.0 -0.0 3.0 0
-2.056 -1.566 2.461 1
-1.997 -1.505 2.452 0
0.0 -0.0 3.0 0
0.0 -0.0 3.0 0
0.0 -0.0 3.0 0
-1.435 -1.041 2.537 0
-1.41 -1.014 2.527 0
-1.379 -0.984 2.52 0
-1.353 -0.958 2.512 0
-1.33 -0.935 2.503 0
-1.298 -0.906 2.498 0
-1.274 -0.883 2.49 0
-1.232 -0.848 2.49 0
-1.22 -0.835 2.478 1
-1.205 -0.82 2.467 2
-1.205 -0.816 2.449 6
-1.204 -0.812 2.431 17
-1.201 -0.805 2.415 21
-1.187 -0.794 2.402 11
-1.177 -0.783 2.389 8
-1.166 -0.772 2.375 0
-1.136 -0.75 2.371 0
0.0 -0.0 3.0 0
-1.81 -1.553 2.726 1
0.0 -0.0 3.0 0
0.0 -0.0 3.0 0
-1.631 -1.343 2.69 0
-1.591 -1.294 2.677 0
-1.624 -1.304 2.651 16
0.0 -0.0 3.0 0
-1.652 -1.295 2.604 0
0.0 -0.0 3.0 0
-2.039 -1.562 2.462 0
0.0 -0.0 3.0 0
0.0 -0.0 3.0 0
-1.495 -1.111 2.551 0
-1.44 -1.06 2.55 0
-1.438 -1.049 2.533 0
-1.4 -1.013 2.528 0
-1.385 -0.994 2.515 0
-1.353 -0.964 2.509 0
-1.349 -0.953 2.493 0
-1.301 -0.914 2.494 0
-1.259 -0.878 2.493 0
-1.219 -0.845 2.492 1
-1.208 -0.832 2.48 0
-1.205 -0.825 2.464 2
-1.199 -0.817 2.449 14
-1.198 -0.813 2.431 15
-1.195 -0.807 2.414 15
-1.19 -0.8 2.397 11
-1.174 -0.786 2.386 3
-1.16 -0.773 2.374 0
-1.149 -0.762 2.36 0
0.0 -0.0 3.0 0
-1.829 -1.578 2.722 1
0.0 -0.0 3.0 0
0.0 -0.0 3.0 0
-1.624 -1.346 2.689 0
-1.587 -1.298 2.676 0
-1.614 -1.303 2.651 15
0.0 -0.0 3.0 0
-1.626 -1.283 2.608 0
-1.683 -1.312 2.574 0
0.0 -0.0 3.0 0
0.0 -0.0 3.0 0
-1.546 -1.168 2.552 0
-1.485 -1.111 2.551 0
-1.433 -1.062 2.549 0
-1.418 -1.042 2.536 0
-1.409 -1.026 2.522 0
-1.381 -0.998 2.513 0
-1.34 -0.96 2.511 0
-1.318 -0.937 2.502 0
-1.282 -0.906 2.498 0
-1.246 -0.874 2.495 0
-1.232 -0.86 2.484 3
-1.208 -0.837 2.477 1
-1.211 -0.835 2.457 5
-1.202 -0.824 2.444 16
-1.195 -0.816 2.429 17
-1.186 -0.806 2.415 11
-1.184 -0.801 2.396 11
-1.159 -0.78 2.39 0
-1.154 -0.774 2.373 0
0.0 -0.0 3.0 0
0.0 -0.0 3.0 0
0.0 -0.0 3.0 0
0.0 -0.0 3.0 0
0.0 -0.0 3.0 0
-2.626 -2.19 2.495 4
-1.58 -1.301 2.676 0
-1.604 -1.303 2.651 11
0.0 -0.0 3.0 0
-1.625 -1.29 2.606 0
-1.66 -1.302 2.577 0
0.0 -0.0 3.0 0
-2.041 -1.567 2.43 0
-1.498 -1.138 2.563 0
0.0 -0.0 3.0 0
-1.445 -1.078 2.543 0
0.0 -0.0 3.0 0
-1.381 -1.012 2.528 0
-1.356 -0.985 2.519 0
-1.346 -0.971 2.505 0
-1.292 -0.925 2.508 0
-1.272 -0.905 2.499 0
-1.231 -0.869 2.498 0
-1.216 -0.853 2.487 1
-1.208 -0.843 2.474 2
-1.211 -0.841 2.454 13
-1.202 -0.829 2.441 13
-1.189 -0.817 2.428 13
-1.186 -0.81 2.411 12
-1.181 -0.804 2.394 5
-1.171 -0.793 2.38 0
-1.157 -0.78 2.368 0
0.0 -0.0 3.0 0
0.0 -0.0 3.0 0
0.0 -0.0 3.0 0
0.0 -0.0 3.0 0
0.0 -0.0 3.0 0
-1.61 -1.35 2.688 0
-1.576 -1.305 2.675 0
-1.6 -1.308 2.65 8
-1.617 -1.306 2.625 0
-1.615 -1.289 2.606 0
-1.619 -1.278 2.585 0
-1.995 -1.559 2.463 0
-2.061 -1.593 2.42 1
0.0 -0.0 3.0 0
0.0 -0.0 3.0 0
-1.414 -1.061 2.55 0
-1.399 -1.041 2.537 0
-1.374 -1.014 2.527 0
-1.368 -1.001 2.512 0
-1.296 -0.941 2.52 0
-1.283 -0.924 2.509 0
-1.248 -0.893 2.505 0
-1.221 -0.868 2.499 1
-1.219 -0.861 2.483 1
-1.217 -0.855 2.466 3
-1.208 -0.844 2.452 15
-1.193 -0.828 2.441 14
-1.186 -0.82 2.426 10
-1.186 -0.815 2.408 12
-1.178 -0.807 2.392 0
-1.156 -0.787 2.385 0
-1.145 -0.777 2.371 0
0.0 -0.0 3.0 0
0.0 -0.0 3.0 0
0.0 -0.0 3.0 0
0.0 -0.0 3.0 0
0.0 -0.0 3.0 0
-2.597 -2.192 2.494 5
-1.572 -1.309 2.674 0
-1.587 -1.305 2.65 5
-1.61 -1.309 2.625 0
-1.544 -1.24 2.621 0
-1.544 -1.226 2.602 0
0.0 -0.0 3.0 0
-2.061 -1.603 2.417 0
0.0 -0.0 3.0 0
0.0 -0.0 3.0 0
-1.413 -1.068 2.547 0
-1.404 -1.052 2.532 0
-1.374 -1.02 2.525 0
-1.343 -0.989 2.518 0
-1.29 -0.942 2.52 0
-1.267 -0.919 2.511 0
-1.223 -0.881 2.512 1
-1.221 -0.873 2.496 1
-1.204 -0.856 2.486 2
-1.211 -0.855 2.466 11
-1.205 -0.847 2.45 14
-1.193 -0.833 2.438 13
-1.18 -0.821 2.425 12
-1.183 -0.818 2.405 8
-1.175 -0.81 2.39 0
-1.132 -0.776 2.394 0
-1.139 -0.777 2.371 0
-1.107 -0.752 2.369 0
0.0 -0.0 3.0 0
0.0 -0.0 3.0 0
0.0 -0.0 3.0 0
0.0 -0.0 3.0 0
-2.585 -2.194 2.493 5
0.0 -0.0 3.0 0
-1.582 -1.31 2.649 3
-1.608 -1.315 2.623 0
-1.552 -1.255 2.616 0
-1.577 -1.261 2.59 0
0.0 -0.0 3.0 0
-2.044 -1.6 2.418 0
0.0 -0.0 3.0 0
-1.439 -1.104 2.554 0
-1.391 -1.057 2.551 0
-1.376 -1.037 2.538 0
-1.364 -1.02 2.525 0
-1.299 -0.963 2.53 0
-1.277 -0.939 2.522 0
-1.252 -0.913 2.514 0
-1.226 -0.889 2.507 1
-1.218 -0.877 2.494 1
-1.21 -0.865 2.48 2
-1.205 -0.857 2.465 15
-1.199 -0.848 2.449 13
-1.184 -0.832 2.439 10
-1.183 -0.828 2.42 12
-1.174 -0.816 2.407 1
-1.145 -0.793 2.402 0
-1.114 -0.768 2.4 0
-1.124 -0.772 2.375 0
0.0 -0.0 3.0 0
0.0 -0.0 3.0 0
0.0 -0.0 3.0 0
0.0 -0.0 3.0 0
0.0 -0.0 3.0 0
-1.582 -1.351 2.688 0
0.0 -0.0 3.0 0
-1.572 -1.309 2.649 2
-1.601 -1.318 2.622 0
-1.536 -1.249 2.618 0
-1.551 -1.248 2.594 0
0.0 -0.0 3.0 0
-2.06 -1.623 2.409 0
0.0 -0.0 3.0 0
-1.435 -1.109 2.552 0
-1.394 -1.066 2.548 0
-1.379 -1.045 2.535 0
-1.351 -1.016 2.526 0
-1.305 -0.974 2.525 0
-1.268 -0.938 2.522 0
-1.242 -0.913 2.515 0
-1.213 -0.885 2.509 1
-1.209 -0.876 2.494 1
-1.207 -0.869 2.478 9
-1.202 -0.859 2.463 13
-1.19 -0.847 2.45 14
-1.181 -0.835 2.436 12
-1.177 -0.829 2.42 9
-1.164 -0.815 2.408 0
-1.136 -0.792 2.403 0
-1.132 -0.785 2.387 0
-1.112 -0.768 2.378 0
0.0 -0.0 3.0 0
0.0 -0.0 3.0 0
0.0 -0.0 3.0 0
0.0 -0.0 3.0 0
0.0 -0.0 3.0 0
-1.59 -1.366 2.685 0
0.0 -0.0 3.0 0
-1.565 -1.311 2.649 2
-1.576 -1.305 2.626 0
-1.525 -1.248 2.618 0
-1.556 -1.26 2.591 0
-1.599 -1.281 2.559 0
-2.027 -1.607 2.415 0
-2.088 -1.639 2.371 0
0.0 -0.0 3.0 0
-1.387 -1.068 2.547 0
-1.375 -1.05 2.532 0
-1.357 -1.027 2.521 0
-1.286 -0.966 2.529 0
-1.258 -0.937 2.523 0
-1.218 -0.9 2.521 1
-1.213 -0.89 2.506 1
-1.206 -0.879 2.492 2
-1.21 -0.877 2.473 14
-1.198 -0.863 2.461 12
-1.187 -0.849 2.449 10
-1.181 -0.84 2.433 12
-1.183 -0.838 2.413 1
-1.17 -0.824 2.401 0
-1.148 -0.805 2.393 0
0.0 -0.0 3.0 0
-1.104 -0.766 2.379 0
-1.128 -0.78 2.346 0
0.0 -0.0 3.0 0
0.0 -0.0 3.0 0
0.0 -0.0 3.0 0
0.0 -0.0 3.0 0
-1.55 -1.34 2.691 0
0.0 -0.0 3.0 0
-1.552 -1.308 2.65 1
-1.569 -1.307 2.625 0
0.0 -0.0 3.0 0
-1.54 -1.255 2.592 0
-1.501 -1.209 2.584 0
-1.491 -1.189 2.567 0
-1.435 -1.133 2.565 0
-1.406 -1.1 2.555 0
-1.374 -1.065 2.548 0
-1.368 -1.051 2.532 0
-1.311 -0.998 2.535 0
-1.283 -0.969 2.527 0
-1.246 -0.933 2.524 0
-1.224 -0.91 2.516 0
-1.207 -0.892 2.506 2
-1.206 -0.885 2.489 7
-1.207 -0.88 2.471 13
-1.192 -0.863 2.461 13
-1.186 -0.855 2.445 13
-1.18 -0.845 2.43 11
-1.177 -0.838 2.413 0
-1.143 -0.811 2.411 0
-1.13 -0.798 2.399 0
-1.123 -0.788 2.384 0
-1.13 -0.79 2.361 0
-1.116 -0.777 2.348 0
0.0 -0.0 3.0 0
0.0 -0.0 3.0 0
0.0 -0.0 3.0 0
0.0 -0.0 3.0 0
-2.486 -2.162 2.501 3
0.0 -0.0 3.0 0
-1.545 -1.311 2.649 0
-1.555 -1.304 2.626 0
-1.548 -1.283 2.608 0
-1.494 -1.225 2.602 0
-1.503 -1.219 2.58 0
-2.016 -1.619 2.411 0
-1.441 -1.145 2.561 0
-2.128 -1.675 2.323 0
-1.373 -1.071 2.545 0
-1.343 -1.039 2.537 0
-1.301 -0.997 2.535 0
-1.267 -0.964 2.53 0
-1.227 -0.925 2.529 0
-1.205 -0.902 2.52 1
-1.204 -0.895 2.504 2
-1.208 -0.892 2.485 12
-1.203 -0.883 2.469 11
-1.189 -0.867 2.458 10
-1.183 -0.858 2.443 13
-1.177 -0.849 2.428 2
-1.18 -0.846 2.408 0
0.0 -0.0 3.0 0
-1.136 -0.806 2.392 0
-1.12 -0.791 2.382 0
-1.11 -0.78 2.368 0
-1.105 -0.773 2.351 0
0.0 -0.0 3.0 0
0.0 -0.0 3.0 0
0.0 -0.0 3.0 0
0.0 -0.0 3.0 0
-1.53 -1.338 2.691 0
-1.512 -1.306 2.674 0
-1.517 -1.294 2.653 0
-1.551 -1.309 2.625 0
-1.519 -1.267 2.613 0
-1.505 -1.241 2.597 0
-1.481 -1.209 2.584 0
-1.435 -1.159 2.578 0
-2.084 -1.667 2.36 0
-1.365 -1.082 2.563 0
-1.348 -1.058 2.551 0
-1.319 -1.026 2.543 0
-1.295 -0.999 2.534 0
-1.243 -0.951 2.536 0
-1.218 -0.924 2.529 1
-1.217 -0.917 2.512 1
-1.207 -0.903 2.5 9
-1.208 -0.898 2.482 13
-1.191 -0.88 2.471 13
-1.177 -0.863 2.461 10
-1.18 -0.861 2.441 11
-1.174 -0.852 2.425 0
-1.162 -0.838 2.413 0
-1.125 -0.808 2.413 0
-1.109 -0.792 2.403 0
-1.129 -0.802 2.373 0
-1.098 -0.776 2.371 0
-1.102 -0.775 2.35 0
0.0 -0.0 3.0 0
0.0 -0.0 3.0 0
0.0 -0.0 3.0 0
0.0 -0.0 3.0 0
-2.446 -2.152 2.503 5
-1.526 -1.326 2.669 0
0.0 -0.0 3.0 0
-1.535 -1.303 2.626 0
-1.473 -1.237 2.622 0
-1.474 -1.223 2.603 0
-1.468 -1.205 2.585 0
-1.476 -1.2 2.563 0
-1.427 -1.148 2.559 0
-1.383 -1.102 2.555 0
-1.351 -1.067 2.547 0
-1.3 -1.018 2.547 0
-1.267 -0.983 2.541 0
-1.233 -0.949 2.537 0
-1.215 -0.928 2.527 1
-1.214 -0.92 2.511 2
-1.207 -0.909 2.496 13
-1.205 -0.901 2.48 10
-1.191 -0.885 2.468 10
-1.183 -0.873 2.454 13
-1.183 -0.868 2.436 3
-1.159 -0.846 2.43 0
-1.141 -0.828 2.42 0
-1.14 -0.823 2.402 0
-1.127 -0.809 2.39 0
-1.102 -0.788 2.384 0
-1.101 -0.783 2.366 0
-1.111 -0.786 2.34 0
0.0 -0.0 3.0 0
0.0 -0.0 3.0 0
0.0 -0.0 3.0 0
0.0 -0.0 3.0 0
-1.501 -1.329 2.693 0
-1.509 -1.32 2.671 1
0.0 -0.0 3.0 0
-1.507 -1.287 2.631 0
-1.463 -1.236 2.622 0
-1.461 -1.22 2.604 0
-1.431 -1.182 2.593 0
-1.421 -1.162 2.577 0
-1.456 -1.179 2.547 0
-1.379 -1.107 2.553 0
-1.308 -1.04 2.559 0
-1.296 -1.022 2.545 0
-1.254 -0.98 2.543 0
-1.218 -0.944 2.54 0
-1.211 -0.932 2.525 1
-1.211 -0.924 2.509 7
-1.203 -0.911 2.495 14
-1.196 -0.9 2.48 13
-1.182 -0.884 2.469 9
-1.18 -0.876 2.453 13
-1.18 -0.872 2.434 0
-1.15 -0.844 2.431 0
-1.144 -0.835 2.415 0
-1.125 -0.817 2.406 0
-1.13 -0.817 2.385 0
-1.09 -0.784 2.387 0
-1.083 -0.775 2.373 0
-1.084 -0.772 2.352 0
0.0 -0.0 3.0 0
0.0 -0.0 3.0 0
0.0 -0.0 3.0 0
0.0 -0.0 3.0 0
-1.485 -1.322 2.695 0
-1.494 -1.314 2.672 1
0.0 -0.0 3.0 0
-1.509 -1.297 2.628 0
-1.477 -1.255 2.616 0
-1.451 -1.219 2.604 0
-1.424 -1.184 2.592 0
-1.402 -1.155 2.58 0
-1.425 -1.161 2.554 0
-1.336 -1.079 2.564 0
-1.28 -1.024 2.565 0
-1.281 -1.015 2.548 0
-1.23 -0.967 2.549 0
-1.224 -0.954 2.535 0
-1.211 -0.937 2.523 2
-1.207 -0.927 2.507 11
-1.203 -0.917 2.491 12
-1.193 -0.903 2.479 10
-1.185 -0.891 2.465 13
-1.179 -0.882 2.449 5
-1.165 -0.866 2.438 0
-1.15 -0.85 2.427 0
-1.135 -0.833 2.417 0
-1.128 -0.824 2.401 0
-1.124 -0.817 2.384 0
-1.088 -0.786 2.386 0
-1.098 -0.79 2.36 0
0.0 -0.0 3.0 0
0.0 -0.0 3.0 0
0.0 -0.0 3.0 0
0.0 -0.0 3.0 0
0.0 -0.0 3.0 0
-1.475 -1.322 2.695 0
-1.481 -1.31 2.673 2
0.0 -0.0 3.0 0
-1.502 -1.298 2.628 0
-1.452 -1.242 2.62 0
-1.459 -1.234 2.599 0
-1.423 -1.19 2.59 0
-1.377 -1.141 2.585 0
-2.064 -1.694 2.35 0
-1.327 -1.078 2.564 0
-1.277 -1.028 2.564 0
-1.256 -1.003 2.554 0
-1.223 -0.968 2.549 0
-1.217 -0.956 2.534 1
-1.214 -0.945 2.519 6
-1.204 -0.93 2.505 13
-1.194 -0.916 2.492 14
-1.183 -0.902 2.479 8
-1.181 -0.894 2.463 13
-1.167 -0.877 2.452 0
-1.164 -0.87 2.435 0
-1.12 -0.832 2.439 0
-1.137 -0.841 2.411 0
-1.122 -0.824 2.401 0
-1.103 -0.807 2.392 0
-1.102 -0.802 2.374 0
-1.089 -0.788 2.362 0
0.0 -0.0 3.0 0
0.0 -0.0 3.0 0
0.0 -0.0 3.0 0
0.0 -0.0 3.0 0
-1.524 -1.391 2.704 0
-1.468 -1.323 2.694 0
-1.471 -1.31 2.673 4
0.0 -0.0 3.0 0
-1.501 -1.306 2.626 0
-1.445 -1.244 2.62 0
-1.434 -1.22 2.604 0
-1.422 -1.198 2.588 0
0.0 -0.0 3.0 0
-1.355 -1.118 2.571 0
-1.296 -1.059 2.572 0
-1.276 -1.034 2.561 0
-1.238 -0.994 2.557 0
-1.223 -0.973 2.546 1
-1.211 -0.957 2.533 1
-1.21 -0.948 2.517 11
-1.201 -0.934 2.504 10
-1.19 -0.919 2.491 12
-1.189 -0.911 2.474 13
-1.178 -0.898 2.461 7
-1.161 -0.878 2.451 0
-1.146 -0.863 2.44 0
-1.132 -0.846 2.43 0
-1.122 -0.834 2.416 0
-1.122 -0.83 2.397 0
-1.106 -0.814 2.387 0
-1.073 -0.785 2.387 0
-1.077 -0.784 2.365 0
0.0 -0.0 3.0 0
0.0 -0.0 3.0 0
0.0 -0.0 3.0 0
0.0 -0.0 3.0 0
-1.493 -1.371 2.709 0
-1.449 -1.315 2.696 0
-1.461 -1.308 2.674 8
0.0 -0.0 3.0 0
-1.491 -1.304 2.626 0
-1.444 -1.25 2.618 0
-1.439 -1.232 2.6 0
-1.385 -1.174 2.596 0
-1.361 -1.141 2.585 0
-1.321 -1.097 2.579 0
-1.274 -1.049 2.576 0
-1.27 -1.035 2.561 0
-1.231 -0.995 2.557 0
-1.211 -0.97 2.548 1
-1.216 -0.967 2.528 5
-1.21 -0.955 2.514 12
-1.197 -0.937 2.502 13
-1.184 -0.92 2.49 10
-1.183 -0.913 2.473 13
-1.178 -0.903 2.458 0
-1.158 -0.882 2.449 0
-1.134 -0.858 2.443 0
-1.111 -0.835 2.436 0
-1.108 -0.828 2.42 0
-1.125 -0.837 2.392 0
-1.118 -0.827 2.377 0
-1.07 -0.788 2.385 0
-1.106 -0.81 2.344 0
0.0 -0.0 3.0 0
0.0 -0.0 3.0 0
0.0 -0.0 3.0 0
0.0 -0.0 3.0 0
-1.478 -1.364 2.71 0
-1.442 -1.316 2.696 0
-1.448 -1.305 2.675 11
0.0 -0.0 3.0 0
-1.498 -1.319 2.622 0
-1.437 -1.252 2.617 0
-1.414 -1.219 2.604 0
-1.405 -1.198 2.588 0
-1.345 -1.136 2.587 0
-1.305 -1.091 2.581 0
-1.292 -1.07 2.568 0
-1.239 -1.017 2.568 0
-1.216 -0.989 2.56 1
-1.213 -0.978 2.544 1
-1.21 -0.968 2.528 9
-1.201 -0.953 2.514 11
-1.191 -0.938 2.501 12
-1.181 -0.923 2.488 15
-1.179 -0.915 2.471 8
-1.151 -0.888 2.467 0
-1.149 -0.88 2.45 0
-1.149 -0.875 2.432 0
-1.114 -0.843 2.431 0
-1.128 -0.849 2.405 0
-1.104 -0.826 2.4 0
-1.106 -0.823 2.38 0
-1.076 -0.797 2.378 0
-1.118 -0.824 2.333 0
0.0 -0.0 3.0 0
0.0 -0.0 3.0 0
0.0 -0.0 3.0 0
0.0 -0.0 3.0 0
-1.473 -1.369 2.709 0
-1.415 -1.299 2.7 0
-1.441 -1.307 2.674 13
0.0 -0.0 3.0 0
-1.497 -1.327 2.62 0
-1.404 -1.23 2.624 0
-1.401 -1.215 2.605 0
-1.395 -1.197 2.588 0
-1.341 -1.139 2.585 0
-1.287 -1.082 2.585 0
-1.238 -1.031 2.583 0
-1.23 -1.016 2.569 0
-1.213 -0.992 2.558 1
-1.213 -0.984 2.541 3
-1.204 -0.969 2.527 11
-1.197 -0.956 2.513 12
-1.185 -0.939 2.501 9
-1.181 -0.929 2.485 16
-1.173 -0.916 2.471 0
-1.142 -0.886 2.468 0
-1.139 -0.879 2.451 0
-1.155 -0.885 2.426 0
-1.111 -0.846 2.429 0
-1.096 -0.83 2.419 0
-1.113 -0.838 2.391 0
-1.085 -0.813 2.387 0
-1.07 -0.796 2.378 0
-1.08 -0.8 2.352 0
-1.069 -0.788 2.338 0
0.0 -0.0 3.0 0
0.0 -0.0 3.0 0
0.0 -0.0 3.0 0
-1.463 -1.368 2.709 0
-1.426 -1.316 2.696 0
-1.437 -1.31 2.673 16
0.0 -0.0 3.0 0
-1.472 -1.313 2.624 0
-1.415 -1.247 2.619 0
-1.379 -1.204 2.609 0
-1.382 -1.194 2.589 0
-1.305 -1.115 2.594 0
-1.262 -1.068 2.59 0
-1.231 -1.032 2.583 0
-1.22 -1.014 2.57 0
-1.215 -1.001 2.554 1
-1.209 -0.988 2.539 8
-1.206 -0.977 2.523 9
-1.194 -0.96 2.511 12
-1.184 -0.944 2.498 13
-1.174 -0.929 2.485 12
-1.164 -0.915 2.472 0
-1.138 -0.889 2.466 0
-1.133 -0.879 2.45 0
-1.128 -0.87 2.435 0
-1.113 -0.853 2.425 0
-1.098 -0.837 2.414 0
-1.11 -0.841 2.389 0
-1.103 -0.83 2.374 0
-1.087 -0.814 2.364 0
-1.074 -0.8 2.352 0
0.0 -0.0 3.0 0
0.0 -0.0 3.0 0
0.0 -0.0 3.0 0
0.0 -0.0 3.0 0
-1.439 -1.353 2.712 0
-1.41 -1.31 2.698 0
-1.43 -1.312 2.673 19
0.0 -0.0 3.0 0
-1.445 -1.296 2.628 0
-1.408 -1.249 2.618 0
-1.396 -1.226 2.602 0
-1.361 -1.182 2.593 0
-1.289 -1.109 2.596 0
-1.259 -1.072 2.589 0
-1.219 -1.029 2.584 0
-1.22 -1.02 2.567 0
-1.218 -1.009 2.551 2
-1.209 -0.993 2.537 11
-1.191 -0.971 2.526 11
-1.185 -0.958 2.512 9
-1.178 -0.946 2.497 14
-1.177 -0.937 2.48 1
-1.14 -0.902 2.479 0
-1.135 -0.892 2.464 0
-1.136 -0.887 2.446 0
-1.116 -0.866 2.438 0
-1.107 -0.854 2.424 0
-1.078 -0.826 2.422 0
-1.095 -0.835 2.394 0
-1.1 -0.834 2.372 0
-1.075 -0.811 2.366 0
0.0 -0.0 3.0 0
-1.083 -0.808 2.322 0
0.0 -0.0 3.0 0
0.0 -0.0 3.0 0
0.0 -0.0 3.0 0
-1.438 -1.359 2.711 0
-1.403 -1.311 2.697 0
-1.42 -1.311 2.673 20
0.0 -0.0 3.0 0
-1.435 -1.295 2.629 0
-1.386 -1.238 2.622 0
-1.383 -1.222 2.603 0
-1.316 -1.15 2.604 0
-1.28 -1.108 2.597 0
-1.249 -1.071 2.589 0
-1.215 -1.032 2.583 0
-1.213 -1.021 2.566 1
-1.211 -1.01 2.55 8
-1.203 -0.994 2.536 10
-1.194 -0.979 2.522 12
-1.184 -0.964 2.509 13
-1.175 -0.948 2.496 12
-1.159 -0.929 2.485 0
-1.125 -0.895 2.483 0
-1.126 -0.89 2.465 0
-1.109 -0.871 2.455 0
-1.118 -0.873 2.433 0
-1.116 -0.865 2.416 0
-1.104 -0.851 2.404 0
-1.092 -0.837 2.392 0
-1.099 -0.838 2.368 0
-1.064 -0.806 2.37 0
0.0 -0.0 3.0 0
0.0 -0.0 3.0 0
-1.098 -0.82 2.287 0
0.0 -0.0 3.0 0
0.0 -0.0 3.0 0
-1.425 -1.356 2.712 0
-1.399 -1.315 2.696 0
-1.413 -1.312 2.673 21
0.0 -0.0 3.0 0
-1.431 -1.299 2.627 0
-1.385 -1.244 2.62 0
-1.379 -1.226 2.602 0
-1.303 -1.146 2.605 0
-1.282 -1.116 2.594 0
-1.222 -1.054 2.595 0
-1.209 -1.033 2.583 0
-1.21 -1.024 2.565 2
-1.211 -1.016 2.548 11
-1.202 -1.001 2.533 10
-1.184 -0.977 2.523 10
-1.181 -0.967 2.507 14
-1.174 -0.955 2.492 2
-1.164 -0.939 2.479 0
-1.128 -0.903 2.479 0
-1.123 -0.893 2.463 0
-1.124 -0.888 2.445 0
-1.124 -0.883 2.427 0
-1.086 -0.848 2.428 0
-1.101 -0.854 2.402 0
-1.074 -0.828 2.398 0
-1.082 -0.83 2.375 0
-1.055 -0.804 2.372 0
0.0 -0.0 3.0 0
0.0 -0.0 3.0 0
-1.058 -0.794 2.31 0
0.0 -0.0 3.0 0
0.0 -0.0 3.0 0
-1.421 -1.359 2.711 0
-1.389 -1.314 2.697 0
-1.403 -1.311 2.673 21
0.0 -0.0 3.0 0
-1.409 -1.287 2.631 0
-1.39 -1.256 2.616 0
-1.34 -1.198 2.611 0
-1.291 -1.142 2.607 0
-1.246 -1.092 2.602 0
-1.225 -1.062 2.592 0
-1.22 -1.049 2.576 1
-1.209 -1.031 2.563 8
-1.204 -1.017 2.547 11
-1.193 -0.999 2.534 12
-1.184 -0.984 2.52 11
-1.18 -0.972 2.504 13
-1.156 -0.946 2.497 0
-1.126 -0.914 2.493 0
-1.113 -0.897 2.482 0
-1.131 -0.906 2.456 0
-1.1 -0.875 2.453 0
-1.121 -0.886 2.425 0
-1.077 -0.846 2.429 0
-1.086 -0.848 2.406 0
-1.097 -0.851 2.382 0
-1.076 -0.83 2.374 0
-1.069 -0.82 2.359 0
0.0 -0.0 3.0 0
-1.063 -0.806 2.323 0
-1.08 -0.815 2.291 0
0.0 -0.0 3.0 0
0.0 -0.0 3.0 0
-1.411 -1.359 2.711 0
-1.368 -1.301 2.7 0
-1.396 -1.313 2.673 22
0.0 -0.0 3.0 0
-1.414 -1.3 2.627 0
-1.377 -1.252 2.617 0
-1.31 -1.179 2.617 0
-1.261 -1.123 2.613 0
-1.248 -1.101 2.599 0
-1.224 -1.069 2.59 0
-1.208 -1.045 2.578 2
-1.206 -1.034 2.561 9
-1.198 -1.018 2.547 9
-1.189 -1.002 2.533 10
-1.183 -0.989 2.518 14
-1.177 -0.976 2.503 3
-1.141 -0.939 2.501 0
-1.122 -0.917 2.492 0
-1.118 -0.907 2.476 0
-1.116 -0.899 2.46 0
-1.091 -0.873 2.455 0
-1.123 -0.893 2.42 0
-1.095 -0.865 2.417 0
-1.083 -0.85 2.405 0
-1.091 -0.851 2.381 0
-1.067 -0.828 2.376 0
-1.06 -0.818 2.361 0
0.0 -0.0 3.0 0
-1.043 -0.796 2.332 0
0.0 -0.0 3.0 0
0.0 -0.0 3.0 0
0.0 -0.0 3.0 0
-1.387 -1.343 2.715 0
-1.361 -1.303 2.699 0
-1.383 -1.308 2.674 20
0.0 -0.0 3.0 0
-1.427 -1.319 2.622 0
-1.35 -1.235 2.622 0
-1.301 -1.178 2.617 0
-1.266 -1.135 2.609 0
-1.227 -1.089 2.603 0
-1.223 -1.075 2.587 1
-1.207 -1.051 2.575 7
-1.205 -1.04 2.559 10
-1.194 -1.022 2.545 12
-1.183 -1.003 2.532 10
-1.183 -0.995 2.515 13
-1.162 -0.97 2.506 0
-1.144 -0.948 2.496 0
-1.099 -0.903 2.5 0
-1.129 -0.922 2.468 0
-1.098 -0.891 2.465 0
-1.102 -0.887 2.445 0
-1.111 -0.89 2.422 0
-1.083 -0.861 2.42 0
-1.077 -0.851 2.404 0
-1.079 -0.848 2.384 0
-1.061 -0.829 2.375 0
-1.066 -0.828 2.353 0
-1.064 -0.822 2.335 0
-1.088 -0.835 2.299 0
0.0 -0.0 3.0 0
0.0 -0.0 3.0 0
0.0 -0.0 3.0 0
-1.392 -1.356 2.712 0
-1.369 -1.318 2.696 0
-1.379 -1.313 2.673 19
0.0 -0.0 3.0 0
-1.377 -1.282 2.633 0
-1.314 -1.21 2.63 0
-1.288 -1.174 2.619 0
-1.245 -1.122 2.614 0
-1.227 -1.095 2.601 0
-1.214 -1.074 2.588 1
-1.206 -1.057 2.573 9
-1.202 -1.043 2.557 9
-1.194 -1.027 2.543 10
-1.179 -1.007 2.53 14
-1.173 -0.993 2.515 5
-1.144 -0.961 2.51 0
-1.149 -0.957 2.491 0
-1.125 -0.93 2.484 0
-1.109 -0.911 2.474 0
-1.107 -0.903 2.458 0
-1.099 -0.891 2.443 0
-1.085 -0.873 2.433 0
-1.085 -0.868 2.415 0
-1.091 -0.867 2.393 0
-1.059 -0.837 2.392 0
-1.058 -0.831 2.374 0
-1.068 -0.834 2.348 0
-1.064 -0.826 2.331 0
-1.065 -0.823 2.31 0
0.0 -0.0 3.0 0
0.0 -0.0 3.0 0
0.0 -0.0 3.0 0
-1.368 -1.34 2.715 0
-1.35 -1.308 2.698 0
-1.37 -1.312 2.673 16
-1.388 -1.314 2.648 0
-1.381 -1.293 2.629 0
-1.304 -1.208 2.631 0
-1.256 -1.152 2.626 0
-1.229 -1.115 2.616 0
-1.223 -1.099 2.6 1
-1.216 -1.082 2.585 5
-1.206 -1.063 2.571 10
-1.192 -1.041 2.558 11
-1.181 -1.023 2.544 9
-1.179 -1.012 2.528 13
-1.167 -0.994 2.515 0
-1.146 -0.969 2.506 0
-1.128 -0.946 2.497 0
-1.11 -0.924 2.488 0
-1.108 -0.916 2.471 0
-1.092 -0.897 2.461 0
-1.081 -0.881 2.449 0
-1.085 -0.878 2.43 0
-1.082 -0.871 2.412 0
-1.085 -0.868 2.392 0
-1.064 -0.846 2.385 0
-1.072 -0.847 2.362 0
-1.068 -0.839 2.345 0
0.0 -0.0 3.0 0
-1.064 -0.827 2.306 0
0.0 -0.0 3.0 0
0.0 -0.0 3.0 0
0.0 -0.0 3.0 0
-1.366 -1.347 2.714 0
-1.343 -1.309 2.698 0
-1.363 -1.312 2.673 13
-1.381 -1.316 2.647 0
-1.34 -1.262 2.638 0
-1.283 -1.196 2.634 0
-1.229 -1.134 2.632 0
-1.22 -1.114 2.616 0
-1.213 -1.097 2.601 1
-1.212 -1.086 2.583 9
-1.202 -1.067 2.569 8
-1.192 -1.048 2.555 9
-1.184 -1.032 2.541 13
-1.172 -1.013 2.528 6
-1.161 -0.995 2.515 0
-1.134 -0.964 2.509 0
-1.128 -0.952 2.494 0
-1.095 -0.917 2.492 0
-1.091 -0.907 2.476 0
-1.103 -0.911 2.452 0
-1.093 -0.896 2.44 0
-1.084 -0.884 2.426 0
-1.082 -0.876 2.409 0
-1.061 -0.854 2.402 0
-1.067 -0.853 2.38 0
-1.043 -0.83 2.375 0
-1.059 -0.837 2.346 0
0.0 -0.0 3.0 0
-1.067 -0.833 2.301 0
0.0 -0.0 3.0 0
0.0 -0.0 3.0 0
0.0 -0.0 3.0 0
-1.365 -1.354 2.712 0
-1.331 -1.305 2.699 0
-1.358 -1.316 2.672 11
-1.389 -1.331 2.643 0
-1.307 -1.239 2.645 0
-1.262 -1.184 2.638 0
-1.231 -1.143 2.629 0
-1.228 -1.128 2.611 0
-1.213 -1.103 2.598 3
-1.209 -1.089 2.582 10
-1.193 -1.065 2.57 11
-1.179 -1.043 2.557 8
-1.177 -1.033 2.54 13
-1.169 -1.017 2.526 0
-1.137 -0.981 2.522 0
-1.128 -0.965 2.508 0
-1.107 -0.94 2.5 0
-1.115 -0.94 2.479 0
-1.096 -0.917 2.47 0
-1.108 -0.922 2.446 0
-1.092 -0.902 2.436 0
-1.075 -0.881 2.428 0
-1.05 -0.856 2.423 0
-1.061 -0.859 2.399 0
-1.072 -0.863 2.373 0
-1.051 -0.841 2.366 0
-1.059 -0.842 2.343 0
0.0 -0.0 3.0 0
-1.05 -0.825 2.308 0
0.0 -0.0 3.0 0
0.0 -0.0 3.0 0
0.0 -0.0 3.0 0
-1.333 -1.329 2.717 0
-1.324 -1.306 2.698 0
-1.349 -1.315 2.672 8
-1.339 -1.291 2.654 0
-1.303 -1.243 2.644 0
-1.25 -1.179 2.639 0
-1.219 -1.138 2.63 0
-1.221 -1.129 2.611 1
-1.206 -1.104 2.598 9
-1.205 -1.093 2.58 8
-1.189 -1.068 2.568 10
-1.182 -1.053 2.553 11
-1.174 -1.036 2.539 7
-1.151 -1.007 2.53 0
-1.145 -0.994 2.515 0
-1.119 -0.963 2.509 0
-1.115 -0.953 2.493 0
-1.094 -0.928 2.485 0
-1.078 -0.908 2.476 0
-1.099 -0.92 2.447 0
-1.089 -0.904 2.435 0
-1.061 -0.875 2.432 0
-1.081 -0.886 2.402 0
-1.075 -0.876 2.387 0
-1.066 -0.863 2.373 0
-1.059 -0.853 2.357 0
-1.041 -0.833 2.349 0
0.0 -0.0 3.0 0
0.0 -0.0 3.0 0
0.0 -0.0 3.0 0
0.0 -0.0 3.0 0
0.0 -0.0 3.0 0
-1.34 -1.345 2.714 0
-1.323 -1.313 2.697 0
-1.345 -1.319 2.671 5
-1.31 -1.27 2.66 0
-1.288 -1.236 2.646 0
-1.221 -1.159 2.646 0
-1.229 -1.155 2.625 0
-1.215 -1.13 2.611 2
-1.208 -1.113 2.595 10
-1.201 -1.096 2.579 10
-1.18 -1.066 2.569 8
-1.181 -1.058 2.551 11
-1.164 -1.034 2.539 0
-1.147 -1.011 2.529 0
-1.136 -0.993 2.516 0
-1.115 -0.967 2.507 0
-1.103 -0.948 2.496 0
-1.108 -0.946 2.476 0
-1.098 -0.93 2.463 0
-1.085 -0.913 2.452 0
-1.083 -0.905 2.434 0
-1.057 -0.878 2.43 0
-1.055 -0.87 2.413 0
-1.063 -0.871 2.39 0
-1.063 -0.866 2.371 0
-1.05 -0.851 2.359 0
-1.063 -0.856 2.331 0
0.0 -0.0 3.0 0
-1.038 -0.826 2.307 0
0.0 -0.0 3.0 0
0.0 -0.0 3.0 0
0.0 -0.0 3.0 0
-1.33 -1.343 2.715 0
-1.313 -1.311 2.697 0
-1.338 -1.32 2.671 4
-1.3 -1.269 2.66 0
-1.253 -1.21 2.653 0
-1.223 -1.167 2.643 0
-1.217 -1.151 2.626 1
-1.208 -1.131 2.611 8
-1.204 -1.116 2.594 8
-1.189 -1.092 2.581 10
-1.182 -1.076 2.565 11
-1.169 -1.053 2.553 8
-1.155 -1.033 2.54 0
-1.127 -0.999 2.534 0
-1.132 -0.995 2.515 0
-1.106 -0.964 2.509 0
-1.1 -0.952 2.494 0
-1.084 -0.932 2.484 0
-1.089 -0.929 2.464 0
-1.073 -0.908 2.454 0
-1.068 -0.898 2.439 0
-1.08 -0.902 2.414 0
-1.046 -0.868 2.415 0
-1.066 -0.879 2.385 0
-1.04 -0.852 2.381 0
-1.025 -0.835 2.371 0
-1.038 -0.84 2.344 0
0.0 -0.0 3.0 0
0.0 -0.0 3.0 0
0.0 -0.0 3.0 0
0.0 -0.0 3.0 0
0.0 -0.0 3.0 0
-1.315 -1.336 2.716 0
-1.312 -1.317 2.696 0
-1.32 -1.31 2.673 3
-1.293 -1.27 2.66 0
-1.235 -1.2 2.656 0
-1.216 -1.168 2.643 0
-1.219 -1.16 2.623 1
-1.204 -1.134 2.61 10
-1.192 -1.113 2.595 9
-1.183 -1.093 2.58 8
-1.175 -1.077 2.565 11
-1.174 -1.065 2.548 0
-1.146 -1.031 2.541 0
-1.138 -1.014 2.527 0
-1.123 -0.993 2.515 0
-1.106 -0.971 2.505 0
-1.108 -0.965 2.487 0
-1.087 -0.94 2.479 0
-1.088 -0.934 2.461 0
-1.075 -0.916 2.45 0
-1.062 -0.899 2.438 0
-1.054 -0.886 2.424 0
-1.071 -0.894 2.397 0
-1.048 -0.87 2.391 0
-1.042 -0.859 2.376 0
-1.041 -0.854 2.357 0
-1.029 -0.838 2.345 0
0.0 -0.0 3.0 0
0.0 -0.0 3.0 0
0.0 -0.0 3.0 0
0.0 -0.0 3.0 0
0.0 -0.0 3.0 0
-1.311 -1.34 2.715 0
-1.302 -1.316 2.696 0
-1.318 -1.317 2.672 2
-1.244 -1.23 2.671 0
-1.22 -1.192 2.658 0
-1.212 -1.172 2.642 1
-1.209 -1.158 2.624 7
-1.204 -1.14 2.607 9
-1.194 -1.121 2.592 11
-1.188 -1.104 2.576 11
-1.172 -1.079 2.564 8
-1.156 -1.055 2.552 0
-1.148 -1.039 2.537 0
-1.131 -1.015 2.527 0
-1.12 -0.997 2.514 0
-1.105 -0.976 2.503 0
-1.085 -0.95 2.495 0
-1.089 -0.947 2.475 0
-1.085 -0.936 2.459 0
-1.097 -0.94 2.435 0
-1.053 -0.896 2.44 0
-1.07 -0.905 2.412 0
-1.042 -0.875 2.41 0
-1.081 -0.903 2.368 0
0.0 -0.0 3.0 0
-1.038 -0.856 2.355 0
-1.026 -0.84 2.344 0
0.0 -0.0 3.0 0
0.0 -0.0 3.0 0
0.0 -0.0 3.0 0
0.0 -0.0 3.0 0
0.0 -0.0 3.0 0
-1.288 -1.323 2.719 0
-1.282 -1.302 2.699 0
-1.303 -1.309 2.674 1
-1.235 -1.228 2.671 0
-1.222 -1.202 2.655 0
-1.214 -1.182 2.639 1
-1.206 -1.161 2.623 9
-1.203 -1.147 2.605 8
-1.188 -1.122 2.592 8
-1.184 -1.108 2.575 12
-1.171 -1.086 2.561 1
-1.158 -1.064 2.549 0
-1.127 -1.027 2.543 0
-1.125 -1.016 2.526 0
-1.105 -0.99 2.517 0
-1.093 -0.971 2.505 0
-1.081 -0.954 2.493 0
-1.083 -0.947 2.475 0
-1.09 -0.947 2.453 0
-1.08 -0.932 2.44 0
-1.067 -0.913 2.429 0
-1.075 -0.915 2.406 0
-1.028 -0.869 2.414 0
-1.061 -0.892 2.376 0
-1.022 -0.853 2.381 0
-1.035 -0.858 2.353 0
-1.02 -0.841 2.343 0
0.0 -0.0 3.0 0
0.0 -0.0 3.0 0
0.0 -0.0 3.0 0
0.0 -0.0 3.0 0
0.0 -0.0 3.0 0
-1.289 -1.333 2.717 0
-1.28 -1.309 2.698 0
-1.288 -1.302 2.675 0
-1.228 -1.228 2.671 0
-1.215 -1.203 2.655 1
-1.216 -1.19 2.636 6
-1.202 -1.165 2.621 9
-1.185 -1.136 2.609 11
-1.181 -1.123 2.591 9
-1.175 -1.106 2.575 10
-1.17 -1.091 2.559 0
-1.129 -1.043 2.557 0
-1.127 -1.033 2.54 0
-1.104 -1.003 2.532 0
-1.084 -0.977 2.523 0
-1.095 -0.98 2.501 0
-1.083 -0.961 2.489 0
-1.077 -0.948 2.474 0
-1.098 -0.96 2.446 0
-1.043 -0.906 2.456 0
-1.074 -0.926 2.421 0
-1.075 -0.92 2.402 0
-1.039 -0.884 2.404 0
-1.047 -0.885 2.381 0
0.0 -0.0 3.0 0
-1.037 -0.866 2.348 0
0.0 -0.0 3.0 0
0.0 -0.0 3.0 0
0.0 -0.0 3.0 0
0.0 -0.0 3.0 0
0.0 -0.0 3.0 0
-1.331 -1.401 2.728 0
-1.28 -1.331 2.717 0
-1.263 -1.299 2.7 0
-1.256 -1.277 2.681 0
-1.224 -1.232 2.67 0
-1.206 -1.201 2.656 1
-1.206 -1.188 2.637 9
-1.204 -1.174 2.619 8
-1.187 -1.146 2.605 9
-1.18 -1.129 2.589 11
-1.174 -1.112 2.573 2
-1.161 -1.09 2.56 0
-1.153 -1.073 2.545 0
-1.123 -1.036 2.539 0
-1.109 -1.014 2.527 0
-1.106 -1.003 2.511 0
-1.084 -0.975 2.503 0
-1.072 -0.957 2.491 0
-1.087 -0.963 2.466 0
-1.066 -0.938 2.458 0
-1.073 -0.938 2.437 0
-1.043 -0.905 2.435 0
-1.046 -0.901 2.415 0
-1.041 -0.891 2.399 0
-1.052 -0.895 2.374 0
-1.013 -0.856 2.378 0
-1.023 -0.859 2.353 0
0.0 -0.0 3.0 0
0.0 -0.0 3.0 0
0.0 -0.0 3.0 0
0.0 -0.0 3.0 0
0.0 -0.0 3.0 0
-1.303 -1.379 2.732 0
-1.27 -1.329 2.717 0
-1.25 -1.294 2.701 0
-1.227 -1.256 2.687 0
-1.221 -1.236 2.669 0
-1.213 -1.215 2.652 4
-1.205 -1.195 2.635 10
-1.191 -1.17 2.62 11
-1.177 -1.144 2.606 8
-1.179 -1.135 2.587 9
-1.167 -1.113 2.573 0
-1.138 -1.075 2.566 0
0.0 -0.0 3.0 0
-1.103 -1.023 2.544 0
-1.111 -1.023 2.523 0
-1.103 -1.007 2.509 0
-1.108 -1.004 2.489 0
-1.074 -0.965 2.487 0
-1.073 -0.957 2.469 0
-1.06 -0.939 2.458 0
-1.053 -0.925 2.444 0
-1.04 -0.907 2.433 0
-1.054 -0.914 2.407 0
-1.007 -0.867 2.415 0
-1.032 -0.883 2.382 0
-1.004 -0.853 2.38 0
-0.989 -0.836 2.37 0
0.0 -0.0 3.0 0
0.0 -0.0 3.0 0
0.0 -0.0 3.0 0
0.0 -0.0 3.0 0
0.0 -0.0 3.0 0
-1.282 -1.366 2.734 0
-1.258 -1.324 2.719 0
-1.246 -1.298 2.7 0
-1.224 -1.26 2.686 0
-1.208 -1.231 2.67 1
-1.212 -1.222 2.65 9
-1.204 -1.201 2.633 8
-1.185 -1.17 2.62 10
-1.176 -1.15 2.604 10
-1.173 -1.136 2.587 2
-1.155 -1.108 2.575 0
-1.131 -1.076 2.565 0
-1.138 -1.072 2.545 0
-1.116 -1.043 2.536 0
-1.088 -1.008 2.53 0
-1.116 -1.026 2.5 0
-1.071 -0.976 2.503 0
-1.079 -0.976 2.481 0
-1.058 -0.95 2.473 0
-1.062 -0.947 2.453 0
-1.061 -0.938 2.436 0
-1.078 -0.947 2.409 0
-1.04 -0.907 2.411 0
-1.001 -0.867 2.415 0
-1.012 -0.871 2.39 0
0.0 -0.0 3.0 0
-1.003 -0.852 2.358 0
0.0 -0.0 3.0 0
0.0 -0.0 3.0 0
0.0 -0.0 3.0 0
0.0 -0.0 3.0 0
0.0 -0.0 3.0 0
-1.265 -1.355 2.737 1
-1.254 -1.328 2.718 0
-1.234 -1.293 2.702 0
-1.225 -1.269 2.684 0
-1.218 -1.248 2.666 2
-1.205 -1.223 2.649 10
-1.198 -1.202 2.633 12
-1.184 -1.176 2.618 8
-1.173 -1.153 2.603 9
-1.174 -1.144 2.583 0
-1.143 -1.103 2.577 0
-1.133 -1.084 2.562 0
-1.106 -1.049 2.555 0
-1.112 -1.045 2.535 0
-1.104 -1.03 2.52 0
-1.082 -1.0 2.512 0
-1.082 -0.992 2.495 0
-1.073 -0.976 2.481 0
-1.046 -0.945 2.476 0
-1.053 -0.944 2.455 0
-1.049 -0.933 2.439 0
-1.055 -0.933 2.417 0
-1.036 -0.909 2.409 0
-0.998 -0.87 2.413 0
-1.042 -0.902 2.369 0
-0.997 -0.858 2.376 0
0.0 -0.0 3.0 0
0.0 -0.0 3.0 0
0.0 -0.0 3.0 0
0.0 -0.0 3.0 0
0.0 -0.0 3.0 0
0.0 -0.0 3.0 0
-1.268 -1.367 2.734 0
-1.247 -1.329 2.717 0
-1.225 -1.29 2.702 1
-1.218 -1.269 2.684 1
-1.212 -1.249 2.665 9
-1.204 -1.228 2.648 8
-1.194 -1.205 2.631 11
-1.177 -1.177 2.618 9
-1.174 -1.162 2.6 4
-1.146 -1.124 2.591 0
-1.136 -1.104 2.576 0
-1.113 -1.071 2.567 0
-1.105 -1.054 2.552 0
-1.095 -1.035 2.539 0
-1.095 -1.027 2.521 0
-1.087 -1.011 2.507 0
-1.086 -1.003 2.489 0
-1.069 -0.979 2.479 0
-1.043 -0.948 2.474 0
-1.058 -0.954 2.449 0
-1.046 -0.936 2.437 0
-1.041 -0.926 2.422 0
-1.044 -0.922 2.401 0
-1.008 -0.885 2.403 0
-1.033 -0.9 2.37 0
-0.978 -0.846 2.385 0
0.0 -0.0 3.0 0
0.0 -0.0 3.0 0
0.0 -0.0 3.0 0
0.0 -0.0 3.0 0
0.0 -0.0 3.0 0
0.0 -0.0 3.0 0
-1.264 -1.371 2.734 0
-1.229 -1.317 2.72 0
-1.226 -1.3 2.7 2
-1.214 -1.273 2.683 2
-1.21 -1.256 2.664 11
-1.195 -1.226 2.648 10
-1.184 -1.203 2.632 7
-1.176 -1.183 2.616 9
-1.143 -1.138 2.608 0
-1.131 -1.116 2.594 0
