# .PCD v0.7 - Point Cloud Data file format
VERSION 0.7
FIELDS x y z intensity
SIZE 4 4 4 4
TYPE F F F F
COUNT 1 1 1 1
WIDTH 1987
HEIGHT 1
VIEWPOINT 0 0 0 1 0 0 0
POINTS 1987
DATA ascii
-3.627 -11.998 -5.093 10
-3.538 -11.6 -5.122 10
-3.45 -11.218 -5.15 11
-3.369 -10.852 -5.178 11
-3.286 -10.497 -5.201 12
-3.207 -10.156 -5.224 11
-3.134 -9.829 -5.247 13
-3.056 -9.499 -5.257 14
-10.007 -39.371 -3.942 10
-8.776 -34.252 -3.658 40
-8.391 -32.511 -3.91 11
-8.032 -30.869 -4.127 7
-7.538 -28.764 -4.172 7
-7.124 -26.986 -4.231 5
-6.755 -25.386 -4.279 6
-6.441 -24.034 -4.348 6
-6.161 -22.804 -4.409 5
-5.891 -21.647 -4.454 8
-5.654 -20.612 -4.502 9
-5.439 -19.685 -4.556 31
-5.255 -18.867 -4.623 7
-5.064 -18.05 -4.662 7
-4.893 -17.301 -4.703 7
-4.74 -16.634 -4.757 7
-4.59 -15.978 -4.793 9
-4.457 -15.399 -4.846 8
-4.317 -14.803 -4.871 8
-4.196 -14.268 -4.909 8
-4.09 -13.801 -4.968 8
-3.98 -13.316 -5.001 8
-3.871 -12.851 -5.03 8
-3.773 -12.418 -5.064 9
-3.673 -11.992 -5.089 9
-3.583 -11.594 -5.118 11
-3.496 -11.218 -5.15 9
-3.412 -10.85 -5.176 11
-3.331 -10.501 -5.204 12
-3.25 -10.157 -5.225 12
-3.175 -9.828 -5.247 13
-3.096 -9.498 -5.256 14
-10.142 -39.395 -3.946 11
-8.919 -34.366 -3.68 25
-8.5 -32.512 -3.911 13
-8.141 -30.89 -4.132 6
-7.639 -28.779 -4.176 7
-7.222 -27.01 -4.237 4
-6.846 -25.4 -4.283 7
-6.524 -24.033 -4.348 6
-6.241 -22.807 -4.411 5
-5.969 -21.655 -4.456 7
-5.729 -20.617 -4.504 9
-5.508 -19.68 -4.554 39
-5.324 -18.869 -4.624 5
-5.13 -18.049 -4.661 7
-4.959 -17.308 -4.706 7
-4.802 -16.638 -4.758 8
-4.65 -15.979 -4.793 9
-4.515 -15.4 -4.847 7
-4.375 -14.808 -4.873 8
-4.251 -14.27 -4.91 9
-4.144 -13.802 -4.969 7
-4.032 -13.318 -5.002 7
-3.92 -12.847 -5.027 8
-3.821 -12.415 -5.062 9
-3.722 -11.995 -5.091 9
-3.63 -11.594 -5.119 11
-3.541 -11.218 -5.151 10
-3.456 -10.848 -5.175 10
-3.372 -10.496 -5.2 12
-3.292 -10.156 -5.224 12
-3.215 -9.826 -5.245 13
-3.137 -9.499 -5.258 15
-10.283 -39.441 -3.955 10
-9.044 -34.409 -3.688 26
-8.609 -32.517 -3.912 13
-8.248 -30.905 -4.135 6
-7.744 -28.805 -4.182 7
-7.317 -27.021 -4.24 5
-6.938 -25.417 -4.288 6
-6.612 -24.047 -4.352 6
-6.322 -22.811 -4.412 5
-6.049 -21.667 -4.46 8
-5.804 -20.626 -4.507 7
-5.579 -19.682 -4.555 34
-5.393 -18.872 -4.625 5
-5.196 -18.052 -4.663 7
-5.023 -17.307 -4.706 7
-4.866 -16.645 -4.762 7
-4.711 -15.983 -4.796 10
-4.573 -15.398 -4.846 8
-4.429 -14.802 -4.871 8
-4.305 -14.268 -4.909 9
-4.196 -13.802 -4.968 8
-4.084 -13.317 -5.002 8
-3.969 -12.843 -5.025 8
-3.87 -12.414 -5.062 9
-3.768 -11.989 -5.087 10
-3.676 -11.595 -5.119 10
-3.588 -11.222 -5.153 10
-3.5 -10.849 -5.175 11
-3.414 -10.491 -5.196 13
-3.334 -10.156 -5.225 13
-3.256 -9.824 -5.244 13
-3.177 -9.498 -5.257 15
-10.423 -39.482 -3.962 8
-9.147 -34.37 -3.681 35
-8.719 -32.521 -3.913 12
-8.361 -30.936 -4.142 6
-7.847 -28.823 -4.186 7
-7.412 -27.03 -4.243 5
-7.028 -25.425 -4.291 6
-6.698 -24.056 -4.355 6
-6.406 -22.825 -4.416 5
-6.126 -21.671 -4.462 8
-5.878 -20.627 -4.508 7
-5.648 -19.676 -4.553 30
-5.462 -18.874 -4.625 6
-5.262 -18.051 -4.662 8
-5.087 -17.311 -4.707 7
-4.925 -16.635 -4.757 7
-4.771 -15.983 -4.796 8
-4.631 -15.399 -4.846 8
-4.486 -14.804 -4.871 8
-4.36 -14.27 -4.91 8
-4.249 -13.8 -4.967 7
-4.133 -13.309 -4.997 8
-4.02 -12.843 -5.025 8
-3.919 -12.414 -5.062 9
-3.817 -11.992 -5.088 10
-3.721 -11.588 -5.114 9
-3.631 -11.213 -5.147 8
-3.543 -10.843 -5.171 11
-3.46 -10.498 -5.202 11
-3.376 -10.155 -5.223 12
-3.297 -9.823 -5.243 14
-3.215 -9.491 -5.25 14
-10.569 -39.543 -3.972 7
-9.298 -34.505 -3.707 24
-8.83 -32.53 -3.914 14
-8.469 -30.952 -4.146 6
-7.946 -28.829 -4.188 7
-7.509 -27.044 -4.246 5
-7.119 -25.438 -4.294 7
-6.787 -24.073 -4.36 6
-6.488 -22.832 -4.419 5
-6.204 -21.674 -4.463 7
-5.955 -20.638 -4.512 9
-5.723 -19.688 -4.558 12
-5.531 -18.876 -4.626 8
-5.329 -18.054 -4.663 7
-5.152 -17.314 -4.709 7
-4.987 -16.635 -4.757 7
-4.83 -15.98 -4.794 9
-4.689 -15.4 -4.846 8
-4.542 -14.801 -4.87 8
-4.416 -14.271 -4.91 8
-4.303 -13.802 -4.969 8
-4.186 -13.311 -4.998 7
-4.07 -12.842 -5.025 8
-3.968 -12.414 -5.061 9
-3.865 -11.992 -5.089 9
-3.769 -11.591 -5.116 9
-3.676 -11.214 -5.147 9
-3.588 -10.844 -5.171 11
-3.501 -10.493 -5.198 11
-3.419 -10.156 -5.224 12
-3.338 -9.821 -5.241 19
-3.256 -9.496 -5.254 14
-10.708 -39.575 -3.978 7
-9.427 -34.561 -3.718 20
-8.942 -32.54 -3.917 13
-8.582 -30.983 -4.153 6
-8.053 -28.861 -4.196 7
-7.605 -27.056 -4.25 5
-7.211 -25.45 -4.298 6
-6.873 -24.082 -4.363 6
-6.573 -22.849 -4.424 5
-6.284 -21.686 -4.467 7
-6.033 -20.653 -4.517 10
-5.802 -19.715 -4.568 9
-5.6 -18.877 -4.627 8
-5.396 -18.056 -4.665 7
-5.218 -17.32 -4.711 8
-5.051 -16.642 -4.76 7
-4.891 -15.984 -4.796 9
-4.748 -15.4 -4.846 8
-4.598 -14.802 -4.871 8
-4.469 -14.266 -4.908 8
-4.356 -13.8 -4.968 7
-4.239 -13.314 -5.0 7
-4.119 -12.837 -5.022 8
-4.018 -12.413 -5.061 9
-3.912 -11.988 -5.086 10
-3.814 -11.585 -5.112 9
-3.723 -11.216 -5.149 8
-3.633 -10.844 -5.172 11
-3.544 -10.491 -5.196 13
-3.46 -10.151 -5.22 13
-3.379 -9.819 -5.239 20
-3.298 -9.499 -5.258 14
-10.857 -39.642 -3.99 6
-9.521 -34.483 -3.703 24
-9.055 -32.555 -3.92 12
-8.692 -31.002 -4.157 6
-8.151 -28.86 -4.195 7
-7.701 -27.066 -4.252 5
-7.303 -25.466 -4.302 6
-6.96 -24.091 -4.365 6
-6.657 -22.859 -4.427 4
-6.364 -21.695 -4.47 7
-6.109 -20.657 -4.519 15
-5.873 -19.716 -4.568 9
-5.669 -18.878 -4.627 6
-5.463 -18.058 -4.665 7
-5.282 -17.319 -4.711 7
-5.114 -16.644 -4.761 7
-4.95 -15.98 -4.794 9
-4.805 -15.397 -4.845 9
-4.656 -14.807 -4.873 7
-4.524 -14.267 -4.908 8
-4.409 -13.799 -4.967 8
-4.29 -13.312 -4.999 8
-4.17 -12.836 -5.021 8
-4.066 -12.409 -5.058 9
-3.96 -11.987 -5.086 9
-3.863 -11.591 -5.116 10
-3.768 -11.214 -5.147 9
-3.677 -10.844 -5.172 10
-3.588 -10.491 -5.197 12
-3.501 -10.149 -5.218 13
-3.42 -9.817 -5.238 27
-3.338 -9.498 -5.256 13
-11.001 -39.689 -3.998 5
-9.686 -34.663 -3.738 24
-9.168 -32.569 -3.923 11
-8.805 -31.028 -4.163 6
-8.259 -28.891 -4.203 7
-7.801 -27.092 -4.259 5
-7.397 -25.484 -4.307 7
-7.049 -24.107 -4.37 6
-6.741 -22.872 -4.432 5
-6.444 -21.702 -4.473 7
-6.181 -20.65 -4.516 29
-5.947 -19.723 -4.571 9
-5.74 -18.887 -4.631 6
-5.529 -18.057 -4.665 7
-5.344 -17.315 -4.709 7
-5.175 -16.641 -4.76 7
-5.01 -15.98 -4.794 9
-4.865 -15.4 -4.847 8
-4.712 -14.804 -4.872 8
-4.578 -14.265 -4.907 9
-4.461 -13.794 -4.964 7
-4.342 -13.311 -4.998 8
-4.22 -12.835 -5.02 8
-4.114 -12.404 -5.055 9
-4.007 -11.984 -5.083 10
-3.91 -11.591 -5.116 10
-3.812 -11.207 -5.143 10
-3.721 -10.842 -5.17 12
-3.631 -10.488 -5.194 12
-3.543 -10.146 -5.216 12
-3.459 -9.812 -5.233 31
-3.38 -9.501 -5.26 16
-11.157 -39.778 -4.014 10
-9.773 -34.562 -3.718 23
-9.283 -32.587 -3.927 10
-8.924 -31.078 -4.175 7
-8.365 -28.915 -4.209 7
-7.9 -27.109 -4.264 5
-7.488 -25.491 -4.31 7
-7.135 -24.112 -4.372 6
-6.825 -22.881 -4.435 5
-6.525 -21.716 -4.477 8
-6.255 -20.65 -4.516 29
-6.018 -19.724 -4.571 8
-5.809 -18.885 -4.63 6
-5.598 -18.065 -4.668 7
-5.409 -17.316 -4.71 8
-5.237 -16.64 -4.759 8
-5.07 -15.98 -4.794 9
-4.923 -15.397 -4.845 8
-4.769 -14.804 -4.872 7
-4.635 -14.269 -4.909 8
-4.516 -13.794 -4.964 8
-4.393 -13.306 -4.995 8
-4.27 -12.833 -5.019 8
-4.164 -12.407 -5.057 9
-4.056 -11.986 -5.085 9
-3.955 -11.588 -5.114 10
-3.858 -11.207 -5.142 10
-3.766 -10.842 -5.17 10
-3.676 -10.491 -5.197 11
-3.586 -10.147 -5.217 13
-3.501 -9.813 -5.234 33
-3.418 -9.494 -5.253 14
-11.292 -39.79 -4.016 5
-9.872 -34.506 -3.707 33
-9.406 -32.634 -3.937 10
-9.034 -31.092 -4.178 7
-8.465 -28.92 -4.211 7
-7.999 -27.127 -4.269 5
-7.585 -25.517 -4.317 7
-7.223 -24.124 -4.375 6
-6.909 -22.89 -4.438 4
-6.606 -21.725 -4.481 7
-6.331 -20.657 -4.518 22
-6.093 -19.736 -4.576 9
-5.88 -18.893 -4.633 8
-5.665 -18.067 -4.669 6
-5.473 -17.315 -4.709 8
-5.3 -16.642 -4.76 7
-5.133 -15.986 -4.797 28
-4.98 -15.393 -4.843 8
-4.827 -14.808 -4.873 9
-4.689 -14.266 -4.908 8
-4.569 -13.792 -4.963 8
-4.444 -13.303 -4.993 8
-4.32 -12.828 -5.016 8
-4.212 -12.402 -5.054 8
-4.103 -11.982 -5.082 10
-4.001 -11.584 -5.111 10
-3.904 -11.207 -5.143 9
-3.81 -10.839 -5.167 11
-3.717 -10.485 -5.192 12
-3.628 -10.144 -5.215 12
-3.543 -9.813 -5.234 38
-3.459 -9.495 -5.254 14
-11.435 -39.828 -4.023 4
-9.978 -34.473 -3.701 32
-9.523 -32.659 -3.942 8
-9.147 -31.117 -4.184 6
-8.569 -28.936 -4.214 6
-8.096 -27.139 -4.272 5
-7.673 -25.513 -4.316 6
-7.31 -24.128 -4.377 6
-6.993 -22.898 -4.44 4
-6.686 -21.735 -4.484 8
-6.413 -20.682 -4.527 10
-6.165 -19.735 -4.575 9
-5.949 -18.89 -4.632 6
-5.732 -18.068 -4.669 8
-5.541 -17.324 -4.713 8
-5.364 -16.648 -4.763 7
-5.191 -15.979 -4.793 42
-5.04 -15.397 -4.845 7
-4.883 -14.804 -4.872 8
-4.745 -14.267 -4.908 9
-4.623 -13.793 -4.963 8
-4.497 -13.304 -4.994 8
-4.371 -12.83 -5.017 8
-4.263 -12.404 -5.055 8
-4.151 -11.981 -5.081 10
-4.048 -11.582 -5.11 10
-3.952 -11.213 -5.146 10
-3.855 -10.838 -5.167 12
-3.76 -10.483 -5.19 12
-3.671 -10.145 -5.215 14
-3.583 -9.808 -5.23 40
-3.5 -9.496 -5.255 15
-11.586 -39.892 -4.034 5
-10.07 -34.394 -3.685 21
-9.646 -32.702 -3.951 11
-9.262 -31.146 -4.191 7
-8.677 -28.966 -4.222 7
-8.194 -27.152 -4.275 5
-7.769 -25.538 -4.323 6
-7.401 -24.15 -4.384 6
-7.077 -22.907 -4.443 4
-6.768 -21.748 -4.488 15
-6.49 -20.687 -4.53 9
-6.238 -19.739 -4.577 9
-6.021 -18.897 -4.635 8
-5.801 -18.072 -4.671 7
-5.607 -17.329 -4.715 7
-5.426 -16.643 -4.761 7
-5.251 -15.978 -4.793 41
-5.1 -15.4 -4.847 8
-4.939 -14.802 -4.87 8
-4.798 -14.26 -4.904 8
-4.675 -13.787 -4.96 8
-4.548 -13.299 -4.991 7
-4.422 -12.829 -5.016 8
-4.312 -12.402 -5.054 9
-4.198 -11.977 -5.079 9
-4.094 -11.579 -5.107 10
-3.995 -11.206 -5.141 7
-3.9 -10.839 -5.167 9
-3.805 -10.485 -5.192 11
-3.713 -10.142 -5.213 13
-3.624 -9.806 -5.228 40
-3.539 -9.491 -5.25 16
-11.729 -39.929 -4.041 5
-10.234 -34.556 -3.717 21
-9.771 -32.748 -3.961 11
-9.379 -31.182 -4.199 7
-8.783 -28.984 -4.227 7
-8.295 -27.172 -4.281 5
-7.862 -25.548 -4.326 7
-7.489 -24.158 -4.386 6
-7.162 -22.919 -4.447 5
-6.845 -21.742 -4.486 26
-6.569 -20.701 -4.534 7
-6.314 -19.749 -4.581 9
-6.09 -18.897 -4.635 6
-5.867 -18.07 -4.67 6
-5.672 -17.33 -4.716 8
-5.49 -16.648 -4.763 8
-5.314 -15.983 -4.796 39
-5.157 -15.395 -4.844 8
-4.996 -14.801 -4.87 8
-4.854 -14.261 -4.905 8
-4.729 -13.787 -4.96 8
-4.601 -13.3 -4.992 7
-4.472 -12.826 -5.015 8
-4.361 -12.401 -5.053 9
-4.247 -11.978 -5.079 9
-4.142 -11.581 -5.109 9
-4.04 -11.202 -5.139 7
-3.944 -10.837 -5.167 9
-3.847 -10.48 -5.188 12
-3.756 -10.142 -5.213 12
-3.667 -9.809 -5.231 39
-3.579 -9.488 -5.248 15
-11.879 -39.985 -4.05 4
-10.347 -34.548 -3.715 23
-9.89 -32.774 -3.966 15
-9.49 -31.194 -4.202 6
-8.891 -29.01 -4.233 6
-8.392 -27.18 -4.283 5
-7.956 -25.562 -4.33 6
-7.577 -24.164 -4.388 6
-7.245 -22.923 -4.448 5
-6.922 -21.74 -4.486 28
-6.646 -20.707 -4.537 8
-6.386 -19.748 -4.581 9
-6.161 -18.901 -4.637 6
-5.936 -18.077 -4.673 7
-5.734 -17.321 -4.712 7
-5.55 -16.639 -4.759 8
-5.374 -15.982 -4.795 45
-5.217 -15.398 -4.846 8
-5.053 -14.801 -4.87 7
-4.911 -14.264 -4.906 8
-4.783 -13.785 -4.959 8
-4.654 -13.3 -4.992 8
-4.524 -12.827 -5.015 8
-4.411 -12.399 -5.052 9
-4.295 -11.977 -5.079 10
-4.188 -11.577 -5.106 10
-4.087 -11.205 -5.141 8
-3.988 -10.834 -5.164 12
-3.892 -10.483 -5.19 12
-3.796 -10.136 -5.208 13
-3.708 -9.807 -5.229 38
-3.62 -9.489 -5.249 15
-12.021 -40.014 -4.056 4
-10.43 -34.438 -3.694 26
-10.012 -32.808 -3.974 14
-9.606 -31.226 -4.209 7
-8.998 -29.031 -4.238 6
-8.495 -27.207 -4.29 5
-8.05 -25.574 -4.333 6
-7.668 -24.182 -4.393 6
-7.332 -22.938 -4.453 5
-7.003 -21.749 -4.489 18
-6.724 -20.716 -4.54 9
-6.462 -19.761 -4.586 5
-6.23 -18.897 -4.635 6
-6.004 -18.078 -4.674 8
-5.801 -17.326 -4.714 8
-5.616 -16.648 -4.763 8
-5.434 -15.977 -4.792 43
-5.278 -15.401 -4.847 8
-5.111 -14.8 -4.869 8
-4.965 -14.26 -4.905 9
-4.837 -13.785 -4.959 8
-4.707 -13.301 -4.992 8
-4.573 -12.822 -5.012 8
-4.461 -12.401 -5.053 10
-4.343 -11.976 -5.078 9
-4.237 -11.579 -5.108 10
-4.13 -11.194 -5.133 9
-4.033 -10.833 -5.164 10
-3.936 -10.482 -5.19 11
-3.841 -10.139 -5.211 12
-3.749 -9.804 -5.227 40
-3.661 -9.487 -5.247 15
-12.177 -40.087 -4.068 5
-10.533 -34.396 -3.686 32
-10.13 -32.831 -3.979 16
-9.722 -31.253 -4.215 6
-9.104 -29.049 -4.243 7
-8.595 -27.222 -4.294 4
-8.146 -25.594 -4.339 6
-7.757 -24.192 -4.396 6
-7.416 -22.945 -4.455 5
-7.088 -21.767 -4.495 8
-6.803 -20.725 -4.543 9
-6.536 -19.764 -4.587 9
-6.302 -18.904 -4.638 6
-6.073 -18.082 -4.675 7
-5.866 -17.326 -4.714 7
-5.678 -16.645 -4.762 7
-5.497 -15.982 -4.795 40
-5.336 -15.399 -4.846 8
-5.169 -14.803 -4.871 8
-5.021 -14.26 -4.905 8
-4.892 -13.785 -4.959 8
-4.759 -13.298 -4.99 8
-4.625 -12.823 -5.013 8
-4.508 -12.392 -5.047 9
-4.393 -11.977 -5.078 10
-4.283 -11.574 -5.104 10
-4.18 -11.202 -5.139 9
-4.078 -10.833 -5.163 12
-3.979 -10.479 -5.187 12
-3.882 -10.136 -5.208 12
-3.791 -9.804 -5.227 37
-3.702 -9.487 -5.247 15
-12.319 -40.111 -4.073 4
-10.649 -34.394 -3.685 21
-10.247 -32.845 -3.981 19
-9.839 -31.283 -4.222 6
-9.212 -29.074 -4.249 7
-8.695 -27.237 -4.298 5
-8.244 -25.617 -4.346 7
-7.847 -24.205 -4.4 5
-7.505 -22.963 -4.461 5
-7.173 -21.786 -4.502 7
-6.881 -20.733 -4.546 9
-6.612 -19.773 -4.59 8
-6.374 -18.91 -4.64 6
-6.141 -18.084 -4.676 7
-5.933 -17.33 -4.716 7
-5.742 -16.646 -4.762 7
-5.556 -15.977 -4.792 44
-5.397 -15.402 -4.847 8
-5.225 -14.798 -4.868 8
-5.078 -14.263 -4.906 8
-4.944 -13.778 -4.955 8
-4.811 -13.296 -4.989 7
-4.676 -12.82 -5.011 8
-4.559 -12.393 -5.048 9
-4.441 -11.975 -5.077 8
-4.33 -11.572 -5.103 9
-4.223 -11.195 -5.134 10
-4.123 -10.832 -5.162 11
-4.024 -10.481 -5.189 11
-3.924 -10.132 -5.205 11
-3.831 -9.798 -5.222 36
-3.74 -9.478 -5.239 16
-12.469 -40.16 -4.081 5
-10.804 -34.516 -3.709 26
-10.368 -32.875 -3.988 21
-9.955 -31.31 -4.228 6
-9.324 -29.106 -4.257 6
-8.8 -27.266 -4.306 5
-8.338 -25.63 -4.349 6
-7.938 -24.218 -4.404 5
-7.587 -22.962 -4.461 5
-7.257 -21.801 -4.507 7
-6.96 -20.741 -4.549 10
-6.686 -19.779 -4.592 9
-6.444 -18.909 -4.64 6
-6.209 -18.084 -4.676 7
-6.0 -17.334 -4.717 5
-5.806 -16.647 -4.763 7
-5.619 -15.981 -4.795 40
-5.455 -15.396 -4.845 8
-5.283 -14.798 -4.868 8
-5.133 -14.259 -4.904 8
-5.001 -13.784 -4.958 8
-4.863 -13.292 -4.987 8
-4.728 -12.821 -5.011 8
-4.608 -12.39 -5.046 9
-4.491 -11.976 -5.078 10
-4.378 -11.574 -5.104 10
-4.271 -11.197 -5.135 9
-4.167 -10.828 -5.159 12
-4.067 -10.478 -5.186 11
-3.967 -10.132 -5.205 12
-3.873 -9.798 -5.222 38
-3.781 -9.479 -5.24 14
-12.627 -40.236 -4.095 5
-10.953 -34.618 -3.729 9
-10.489 -32.899 -3.993 29
-10.073 -31.339 -4.235 6
-9.428 -29.114 -4.259 7
-8.901 -27.285 -4.311 5
-8.433 -25.641 -4.352 7
-8.029 -24.231 -4.408 5
-7.678 -22.987 -4.469 5
-7.337 -21.805 -4.508 7
-7.039 -20.75 -4.552 9
-6.762 -19.787 -4.596 9
-6.515 -18.912 -4.641 6
-6.279 -18.091 -4.679 7
-6.064 -17.33 -4.716 6
-5.871 -16.652 -4.765 8
-5.68 -15.98 -4.794 42
-5.516 -15.402 -4.847 8
-5.341 -14.799 -4.869 8
-5.191 -14.265 -4.907 8
-5.055 -13.784 -4.958 8
-4.916 -13.292 -4.987 8
-4.777 -12.815 -5.008 8
-4.658 -12.388 -5.045 9
-4.538 -11.971 -5.074 10
-4.424 -11.57 -5.101 9
-4.317 -11.195 -5.134 10
-4.213 -10.827 -5.158 10
-4.11 -10.473 -5.183 14
-4.011 -10.132 -5.205 13
-3.914 -9.795 -5.219 41
-3.823 -9.481 -5.242 14
-12.773 -40.27 -4.101 5
-11.035 -34.507 -3.707 33
-10.606 -32.913 -3.996 30
-10.192 -31.373 -4.243 6
-9.538 -29.142 -4.266 6
-9.004 -27.305 -4.316 5
-8.527 -25.649 -4.355 6
-8.12 -24.243 -4.412 6
-7.763 -22.993 -4.471 4
-7.419 -21.812 -4.51 8
-7.119 -20.761 -4.557 9
-6.836 -19.789 -4.596 8
-6.59 -18.925 -4.646 6
-6.348 -18.094 -4.68 7
-6.131 -17.334 -4.717 7
-5.936 -16.655 -4.766 7
-5.742 -15.981 -4.794 39
-5.575 -15.399 -4.846 8
-5.399 -14.799 -4.869 9
-5.246 -14.261 -4.905 8
-5.109 -13.78 -4.956 8
-4.968 -13.289 -4.985 8
-4.829 -12.815 -5.008 8
-4.709 -12.388 -5.045 9
-4.585 -11.966 -5.071 10
-4.471 -11.567 -5.1 10
-4.361 -11.188 -5.128 9
-4.258 -10.825 -5.157 9
-4.154 -10.472 -5.182 13
-4.053 -10.128 -5.201 13
-3.956 -9.795 -5.219 39
-3.866 -9.484 -5.245 17
-12.939 -40.364 -4.117 5
-11.143 -34.478 -3.702 33
-10.726 -32.937 -4.001 27
-10.309 -31.397 -4.249 6
-9.648 -29.165 -4.272 7
-9.104 -27.315 -4.319 5
-8.627 -25.675 -4.362 6
-8.211 -24.256 -4.416 6
-7.849 -23.003 -4.474 4
-7.505 -21.829 -4.516 7
-7.199 -20.772 -4.56 10
-6.911 -19.794 -4.598 9
-6.66 -18.923 -4.645 6
-6.417 -18.096 -4.681 7
-6.197 -17.333 -4.717 6
-6.0 -16.655 -4.766 7
-5.804 -15.981 -4.795 42
-5.634 -15.397 -4.845 8
-5.457 -14.8 -4.869 8
-5.302 -14.26 -4.904 9
-5.165 -13.783 -4.957 8
-5.022 -13.289 -4.985 7
-4.881 -12.815 -5.008 8
-4.758 -12.386 -5.044 9
-4.633 -11.963 -5.069 9
-4.519 -11.565 -5.098 10
-4.408 -11.189 -5.129 9
-4.302 -10.821 -5.154 10
-4.198 -10.471 -5.181 13
-4.097 -10.13 -5.203 13
-3.997 -9.792 -5.216 37
-3.9 -9.467 -5.23 22
-13.089 -40.404 -4.124 4
-11.267 -34.496 -3.705 34
-10.839 -32.935 -4.001 29
-10.429 -31.433 -4.257 6
-9.761 -29.199 -4.28 6
-9.206 -27.332 -4.323 5
-8.723 -25.689 -4.366 6
-8.303 -24.271 -4.421 5
-7.942 -23.03 -4.483 5
-7.585 -21.832 -4.517 8
-7.277 -20.776 -4.562 10
-6.989 -19.805 -4.603 9
-6.734 -18.931 -4.649 6
-6.485 -18.096 -4.681 6
-6.264 -17.337 -4.719 7
-6.062 -16.652 -4.765 7
-5.866 -15.981 -4.795 41
-5.695 -15.398 -4.846 8
-5.515 -14.798 -4.868 8
-5.358 -14.258 -4.903 9
-5.218 -13.778 -4.955 8
-5.074 -13.285 -4.983 8
-4.932 -12.812 -5.006 8
-4.81 -12.389 -5.045 9
-4.683 -11.964 -5.07 9
-4.567 -11.567 -5.099 9
-4.455 -11.19 -5.13 11
-4.348 -10.823 -5.156 11
-4.241 -10.468 -5.178 10
-4.14 -10.129 -5.203 11
-4.04 -9.791 -5.215 39
-3.94 -9.464 -5.227 23
-13.244 -40.462 -4.135 4
-11.389 -34.508 -3.708 20
-10.96 -32.958 -4.005 27
-10.546 -31.453 -4.262 6
-9.87 -29.217 -4.285 6
-9.311 -27.356 -4.33 5
-8.821 -25.707 -4.371 6
-8.393 -24.279 -4.423 6
-8.028 -23.035 -4.485 5
-7.671 -21.849 -4.523 7
-7.356 -20.783 -4.564 8
-7.063 -19.806 -4.603 9
-6.805 -18.929 -4.648 6
-6.555 -18.097 -4.682 7
-6.332 -17.342 -4.721 7
-6.13 -16.662 -4.77 6
-5.928 -15.982 -4.795 34
-5.755 -15.399 -4.846 8
-5.574 -14.8 -4.869 8
-5.415 -14.26 -4.904 9
-5.273 -13.778 -4.955 8
-5.127 -13.285 -4.982 7
-4.981 -12.805 -5.002 8
-4.857 -12.38 -5.04 9
-4.733 -11.965 -5.07 9
-4.614 -11.564 -5.097 9
-4.5 -11.186 -5.127 9
-4.392 -10.818 -5.152 11
-4.286 -10.466 -5.177 11
-4.181 -10.123 -5.197 11
-4.082 -9.79 -5.215 39
-3.981 -9.463 -5.226 22
-13.392 -40.493 -4.14 5
-11.512 -34.521 -3.71 8
-11.081 -32.977 -4.009 27
-10.666 -31.485 -4.269 7
-9.98 -29.239 -4.29 6
-9.415 -27.376 -4.335 5
-8.919 -25.725 -4.376 6
-8.489 -24.302 -4.43 6
-8.117 -23.051 -4.49 5
-7.754 -21.855 -4.525 8
-7.437 -20.793 -4.568 9
-7.138 -19.81 -4.604 9
-6.878 -18.934 -4.65 6
-6.627 -18.106 -4.685 8
-6.398 -17.341 -4.721 7
-6.19 -16.652 -4.765 7
-5.992 -15.986 -4.797 40
-5.82 -15.41 -4.852 8
-5.631 -14.798 -4.868 8
-5.471 -14.258 -4.903 8
-5.326 -13.773 -4.952 8
-5.181 -13.284 -4.982 8
-5.036 -12.812 -5.006 8
-4.91 -12.383 -5.041 9
-4.781 -11.962 -5.068 9
-4.662 -11.562 -5.095 10
-4.548 -11.186 -5.127 10
-4.438 -10.819 -5.153 10
-4.331 -10.468 -5.179 12
-4.224 -10.122 -5.196 12
-4.122 -9.783 -5.209 40
-4.023 -9.463 -5.226 20
-13.554 -40.566 -4.153 5
-11.64 -34.551 -3.716 12
-11.196 -32.981 -4.01 30
-10.79 -31.527 -4.279 6
-10.093 -29.268 -4.297 6
-9.517 -27.391 -4.34 5
-9.013 -25.73 -4.378 6
-8.578 -24.305 -4.431 6
-8.199 -23.044 -4.488 5
-7.839 -21.867 -4.53 8
-7.517 -20.804 -4.572 8
-7.216 -19.821 -4.608 10
-6.952 -18.942 -4.653 6
-6.696 -18.108 -4.686 6
-6.467 -17.348 -4.724 5
-6.258 -16.662 -4.769 7
-6.054 -15.986 -4.797 42
-5.878 -15.403 -4.848 7
-5.689 -14.795 -4.867 8
-5.526 -14.253 -4.901 9
-5.381 -13.772 -4.951 8
-5.234 -13.282 -4.981 8
-5.086 -12.804 -5.001 8
-4.958 -12.376 -5.037 8
-4.83 -11.959 -5.066 9
-4.709 -11.559 -5.094 10
-4.594 -11.184 -5.126 10
-4.483 -10.815 -5.15 11
-4.375 -10.466 -5.177 11
-4.268 -10.121 -5.196 11
-4.164 -9.783 -5.209 37
-4.063 -9.459 -5.223 20
-13.72 -40.649 -4.167 5
-12.607 -37.045 -4.201 5
-11.318 -33.003 -4.015 30
-10.911 -31.557 -4.286 7
-10.203 -29.286 -4.302 6
-9.622 -27.41 -4.345 5
-9.113 -25.75 -4.384 7
-8.671 -24.319 -4.435 6
-8.289 -23.059 -4.492 5
-7.921 -21.873 -4.532 8
-7.598 -20.813 -4.575 10
-7.292 -19.824 -4.61 17
-7.023 -18.939 -4.652 5
-6.767 -18.113 -4.689 6
-6.532 -17.342 -4.721 5
-6.321 -16.657 -4.767 6
-6.117 -15.99 -4.799 41
-5.936 -15.397 -4.845 8
-5.748 -14.796 -4.867 7
-5.584 -14.255 -4.902 5
-5.438 -13.774 -4.952 8
-5.286 -13.278 -4.978 8
-5.139 -12.807 -5.003 8
-5.009 -12.376 -5.037 9
-4.877 -11.953 -5.062 9
-4.758 -11.56 -5.094 10
-4.641 -11.182 -5.124 10
-4.528 -10.813 -5.148 10
-4.418 -10.462 -5.174 11
-4.31 -10.116 -5.192 12
-4.208 -9.784 -5.21 39
-4.104 -9.459 -5.222 19
-13.887 -40.731 -4.182 5
-11.833 -34.421 -3.691 2
-11.445 -33.04 -4.023 31
-11.03 -31.58 -4.291 6
-10.312 -29.303 -4.306 6
-9.73 -27.44 -4.352 5
-9.211 -25.767 -4.389 6
-8.764 -24.333 -4.439 6
-8.38 -23.078 -4.498 5
-8.006 -21.885 -4.536 8
-7.679 -20.823 -4.579 8
-7.365 -19.821 -4.609 32
-7.097 -18.946 -4.655 6
-6.835 -18.11 -4.687 6
-6.599 -17.345 -4.722 5
-6.387 -16.66 -4.769 7
-6.179 -15.985 -4.796 41
-5.998 -15.401 -4.847 8
-5.806 -14.794 -4.866 8
-5.639 -14.249 -4.898 9
-5.495 -13.778 -4.955 7
-5.344 -13.287 -4.984 8
-5.19 -12.803 -5.0 8
-5.059 -12.373 -5.035 8
-4.927 -11.952 -5.062 10
-4.805 -11.557 -5.092 9
-4.688 -11.183 -5.125 11
-4.573 -10.81 -5.146 12
-4.461 -10.457 -5.17 11
-4.354 -10.117 -5.193 12
-4.25 -9.783 -5.209 33
-4.146 -9.458 -5.222 24
-14.044 -40.783 -4.191 4
-12.903 -37.162 -4.224 5
-11.566 -33.057 -4.026 29
-11.152 -31.613 -4.298 7
-10.427 -29.334 -4.314 6
-9.835 -27.458 -4.357 5
-9.306 -25.773 -4.39 6
-8.855 -24.34 -4.441 6
-8.47 -23.093 -4.503 5
-8.095 -21.904 -4.542 7
-7.759 -20.828 -4.581 11
-7.439 -19.82 -4.608 34
-7.172 -18.954 -4.658 6
-6.907 -18.119 -4.691 7
-6.668 -17.349 -4.724 5
-6.45 -16.655 -4.766 7
-6.242 -15.988 -4.798 43
-6.056 -15.394 -4.844 7
-5.865 -14.794 -4.866 7
-5.696 -14.25 -4.899 9
-5.547 -13.77 -4.95 8
-5.395 -13.279 -4.979 8
-5.241 -12.799 -4.998 8
-5.111 -12.375 -5.037 9
-4.976 -11.952 -5.062 9
-4.851 -11.551 -5.088 10
-4.733 -11.177 -5.121 10
-4.62 -10.812 -5.147 11
-4.507 -10.458 -5.171 13
-4.398 -10.117 -5.192 13
-4.29 -9.776 -5.203 26
-4.186 -9.454 -5.218 20
-14.196 -40.818 -4.197 4
-13.036 -37.176 -4.226 6
-11.686 -33.071 -4.029 30
-11.275 -31.646 -4.306 6
-10.544 -29.369 -4.323 6
-9.938 -27.472 -4.361 5
-9.405 -25.788 -4.395 7
-8.951 -24.36 -4.448 6
-8.557 -23.1 -4.506 5
-8.177 -21.909 -4.544 7
-7.839 -20.834 -4.583 10
-7.511 -19.813 -4.605 23
-7.245 -18.958 -4.659 5
-6.979 -18.122 -4.693 8
-6.737 -17.354 -4.726 6
-6.514 -16.653 -4.766 7
-6.304 -15.984 -4.796 42
-6.119 -15.397 -4.845 8
-5.923 -14.791 -4.865 8
-5.755 -14.254 -4.901 9
-5.604 -13.771 -4.951 7
-5.448 -13.277 -4.978 8
-5.295 -12.801 -4.999 8
-5.161 -12.371 -5.034 8
-5.026 -11.952 -5.062 9
-4.9 -11.551 -5.088 9
-4.78 -11.175 -5.119 10
-4.665 -10.809 -5.145 11
-4.55 -10.453 -5.167 12
-4.441 -10.115 -5.191 12
-4.336 -9.784 -5.21 18
-4.227 -9.453 -5.218 22
-14.366 -40.903 -4.212 5
-13.191 -37.247 -4.24 6
-11.808 -33.087 -4.033 27
-11.399 -31.679 -4.314 7
-10.657 -29.392 -4.328 6
-10.045 -27.494 -4.367 5
-9.504 -25.803 -4.399 7
-9.045 -24.373 -4.452 6
-8.652 -23.124 -4.514 5
-8.261 -21.913 -4.545 7
-7.925 -20.853 -4.59 13
-7.595 -19.836 -4.614 11
-7.319 -18.961 -4.661 5
-7.05 -18.127 -4.694 7
-6.802 -17.348 -4.724 5
-6.58 -16.656 -4.767 7
-6.366 -15.983 -4.796 41
-6.181 -15.4 -4.847 8
-5.982 -14.791 -4.865 7
-5.811 -14.248 -4.898 8
-5.66 -13.773 -4.952 8
-5.503 -13.279 -4.979 8
-5.347 -12.799 -4.998 8
-5.212 -12.371 -5.034 9
-5.075 -11.949 -5.059 9
-4.948 -11.547 -5.086 9
-4.826 -11.172 -5.117 10
-4.712 -10.81 -5.146 11
-4.596 -10.454 -5.168 11
-4.483 -10.11 -5.187 11
-4.376 -9.777 -5.204 14
-4.265 -9.444 -5.209 23
-14.529 -40.968 -4.224 5
-13.344 -37.315 -4.253 6
-11.931 -33.107 -4.037 27
-11.522 -31.71 -4.321 6
-10.773 -29.422 -4.336 6
-10.149 -27.508 -4.371 5
-9.607 -25.829 -4.406 6
-9.139 -24.385 -4.455 6
-8.742 -23.138 -4.518 4
-8.348 -21.928 -4.55 7
-8.002 -20.851 -4.589 25
-7.677 -19.852 -4.621 9
-7.394 -18.967 -4.663 6
-7.121 -18.131 -4.696 8
-6.873 -17.357 -4.728 7
-6.645 -16.654 -4.766 7
-6.427 -15.979 -4.793 44
-6.242 -15.399 -4.846 8
-6.043 -14.795 -4.866 7
-5.87 -14.252 -4.9 9
-5.715 -13.77 -4.95 8
-5.556 -13.274 -4.976 7
-5.399 -12.798 -4.997 9
-5.261 -12.363 -5.029 9
-5.125 -11.948 -5.059 9
-4.996 -11.547 -5.085 9
-4.871 -11.166 -5.112 11
-4.757 -10.807 -5.144 10
-4.64 -10.452 -5.166 11
-4.527 -10.108 -5.186 11
-4.417 -9.772 -5.2 12
-4.308 -9.446 -5.211 20
-14.692 -41.029 -4.234 4
-13.493 -37.368 -4.264 9
-12.058 -33.138 -4.044 27
-11.653 -31.76 -4.332 7
-10.884 -29.438 -4.34 6
-10.258 -27.535 -4.378 5
-9.71 -25.851 -4.413 6
-9.232 -24.394 -4.458 6
-8.828 -23.138 -4.518 4
-8.432 -21.935 -4.553 7
-8.08 -20.849 -4.588 26
-7.754 -19.858 -4.623 9
-7.466 -18.966 -4.663 6
-7.19 -18.127 -4.695 7
-6.939 -17.354 -4.726 6
-6.711 -16.655 -4.766 8
-6.491 -15.981 -4.794 44
-6.302 -15.396 -4.844 8
-6.104 -14.797 -4.868 7
-5.928 -14.252 -4.9 9
-5.772 -13.77 -4.95 8
-5.61 -13.271 -4.974 8
-5.45 -12.793 -4.994 8
-5.313 -12.366 -5.03 9
-5.175 -11.948 -5.059 9
-5.045 -11.547 -5.085 8
-4.919 -11.165 -5.112 10
-4.803 -10.804 -5.142 11
-4.687 -10.456 -5.169 11
-4.569 -10.103 -5.182 13
-4.461 -9.774 -5.201 13
-4.348 -9.441 -5.207 22
-14.874 -41.14 -4.254 4
-13.645 -37.428 -4.275 6
-12.192 -33.182 -4.053 23
-11.784 -31.81 -4.344 7
-11.003 -29.475 -4.349 6
-10.365 -27.555 -4.383 4
-9.809 -25.865 -4.417 7
-9.332 -24.42 -4.466 6
-8.923 -23.161 -4.525 5
-8.516 -21.938 -4.554 7
-8.16 -20.853 -4.59 18
-7.832 -19.863 -4.625 8
-7.541 -18.973 -4.666 6
-7.261 -18.131 -4.696 6
-7.007 -17.355 -4.727 4
-6.777 -16.656 -4.767 7
-6.556 -15.982 -4.795 44
-6.366 -15.401 -4.847 8
-6.162 -14.794 -4.866 6
-5.984 -14.249 -4.899 9
-5.824 -13.762 -4.945 8
-5.663 -13.269 -4.973 8
-5.503 -12.792 -4.993 7
-5.362 -12.357 -5.025 9
-5.224 -11.943 -5.056 9
-5.093 -11.544 -5.083 10
-4.967 -11.166 -5.112 10
-4.85 -10.805 -5.142 11
-4.728 -10.444 -5.16 11
-4.612 -10.101 -5.18 11
-4.501 -9.766 -5.195 12
-4.391 -9.443 -5.208 20
-15.042 -41.211 -4.267 6
-13.791 -37.468 -4.283 6
-12.322 -33.22 -4.061 23
-11.917 -31.863 -4.356 7
-11.121 -29.507 -4.357 6
-10.471 -27.571 -4.388 4
-9.908 -25.876 -4.42 6
-9.422 -24.422 -4.466 6
-9.011 -23.166 -4.527 4
-8.606 -21.959 -4.561 8
-8.25 -20.882 -4.6 11
-7.908 -19.865 -4.625 9
-7.617 -18.978 -4.668 6
-7.333 -18.134 -4.697 8
-7.078 -17.361 -4.73 4
-6.84 -16.651 -4.764 8
-6.617 -15.977 -4.793 43
-6.424 -15.393 -4.843 8
-6.221 -14.793 -4.866 7
-6.041 -14.246 -4.897 8
-5.882 -13.765 -4.947 8
-5.719 -13.27 -4.974 7
-5.557 -12.793 -4.994 8
-5.416 -12.363 -5.029 9
-5.274 -11.943 -5.055 9
-5.141 -11.54 -5.08 8
-5.014 -11.162 -5.11 10
-4.895 -10.802 -5.14 11
-4.775 -10.448 -5.163 11
-4.658 -10.105 -5.183 10
-4.543 -9.764 -5.193 14
-4.432 -9.441 -5.207 20
-15.207 -41.269 -4.277 5
-13.942 -37.523 -4.294 6
-12.446 -33.238 -4.065 22
-12.047 -31.907 -4.366 7
-11.235 -29.528 -4.362 6
-10.582 -27.598 -4.395 4
-10.009 -25.893 -4.425 7
-9.52 -24.44 -4.472 6
-9.099 -23.172 -4.529 4
-8.696 -21.976 -4.567 13
-8.337 -20.899 -4.607 10
-7.993 -19.887 -4.634 9
-7.692 -18.984 -4.67 6
-7.404 -18.136 -4.698 5
-7.146 -17.362 -4.73 7
-6.909 -16.658 -4.768 7
-6.683 -15.982 -4.795 38
-6.485 -15.392 -4.843 8
-6.278 -14.786 -4.862 6
-6.101 -14.252 -4.9 8
-5.94 -13.768 -4.949 8
-5.773 -13.268 -4.972 8
-5.608 -12.788 -4.991 8
-5.467 -12.361 -5.027 9
-5.321 -11.935 -5.05 8
-5.19 -11.539 -5.08 10
-5.064 -11.168 -5.114 10
-4.941 -10.799 -5.137 11
-4.818 -10.442 -5.158 10
-4.702 -10.102 -5.181 12
-4.586 -9.762 -5.191 18
-4.474 -9.44 -5.206 16
-15.365 -41.31 -4.284 5
-14.095 -37.581 -4.305 6
-12.587 -33.3 -4.078 29
-12.174 -31.94 -4.374 7
-11.357 -29.567 -4.372 6
-10.691 -27.62 -4.401 5
-10.107 -25.899 -4.426 7
-9.616 -24.455 -4.477 6
-9.194 -23.191 -4.535 5
-8.777 -21.971 -4.565 20
-8.419 -20.907 -4.61 10
-8.067 -19.881 -4.632 9
-7.766 -18.986 -4.671 6
-7.478 -18.142 -4.701 6
-7.214 -17.362 -4.73 6
-6.972 -16.652 -4.765 8
-6.744 -15.977 -4.793 43
-6.548 -15.394 -4.844 9
-6.339 -14.788 -4.863 6
-6.157 -14.245 -4.896 8
-5.994 -13.762 -4.946 7
-5.826 -13.265 -4.971 8
-5.66 -12.785 -4.989 8
-5.517 -12.356 -5.024 9
-5.371 -11.933 -5.049 9
-5.237 -11.535 -5.077 10
-5.107 -11.155 -5.105 10
-4.989 -10.802 -5.14 11
-4.864 -10.442 -5.158 9
-4.745 -10.1 -5.179 11
-4.627 -9.758 -5.188 24
-4.512 -9.43 -5.197 21
-15.536 -41.381 -4.297 4
-14.255 -37.652 -4.319 5
-12.714 -33.32 -4.082 34
-12.29 -31.944 -4.375 7
-11.474 -29.595 -4.379 6
-10.799 -27.639 -4.406 5
-10.21 -25.919 -4.432 6
-9.712 -24.469 -4.481 6
-9.284 -23.199 -4.538 5
-8.859 -21.971 -4.565 29
-8.504 -20.92 -4.614 10
-8.148 -19.892 -4.636 9
-7.84 -18.987 -4.671 6
-7.552 -18.151 -4.705 5
-7.285 -17.369 -4.733 7
-7.041 -16.66 -4.769 8
-6.808 -15.978 -4.793 42
-6.608 -15.389 -4.841 8
-6.397 -14.783 -4.861 7
-6.215 -14.244 -4.896 8
-6.051 -13.762 -4.946 8
-5.882 -13.266 -4.971 8
-5.712 -12.78 -4.986 8
-5.567 -12.351 -5.021 9
-5.422 -11.932 -5.048 9
-5.288 -11.537 -5.078 10
-5.158 -11.161 -5.109 10
-5.035 -10.798 -5.137 10
-4.907 -10.436 -5.154 10
-4.788 -10.095 -5.175 12
-4.67 -9.755 -5.186 26
-4.555 -9.431 -5.198 19
-15.695 -41.42 -4.303 5
-14.41 -37.713 -4.331 6
-12.846 -33.356 -4.09 32
-12.414 -31.969 -4.381 7
-11.589 -29.615 -4.384 6
-10.913 -27.672 -4.415 5
-10.313 -25.939 -4.438 6
-9.809 -24.482 -4.485 5
-9.375 -23.21 -4.542 5
-8.943 -21.972 -4.566 19
-8.587 -20.927 -4.617 11
-8.227 -19.9 -4.639 9
-7.916 -18.992 -4.673 6
-7.621 -18.147 -4.703 6
-7.354 -17.368 -4.733 6
-7.106 -16.656 -4.767 7
-6.871 -15.975 -4.792 42
-6.669 -15.387 -4.84 9
-6.458 -14.785 -4.861 6
-6.272 -14.24 -4.893 5
-6.105 -13.755 -4.942 8
-5.937 -13.266 -4.971 8
-5.767 -12.784 -4.988 8
-5.62 -12.352 -5.022 9
-5.472 -11.931 -5.047 8
-5.333 -11.527 -5.071 9
-5.204 -11.157 -5.106 10
-5.08 -10.795 -5.134 11
-4.95 -10.43 -5.149 11
-4.83 -10.09 -5.17 10
-4.712 -9.753 -5.184 34
-4.599 -9.435 -5.201 22
-15.873 -41.506 -4.319 4
-14.565 -37.769 -4.341 5
-12.964 -33.354 -4.09 31
-12.542 -32.001 -4.388 7
-11.706 -29.638 -4.39 6
-11.021 -27.69 -4.419 5
-10.417 -25.958 -4.443 6
-9.906 -24.496 -4.489 6
-9.472 -23.232 -4.549 5
-9.039 -22.002 -4.576 8
-8.672 -20.94 -4.621 10
-8.304 -19.9 -4.639 8
-7.995 -19.004 -4.678 6
-7.693 -18.149 -4.704 7
-7.422 -17.367 -4.732 4
-7.173 -16.656 -4.767 8
-6.936 -15.976 -4.792 44
-6.734 -15.391 -4.842 8
-6.517 -14.781 -4.859 7
-6.334 -14.249 -4.898 8
-6.163 -13.758 -4.943 7
-5.991 -13.262 -4.969 8
-5.82 -12.781 -4.987 7
-5.671 -12.35 -5.02 9
-5.521 -11.926 -5.044 9
-5.383 -11.528 -5.072 10
-5.249 -11.15 -5.101 9
-5.126 -10.791 -5.132 11
-4.999 -10.436 -5.153 11
-4.876 -10.093 -5.173 11
-4.756 -9.754 -5.184 39
-4.642 -9.435 -5.202 21
-16.044 -41.573 -4.33 4
-14.715 -37.809 -4.349 6
-13.102 -33.403 -4.1 32
-12.671 -32.036 -4.396 8
-11.826 -29.668 -4.397 6
-11.134 -27.717 -4.427 5
-10.522 -25.981 -4.45 6
-10.003 -24.51 -4.493 6
-9.561 -23.236 -4.55 5
-9.129 -22.018 -4.581 8
-8.757 -20.95 -4.625 11
-8.386 -19.91 -4.643 9
-8.068 -19.001 -4.677 6
-7.767 -18.154 -4.706 6
-7.491 -17.366 -4.732 5
-7.238 -16.652 -4.765 8
-7.001 -15.976 -4.792 45
-6.795 -15.389 -4.841 8
-6.578 -14.783 -4.86 7
-6.39 -14.241 -4.894 8
-6.219 -13.754 -4.941 5
-6.044 -13.256 -4.965 8
-5.872 -12.779 -4.985 8
-5.723 -12.348 -5.019 9
-5.571 -11.924 -5.043 9
-5.429 -11.521 -5.067 11
-5.299 -11.152 -5.103 10
-5.173 -10.791 -5.132 10
-5.044 -10.433 -5.151 12
-4.918 -10.087 -5.168 11
-4.799 -9.751 -5.182 37
-4.68 -9.425 -5.193 17
-16.21 -41.624 -4.339 5
-14.869 -37.86 -4.359 5
-13.249 -33.473 -4.115 29
-12.802 -32.075 -4.405 7
-11.946 -29.698 -4.404 6
-11.247 -27.746 -4.435 5
-10.624 -25.992 -4.453 6
-10.098 -24.518 -4.496 6
-9.65 -23.24 -4.551 5
-9.218 -22.029 -4.585 8
-8.841 -20.958 -4.628 10
-8.466 -19.917 -4.645 9
-8.144 -19.005 -4.679 6
-7.839 -18.155 -4.706 6
-7.562 -17.371 -4.734 6
-7.307 -16.659 -4.768 8
-7.064 -15.973 -4.79 47
-6.857 -15.386 -4.84 8
-6.636 -14.777 -4.857 7
-6.448 -14.24 -4.894 8
-6.279 -13.759 -4.944 6
-6.098 -13.253 -4.963 8
-5.925 -12.776 -4.983 9
-5.776 -12.348 -5.019 9
-5.623 -11.925 -5.044 9
-5.48 -11.522 -5.068 10
-5.346 -11.148 -5.099 10
-5.217 -10.785 -5.127 11
-5.087 -10.427 -5.146 12
-4.964 -10.087 -5.168 11
-4.843 -9.752 -5.183 39
-4.72 -9.42 -5.188 17
-16.386 -41.701 -4.353 4
-15.031 -37.93 -4.373 5
-13.406 -33.564 -4.134 25
-12.942 -32.134 -4.419 9
-12.069 -29.735 -4.414 6
-11.358 -27.766 -4.44 5
-10.728 -26.011 -4.458 7
-10.2 -24.542 -4.503 6
-9.745 -23.257 -4.556 5
-9.305 -22.037 -4.588 7
-8.927 -20.971 -4.633 11
-8.543 -19.916 -4.645 15
-8.223 -19.015 -4.683 5
-7.916 -18.167 -4.711 6
-7.632 -17.373 -4.735 6
-7.372 -16.654 -4.766 8
-7.128 -15.973 -4.79 46
-6.918 -15.383 -4.838 8
-6.696 -14.775 -4.856 7
-6.503 -14.233 -4.889 9
-6.335 -13.755 -4.942 8
-6.155 -13.255 -4.965 8
-5.979 -12.776 -4.983 8
-5.826 -12.343 -5.015 9
-5.67 -11.916 -5.038 9
-5.528 -11.517 -5.064 10
-5.392 -11.144 -5.096 10
-5.264 -10.784 -5.126 12
-5.133 -10.426 -5.146 11
-5.006 -10.081 -5.163 10
-4.884 -9.746 -5.178 34
-4.763 -9.421 -5.189 20
-16.572 -41.798 -4.37 5
-15.182 -37.968 -4.38 5
-13.599 -33.743 -4.172 19
-13.079 -32.182 -4.43 11
-12.192 -29.767 -4.422 6
-11.473 -27.797 -4.448 5
-10.834 -26.032 -4.465 6
-10.295 -24.547 -4.505 5
-9.839 -23.27 -4.561 4
-9.394 -22.048 -4.592 7
-9.01 -20.976 -4.635 11
-8.628 -19.932 -4.651 7
-8.298 -19.015 -4.683 6
-7.987 -18.164 -4.71 6
-7.702 -17.375 -4.736 5
-7.441 -16.657 -4.767 8
-7.193 -15.973 -4.79 45
-6.983 -15.387 -4.84 8
-6.757 -14.777 -4.857 7
-6.563 -14.234 -4.89 8
-6.392 -13.754 -4.941 7
-6.211 -13.255 -4.964 8
-6.032 -12.773 -4.981 11
-5.878 -12.339 -5.013 9
-5.724 -11.92 -5.04 10
-5.577 -11.516 -5.064 9
-5.439 -11.139 -5.093 9
-5.31 -10.779 -5.123 10
-5.179 -10.426 -5.146 11
-5.051 -10.081 -5.163 12
-4.927 -9.743 -5.175 38
-4.803 -9.415 -5.185 18
-16.75 -41.873 -4.383 5
-15.344 -38.037 -4.394 6
-13.753 -33.822 -4.189 22
-13.212 -32.223 -4.439 12
-12.317 -29.806 -4.431 6
-11.591 -27.83 -4.457 5
-10.94 -26.053 -4.471 6
-10.397 -24.57 -4.512 6
-9.935 -23.286 -4.566 4
-9.482 -22.055 -4.594 8
-9.097 -20.987 -4.639 11
-8.708 -19.938 -4.654 8
-8.376 -19.022 -4.685 6
-8.059 -18.165 -4.711 6
-7.774 -17.381 -4.738 5
-7.509 -16.659 -4.768 8
-7.257 -15.969 -4.789 44
-7.04 -15.375 -4.834 9
-6.817 -14.774 -4.856 7
-6.62 -14.228 -4.887 7
-6.447 -13.749 -4.938 8
-6.267 -13.254 -4.964 8
-6.084 -12.766 -4.977 15
-5.929 -12.336 -5.011 9
-5.774 -11.918 -5.039 9
-5.626 -11.514 -5.062 9
-5.487 -11.137 -5.092 10
-5.356 -10.775 -5.12 11
-5.221 -10.416 -5.138 12
-5.095 -10.077 -5.16 10
-4.97 -9.741 -5.173 33
-4.845 -9.413 -5.182 17
-16.923 -41.934 -4.394 6
-15.508 -38.103 -4.406 5
-13.876 -33.825 -4.19 23
-13.346 -32.263 -4.448 12
-12.442 -29.841 -4.44 5
-11.697 -27.839 -4.459 5
-11.044 -26.067 -4.475 6
-10.496 -24.585 -4.516 5
-10.026 -23.293 -4.568 5
-9.573 -22.07 -4.599 8
-9.182 -20.996 -4.642 11
-8.792 -19.951 -4.658 8
-8.454 -19.029 -4.688 7
-8.134 -18.169 -4.712 6
-7.845 -17.381 -4.739 5
-7.577 -16.662 -4.769 7
-7.325 -15.975 -4.792 46
-7.106 -15.381 -4.837 8
-6.876 -14.768 -4.852 8
-6.679 -14.227 -4.886 8
-6.504 -13.749 -4.938 8
-6.321 -13.25 -4.961 8
-6.14 -12.768 -4.978 17
-5.982 -12.337 -5.012 9
-5.823 -11.913 -5.035 9
-5.676 -11.511 -5.06 9
-5.534 -11.133 -5.089 14
-5.403 -10.774 -5.119 11
-5.267 -10.416 -5.137 11
-5.138 -10.074 -5.158 12
-5.012 -9.738 -5.171 37
-4.887 -9.41 -5.18 16
-17.102 -42.007 -4.407 6
-15.663 -38.148 -4.415 5
-14.068 -33.993 -4.226 6
-13.482 -32.306 -4.458 11
-12.566 -29.875 -4.449 5
-11.817 -27.875 -4.469 5
-11.15 -26.088 -4.481 6
-10.59 -24.585 -4.516 5
-10.123 -23.308 -4.573 4
-9.663 -22.08 -4.603 8
-9.267 -21.003 -4.644 11
-8.872 -19.956 -4.66 9
-8.532 -19.035 -4.691 6
-8.211 -18.179 -4.717 6
-7.917 -17.386 -4.741 5
-7.643 -16.656 -4.767 8
-7.39 -15.974 -4.791 46
-7.168 -15.377 -4.835 8
-6.941 -14.775 -4.856 7
-6.74 -14.231 -4.889 5
-6.562 -13.746 -4.936 8
-6.374 -13.242 -4.957 8
-6.193 -12.765 -4.977 14
-6.037 -12.34 -5.013 9
-5.875 -11.913 -5.035 9
-5.727 -11.513 -5.061 8
-5.584 -11.134 -5.089 10
-5.447 -10.767 -5.113 11
-5.312 -10.411 -5.134 12
-5.184 -10.073 -5.157 10
-5.055 -9.734 -5.168 38
-4.93 -9.41 -5.18 18
-17.275 -42.065 -4.417 7
-15.829 -38.218 -4.429 5
-14.658 -35.11 -4.463 9
-13.619 -32.348 -4.468 9
-12.691 -29.91 -4.457 6
-11.932 -27.9 -4.476 5
-11.262 -26.118 -4.489 6
-10.693 -24.607 -4.523 6
-10.214 -23.314 -4.575 4
-9.753 -22.09 -4.606 8
-9.352 -21.011 -4.647 11
-8.956 -19.968 -4.665 9
-8.607 -19.034 -4.69 6
-8.281 -18.173 -4.714 10
-7.986 -17.383 -4.74 6
-7.716 -16.668 -4.772 8
-7.455 -15.974 -4.791 47
-7.233 -15.38 -4.836 8
-6.999 -14.769 -4.853 7
-6.798 -14.225 -4.885 8
-6.619 -13.745 -4.935 8
-6.431 -13.244 -4.958 8
-6.246 -12.761 -4.974 19
-6.086 -12.33 -5.007 8
-5.924 -11.907 -5.031 9
-5.775 -11.507 -5.057 9
-5.632 -11.132 -5.088 10
-5.496 -10.768 -5.114 13
-5.357 -10.407 -5.131 11
-5.227 -10.07 -5.154 12
-5.098 -9.731 -5.165 38
-4.971 -9.405 -5.175 17
0.0 -0.0 3.0 0
-15.994 -38.283 -4.441 5
-14.801 -35.146 -4.47 8
-13.752 -32.383 -4.476 10
-12.823 -29.958 -4.469 6
-12.047 -27.925 -4.483 5
-11.368 -26.134 -4.494 6
-10.794 -24.624 -4.528 5
-10.309 -23.325 -4.579 4
-9.843 -22.099 -4.609 8
-9.439 -21.021 -4.651 11
-9.037 -19.972 -4.667 9
-8.689 -19.046 -4.695 7
-8.358 -18.182 -4.718 8
-8.056 -17.383 -4.74 5
-7.781 -16.662 -4.77 8
-7.52 -15.972 -4.79 41
-7.298 -15.383 -4.838 8
-7.06 -14.766 -4.851 8
-6.855 -14.219 -4.882 7
-6.676 -13.743 -4.935 8
-6.487 -13.243 -4.957 8
-6.3 -12.76 -4.973 16
-6.139 -12.329 -5.007 8
-5.976 -11.907 -5.031 9
-5.821 -11.499 -5.051 8
-5.681 -11.13 -5.086 10
-5.545 -10.769 -5.115 12
-5.406 -10.412 -5.135 12
-5.271 -10.066 -5.151 11
-5.141 -9.728 -5.163 36
-5.011 -9.399 -5.17 17
-17.642 -42.225 -4.445 3
-16.16 -38.348 -4.454 5
-14.945 -35.184 -4.479 9
-13.888 -32.422 -4.485 8
-12.953 -30.002 -4.48 5
-12.165 -27.957 -4.491 4
-11.477 -26.157 -4.5 6
-10.899 -24.648 -4.536 5
-10.41 -23.35 -4.587 4
-9.934 -22.111 -4.614 7
-9.528 -21.035 -4.656 11
-9.122 -19.984 -4.671 15
-8.764 -19.045 -4.695 6
-8.434 -18.188 -4.721 6
-8.129 -17.387 -4.741 5
-7.85 -16.663 -4.77 8
-7.585 -15.971 -4.79 45
-7.36 -15.379 -4.836 8
-7.121 -14.766 -4.851 7
-6.915 -14.22 -4.882 8
-6.734 -13.741 -4.933 8
-6.543 -13.241 -4.956 8
-6.355 -12.759 -4.973 17
-6.193 -12.329 -5.007 8
-6.028 -11.907 -5.031 9
-5.875 -11.505 -5.056 9
-5.729 -11.128 -5.085 11
-5.589 -10.761 -5.109 12
-5.449 -10.405 -5.129 11
-5.316 -10.065 -5.151 11
-5.187 -9.73 -5.164 37
-5.053 -9.396 -5.168 17
-16.904 -40.113 -4.073 27
-16.329 -38.419 -4.468 5
-15.098 -35.241 -4.491 8
-14.021 -32.452 -4.492 8
-13.084 -30.046 -4.491 6
-12.281 -27.981 -4.497 5
-11.587 -26.182 -4.508 6
-10.999 -24.661 -4.54 5
-10.506 -23.362 -4.591 4
-10.021 -22.114 -4.614 8
-9.612 -21.038 -4.657 11
-9.196 -19.974 -4.667 29
-8.841 -19.047 -4.695 6
-8.509 -18.191 -4.722 6
-8.203 -17.394 -4.744 5
-7.92 -16.668 -4.772 8
-7.65 -15.969 -4.789 41
-7.426 -15.381 -4.837 5
-7.182 -14.762 -4.849 7
-6.974 -14.217 -4.881 8
-6.79 -13.735 -4.93 8
-6.598 -13.236 -4.953 8
-6.409 -12.758 -4.972 25
-6.244 -12.325 -5.004 8
-6.076 -11.897 -5.025 10
-5.923 -11.499 -5.052 8
-5.777 -11.125 -5.083 11
-5.638 -10.762 -5.11 11
-5.494 -10.4 -5.125 11
-5.359 -10.058 -5.145 12
-5.23 -9.727 -5.162 36
-5.095 -9.393 -5.165 16
-16.959 -39.903 -4.036 10
-16.502 -38.497 -4.483 5
-15.247 -35.286 -4.5 7
-14.155 -32.485 -4.5 8
-13.215 -30.088 -4.502 6
-12.397 -28.005 -4.504 4
-11.695 -26.201 -4.513 6
-11.103 -24.681 -4.546 5
-10.601 -23.373 -4.594 4
-10.11 -22.119 -4.616 8
-9.7 -21.047 -4.661 9
-9.276 -19.975 -4.668 30
-8.921 -19.055 -4.699 6
-8.582 -18.19 -4.721 6
-8.272 -17.391 -4.743 5
-7.989 -16.669 -4.773 7
-7.712 -15.96 -4.784 15
-7.488 -15.377 -4.835 8
-7.242 -14.758 -4.847 8
-7.031 -14.211 -4.877 9
-6.847 -13.732 -4.928 8
-6.654 -13.234 -4.952 8
-6.462 -12.753 -4.969 19
-6.296 -12.321 -5.002 8
-6.131 -11.903 -5.028 9
-5.972 -11.496 -5.05 6
-5.824 -11.119 -5.079 10
-5.682 -10.755 -5.104 12
-5.542 -10.402 -5.127 11
-5.406 -10.06 -5.146 11
-5.272 -9.723 -5.159 36
-5.136 -9.389 -5.162 13
-17.037 -39.75 -4.009 70
-16.677 -38.578 -4.499 4
-15.405 -35.352 -4.514 7
-14.3 -32.539 -4.512 7
-13.344 -30.124 -4.511 6
-12.523 -28.049 -4.516 4
-11.808 -26.229 -4.521 6
-11.201 -24.687 -4.548 6
-10.694 -23.375 -4.595 5
-10.201 -22.127 -4.619 7
-9.786 -21.053 -4.663 9
-9.354 -19.971 -4.666 18
-9.002 -19.063 -4.702 7
-8.657 -18.192 -4.722 6
-8.346 -17.397 -4.746 4
-8.058 -16.669 -4.773 8
-7.787 -15.978 -4.793 8
-7.555 -15.382 -4.837 8
-7.304 -14.757 -4.846 8
-7.093 -14.214 -4.879 9
-6.903 -13.726 -4.925 8
-6.708 -13.229 -4.949 8
-6.517 -12.751 -4.968 22
-6.348 -12.317 -4.999 9
-6.181 -11.896 -5.024 9
-6.022 -11.492 -5.047 6
-5.874 -11.12 -5.079 11
-5.731 -10.755 -5.105 11
-5.585 -10.394 -5.121 11
-5.446 -10.05 -5.138 12
-5.315 -9.719 -5.155 33
-4.722 -8.559 -4.44 3
-17.223 -39.848 -4.026 21
-16.835 -38.619 -4.507 5
-15.558 -35.403 -4.525 7
-14.45 -32.604 -4.527 8
-13.463 -30.137 -4.514 6
-12.644 -28.082 -4.525 4
-11.915 -26.244 -4.525 6
-11.308 -24.713 -4.555 6
-10.788 -23.382 -4.597 5
-10.298 -22.148 -4.626 8
-9.877 -21.069 -4.668 13
-9.449 -20.002 -4.678 9
-9.079 -19.064 -4.702 7
-8.73 -18.19 -4.721 6
-8.419 -17.4 -4.747 5
-8.126 -16.666 -4.772 8
-7.855 -15.979 -4.793 9
-7.615 -15.374 -4.833 8
-7.368 -14.76 -4.848 7
-7.154 -14.214 -4.879 9
-6.962 -13.726 -4.925 8
-6.764 -13.227 -4.947 8
-6.569 -12.743 -4.963 26
-6.402 -12.316 -4.998 9
-6.233 -11.895 -5.023 9
-6.072 -11.49 -5.045 7
-5.92 -11.112 -5.073 9
-5.777 -10.75 -5.1 12
-5.632 -10.392 -5.119 11
-5.493 -10.051 -5.139 10
-4.712 -8.544 -4.169 6
-4.711 -8.467 -4.36 5
-17.383 -39.884 -4.033 15
-17.011 -38.698 -4.522 5
-15.711 -35.453 -4.536 6
-14.585 -32.635 -4.534 7
-13.592 -30.172 -4.523 6
-12.76 -28.101 -4.53 5
-12.029 -26.271 -4.533 6
-11.408 -24.721 -4.558 5
-10.884 -23.392 -4.6 5
-10.389 -22.156 -4.629 8
-9.958 -21.063 -4.666 19
-9.535 -20.016 -4.683 7
-9.158 -19.067 -4.704 6
-8.807 -18.195 -4.723 6
-8.488 -17.395 -4.745 5
-8.196 -16.669 -4.773 7
-7.922 -15.98 -4.794 9
-7.679 -15.372 -4.833 8
-7.427 -14.752 -4.844 8
-7.213 -14.21 -4.877 8
-7.02 -13.724 -4.924 8
-6.821 -13.224 -4.946 9
-6.625 -12.745 -4.964 23
-6.455 -12.315 -4.997 8
-6.284 -11.892 -5.021 9
-6.121 -11.486 -5.043 9
-5.972 -11.115 -5.075 10
-5.825 -10.748 -5.099 11
-5.678 -10.39 -5.118 11
-4.756 -8.63 -3.988 3
-4.713 -8.474 -4.11 5
-4.741 -8.451 -4.346 5
-17.49 -39.799 -4.018 3
-17.183 -38.766 -4.535 6
-15.866 -35.507 -4.547 6
-14.733 -32.692 -4.547 6
-13.723 -30.209 -4.532 6
-12.887 -28.144 -4.541 5
-12.146 -26.306 -4.543 6
-11.517 -24.75 -4.567 5
-10.985 -23.411 -4.607 4
-10.478 -22.159 -4.63 7
-10.046 -21.072 -4.67 18
-9.616 -20.015 -4.683 7
-9.236 -19.067 -4.704 6
-8.882 -18.197 -4.724 6
-8.563 -17.401 -4.747 5
-8.267 -16.672 -4.774 8
-7.991 -15.983 -4.796 9
-7.745 -15.373 -4.833 8
-7.49 -14.754 -4.845 7
-7.272 -14.206 -4.875 6
-7.079 -13.723 -4.923 8
-6.877 -13.221 -4.944 8
-6.68 -12.743 -4.963 31
-6.508 -12.31 -4.994 8
-6.333 -11.884 -5.016 9
-6.171 -11.483 -5.04 9
-6.02 -11.111 -5.073 9
-5.871 -10.742 -5.095 10
-5.723 -10.385 -5.113 12
-4.711 -8.476 -3.864 5
-4.721 -8.418 -4.064 5
-4.781 -8.451 -4.346 5
0.0 -0.0 3.0 0
-17.342 -38.801 -4.542 5
-16.028 -35.574 -4.562 7
-14.868 -32.719 -4.554 7
-13.853 -30.242 -4.54 6
-13.004 -28.166 -4.547 5
-12.251 -26.316 -4.546 5
-11.624 -24.771 -4.573 5
-11.082 -23.424 -4.611 5
-10.574 -22.177 -4.636 7
-10.129 -21.07 -4.669 15
-9.701 -20.023 -4.686 7
-9.32 -19.081 -4.709 6
-8.962 -18.208 -4.729 6
-8.638 -17.406 -4.75 4
-8.337 -16.672 -4.774 8
-8.058 -15.983 -4.796 8
-7.809 -15.37 -4.832 8
-7.553 -14.753 -4.844 8
-7.332 -14.205 -4.874 8
-7.137 -13.72 -4.921 8
-6.931 -13.215 -4.941 8
-6.735 -12.741 -4.961 33
-6.563 -12.311 -4.995 8
-6.387 -11.887 -5.018 9
-6.224 -11.485 -5.042 8
-6.066 -11.102 -5.066 9
-5.92 -10.742 -5.095 11
-4.72 -8.495 -3.637 4
-4.715 -8.413 -3.813 5
-4.756 -8.41 -4.056 5
-4.759 -8.344 -4.253 6
-17.795 -39.832 -4.023 2
-17.523 -38.885 -4.559 5
-16.196 -35.651 -4.578 8
-15.008 -32.756 -4.562 7
-13.989 -30.29 -4.552 6
-13.125 -28.194 -4.555 5
-12.366 -26.342 -4.553 6
-11.722 -24.775 -4.575 6
-11.179 -23.433 -4.614 5
-10.666 -22.183 -4.638 7
-10.224 -21.092 -4.677 11
-9.785 -20.029 -4.688 9
-9.398 -19.082 -4.709 7
-9.037 -18.209 -4.729 6
-8.709 -17.404 -4.749 4
-8.409 -16.678 -4.777 8
-8.122 -15.977 -4.793 9
-7.871 -15.365 -4.829 8
-7.612 -14.744 -4.84 8
-7.391 -14.201 -4.872 8
-7.198 -13.723 -4.923 8
-6.989 -13.216 -4.941 8
-6.788 -12.735 -4.958 31
-6.615 -12.307 -4.992 9
-6.436 -11.879 -5.013 9
-6.274 -11.481 -5.039 8
-6.118 -11.105 -5.068 8
-4.76 -8.567 -3.456 2
-4.714 -8.414 -3.574 5
-4.733 -8.377 -3.783 4
-4.769 -8.365 -4.019 4
-4.797 -8.341 -4.251 17
-17.939 -39.83 -4.023 2
-17.687 -38.93 -4.567 6
-16.348 -35.691 -4.586 9
-15.15 -32.797 -4.572 7
0.0 -0.0 3.0 0
-13.243 -28.214 -4.56 5
-12.482 -26.371 -4.562 6
-11.829 -24.796 -4.581 6
-11.279 -23.448 -4.619 5
-10.764 -22.203 -4.645 17
-10.313 -21.098 -4.679 11
-9.872 -20.041 -4.693 9
-9.479 -19.087 -4.712 6
-9.115 -18.213 -4.731 6
-8.78 -17.403 -4.748 4
-8.479 -16.676 -4.776 7
-8.191 -15.981 -4.794 9
-7.935 -15.362 -4.828 8
-7.677 -14.749 -4.842 8
-7.452 -14.199 -4.871 8
-7.253 -13.713 -4.917 8
-7.044 -13.209 -4.937 8
-6.843 -12.733 -4.956 34
-6.667 -12.301 -4.988 8
-6.489 -11.877 -5.011 9
-6.32 -11.471 -5.032 8
-6.166 -11.102 -5.066 9
-4.805 -8.576 -3.462 7
-4.716 -8.348 -3.522 4
-4.774 -8.379 -3.786 4
-4.777 -8.309 -3.972 9
-4.833 -8.336 -4.246 6
-18.079 -39.816 -4.021 2
-17.859 -38.992 -4.579 5
-16.497 -35.725 -4.594 10
-15.291 -32.833 -4.58 7
-13.056 -27.811 -3.934 1
-13.358 -28.228 -4.564 5
-12.602 -26.408 -4.572 6
-11.933 -24.81 -4.585 5
-11.374 -23.452 -4.62 5
-10.844 -22.185 -4.639 24
-10.401 -21.106 -4.682 9
-9.956 -20.046 -4.695 7
-9.557 -19.086 -4.711 6
-9.195 -18.223 -4.735 6
-8.859 -17.414 -4.753 4
-8.547 -16.672 -4.774 6
-8.262 -15.986 -4.797 10
-8.003 -15.366 -4.829 8
-7.741 -14.75 -4.843 7
-7.513 -14.199 -4.87 7
-7.312 -13.712 -4.917 8
-7.102 -13.209 -4.937 8
-6.902 -12.736 -4.958 40
-6.723 -12.302 -4.989 8
-6.541 -11.876 -5.011 10
-6.372 -11.47 -5.031 9
-6.215 -11.098 -5.063 10
-4.846 -8.578 -3.464 7
-4.752 -8.342 -3.518 5
-4.753 -8.275 -3.701 5
-4.795 -8.273 -3.941 9
-4.868 -8.327 -4.239 6
-18.456 -40.319 -4.109 4
-18.031 -39.05 -4.591 6
-16.639 -35.743 -4.597 6
-15.436 -32.876 -4.59 6
0.0 -0.0 3.0 0
-13.478 -28.251 -4.57 5
-12.71 -26.419 -4.575 5
-12.045 -24.84 -4.595 5
-11.476 -23.47 -4.626 5
-10.94 -22.201 -4.645 20
-10.492 -21.116 -4.686 8
-10.04 -20.05 -4.697 8
-9.639 -19.092 -4.714 6
-9.271 -18.223 -4.735 6
-8.934 -17.418 -4.755 4
-8.62 -16.677 -4.777 8
-8.322 -15.97 -4.789 14
-8.067 -15.363 -4.828 9
-7.802 -14.744 -4.84 7
-7.574 -14.197 -4.869 7
-7.372 -13.711 -4.916 8
-7.159 -13.205 -4.935 8
-6.955 -12.73 -4.955 42
-6.775 -12.297 -4.986 8
-6.596 -11.878 -5.012 9
-6.421 -11.466 -5.029 8
-6.262 -11.092 -5.059 9
-4.882 -8.572 -3.46 8
-4.789 -8.339 -3.515 5
-4.787 -8.266 -3.694 5
-4.827 -8.262 -3.932 8
-4.904 -8.322 -4.234 5
-18.367 -39.805 -4.019 4
-18.211 -39.124 -4.605 5
-16.807 -35.814 -4.613 6
-15.591 -32.94 -4.605 5
-13.088 -27.429 -3.839 0
-13.542 -28.155 -4.544 4
-12.827 -26.447 -4.584 4
-12.15 -24.853 -4.598 6
-11.573 -23.477 -4.628 5
-11.034 -22.209 -4.647 8
-10.581 -21.123 -4.688 9
-10.128 -20.062 -4.701 8
-9.722 -19.101 -4.717 6
-9.348 -18.226 -4.736 6
-9.004 -17.413 -4.753 5
-8.691 -16.679 -4.777 6
-8.396 -15.982 -4.795 9
-8.131 -15.36 -4.826 8
-7.867 -14.745 -4.84 7
-7.635 -14.194 -4.868 8
-7.431 -13.71 -4.915 8
-7.217 -13.205 -4.934 8
-7.012 -12.73 -4.955 38
-6.829 -12.295 -4.984 9
-6.647 -11.872 -5.008 10
-6.475 -11.468 -5.03 8
-6.311 -11.087 -5.055 9
-4.92 -8.569 -3.457 8
-4.771 -8.242 -3.439 7
-4.822 -8.26 -3.689 5
-4.881 -8.287 -3.954 5
-4.944 -8.322 -4.234 5
-18.689 -40.179 -4.085 7
-18.385 -39.185 -4.617 5
-16.964 -35.86 -4.622 6
-13.315 -27.906 -3.443 1
0.0 -0.0 3.0 0
-13.114 -27.047 -4.247 2
-12.941 -26.468 -4.59 5
-12.256 -24.868 -4.603 6
-11.677 -23.498 -4.635 5
-11.131 -22.225 -4.653 8
-10.668 -21.125 -4.689 9
-10.212 -20.066 -4.702 8
-9.802 -19.103 -4.718 6
-9.426 -18.229 -4.738 6
-9.079 -17.416 -4.754 6
-8.761 -16.677 -4.777 6
-8.464 -15.981 -4.794 9
-8.196 -15.356 -4.824 8
-7.931 -14.745 -4.84 5
-7.696 -14.193 -4.867 9
-7.489 -13.705 -4.912 8
-7.274 -13.201 -4.932 8
-7.067 -12.727 -4.952 42
-6.883 -12.292 -4.982 8
-6.698 -11.867 -5.004 9
-6.523 -11.46 -5.024 7
-6.361 -11.087 -5.055 9
