# .PCD v0.7 - Point Cloud Data file format
VERSION 0.7
FIELDS x y z intensity
SIZE 4 4 4 4
TYPE F F F F
COUNT 1 1 1 1
WIDTH 2094
HEIGHT 1
VIEWPOINT 0 0 0 1 0 0 0
POINTS 2094
DATA ascii
35.758 -8.319 -0.193 5
83.028 -18.831 -4.608 10
0.0 -0.0 3.0 0
0.0 -0.0 3.0 0
67.585 -14.592 -3.805 3
61.104 -13.121 -3.399 3
54.511 -11.692 -2.958 3
49.723 -10.707 -2.693 12
45.477 -9.883 -2.478 10
41.861 -9.213 -2.319 6
38.641 -8.647 -2.196 12
36.016 -8.215 -2.133 14
0.0 -0.0 3.0 0
26.493 -6.321 -1.263 11
0.0 -0.0 3.0 0
26.442 -6.633 -1.819 3
20.794 -5.354 -1.035 0
7.346 -1.941 1.483 56
7.342 -1.99 1.388 57
7.347 -2.044 1.285 57
7.371 -2.102 1.173 23
62.406 -22.59 -0.983 23
63.261 -21.947 -1.266 13
65.014 -21.605 -1.592 12
71.441 -22.751 -2.252 43
75.846 -23.143 -2.77 39
78.029 -22.837 -3.119 11
0.0 -0.0 3.0 0
84.947 -22.922 -4.008 15
83.757 -21.767 -4.073 9
89.746 -22.501 -4.748 11
0.0 -0.0 3.0 0
35.739 -8.421 -0.233 6
0.0 -0.0 3.0 0
0.0 -0.0 3.0 0
0.0 -0.0 3.0 0
0.0 -0.0 3.0 0
60.436 -13.158 -3.417 3
55.2 -12.003 -3.116 6
49.452 -10.791 -2.738 13
45.047 -9.916 -2.497 8
41.505 -9.247 -2.339 17
38.337 -8.68 -2.215 11
35.773 -8.25 -2.155 13
29.356 -6.915 -1.491 0
26.473 -6.378 -1.302 8
0.0 -0.0 3.0 0
26.418 -6.683 -1.856 8
20.717 -5.377 -1.052 0
7.341 -1.954 1.473 26
7.348 -2.006 1.376 58
7.349 -2.057 1.274 57
7.366 -2.113 1.163 28
0.0 -0.0 3.0 0
62.655 -21.887 -1.254 12
64.454 -21.577 -1.586 11
67.994 -21.825 -2.039 6
75.448 -23.218 -2.789 31
78.03 -23.045 -3.175 37
0.0 -0.0 3.0 0
82.905 -22.602 -3.91 18
85.914 -22.572 -4.334 11
89.937 -22.81 -4.854 7
37.053 -9.109 -0.315 2
0.0 -0.0 3.0 0
0.0 -0.0 3.0 0
0.0 -0.0 3.0 0
0.0 -0.0 3.0 0
66.083 -14.667 -3.839 4
59.761 -13.188 -3.432 3
54.614 -12.035 -3.132 8
49.162 -10.869 -2.779 10
44.664 -9.957 -2.519 17
41.276 -9.308 -2.374 28
38.061 -8.717 -2.238 11
35.534 -8.284 -2.177 13
0.0 -0.0 3.0 0
26.464 -6.437 -1.342 13
0.0 -0.0 3.0 0
26.398 -6.735 -1.893 4
0.0 -0.0 3.0 0
20.513 -5.501 -1.298 0
7.35 -2.02 1.364 57
7.354 -2.072 1.261 57
7.353 -2.122 1.155 47
0.0 -0.0 3.0 0
62.049 -21.825 -1.242 16
64.502 -21.753 -1.624 15
71.429 -23.11 -2.335 34
74.895 -23.243 -2.795 13
0.0 -0.0 3.0 0
84.89 -24.305 -3.969 8
82.533 -22.732 -3.95 18
0.0 -0.0 3.0 0
88.547 -22.716 -4.822 10
36.038 -8.967 -0.264 5
100.946 -24.392 -6.363 9
83.415 -19.675 -4.949 5
0.0 -0.0 3.0 0
0.0 -0.0 3.0 0
65.365 -14.705 -3.857 4
59.191 -13.24 -3.457 3
54.017 -12.063 -3.146 9
49.0 -10.974 -2.835 18
44.397 -10.023 -2.556 10
41.023 -9.363 -2.406 9
37.803 -8.758 -2.262 11
35.31 -8.322 -2.2 15
0.0 -0.0 3.0 0
26.444 -6.495 -1.381 42
0.0 -0.0 3.0 0
26.416 -6.797 -1.938 3
20.579 -5.426 -1.089 0
20.421 -5.516 -1.31 0
7.348 -2.034 1.353 56
7.352 -2.085 1.251 56
7.347 -2.133 1.146 57
60.455 -22.31 -0.934 58
61.5 -21.781 -1.234 15
63.907 -21.712 -1.615 14
71.441 -23.296 -2.378 42
74.15 -23.206 -2.786 10
76.254 -22.93 -3.144 17
82.403 -23.82 -3.83 13
83.659 -23.279 -4.117 11
84.659 -22.729 -4.385 5
35.735 -9.272 -0.193 5
36.072 -9.083 -0.306 5
35.637 -8.718 -0.347 6
0.0 -0.0 3.0 0
0.0 -0.0 3.0 0
0.0 -0.0 3.0 0
64.65 -14.739 -3.873 3
58.605 -13.284 -3.479 3
53.498 -12.105 -3.168 9
48.396 -10.979 -2.837 9
44.076 -10.074 -2.584 7
40.69 -9.398 -2.426 8
37.554 -8.801 -2.288 11
35.093 -8.361 -2.225 14
0.0 -0.0 3.0 0
0.0 -0.0 3.0 0
0.0 -0.0 3.0 0
26.502 -6.877 -1.996 3
20.548 -5.461 -1.115 2
0.0 -0.0 3.0 0
7.346 -2.047 1.342 43
7.35 -2.098 1.24 57
7.345 -2.145 1.135 57
59.355 -22.046 -0.887 8
60.939 -21.732 -1.224 13
63.316 -21.671 -1.606 16
71.415 -23.472 -2.419 30
73.425 -23.174 -2.778 10
75.655 -22.955 -3.151 8
77.713 -22.68 -3.503 23
84.106 -23.641 -4.228 9
82.599 -22.415 -4.283 18
36.897 -9.683 -0.334 1
35.977 -9.166 -0.336 4
35.964 -8.907 -0.419 10
35.894 -8.684 -0.509 15
0.0 -0.0 3.0 0
0.0 -0.0 3.0 0
63.862 -14.753 -3.879 3
58.02 -13.325 -3.499 3
53.177 -12.189 -3.211 21
47.916 -11.009 -2.853 8
43.689 -10.109 -2.603 15
40.437 -9.451 -2.457 8
37.308 -8.842 -2.313 10
34.881 -8.4 -2.249 13
0.0 -0.0 3.0 0
0.0 -0.0 3.0 0
0.0 -0.0 3.0 0
27.143 -7.103 -2.161 13
20.528 -5.499 -1.144 7
20.397 -5.592 -1.369 0
18.725 -5.254 -1.255 0
7.356 -2.113 1.227 57
7.347 -2.159 1.123 56
58.817 -21.988 -0.877 14
60.386 -21.684 -1.215 10
62.608 -21.587 -1.588 7
70.713 -23.425 -2.408 14
72.705 -23.14 -2.769 9
75.034 -22.971 -3.155 48
77.157 -22.732 -3.518 14
82.481 -23.419 -4.16 8
82.348 -22.585 -4.338 15
35.527 -9.428 -0.246 3
35.312 -9.102 -0.313 2
35.773 -8.967 -0.442 5
35.865 -8.786 -0.55 7
0.0 -0.0 3.0 0
0.0 -0.0 3.0 0
63.276 -14.81 -3.906 4
57.435 -13.363 -3.518 3
52.832 -12.266 -3.25 8
47.425 -11.034 -2.867 6
43.426 -10.171 -2.638 21
40.073 -9.476 -2.471 7
37.059 -8.882 -2.337 11
34.626 -8.428 -2.266 13
0.0 -0.0 3.0 0
0.0 -0.0 3.0 0
0.0 -0.0 3.0 0
27.004 -7.126 -2.177 14
20.508 -5.537 -1.172 4
0.0 -0.0 3.0 0
18.631 -5.264 -1.263 0
7.357 -2.127 1.215 57
7.348 -2.172 1.112 55
58.328 -21.947 -0.87 14
59.845 -21.639 -1.206 16
66.458 -23.084 -1.907 43
70.068 -23.395 -2.401 13
71.977 -23.101 -2.76 11
75.029 -23.176 -3.21 23
77.014 -22.906 -3.568 12
0.0 -0.0 3.0 0
82.684 -22.918 -4.447 11
34.702 -9.311 -0.206 6
36.743 -9.581 -0.487 9
35.497 -9.006 -0.457 11
37.25 -9.239 -0.733 18
0.0 -0.0 3.0 0
0.0 -0.0 3.0 0
62.601 -14.842 -3.921 4
56.784 -13.383 -3.527 4
52.054 -12.24 -3.237 7
46.996 -11.071 -2.886 7
43.085 -10.214 -2.662 6
39.863 -9.537 -2.506 17
36.797 -8.918 -2.359 10
34.406 -8.464 -2.289 13
0.0 -0.0 3.0 0
0.0 -0.0 3.0 0
26.298 -6.851 -1.797 4
24.265 -6.458 -1.692 1
20.499 -5.579 -1.204 1
0.0 -0.0 3.0 0
18.537 -5.274 -1.271 0
7.355 -2.14 1.204 54
7.35 -2.186 1.099 56
57.82 -21.897 -0.861 15
59.323 -21.599 -1.199 16
66.441 -23.249 -1.942 42
69.413 -23.358 -2.393 11
0.0 -0.0 3.0 0
75.032 -23.382 -3.265 17
76.812 -23.063 -3.613 13
81.515 -23.612 -4.219 11
80.682 -22.599 -4.343 9
34.708 -9.416 -0.242 1
35.384 -9.334 -0.397 1
36.235 -9.303 -0.571 5
37.254 -9.355 -0.78 18
0.0 -0.0 3.0 0
0.0 -0.0 3.0 0
61.896 -14.863 -3.931 4
56.208 -13.417 -3.544 3
51.559 -12.276 -3.255 6
46.595 -11.111 -2.908 7
42.695 -10.242 -2.677 8
39.553 -9.573 -2.527 16
36.552 -8.957 -2.382 11
34.228 -8.509 -2.317 14
0.0 -0.0 3.0 0
0.0 -0.0 3.0 0
26.375 -6.933 -1.855 3
24.245 -6.506 -1.727 1
0.0 -0.0 3.0 0
20.377 -5.712 -1.462 0
18.469 -5.291 -1.285 1
8.522 -2.496 0.906 3
7.351 -2.2 1.088 57
57.331 -21.854 -0.853 18
59.277 -21.732 -1.224 8
62.008 -21.858 -1.646 7
68.784 -23.329 -2.386 13
0.0 -0.0 3.0 0
75.033 -23.591 -3.321 18
77.042 -23.349 -3.695 9
81.022 -23.703 -4.247 6
35.229 -9.971 -0.24 7
35.243 -9.666 -0.328 10
35.316 -9.423 -0.43 7
35.553 -9.237 -0.546 8
35.961 -9.14 -0.693 3
0.0 -0.0 3.0 0
0.0 -0.0 3.0 0
61.253 -14.896 -3.946 4
55.643 -13.449 -3.56 3
51.076 -12.313 -3.274 7
46.201 -11.152 -2.93 7
42.424 -10.299 -2.709 24
39.235 -9.605 -2.545 10
36.31 -8.995 -2.405 11
34.019 -8.546 -2.34 13
0.0 -0.0 3.0 0
0.0 -0.0 3.0 0
26.292 -6.972 -1.882 3
24.217 -6.553 -1.761 255
0.0 -0.0 3.0 0
20.345 -5.745 -1.488 2
18.379 -5.302 -1.293 0
0.0 -0.0 3.0 0
7.352 -2.214 1.076 56
56.82 -21.801 -0.844 15
58.945 -21.761 -1.23 17
66.43 -23.591 -2.014 10
68.144 -23.295 -2.378 13
0.0 -0.0 3.0 0
75.026 -23.798 -3.377 30
77.003 -23.556 -3.755 16
80.571 -23.804 -4.278 7
34.954 -9.996 -0.248 4
35.459 -9.832 -0.385 3
35.425 -9.558 -0.479 4
35.326 -9.285 -0.564 9
36.817 -9.471 -0.826 9
0.0 -0.0 3.0 0
0.0 -0.0 3.0 0
60.572 -14.915 -3.955 4
55.079 -13.48 -3.575 4
50.527 -12.331 -3.283 11
45.795 -11.188 -2.949 7
42.169 -10.357 -2.741 10
38.84 -9.616 -2.552 10
36.072 -9.034 -2.428 11
33.779 -8.574 -2.358 12
27.558 -7.109 -1.617 0
0.0 -0.0 3.0 0
26.293 -7.035 -1.926 10
24.197 -6.602 -1.797 186
0.0 -0.0 3.0 0
20.336 -5.784 -1.519 5
18.311 -5.319 -1.307 0
0.0 -0.0 3.0 0
7.357 -2.229 1.062 54
56.384 -21.775 -0.839 15
58.438 -21.723 -1.223 18
65.79 -23.535 -2.003 14
67.52 -23.262 -2.37 15
0.0 -0.0 3.0 0
75.041 -24.012 -3.434 27
76.86 -23.732 -3.805 9
80.715 -24.081 -4.362 6
80.889 -23.372 -4.594 7
35.083 -9.832 -0.386 6
35.502 -9.687 -0.526 2
35.327 -9.394 -0.606 10
0.0 -0.0 3.0 0
0.0 -0.0 3.0 0
0.0 -0.0 3.0 0
59.969 -14.95 -3.972 4
54.592 -13.526 -3.597 3
50.044 -12.363 -3.299 8
45.452 -11.237 -2.975 8
41.763 -10.377 -2.752 6
38.626 -9.671 -2.583 13
35.803 -9.064 -2.446 11
33.517 -8.596 -2.371 11
27.45 -7.151 -1.644 0
0.0 -0.0 3.0 0
26.297 -7.098 -1.97 4
26.335 -7.246 -2.264 15
0.0 -0.0 3.0 0
20.33 -5.825 -1.551 6
18.22 -5.329 -1.316 0
17.97 -5.367 -1.504 0
7.366 -2.245 1.048 15
55.869 -21.718 -0.829 14
57.942 -21.689 -1.216 22
65.215 -23.502 -1.996 15
66.462 -23.077 -2.328 34
0.0 -0.0 3.0 0
74.202 -23.953 -3.418 9
77.326 -24.097 -3.91 6
82.629 -24.893 -4.611 7
35.608 -10.394 -0.377 8
34.965 -9.905 -0.41 7
36.603 -10.099 -0.676 7
35.869 -9.648 -0.704 3
0.0 -0.0 3.0 0
0.0 -0.0 3.0 0
0.0 -0.0 3.0 0
59.365 -14.981 -3.986 4
54.055 -13.557 -3.612 3
49.496 -12.375 -3.306 7
45.124 -11.289 -3.003 9
41.458 -10.42 -2.776 21
38.312 -9.7 -2.6 13
35.565 -9.101 -2.468 12
33.258 -8.618 -2.385 11
0.0 -0.0 3.0 0
0.0 -0.0 3.0 0
26.297 -7.161 -2.014 5
26.195 -7.267 -2.28 19
0.0 -0.0 3.0 0
19.148 -5.528 -1.319 2
18.175 -5.353 -1.335 0
17.955 -5.398 -1.529 0
7.767 -2.382 0.929 3
55.418 -21.684 -0.823 19
57.155 -21.543 -1.188 16
64.666 -23.476 -1.99 14
0.0 -0.0 3.0 0
0.0 -0.0 3.0 0
74.838 -24.37 -3.53 11
77.744 -24.452 -4.012 11
35.629 -10.839 -0.314 6
35.592 -10.495 -0.41 8
34.869 -9.982 -0.437 7
34.416 -9.601 -0.494 11
35.488 -9.655 -0.706 4
0.0 -0.0 3.0 0
36.878 -9.653 -1.097 16
64.675 -16.697 -4.434 3
58.736 -15.003 -3.996 4
53.534 -13.589 -3.628 4
49.049 -12.411 -3.324 6
44.788 -11.337 -3.028 9
41.233 -10.483 -2.811 31
38.072 -9.746 -2.627 18
35.338 -9.14 -2.492 12
33.03 -8.646 -2.403 10
0.0 -0.0 3.0 0
0.0 -0.0 3.0 0
26.274 -7.217 -2.053 7
26.07 -7.292 -2.298 18
0.0 -0.0 3.0 0
19.026 -5.533 -1.323 1
18.11 -5.371 -1.349 0
17.991 -5.444 -1.568 0
7.816 -2.412 0.904 3
54.945 -21.639 -0.816 19
61.454 -23.325 -1.534 47
64.095 -23.441 -1.982 14
28.36 -10.002 0.691 1
75.016 -25.516 -3.362 6
75.043 -24.65 -3.605 25
77.614 -24.636 -4.064 8
79.599 -24.449 -4.475 15
35.442 -10.557 -0.43 4
34.987 -10.122 -0.485 4
34.496 -9.728 -0.541 7
35.955 -9.893 -0.798 5
36.723 -9.901 -1.0 12
36.703 -9.721 -1.126 1
63.971 -16.714 -4.442 3
58.122 -15.025 -4.006 4
52.936 -13.598 -3.632 8
48.563 -12.434 -3.335 6
44.46 -11.385 -3.054 8
41.039 -10.552 -2.849 12
37.812 -9.786 -2.65 15
35.104 -9.175 -2.513 11
32.814 -8.677 -2.422 11
0.0 -0.0 3.0 0
0.0 -0.0 3.0 0
26.436 -7.326 -2.129 3
25.914 -7.309 -2.31 19
0.0 -0.0 3.0 0
18.911 -5.54 -1.328 1
18.068 -5.396 -1.369 1
17.949 -5.467 -1.587 0
7.909 -2.455 0.866 5
54.499 -21.604 -0.809 19
61.473 -23.494 -1.567 51
63.55 -23.412 -1.976 16
28.386 -10.089 0.671 6
75.046 -25.737 -3.417 19
75.032 -24.861 -3.661 24
77.21 -24.733 -4.092 7
79.314 -24.596 -4.52 9
35.178 -10.584 -0.439 7
36.144 -10.567 -0.639 9
34.495 -9.835 -0.58 10
35.796 -9.961 -0.823 2
36.682 -10.004 -1.042 8
0.0 -0.0 3.0 0
63.303 -16.735 -4.451 3
57.543 -15.053 -4.019 4
52.577 -13.667 -3.666 6
48.12 -12.465 -3.351 7
44.136 -11.432 -3.079 6
40.738 -10.593 -2.872 7
37.498 -9.811 -2.664 14
34.87 -9.21 -2.534 11
32.601 -8.707 -2.441 12
0.0 -0.0 3.0 0
0.0 -0.0 3.0 0
26.246 -7.336 -2.137 8
25.785 -7.333 -2.327 18
0.0 -0.0 3.0 0
18.827 -5.556 -1.341 1
18.052 -5.429 -1.396 2
17.926 -5.495 -1.611 0
7.872 -2.459 0.862 2
54.567 -21.773 -0.839 13
56.87 -21.886 -1.254 6
63.009 -23.384 -1.97 15
28.383 -10.166 0.653 8
28.369 -9.809 0.554 1
75.043 -25.08 -3.72 25
0.0 -0.0 3.0 0
0.0 -0.0 3.0 0
35.557 -10.805 -0.511 10
35.385 -10.453 -0.599 7
34.364 -9.903 -0.604 20
35.472 -9.98 -0.831 7
36.902 -10.178 -1.112 14
0.0 -0.0 3.0 0
62.577 -16.738 -4.452 3
56.892 -15.058 -4.022 4
52.057 -13.691 -3.677 5
47.696 -12.499 -3.368 6
43.758 -11.465 -3.096 7
40.475 -10.642 -2.899 6
37.254 -9.852 -2.688 14
34.636 -9.243 -2.554 11
32.408 -8.743 -2.463 10
0.0 -0.0 3.0 0
0.0 -0.0 3.0 0
26.226 -7.394 -2.177 4
25.641 -7.352 -2.342 19
0.0 -0.0 3.0 0
18.754 -5.575 -1.356 1
18.047 -5.465 -1.425 1
17.906 -5.525 -1.636 1
17.776 -5.587 -1.857 1
54.202 -21.769 -0.838 20
56.445 -21.874 -1.252 5
62.465 -23.353 -1.964 16
28.372 -10.241 0.636 0
28.365 -9.888 0.535 0
75.053 -25.3 -3.779 27
0.0 -0.0 3.0 0
0.0 -0.0 3.0 0
35.033 -10.752 -0.493 19
35.066 -10.466 -0.604 12
36.713 -10.693 -0.892 8
35.038 -9.966 -0.826 17
37.048 -10.334 -1.175 17
0.0 -0.0 3.0 0
61.936 -16.76 -4.462 3
56.333 -15.085 -4.034 4
51.599 -13.728 -3.696 6
47.246 -12.524 -3.381 6
43.411 -11.503 -3.116 6
40.208 -10.688 -2.925 3
36.959 -9.88 -2.704 10
34.398 -9.275 -2.573 11
32.206 -8.775 -2.484 11
30.324 -8.37 -2.435 12
0.0 -0.0 3.0 0
26.893 -7.648 -2.355 21
21.881 -6.326 -1.596 1
20.31 -5.975 -1.503 0
18.673 -5.592 -1.369 1
0.0 -0.0 3.0 0
17.889 -5.556 -1.662 14
17.763 -5.618 -1.884 1
53.759 -21.733 -0.832 20
60.414 -23.574 -1.582 18
61.485 -23.155 -1.922 42
0.0 -0.0 3.0 0
75.052 -26.377 -3.577 16
75.028 -25.509 -3.835 26
70.914 -23.34 -3.693 5
34.893 -11.132 -0.403 1
34.422 -10.669 -0.467 15
33.665 -10.152 -0.495 7
37.32 -10.985 -0.998 1
35.032 -10.074 -0.867 11
35.819 -10.103 -1.082 2
0.0 -0.0 3.0 0
61.269 -16.77 -4.466 3
55.778 -15.109 -4.045 5
51.091 -13.75 -3.706 8
46.853 -12.561 -3.4 7
43.099 -11.548 -3.14 7
39.906 -10.725 -2.945 7
36.7 -9.915 -2.725 11
34.168 -9.308 -2.593 10
32.013 -8.809 -2.504 11
30.144 -8.399 -2.454 14
26.432 -7.466 -2.036 5
26.714 -7.663 -2.365 22
21.831 -6.363 -1.623 1
20.317 -6.024 -1.539 1
18.596 -5.61 -1.383 0
0.0 -0.0 3.0 0
17.873 -5.588 -1.689 10
17.751 -5.649 -1.91 1
53.331 -21.701 -0.827 21
59.937 -23.549 -1.578 17
61.411 -23.296 -1.952 23
76.999 -28.225 -3.516 16
75.049 -26.591 -3.63 22
28.373 -9.73 0.393 35
68.726 -22.823 -3.545 17
0.0 -0.0 3.0 0
35.18 -11.012 -0.578 12
33.87 -10.317 -0.552 6
33.723 -10.031 -0.651 8
83.475 -24.265 -6.315 6
35.632 -10.162 -1.106 3
0.0 -0.0 3.0 0
60.645 -16.789 -4.475 3
55.224 -15.13 -4.055 4
50.625 -13.78 -3.721 12
46.457 -12.596 -3.418 7
42.787 -11.592 -3.163 7
39.659 -10.775 -2.973 12
36.44 -9.949 -2.744 11
33.922 -9.336 -2.61 10
31.816 -8.841 -2.525 11
29.964 -8.427 -2.473 13
26.475 -7.545 -2.089 1
26.568 -7.686 -2.382 21
21.697 -6.375 -1.632 1
20.392 -6.093 -1.591 4
18.526 -5.63 -1.399 0
0.0 -0.0 3.0 0
17.863 -5.621 -1.717 5
17.741 -5.681 -1.938 1
52.87 -21.655 -0.818 17
59.442 -23.517 -1.571 16
60.898 -23.271 -1.946 16
75.893 -28.035 -3.472 31
75.045 -26.805 -3.683 14
28.316 -9.793 0.376 1
66.281 -22.208 -3.368 3
69.154 -22.479 -3.873 4
33.723 -10.658 -0.463 5
33.814 -10.404 -0.582 6
34.033 -10.229 -0.723 8
34.923 -10.261 -0.939 11
0.0 -0.0 3.0 0
0.0 -0.0 3.0 0
59.982 -16.793 -4.477 4
54.685 -15.153 -4.066 7
50.13 -13.799 -3.73 16
46.068 -12.631 -3.436 7
42.456 -11.629 -3.183 6
39.396 -10.818 -2.997 15
36.169 -9.978 -2.761 10
33.715 -9.373 -2.632 10
31.633 -8.876 -2.547 10
29.795 -8.459 -2.494 14
26.601 -7.649 -2.159 0
26.414 -7.707 -2.397 21
21.508 -6.371 -1.629 1
20.395 -6.141 -1.628 4
18.475 -5.656 -1.419 0
0.0 -0.0 3.0 0
17.839 -5.651 -1.742 2
17.747 -5.718 -1.97 0
56.486 -23.288 -1.106 45
58.954 -23.486 -1.565 17
60.385 -23.243 -1.941 15
75.27 -28.019 -3.469 7
75.058 -27.027 -3.739 24
66.735 -23.276 -3.237 11
0.0 -0.0 3.0 0
66.155 -21.705 -3.636 6
33.701 -10.754 -0.494 9
33.892 -10.534 -0.627 11
33.882 -10.29 -0.745 16
34.931 -10.373 -0.982 4
35.118 -10.237 -1.136 3
0.0 -0.0 3.0 0
59.351 -16.803 -4.481 4
54.201 -15.187 -4.082 11
49.642 -13.819 -3.74 21
45.665 -12.659 -3.45 7
42.136 -11.668 -3.204 7
38.736 -10.751 -2.959 7
35.89 -10.005 -2.777 10
33.515 -9.412 -2.655 10
31.421 -8.902 -2.563 11
29.6 -8.482 -2.508 11
27.807 -8.067 -2.441 20
26.276 -7.732 -2.414 22
21.416 -6.396 -1.647 1
20.383 -6.184 -1.66 3
18.439 -5.685 -1.442 0
0.0 -0.0 3.0 0
17.826 -5.683 -1.769 1
17.748 -5.754 -2.002 0
56.482 -23.44 -1.133 57
58.433 -23.44 -1.556 18
0.0 -0.0 3.0 0
77.119 -28.928 -3.678 17
75.052 -27.243 -3.793 22
64.824 -22.801 -3.109 6
28.356 -9.671 0.227 255
66.083 -21.882 -3.69 14
33.691 -10.855 -0.527 1
33.954 -10.658 -0.67 9
34.412 -10.558 -0.843 8
34.981 -10.498 -1.03 13
35.072 -10.333 -1.175 4
0.0 -0.0 3.0 0
58.786 -16.828 -4.492 3
53.655 -15.202 -4.089 13
49.227 -13.855 -3.758 14
45.265 -12.687 -3.464 7
41.786 -11.697 -3.219 6
38.443 -10.783 -2.977 13
35.635 -10.036 -2.794 11
33.304 -9.446 -2.676 11
31.208 -8.928 -2.579 11
29.405 -8.505 -2.523 11
27.655 -8.095 -2.46 20
26.119 -7.751 -2.427 21
21.324 -6.419 -1.664 1
20.363 -6.226 -1.691 1
18.387 -5.711 -1.462 1
0.0 -0.0 3.0 0
17.797 -5.711 -1.792 1
17.756 -5.792 -2.035 0
56.481 -23.593 -1.16 34
58.028 -23.438 -1.556 18
28.385 -11.086 0.644 2
75.897 -28.688 -3.623 6
75.023 -27.452 -3.845 19
66.72 -23.666 -3.341 6
28.332 -9.748 0.205 6
65.96 -22.043 -3.739 18
35.062 -11.405 -0.706 4
33.647 -10.667 -0.673 13
34.344 -10.645 -0.875 10
35.011 -10.617 -1.076 1
0.0 -0.0 3.0 0
0.0 -0.0 3.0 0
58.194 -16.841 -4.498 4
53.141 -15.222 -4.098 18
48.721 -13.864 -3.762 4
44.901 -12.722 -3.482 8
41.456 -11.729 -3.236 9
38.086 -10.796 -2.984 10
35.383 -10.068 -2.813 12
33.097 -9.481 -2.697 10
31.018 -8.959 -2.598 12
29.213 -8.527 -2.538 12
27.518 -8.126 -2.481 20
25.98 -7.775 -2.444 21
21.228 -6.442 -1.68 1
20.343 -6.267 -1.723 3
18.377 -5.75 -1.492 0
0.0 -0.0 3.0 0
17.776 -5.742 -1.818 3
17.728 -5.819 -2.059 0
52.021 -21.873 -0.857 7
57.537 -23.4 -1.549 24
0.0 -0.0 3.0 0
75.289 -28.675 -3.62 8
74.233 -27.38 -3.827 11
65.355 -23.377 -3.264 9
64.466 -22.376 -3.416 9
0.0 -0.0 3.0 0
34.471 -11.319 -0.678 9
33.617 -10.762 -0.706 12
34.245 -10.722 -0.903 13
36.785 -11.272 -1.327 4
0.0 -0.0 3.0 0
0.0 -0.0 3.0 0
57.591 -16.849 -4.502 4
52.669 -15.252 -4.112 11
48.226 -13.873 -3.766 5
44.54 -12.756 -3.5 8
41.144 -11.765 -3.256 6
37.759 -10.814 -2.995 10
35.143 -10.102 -2.832 10
32.867 -9.508 -2.713 11
30.825 -8.988 -2.616 11
29.037 -8.554 -2.555 11
27.408 -8.165 -2.507 20
25.823 -7.793 -2.457 21
21.143 -6.467 -1.699 1
20.334 -6.313 -1.757 2
18.34 -5.779 -1.515 0
0.0 -0.0 3.0 0
17.769 -5.778 -1.848 4
17.751 -5.863 -2.096 0
55.79 -23.612 -1.163 13
56.482 -23.13 -1.496 39
0.0 -0.0 3.0 0
74.077 -28.428 -3.563 23
75.066 -27.909 -3.958 15
64.521 -23.271 -3.235 10
64.333 -22.525 -3.459 10
28.347 -9.647 0.051 6
34.342 -11.384 -0.699 1
34.083 -11.018 -0.794 11
34.138 -10.797 -0.93 9
36.832 -11.403 -1.377 8
35.563 -10.816 -1.37 5
35.368 -10.589 -1.495 10
57.008 -16.858 -4.506 4
52.079 -15.245 -4.109 5
47.793 -13.897 -3.778 22
44.149 -12.78 -3.511 6
40.848 -11.804 -3.276 7
37.447 -10.837 -3.007 11
34.925 -10.14 -2.854 11
32.656 -9.54 -2.732 12
30.654 -9.022 -2.638 12
28.887 -8.587 -2.576 11
27.279 -8.198 -2.529 16
25.67 -7.811 -2.47 20
21.047 -6.49 -1.715 1
20.313 -6.354 -1.788 2
18.329 -5.818 -1.545 0
0.0 -0.0 3.0 0
17.763 -5.814 -1.878 4
17.733 -5.894 -2.123 0
55.355 -23.581 -1.158 17
56.498 -23.296 -1.528 54
70.723 -28.227 -3.0 13
74.845 -28.942 -3.682 23
75.067 -28.133 -4.014 20
63.919 -23.246 -3.229 8
64.5 -22.78 -3.532 11
64.752 -22.236 -3.798 12
66.482 -22.244 -4.228 10
33.761 -11.02 -0.794 6
34.016 -10.866 -0.955 4
64.948 -20.314 -4.798 6
0.0 -0.0 3.0 0
34.963 -10.579 -1.491 15
56.436 -16.868 -4.51 4
51.581 -15.261 -4.116 5
47.387 -13.926 -3.792 25
43.724 -12.791 -3.518 5
40.522 -11.832 -3.291 6
37.155 -10.862 -3.021 11
34.682 -10.17 -2.872 10
32.43 -9.566 -2.748 13
30.461 -9.05 -2.655 10
28.718 -8.614 -2.594 13
27.124 -8.222 -2.546 12
25.52 -7.831 -2.484 20
20.947 -6.511 -1.73 1
20.289 -6.395 -1.819 2
18.332 -5.861 -1.579 0
0.0 -0.0 3.0 0
17.752 -5.848 -1.907 3
17.766 -5.941 -2.164 0
54.924 -23.55 -1.153 20
56.189 -23.328 -1.534 20
70.165 -28.207 -2.996 12
74.831 -29.156 -3.731 26
74.967 -28.318 -4.06 26
63.932 -23.444 -3.282 8
64.171 -22.86 -3.555 11
64.835 -22.465 -3.868 4
28.387 -9.587 -0.115 2
33.601 -11.074 -0.813 4
36.111 -11.65 -1.24 2
36.998 -11.69 -1.488 3
0.0 -0.0 3.0 0
0.0 -0.0 3.0 0
55.835 -16.865 -4.509 3
51.091 -15.278 -4.124 5
46.894 -13.928 -3.793 13
43.398 -12.829 -3.537 7
40.218 -11.865 -3.309 5
36.886 -10.894 -3.039 11
34.441 -10.201 -2.89 11
32.226 -9.598 -2.767 15
30.278 -9.081 -2.674 11
28.55 -8.641 -2.612 12
26.968 -8.246 -2.562 12
25.4 -7.859 -2.503 19
20.866 -6.537 -1.75 1
20.275 -6.44 -1.853 3
18.31 -5.897 -1.607 0
0.0 -0.0 3.0 0
17.741 -5.883 -1.936 2
17.77 -5.98 -2.198 0
54.507 -23.525 -1.148 19
55.747 -23.304 -1.53 21
69.586 -28.176 -2.989 11
74.834 -29.378 -3.782 13
74.878 -28.509 -4.108 13
63.839 -23.604 -3.325 16
63.561 -22.838 -3.549 13
64.632 -22.596 -3.908 9
0.0 -0.0 3.0 0
33.328 -11.09 -0.818 2
36.293 -11.824 -1.304 8
63.981 -20.42 -4.838 16
0.0 -0.0 3.0 0
0.0 -0.0 3.0 0
34.842 -10.635 -1.735 24
50.609 -15.294 -4.132 5
46.545 -13.97 -3.814 5
43.053 -12.861 -3.553 6
39.919 -11.899 -3.327 6
36.579 -10.912 -3.049 11
34.201 -10.23 -2.906 9
31.989 -9.619 -2.779 13
30.104 -9.112 -2.694 11
28.373 -8.665 -2.627 12
26.787 -8.262 -2.573 12
25.292 -7.891 -2.525 18
20.8 -6.568 -1.772 1
20.269 -6.487 -1.888 4
18.295 -5.934 -1.636 0
0.0 -0.0 3.0 0
17.741 -5.922 -1.969 2
17.781 -6.021 -2.234 0
54.095 -23.5 -1.144 19
55.31 -23.28 -1.525 19
0.0 -0.0 3.0 0
74.715 -29.552 -3.823 47
63.335 -24.304 -3.06 9
63.861 -23.807 -3.379 11
62.143 -22.52 -3.457 8
65.056 -22.947 -4.016 4
35.926 -12.359 -1.016 12
34.699 -11.656 -1.013 11
35.722 -11.752 -1.277 18
63.94 -20.612 -4.912 37
64.78 -20.53 -5.295 3
28.369 -8.856 -0.759 4
54.782 -16.897 -4.523 4
34.722 -10.603 -1.944 16
46.151 -13.997 -3.827 5
42.689 -12.885 -3.565 5
39.631 -11.934 -3.345 6
36.332 -10.948 -3.069 11
33.965 -10.259 -2.923 10
31.763 -9.642 -2.793 15
29.914 -9.139 -2.711 11
28.201 -8.689 -2.643 12
26.65 -8.29 -2.592 12
25.217 -7.933 -2.555 19
20.729 -6.598 -1.793 0
20.263 -6.533 -1.923 2
18.316 -5.984 -1.675 0
17.718 -5.868 -1.752 0
17.737 -5.959 -2.001 1
17.784 -6.059 -2.267 0
53.686 -23.475 -1.139 22
0.0 -0.0 3.0 0
0.0 -0.0 3.0 0
74.968 -29.876 -3.897 17
63.353 -24.502 -3.109 4
63.994 -24.052 -3.445 6
0.0 -0.0 3.0 0
63.187 -22.486 -3.875 21
65.166 -22.624 -4.351 13
28.371 -9.621 -0.313 13
36.744 -12.206 -1.443 11
63.177 -20.569 -4.896 21
0.0 -0.0 3.0 0
28.297 -8.925 -0.788 9
54.266 -16.911 -4.529 3
34.716 -10.711 -1.995 3
34.805 -10.665 -2.202 14
42.334 -12.908 -3.577 5
39.369 -11.976 -3.368 6
36.052 -10.972 -3.082 10
33.722 -10.285 -2.938 10
31.579 -9.677 -2.815 14
29.74 -9.169 -2.729 11
28.017 -8.709 -2.656 11
26.491 -8.311 -2.606 12
25.093 -7.959 -2.573 16
20.696 -6.639 -1.823 0
20.282 -6.589 -1.965 2
18.3 -6.022 -1.705 0
17.699 -5.902 -1.78 1
17.718 -5.992 -2.028 1
17.79 -6.099 -2.302 0
53.281 -23.451 -1.135 20
0.0 -0.0 3.0 0
0.0 -0.0 3.0 0
75.079 -30.145 -3.959 18
74.824 -29.165 -4.272 12
61.937 -23.469 -3.289 5
61.61 -22.709 -3.512 16
0.0 -0.0 3.0 0
65.058 -22.793 -4.406 17
34.67 -11.868 -1.086 6
0.0 -0.0 3.0 0
0.0 -0.0 3.0 0
0.0 -0.0 3.0 0
28.278 -9.009 -0.824 2
53.723 -16.914 -4.531 4
49.188 -15.333 -4.15 5
34.767 -10.763 -2.25 4
42.012 -12.941 -3.594 5
39.1 -12.014 -3.388 6
35.772 -10.994 -3.094 9
33.512 -10.321 -2.959 10
31.394 -9.711 -2.835 14
29.542 -9.192 -2.744 10
27.845 -8.732 -2.671 11
26.343 -8.335 -2.622 12
24.947 -7.977 -2.585 15
20.626 -6.669 -1.845 0
20.283 -6.639 -2.003 2
18.288 -6.061 -1.736 0
17.706 -5.945 -1.814 5
17.732 -6.036 -2.064 1
17.782 -6.134 -2.333 1
52.869 -23.421 -1.13 22
28.359 -12.184 0.632 6
79.341 -33.06 -4.027 8
74.059 -29.959 -3.916 16
74.375 -29.218 -4.285 34
0.0 -0.0 3.0 0
61.707 -22.938 -3.577 18
63.45 -22.979 -4.025 11
62.802 -22.202 -4.214 4
34.674 -11.98 -1.125 1
0.0 -0.0 3.0 0
0.0 -0.0 3.0 0
0.0 -0.0 3.0 0
58.379 -18.787 -4.975 3
53.14 -16.901 -4.525 3
48.73 -15.346 -4.156 6
44.971 -14.064 -3.86 5
34.776 -10.821 -2.513 27
38.869 -12.062 -3.414 6
35.488 -11.014 -3.105 13
33.254 -10.339 -2.969 9
31.202 -9.743 -2.854 14
29.364 -9.22 -2.761 11
27.68 -8.757 -2.687 11
26.184 -8.355 -2.636 12
24.816 -8.0 -2.601 12
20.618 -6.719 -1.881 0
20.386 -6.723 -2.066 1
18.32 -6.116 -1.778 0
17.72 -5.991 -1.851 0
17.724 -6.073 -2.095 0
17.763 -6.166 -2.36 2
52.468 -23.396 -1.125 25
28.342 -12.26 0.617 27
78.787 -33.064 -4.028 14
75.089 -30.602 -4.065 20
74.908 -29.656 -4.394 10
60.638 -23.353 -3.257 7
60.685 -22.748 -3.523 8
61.789 -22.572 -3.901 17
66.519 -23.728 -4.71 12
34.718 -12.107 -1.169 9
28.358 -9.694 -0.528 7
0.0 -0.0 3.0 0
0.0 -0.0 3.0 0
57.798 -18.787 -4.975 3
52.651 -16.915 -4.531 23
48.277 -15.356 -4.161 6
44.575 -14.081 -3.868 5
34.757 -10.923 -2.566 7
38.619 -12.103 -3.435 6
35.389 -11.091 -3.148 21
33.011 -10.362 -2.982 11
31.003 -9.771 -2.871 12
29.197 -9.25 -2.78 11
27.496 -8.775 -2.699 12
26.05 -8.383 -2.654 12
24.673 -8.019 -2.615 15
0.0 -0.0 3.0 0
20.53 -6.821 -2.14 3
18.278 -6.145 -1.801 0
17.792 -6.056 -1.904 0
17.719 -6.11 -2.127 1
17.773 -6.208 -2.397 3
51.522 -23.123 -1.077 21
28.26 -12.308 0.608 27
78.149 -33.03 -4.021 15
75.049 -30.813 -4.114 22
61.193 -24.415 -3.087 7
60.467 -23.474 -3.29 7
61.265 -23.158 -3.64 9
61.769 -22.761 -3.959 20
61.574 -22.161 -4.201 4
76.223 -26.825 -6.237 18
62.856 -21.69 -4.894 37
0.0 -0.0 3.0 0
0.0 -0.0 3.0 0
57.203 -18.779 -4.971 2
52.077 -16.898 -4.523 14
47.835 -15.369 -4.167 5
44.186 -14.099 -3.876 5
40.981 -13.008 -3.628 4
34.856 -11.032 -2.866 31
35.135 -11.118 -3.163 18
32.783 -10.387 -2.997 11
30.826 -9.805 -2.891 12
29.026 -9.278 -2.798 11
27.335 -8.8 -2.715 12
25.91 -8.408 -2.671 12
24.56 -8.046 -2.634 12
20.562 -6.805 -1.944 0
20.353 -6.812 -2.133 1
18.302 -6.197 -1.842 0
17.787 -6.096 -1.937 1
17.714 -6.149 -2.159 0
17.757 -6.241 -2.425 4
51.515 -23.271 -1.103 53
28.235 -12.381 0.593 13
0.0 -0.0 3.0 0
74.265 -30.718 -4.092 6
61.187 -24.601 -3.134 7
59.22 -23.176 -3.21 7
60.561 -23.083 -3.619 5
61.405 -22.824 -3.978 13
65.119 -23.646 -4.683 11
75.973 -26.982 -6.291 19
76.85 -26.769 -6.743 12
28.393 -9.703 -0.725 0
0.0 -0.0 3.0 0
56.635 -18.776 -4.97 3
51.57 -16.9 -4.525 15
47.394 -15.379 -4.171 5
43.775 -14.107 -3.88 5
40.691 -13.043 -3.646 4
34.847 -11.137 -2.921 12
34.893 -11.148 -3.179 18
32.532 -10.406 -3.008 11
30.631 -9.832 -2.908 11
28.863 -9.309 -2.817 12
27.182 -8.826 -2.732 12
25.762 -8.43 -2.686 12
24.444 -8.073 -2.653 14
20.55 -6.854 -1.98 0
20.293 -6.843 -2.157 0
18.278 -6.233 -1.87 0
17.764 -6.129 -1.963 2
17.713 -6.188 -2.193 0
17.766 -6.283 -2.462 4
51.337 -23.342 -1.116 26
28.254 -12.473 0.575 9
0.0 -0.0 3.0 0
75.075 -31.283 -4.222 16
0.0 -0.0 3.0 0
59.142 -23.331 -3.252 15
61.209 -23.525 -3.746 12
60.624 -22.727 -3.948 12
65.654 -24.052 -4.815 15
12.373 -4.434 1.473 18
76.077 -26.748 -6.735 11
13.109 -4.523 1.264 0
61.752 -20.971 -5.473 4
56.041 -18.761 -4.964 4
51.117 -16.917 -4.532 16
46.881 -15.364 -4.164 8
43.433 -14.134 -3.894 5
40.374 -13.069 -3.659 4
37.904 -12.231 -3.504 8
34.542 -11.141 -3.176 13
32.327 -10.437 -3.026 10
30.439 -9.86 -2.925 12
28.692 -9.337 -2.834 11
27.028 -8.852 -2.749 11
25.61 -8.45 -2.699 12
24.328 -8.099 -2.671 14
0.0 -0.0 3.0 0
19.251 -6.54 -1.928 1
18.25 -6.268 -1.897 0
17.755 -6.168 -1.995 2
17.722 -6.232 -2.229 0
17.923 -6.378 -2.544 1
50.951 -23.317 -1.111 22
28.262 -12.562 0.558 8
0.0 -0.0 3.0 0
75.103 -31.526 -4.278 23
59.289 -24.207 -3.036 9
59.2 -23.541 -3.308 14
59.544 -23.074 -3.616 13
60.432 -22.849 -3.986 18
61.94 -22.892 -4.438 15
12.307 -4.45 1.468 19
73.034 -25.916 -6.433 11
13.065 -4.55 1.253 18
61.142 -20.963 -5.469 10
55.496 -18.761 -4.963 3
50.815 -16.982 -4.561 8
46.52 -15.395 -4.179 20
43.004 -14.132 -3.893 14
40.095 -13.106 -3.678 4
34.07 -11.101 -2.902 10
34.341 -11.181 -3.198 16
32.11 -10.463 -3.041 10
30.255 -9.89 -2.942 12
28.499 -9.355 -2.846 14
26.875 -8.877 -2.765 11
25.474 -8.475 -2.716 13
24.207 -8.124 -2.689 15
20.769 -7.034 -2.11 1
19.152 -6.555 -1.939 2
18.284 -6.324 -1.941 2
17.775 -6.217 -2.034 2
17.727 -6.274 -2.265 0
18.105 -6.483 -2.636 17
50.486 -23.256 -1.101 16
0.0 -0.0 3.0 0
75.106 -32.656 -3.941 11
75.1 -31.757 -4.332 26
63.824 -26.258 -3.547 8
59.08 -23.679 -3.345 20
59.549 -23.266 -3.671 7
60.44 -23.047 -4.046 15
61.972 -23.105 -4.507 16
75.299 -27.477 -6.461 26
72.326 -25.901 -6.427 16
13.027 -4.579 1.242 2
28.379 -9.823 -0.969 6
54.967 -18.761 -4.963 3
50.238 -16.953 -4.548 4
46.098 -15.405 -4.183 18
42.718 -14.175 -3.914 25
39.794 -13.133 -3.692 4
34.065 -11.205 -2.958 20
34.089 -11.204 -3.211 17
31.89 -10.488 -3.055 11
30.071 -9.918 -2.96 12
28.314 -9.376 -2.859 15
26.717 -8.901 -2.78 11
25.333 -8.498 -2.732 13
24.072 -8.142 -2.701 14
22.828 -7.791 -2.66 15
19.045 -6.566 -1.948 1
18.058 -6.29 -1.914 0
17.729 -6.243 -2.056 1
17.74 -6.32 -2.303 0
18.02 -6.493 -2.644 18
50.988 -23.639 -1.168 4
14.069 -6.338 1.768 4
74.234 -32.504 -3.909 13
75.097 -31.99 -4.385 22
57.628 -23.89 -2.957 6
55.867 -22.569 -3.047 5
60.12 -23.682 -3.791 17
59.928 -23.045 -4.046 15
61.353 -23.074 -4.497 6
13.24 -4.875 1.322 2
71.7 -25.913 -6.432 22
12.967 -4.602 1.234 0
28.323 -9.897 -0.999 0
54.435 -18.758 -4.962 3
49.786 -16.963 -4.552 5
45.692 -15.417 -4.189 16
42.406 -14.207 -3.929 8
39.485 -13.156 -3.703 4
33.748 -11.206 -2.959 17
33.851 -11.23 -3.225 17
31.685 -10.516 -3.071 11
29.875 -9.943 -2.974 12
28.14 -9.4 -2.874 14
26.575 -8.929 -2.799 11
25.204 -8.523 -2.749 13
23.952 -8.166 -2.718 15
22.706 -7.809 -2.673 14
18.953 -6.583 -1.961 1
17.993 -6.313 -1.932 0
17.734 -6.288 -2.092 1
17.726 -6.356 -2.333 0
17.93 -6.501 -2.651 18
0.0 -0.0 3.0 0
13.976 -6.34 1.768 27
75.109 -33.119 -4.04 15
75.1 -32.226 -4.44 20
59.21 -24.733 -3.167 5
59.45 -24.207 -3.486 12
57.295 -22.754 -3.525 9
58.056 -22.513 -3.883 11
12.335 -4.679 1.48 1
12.375 -4.597 1.417 16
69.457 -25.33 -6.219 35
60.8 -21.775 -5.358 3
59.369 -20.94 -5.46 8
0.0 -0.0 3.0 0
49.207 -16.927 -4.536 10
45.29 -15.429 -4.195 16
42.079 -14.233 -3.942 8
39.215 -13.191 -3.721 4
33.23 -11.138 -2.922 16
33.591 -11.247 -3.234 19
31.487 -10.545 -3.088 11
29.673 -9.963 -2.987 11
27.95 -9.419 -2.885 14
26.432 -8.956 -2.816 11
25.074 -8.549 -2.767 13
23.806 -8.181 -2.728 14
22.594 -7.83 -2.689 14
18.858 -6.598 -1.972 1
17.976 -6.351 -1.962 0
17.717 -6.324 -2.121 1
17.749 -6.405 -2.375 0
17.852 -6.512 -2.661 18
0.0 -0.0 3.0 0
13.941 -6.367 1.762 24
75.114 -33.354 -4.09 21
75.117 -32.468 -4.496 16
0.0 -0.0 3.0 0
59.361 -24.36 -3.527 15
13.197 -5.283 1.485 0
57.739 -22.579 -3.903 6
12.313 -4.711 1.469 5
12.364 -4.633 1.405 12
12.932 -4.758 1.268 1
12.933 -4.675 1.206 13
58.683 -20.892 -5.441 3
28.358 -9.959 -1.227 5
48.951 -16.999 -4.568 7
28.643 -9.851 -1.593 3
41.73 -14.25 -3.95 10
38.933 -13.22 -3.736 4
32.903 -11.132 -2.919 16
33.364 -11.275 -3.25 27
31.29 -10.575 -3.105 10
29.493 -9.991 -3.003 12
27.787 -9.444 -2.901 12
26.305 -8.988 -2.837 12
24.952 -8.578 -2.786 12
23.667 -8.197 -2.74 11
22.48 -7.849 -2.703 15
18.788 -6.622 -1.99 1
17.911 -6.373 -1.979 0
17.71 -6.364 -2.154 2
17.732 -6.441 -2.404 1
17.762 -6.52 -2.668 25
0.0 -0.0 3.0 0
13.921 -6.4 1.756 30
75.115 -33.589 -4.14 17
75.114 -32.704 -4.55 19
63.896 -27.097 -3.756 15
55.873 -23.109 -3.192 8
13.085 -5.282 1.486 20
57.019 -22.484 -3.874 19
12.298 -4.746 1.458 0
12.468 -4.714 1.377 37
12.916 -4.796 1.254 20
0.0 -0.0 3.0 0
58.045 -20.857 -5.427 3
52.841 -18.731 -4.951 4
28.532 -10.001 -1.453 34
28.613 -9.933 -1.632 36
41.314 -14.241 -3.946 22
38.666 -13.253 -3.753 5
32.468 -11.087 -2.895 19
33.108 -11.291 -3.259 28
31.096 -10.604 -3.122 12
29.305 -10.014 -3.017 11
27.632 -9.473 -2.919 12
26.166 -9.015 -2.854 12
24.823 -8.602 -2.802 11
23.543 -8.218 -2.755 15
22.372 -7.871 -2.719 14
18.707 -6.641 -2.004 1
17.875 -6.404 -2.004 0
17.704 -6.405 -2.186 2
17.736 -6.484 -2.441 1
17.684 -6.532 -2.678 17
59.627 -28.368 -2.002 22
13.882 -6.425 1.751 19
13.407 -6.037 1.717 20
12.559 -5.508 1.728 0
63.745 -27.237 -3.791 12
56.617 -23.599 -3.323 3
13.103 -5.331 1.471 19
60.381 -24.007 -4.34 4
61.187 -23.814 -4.738 17
13.151 -5.015 1.273 16
12.904 -4.834 1.24 27
63.953 -23.539 -6.036 3
57.472 -20.842 -5.421 3
52.382 -18.741 -4.955 5
28.493 -10.082 -1.489 5
28.585 -10.017 -1.671 17
40.992 -14.263 -3.956 23
38.403 -13.286 -3.77 5
32.142 -11.078 -2.89 25
32.875 -11.313 -3.271 21
30.888 -10.628 -3.136 12
29.129 -10.042 -3.034 11
27.473 -9.499 -2.935 12
26.013 -9.037 -2.868 17
24.693 -8.626 -2.818 12
23.427 -8.242 -2.771 15
22.254 -7.888 -2.731 15
18.641 -6.665 -2.023 1
17.846 -6.439 -2.031 0
17.74 -6.462 -2.232 1
17.999 -6.623 -2.557 2
17.598 -6.541 -2.686 15
59.19 -28.341 -1.997 18
13.844 -6.45 1.746 24
13.358 -6.057 1.713 29
12.525 -5.533 1.723 24
0.0 -0.0 3.0 0
59.233 -24.881 -3.667 3
13.043 -5.349 1.466 22
57.917 -23.218 -4.098 9
75.029 -29.45 -6.569 19
13.079 -5.031 1.268 17
12.851 -4.857 1.232 26
63.221 -23.481 -6.014 3
56.9 -20.824 -5.413 3
51.86 -18.727 -4.949 4
28.384 -10.137 -1.513 5
43.769 -15.482 -4.219 10
40.666 -14.281 -3.965 22
38.118 -13.309 -3.781 4
31.898 -11.095 -2.899 31
32.623 -11.328 -3.279 20
30.672 -10.647 -3.147 10
28.949 -10.067 -3.049 12
27.321 -9.527 -2.953 13
25.881 -9.066 -2.887 13
24.556 -8.647 -2.833 11
23.307 -8.264 -2.786 14
22.153 -7.912 -2.748 14
18.563 -6.687 -2.039 0
17.854 -6.487 -2.068 0
17.737 -6.504 -2.267 2
17.722 -6.563 -2.507 2
17.523 -6.553 -2.696 15
58.657 -28.268 -1.984 6
13.841 -6.492 1.738 28
13.324 -6.084 1.707 22
12.524 -5.573 1.713 7
56.961 -24.704 -3.16 12
58.838 -24.907 -3.674 5
12.982 -5.367 1.461 24
59.688 -24.125 -4.376 10
75.221 -29.775 -6.674 17
13.048 -5.063 1.257 25
12.832 -4.893 1.219 32
0.0 -0.0 3.0 0
56.306 -20.794 -5.401 3
51.354 -18.714 -4.944 4
28.431 -10.248 -1.563 25
28.419 -10.145 -1.731 8
40.359 -14.305 -3.977 23
37.859 -13.341 -3.797 5
31.736 -11.139 -2.923 30
32.338 -11.331 -3.281 26
30.46 -10.667 -3.159 10
28.769 -10.091 -3.063 11
27.165 -9.553 -2.969 12
25.746 -9.093 -2.905 12
24.423 -8.67 -2.848 13
23.19 -8.286 -2.802 14
22.038 -7.93 -2.762 14
18.504 -6.714 -2.059 1
17.821 -6.52 -2.094 0
17.708 -6.537 -2.294 2
17.732 -6.609 -2.546 6
17.487 -6.581 -2.72 18
0.0 -0.0 3.0 0
13.006 -6.141 1.806 29
13.296 -6.114 1.7 24
12.505 -5.604 1.706 24
55.113 -24.082 -3.004 4
55.222 -23.557 -3.312 9
13.043 -5.435 1.442 25
56.081 -22.853 -3.987 4
12.459 -4.973 1.384 1
13.01 -5.092 1.247 21
12.816 -4.929 1.206 21
61.841 -23.382 -5.975 3
55.72 -20.765 -5.39 3
50.863 -18.706 -4.94 4
28.392 -10.328 -1.598 27
28.346 -10.213 -1.762 28
28.684 -10.26 -2.004 4
37.6 -13.371 -3.813 5
31.597 -11.19 -2.95 25
32.067 -11.336 -3.284 25
30.248 -10.687 -3.17 13
28.578 -10.111 -3.075 12
27.006 -9.576 -2.984 12
25.589 -9.112 -2.917 12
24.276 -8.686 -2.859 12
23.059 -8.303 -2.814 14
21.934 -7.951 -2.777 14
18.445 -6.74 -2.079 0
17.759 -6.543 -2.112 0
17.711 -6.582 -2.33 14
17.728 -6.65 -2.58 13
17.447 -6.606 -2.742 17
0.0 -0.0 3.0 0
13.054 -6.205 1.794 39
12.669 -5.865 1.753 18
12.514 -5.649 1.696 30
56.089 -24.691 -3.156 7
12.721 -5.468 1.535 14
12.965 -5.445 1.439 26
12.65 -5.197 1.411 7
12.296 -4.949 1.392 31
12.783 -5.045 1.263 23
12.822 -4.975 1.189 20
61.167 -23.333 -5.957 3
55.183 -20.75 -5.383 3
50.402 -18.704 -4.94 3
46.343 -17.012 -4.574 8
28.337 -10.303 -1.804 24
28.64 -10.339 -2.042 22
37.334 -13.397 -3.826 4
31.72 -11.336 -3.027 15
31.864 -11.365 -3.3 30
30.047 -10.708 -3.182 13
28.383 -10.128 -3.085 11
26.858 -9.604 -3.001 12
25.462 -9.14 -2.936 13
24.154 -8.711 -2.876 13
22.92 -8.316 -2.823 10
21.823 -7.971 -2.791 14
18.404 -6.774 -2.104 0
17.762 -6.589 -2.148 0
18.017 -6.74 -2.458 15
17.753 -6.703 -2.624 13
17.401 -6.629 -2.763 18
68.032 -33.424 -2.893 9
12.894 -6.17 1.801 19
12.598 -5.873 1.752 19
12.499 -5.682 1.688 31
0.0 -0.0 3.0 0
12.756 -5.526 1.519 20
12.952 -5.483 1.428 26
12.634 -5.232 1.4 13
12.174 -4.941 1.395 28
12.678 -5.047 1.262 23
12.772 -4.999 1.181 1
0.0 -0.0 3.0 0
54.68 -20.745 -5.381 4
49.942 -18.701 -4.938 5
45.932 -17.014 -4.575 8
28.457 -10.441 -1.869 4
28.411 -10.349 -2.048 21
37.038 -13.411 -3.833 4
31.236 -11.263 -2.989 11
31.613 -11.375 -3.305 11
29.839 -10.727 -3.193 11
28.222 -10.156 -3.102 13
26.71 -9.631 -3.018 12
25.327 -9.166 -2.953 11
24.02 -8.731 -2.889 12
22.789 -8.333 -2.835 13
21.708 -7.987 -2.803 14
18.355 -6.804 -2.127 0
17.758 -6.634 -2.183 0
17.706 -6.668 -2.4 21
17.745 -6.743 -2.658 9
17.336 -6.646 -2.777 17
67.57 -33.41 -2.891 21
12.381 -5.965 1.841 24
12.564 -5.897 1.746 25
12.501 -5.723 1.679 18
54.653 -24.417 -3.088 16
12.711 -5.548 1.513 28
13.045 -5.566 1.404 25
12.603 -5.262 1.391 2
12.111 -4.956 1.39 22
12.423 -4.987 1.283 32
64.338 -25.397 -6.244 17
59.9 -23.253 -5.926 3
54.092 -20.704 -5.365 3
49.449 -18.682 -4.93 3
45.525 -17.015 -4.576 7
28.461 -10.537 -1.913 0
28.338 -10.416 -2.08 33
36.784 -13.439 -3.847 4
30.834 -11.216 -2.964 25
30.317 -11.005 -3.1 15
29.609 -10.736 -3.198 15
28.042 -10.177 -3.115 12
26.547 -9.652 -3.031 11
25.199 -9.193 -2.97 11
23.88 -8.749 -2.901 16
22.672 -8.354 -2.849 14
21.59 -8.003 -2.814 14
18.292 -6.829 -2.146 0
17.75 -6.676 -2.216 0
17.781 -6.742 -2.459 5
17.719 -6.776 -2.686 13
17.292 -6.67 -2.798 16
12.488 -6.214 1.904 7
12.308 -5.968 1.84 18
12.595 -5.953 1.735 25
12.521 -5.774 1.667 26
55.392 -24.929 -3.216 10
12.767 -5.615 1.495 25
13.035 -5.605 1.393 19
59.933 -25.224 -4.712 18
12.205 -5.035 1.364 21
12.543 -5.077 1.252 29
14.257 -5.676 0.934 0
0.0 -0.0 3.0 0
53.594 -20.694 -5.361 3
49.012 -18.682 -4.93 4
45.123 -17.016 -4.576 6
28.38 -10.601 -1.943 19
28.405 -10.534 -2.138 15
36.533 -13.466 -3.861 6
30.661 -11.252 -2.983 17
30.208 -11.06 -3.131 14
29.413 -10.757 -3.21 10
27.877 -10.202 -3.13 12
26.403 -9.678 -3.048 11
25.068 -9.219 -2.987 12
23.758 -8.773 -2.917 13
22.545 -8.369 -2.86 13
21.478 -8.02 -2.827 14
18.268 -6.869 -2.176 0
17.777 -6.733 -2.26 0
17.697 -6.754 -2.469 18
17.714 -6.818 -2.721 30
17.242 -6.692 -2.817 16
12.533 -6.276 1.893 20
12.281 -5.995 1.835 27
12.6 -5.996 1.725 21
12.522 -5.815 1.657 14
67.358 -30.538 -4.614 14
12.816 -5.679 1.478 20
13.026 -5.645 1.381 27
12.106 -5.136 1.43 2
12.167 -5.061 1.355 26
12.721 -5.193 1.212 20
62.935 -25.271 -6.198 27
0.0 -0.0 3.0 0
53.049 -20.664 -5.349 3
13.036 -5.013 0.872 0
44.698 -17.007 -4.572 4
28.339 -10.681 -1.981 15
28.457 -10.647 -2.193 1
28.416 -10.567 -2.384 45
30.429 -11.266 -2.99 23
29.763 -10.993 -3.093 28
29.264 -10.794 -3.232 12
27.716 -10.229 -3.146 11
26.251 -9.702 -3.062 12
24.925 -9.241 -3.001 12
23.585 -8.777 -2.92 12
22.425 -8.388 -2.873 13
21.364 -8.036 -2.839 13
18.227 -6.902 -2.201 0
17.751 -6.769 -2.289 0
17.681 -6.793 -2.501 2
17.694 -6.854 -2.751 3
17.184 -6.71 -2.833 16
12.498 -6.299 1.889 6
12.329 -6.059 1.822 23
12.569 -6.022 1.72 28
12.582 -5.885 1.641 28
50.936 -23.262 -2.8 18
12.763 -5.698 1.473 26
13.078 -5.711 1.362 30
12.054 -5.155 1.424 22
12.118 -5.082 1.349 27
12.649 -5.207 1.207 24
14.253 -5.771 0.899 2
14.363 -5.722 0.803 4
52.53 -20.64 -5.339 3
13.041 -5.059 0.852 18
44.282 -16.997 -4.568 6
41.028 -15.6 -4.275 6
38.296 -14.456 -4.05 4
28.398 -10.653 -2.428 72
30.109 -11.245 -2.979 24
29.945 -11.155 -3.184 11
29.134 -10.837 -3.257 30
27.537 -10.248 -3.157 11
26.104 -9.726 -3.078 12
24.794 -9.266 -3.017 11
23.441 -8.791 -2.929 17
22.308 -8.407 -2.887 14
21.256 -8.055 -2.852 13
18.214 -6.947 -2.235 0
17.781 -6.827 -2.334 0
17.701 -6.846 -2.543 1
17.775 -6.929 -2.814 14
17.108 -6.722 -2.843 16
12.475 -6.327 1.884 11
12.352 -6.11 1.812 10
12.545 -6.053 1.713 24
12.594 -5.931 1.631 4
50.608 -23.281 -2.805 6
12.749 -5.735 1.463 22
12.995 -5.719 1.36 32
12.056 -5.197 1.411 24
12.252 -5.18 1.317 25
12.391 -5.143 1.229 24
61.731 -25.209 -6.175 14
14.344 -5.764 0.788 25
52.041 -20.625 -5.333 3
13.017 -5.094 0.838 20
43.892 -16.996 -4.567 14
40.701 -15.612 -4.28 7
38.017 -14.476 -4.06 4
28.426 -10.757 -2.481 255
28.444 -10.715 -2.697 4
29.383 -11.04 -3.12 3
28.956 -10.863 -3.272 31
27.369 -10.27 -3.171 12
25.967 -9.754 -3.095 13
24.652 -9.285 -3.03 11
23.297 -8.804 -2.939 16
22.199 -8.43 -2.903 14
21.148 -8.073 -2.865 13
18.19 -6.986 -2.265 2
17.78 -6.873 -2.37 0
17.85 -6.949 -2.627 1
17.719 -6.952 -2.833 14
17.05 -6.741 -2.859 16
0.0 -0.0 3.0 0
12.521 -6.235 1.788 19
12.31 -5.979 1.729 23
0.0 -0.0 3.0 0
51.844 -24.023 -2.99 13
12.732 -5.77 1.454 23
12.93 -5.735 1.356 25
11.985 -5.207 1.408 27
12.433 -5.298 1.278 66
11.979 -5.013 1.274 21
14.226 -5.858 0.868 0
14.196 -5.753 0.792 24
12.812 -5.121 0.931 0
12.955 -5.114 0.829 32
43.583 -17.024 -4.58 25
40.385 -15.627 -4.287 6
37.723 -14.49 -4.067 4
28.418 -10.848 -2.527 255
28.361 -10.776 -2.73 34
28.926 -10.961 -3.076 14
28.643 -10.835 -3.256 25
27.215 -10.297 -3.187 11
25.83 -9.781 -3.112 13
24.513 -9.307 -3.044 11
23.175 -8.827 -2.954 15
22.082 -8.448 -2.915 13
21.041 -8.09 -2.877 12
18.223 -7.049 -2.312 0
17.788 -6.924 -2.41 0
17.712 -6.941 -2.621 0
17.664 -6.974 -2.852 15
16.989 -6.758 -2.874 16
0.0 -0.0 3.0 0
12.287 -6.158 1.803 8
12.279 -6.005 1.724 24
12.56 -5.999 1.615 18
51.9 -24.223 -3.04 8
12.871 -5.877 1.425 19
12.887 -5.76 1.348 25
12.035 -5.269 1.389 24
12.219 -5.249 1.294 26
11.93 -5.033 1.267 28
14.459 -6.004 0.815 5
14.184 -5.797 0.775 31
12.857 -5.183 0.906 16
12.912 -5.141 0.818 15
43.183 -17.014 -4.575 24
40.085 -15.646 -4.296 7
37.456 -14.513 -4.078 5
28.38 -10.927 -2.568 92
28.338 -10.86 -2.774 29
27.545 -10.527 -2.835 19
28.439 -10.848 -3.263 24
27.05 -10.318 -3.2 12
25.697 -9.809 -3.129 12
24.368 -9.324 -3.055 12
23.05 -8.846 -2.967 12
21.958 -8.464 -2.926 16
20.937 -8.109 -2.891 13
19.949 -7.771 -2.856 16
17.825 -6.986 -2.458 0
17.752 -7.003 -2.671 0
17.608 -6.997 -2.871 15
16.924 -6.773 -2.888 16
12.481 -6.452 1.862 2
12.377 -6.244 1.786 60
12.255 -6.034 1.718 30
12.607 -6.065 1.6 25
14.046 -6.603 1.354 33
12.864 -5.917 1.415 23
12.921 -5.818 1.332 26
12.036 -5.312 1.376 28
12.122 -5.25 1.294 26
11.929 -5.074 1.253 34
14.432 -6.042 0.801 16
14.154 -5.833 0.761 30
12.766 -5.191 0.903 24
12.92 -5.188 0.798 26
42.823 -17.018 -4.577 24
39.762 -15.655 -4.3 7
37.192 -14.535 -4.089 5
28.352 -11.01 -2.61 3
33.03 -12.766 -3.788 5
27.519 -10.606 -2.879 27
28.415 -10.93 -3.31 28
26.879 -10.336 -3.211 11
25.549 -9.831 -3.143 12
24.229 -9.344 -3.068 11
22.943 -8.872 -2.984 15
21.831 -8.478 -2.936 15
20.836 -8.128 -2.905 13
19.861 -7.792 -2.871 15
17.908 -7.066 -2.521 0
18.198 -7.226 -2.852 4
17.552 -7.019 -2.89 14
16.862 -6.79 -2.902 16
12.471 -6.488 1.856 14
12.214 -6.203 1.794 20
12.274 -6.084 1.707 24
12.572 -6.09 1.594 28
13.729 -6.5 1.379 27
12.861 -5.96 1.403 26
12.903 -5.855 1.321 32
12.013 -5.342 1.367 23
12.124 -5.292 1.28 25
11.96 -5.128 1.234 29
14.38 -6.07 0.791 25
14.16 -5.885 0.741 22
12.661 -5.192 0.902 30
13.03 -5.278 0.76 48
42.501 -17.035 -4.585 17
39.448 -15.665 -4.305 7
36.925 -14.554 -4.099 4
34.758 -13.614 -3.937 4
32.798 -12.784 -3.798 5
27.222 -10.579 -2.864 28
27.351 -10.607 -3.124 1
26.711 -10.355 -3.222 12
25.401 -9.853 -3.157 13
24.094 -9.365 -3.082 10
22.828 -8.896 -3.0 15
21.704 -8.491 -2.946 16
20.732 -8.146 -2.919 12
19.777 -7.812 -2.887 15
17.955 -7.133 -2.573 0
18.198 -7.274 -2.89 13
17.497 -7.041 -2.908 15
16.79 -6.803 -2.914 15
12.439 -6.512 1.852 24
12.293 -6.284 1.779 9
12.246 -6.112 1.701 25
12.562 -6.127 1.585 28
12.177 -5.807 1.552 0
12.187 -5.69 1.475 32
12.885 -5.891 1.311 28
12.17 -5.454 1.333 22
12.154 -5.348 1.262 26
12.016 -5.194 1.212 29
14.258 -6.068 0.791 20
12.626 -5.291 0.969 12
12.662 -5.236 0.885 30
13.802 -5.638 0.607 27
42.175 -17.049 -4.591 14
39.137 -15.674 -4.309 6
36.662 -14.574 -4.108 4
34.527 -13.639 -3.949 5
32.592 -12.811 -3.812 6
26.976 -10.571 -2.86 24
27.339 -10.689 -3.171 8
26.547 -10.376 -3.234 11
25.254 -9.873 -3.169 13
23.938 -9.376 -3.089 10
22.681 -8.906 -3.007 16
21.595 -8.511 -2.959 14
20.614 -8.158 -2.927 15
19.696 -7.835 -2.904 15
18.879 -7.551 -2.9 11
18.12 -7.29 -2.903 12
17.441 -7.064 -2.927 14
16.724 -6.818 -2.926 16
12.447 -6.558 1.844 16
12.931 -6.653 1.707 12
12.336 -6.198 1.683 19
12.605 -6.192 1.571 21
12.178 -5.849 1.542 5
12.03 -5.657 1.484 32
13.055 -6.013 1.276 77
12.157 -5.491 1.321 21
12.137 -5.382 1.251 13
12.072 -5.26 1.189 34
14.099 -6.05 0.798 21
12.627 -5.335 0.952 17
12.794 -5.335 0.845 23
12.136 -4.999 0.878 0
41.791 -17.038 -4.586 7
38.827 -15.682 -4.313 7
36.392 -14.59 -4.116 4
34.275 -13.653 -3.957 4
32.368 -12.829 -3.821 5
26.647 -10.529 -2.836 25
27.002 -10.644 -3.146 26
26.368 -10.389 -3.242 13
25.128 -9.902 -3.187 12
23.803 -9.396 -3.102 11
22.559 -8.925 -3.02 11
21.478 -8.527 -2.971 14
20.499 -8.171 -2.936 13
19.604 -7.853 -2.918 14
18.803 -7.571 -2.915 14
18.066 -7.316 -2.924 12
17.381 -7.084 -2.944 14
16.659 -6.833 -2.94 16
11.404 -6.046 1.934 5
12.23 -6.333 1.769 38
12.535 -6.341 1.652 1
12.537 -6.201 1.568 23
12.139 -5.872 1.536 15
11.855 -5.616 1.495 24
13.393 -6.215 1.218 29
12.19 -5.548 1.304 18
12.12 -5.417 1.24 22
12.08 -5.307 1.173 27
14.101 -6.1 0.78 32
12.526 -5.336 0.952 21
12.768 -5.369 0.831 32
12.163 -5.052 0.855 24
41.331 -16.993 -4.566 14
38.521 -15.69 -4.316 6
36.129 -14.607 -4.124 4
34.04 -13.674 -3.967 4
32.159 -12.853 -3.834 5
26.413 -10.522 -2.833 28
26.979 -10.723 -3.191 27
26.2 -10.405 -3.252 10
24.984 -9.923 -3.2 18
23.647 -9.406 -3.109 11
22.434 -8.942 -3.032 14
21.365 -8.545 -2.984 17
20.399 -8.189 -2.95 13
19.527 -7.876 -2.935 15
18.731 -7.593 -2.932 14
18.002 -7.338 -2.942 12
17.314 -7.101 -2.959 14
16.6 -6.85 -2.955 16
11.36 -6.061 1.931 17
12.323 -6.422 1.752 26
12.599 -6.415 1.636 20
12.491 -6.221 1.564 36
12.157 -5.923 1.523 18
11.745 -5.605 1.498 31
11.928 -5.577 1.401 17
12.432 -5.702 1.257 45
12.483 -5.623 1.173 75
12.019 -5.322 1.168 28
14.081 -6.141 0.765 29
12.588 -5.407 0.925 31
12.663 -5.368 0.831 78
11.916 -4.991 0.881 27
41.025 -17.008 -4.572 9
38.226 -15.701 -4.321 7
35.856 -14.618 -4.13 4
33.799 -13.691 -3.976 4
31.939 -12.871 -3.844 5
26.234 -10.537 -2.841 24
26.494 -10.615 -3.128 12
26.098 -10.448 -3.278 12
24.847 -9.946 -3.215 19
23.495 -9.417 -3.116 11
22.308 -8.959 -3.043 9
21.267 -8.568 -2.999 15
20.313 -8.213 -2.967 14
19.449 -7.9 -2.953 14
18.655 -7.614 -2.948 14
17.934 -7.358 -2.959 12
17.251 -7.12 -2.975 15
16.542 -6.868 -2.971 16
11.315 -6.076 1.929 22
12.181 -6.39 1.758 23
13.325 -6.831 1.548 21
12.477 -6.256 1.556 17
12.176 -5.974 1.51 27
11.685 -5.617 1.495 23
11.803 -5.56 1.406 24
12.137 -5.609 1.285 30
13.237 -6.009 1.048 18
11.999 -5.355 1.156 27
12.547 -5.515 0.993 9
12.544 -5.432 0.915 18
12.194 -5.213 0.894 28
11.699 -4.941 0.903 25
40.726 -17.025 -4.58 6
37.927 -15.708 -4.325 7
35.601 -14.635 -4.138 4
33.566 -13.709 -3.985 4
31.722 -12.889 -3.853 5
26.146 -10.587 -2.869 24
26.268 -10.609 -3.125 25
26.021 -10.5 -3.309 27
24.703 -9.965 -3.227 18
23.342 -9.428 -3.122 10
22.183 -8.975 -3.054 3
21.151 -8.583 -3.01 13
20.219 -8.233 -2.982 13
19.361 -7.918 -2.967 14
18.582 -7.634 -2.965 14
17.877 -7.382 -2.978 12
17.163 -7.129 -2.982 14
16.487 -6.887 -2.987 15
11.285 -6.098 1.925 22
10.572 -5.582 1.915 25
11.317 -5.841 1.758 4
12.473 -6.298 1.546 42
12.094 -5.976 1.51 21
11.643 -5.637 1.489 26
11.8 -5.6 1.394 23
12.033 -5.603 1.287 20
12.245 -5.602 1.18 10
11.606 -5.22 1.203 32
11.631 -5.155 1.124 16
12.468 -5.443 0.911 6
12.206 -5.261 0.875 22
11.966 -5.095 0.837 35
40.432 -17.042 -4.588 4
37.644 -15.721 -4.331 7
35.357 -14.656 -4.148 4
33.339 -13.73 -3.996 4
31.502 -12.906 -3.862 5
25.967 -10.6 -2.876 23
25.662 -10.448 -3.032 12
25.9 -10.534 -3.329 25
24.563 -9.986 -3.24 18
23.208 -9.445 -3.133 11
22.069 -8.996 -3.068 6
21.042 -8.602 -3.023 13
20.126 -8.253 -2.996 15
19.287 -7.943 -2.985 13
18.513 -7.657 -2.982 13
17.805 -7.401 -2.993 12
17.1 -7.148 -2.998 15
16.425 -6.903 -3.001 14
11.328 -6.159 1.914 20
10.546 -5.604 1.911 19
11.34 -5.891 1.748 29
13.178 -6.699 1.453 25
12.365 -6.152 1.466 27
11.594 -5.654 1.485 35
11.676 -5.582 1.399 29
12.109 -5.681 1.263 25
11.968 -5.518 1.207 23
11.517 -5.221 1.202 26
11.586 -5.176 1.116 25
12.609 -5.549 0.87 1
12.159 -5.283 0.866 24
11.673 -5.012 0.873 21
11.595 -4.927 0.806 6
37.364 -15.734 -4.337 7
35.099 -14.669 -4.155 4
33.095 -13.741 -4.001 4
31.279 -12.918 -3.869 5
25.697 -10.575 -2.862 23
25.458 -10.448 -3.032 10
25.791 -10.572 -3.352 21
24.43 -10.009 -3.255 18
23.077 -9.463 -3.145 11
21.94 -9.009 -3.077 6
20.925 -8.616 -3.033 14
20.019 -8.267 -3.006 15
19.209 -7.965 -3.002 13
18.443 -7.68 -3.0 13
17.748 -7.425 -3.012 15
17.037 -7.166 -3.013 14
16.363 -6.919 -3.015 16
11.252 -6.157 1.914 29
10.432 -5.58 1.915 23
11.274 -5.897 1.747 22
13.194 -6.754 1.441 28
12.208 -6.118 1.475 26
11.584 -5.69 1.475 23
11.691 -5.631 1.385 2
12.023 -5.683 1.262 0
11.932 -5.544 1.199 20
11.457 -5.235 1.198 29
11.601 -5.223 1.099 25
12.219 -5.421 0.919 21
12.145 -5.319 0.851 22
11.543 -4.997 0.879 25
11.473 -4.916 0.811 33
37.092 -15.747 -4.343 7
34.852 -14.686 -4.163 4
32.88 -13.763 -4.013 4
31.089 -12.945 -3.883 5
25.566 -10.606 -2.879 25
24.93 -10.313 -2.954 13
25.641 -10.593 -3.365 23
24.298 -10.031 -3.268 17
22.961 -9.487 -3.161 11
21.829 -9.03 -3.091 11
