# .PCD v0.7 - Point Cloud Data file format
VERSION 0.7
FIELDS x y z intensity
SIZE 4 4 4 4
TYPE F F F F
COUNT 1 1 1 1
WIDTH 2171
HEIGHT 1
VIEWPOINT 0 0 0 1 0 0 0
POINTS 2171
DATA ascii
-22.977 -7.203 -2.833 14
-21.958 -7.001 -2.875 13
-20.98 -6.806 -2.916 15
-16.988 -6.878 1.787 9
-18.288 -7.147 1.611 25
-17.543 -6.622 1.592 19
-16.165 -5.895 1.639 17
-16.597 -5.855 1.54 15
-17.126 -5.845 1.434 52
-16.499 -5.457 1.435 29
-16.852 -5.41 1.346 20
-16.765 -5.23 1.301 18
-16.82 -5.113 1.24 8
-17.208 -5.101 1.144 19
-19.018 -5.522 0.88 18
-19.971 -5.688 0.702 19
-20.394 -5.72 0.572 1
0.0 -0.0 3.0 0
-60.076 -16.48 -4.685 3
-53.95 -14.704 -4.172 4
-49.087 -13.342 -3.798 18
-45.32 -12.324 -3.553 4
-42.083 -11.475 -3.36 7
-38.057 -10.439 -3.027 20
-36.588 -10.115 -3.078 32
-34.359 -9.6 -2.999 6
-28.379 -8.023 -2.21 1
-26.92 -7.718 -2.206 28
-27.007 -7.857 -2.502 11
-26.727 -7.903 -2.742 36
-25.479 -7.659 -2.771 16
-24.238 -7.414 -2.792 12
-23.115 -7.196 -2.827 15
-22.079 -6.994 -2.869 16
-21.07 -6.793 -2.905 14
-17.001 -6.838 1.794 0
0.0 -0.0 3.0 0
-17.552 -6.578 1.602 26
-16.405 -5.936 1.629 29
-16.741 -5.857 1.54 26
-16.833 -5.696 1.474 16
-16.658 -5.461 1.434 39
-16.275 -5.176 1.417 24
-16.815 -5.195 1.312 12
-16.745 -5.037 1.265 7
-17.423 -5.111 1.14 12
-19.066 -5.476 0.898 18
-19.645 -5.534 0.764 18
-20.372 -5.649 0.602 9
0.0 -0.0 3.0 0
-60.773 -16.483 -4.686 4
-54.526 -14.693 -4.166 6
-49.512 -13.308 -3.781 19
-45.68 -12.285 -3.532 4
-42.428 -11.444 -3.344 6
-38.352 -10.41 -3.01 16
-36.733 -10.053 -3.041 35
-34.563 -9.563 -2.975 6
-32.518 -9.108 -2.915 5
-27.025 -7.679 -2.179 30
-26.931 -7.769 -2.44 22
-26.861 -7.878 -2.724 30
-25.634 -7.646 -2.762 12
-24.377 -7.402 -2.783 16
-23.226 -7.181 -2.815 14
-22.189 -6.983 -2.859 15
-21.171 -6.784 -2.897 15
-18.421 -7.361 1.702 14
-17.47 -6.733 1.691 23
-17.673 -6.575 1.602 16
-16.447 -5.906 1.636 27
-16.76 -5.816 1.55 24
-16.868 -5.659 1.484 11
-16.067 -5.22 1.503 26
-16.226 -5.112 1.437 22
-16.873 -5.162 1.323 0
-16.68 -4.967 1.29 2
-19.457 -5.647 0.945 15
-19.16 -5.444 0.91 15
-19.568 -5.451 0.798 28
-20.44 -5.605 0.621 0
-69.572 -18.826 -5.382 10
-61.444 -16.474 -4.682 3
-55.179 -14.7 -4.169 6
-49.98 -13.282 -3.767 18
-46.083 -12.256 -3.516 5
-42.766 -11.411 -3.325 6
-38.518 -10.345 -2.973 24
-37.0 -10.023 -3.022 11
-34.782 -9.529 -2.955 6
-32.762 -9.091 -2.903 4
-27.334 -7.697 -2.192 29
-27.156 -7.767 -2.439 7
-26.977 -7.848 -2.702 41
-25.786 -7.633 -2.752 14
-24.519 -7.39 -2.774 13
-23.363 -7.173 -2.809 14
-22.302 -6.973 -2.851 16
-21.265 -6.772 -2.886 15
-18.475 -7.335 1.707 9
-17.419 -6.667 1.704 23
-17.959 -6.632 1.59 6
-16.45 -5.862 1.647 0
-16.67 -5.738 1.569 22
-16.789 -5.584 1.504 13
-15.926 -5.127 1.53 24
-16.271 -5.078 1.447 19
-18.085 -5.478 1.22 14
-16.608 -4.895 1.315 17
-19.487 -5.596 0.963 16
-19.224 -5.402 0.927 21
-19.62 -5.405 0.816 18
-21.821 -5.915 0.489 17
-70.285 -18.801 -5.371 14
0.0 -0.0 3.0 0
-55.779 -14.689 -4.164 8
-50.456 -13.256 -3.754 18
-46.451 -12.216 -3.495 4
-43.135 -11.383 -3.31 7
-38.588 -10.254 -2.92 17
-37.329 -10.008 -3.014 10
-35.001 -9.495 -2.933 7
-32.967 -9.061 -2.884 5
-27.397 -7.646 -2.157 26
-27.227 -7.72 -2.406 28
-27.111 -7.823 -2.684 35
-25.953 -7.623 -2.744 14
-24.647 -7.375 -2.762 13
-23.493 -7.163 -2.8 20
-22.393 -6.955 -2.836 16
-21.351 -6.757 -2.874 15
-18.466 -7.283 1.716 1
0.0 -0.0 3.0 0
-17.758 -6.51 1.616 13
-17.669 -6.247 1.558 17
-16.655 -5.686 1.582 24
-16.527 -5.45 1.54 0
-15.914 -5.077 1.544 24
-16.29 -5.036 1.46 26
-18.14 -5.44 1.232 12
-16.592 -4.84 1.334 15
-19.585 -5.563 0.975 17
-19.836 -5.512 0.884 18
-19.577 -5.332 0.846 19
-19.744 -5.291 0.754 1
0.0 -0.0 3.0 0
0.0 -0.0 3.0 0
-56.38 -14.674 -4.157 7
-50.929 -13.227 -3.739 17
-46.855 -12.183 -3.478 5
-43.485 -11.349 -3.291 7
-38.696 -10.173 -2.874 9
-37.558 -9.966 -2.988 10
-35.22 -9.46 -2.911 7
-33.164 -9.029 -2.864 5
-27.559 -7.621 -2.141 22
-27.679 -7.782 -2.449 14
-27.279 -7.807 -2.672 37
-26.108 -7.609 -2.734 13
-24.778 -7.36 -2.75 13
-23.611 -7.15 -2.79 13
-22.507 -6.945 -2.828 16
-21.452 -6.747 -2.865 16
-34.565 -13.544 0.612 7
-18.421 -6.954 1.648 1
-15.955 -5.807 1.766 0
-17.745 -6.226 1.563 16
-16.723 -5.662 1.588 19
-16.501 -5.394 1.555 21
-15.952 -5.043 1.554 22
-16.564 -5.071 1.45 23
-20.951 -6.22 0.979 18
-16.596 -4.791 1.35 15
-19.652 -5.522 0.99 26
-19.627 -5.393 0.93 1
-19.694 -5.303 0.857 20
-19.731 -5.226 0.782 4
0.0 -0.0 3.0 0
-63.766 -16.506 -4.697 7
-56.942 -14.647 -4.144 6
-51.432 -13.202 -3.727 21
-47.25 -12.146 -3.458 5
-43.824 -11.31 -3.269 6
-38.885 -10.113 -2.839 3
-37.767 -9.917 -2.959 12
-35.439 -9.423 -2.888 9
-31.207 -8.415 -2.465 25
-27.778 -7.612 -2.135 12
-27.337 -7.619 -2.335 28
-27.41 -7.781 -2.653 35
-26.252 -7.592 -2.721 13
-24.917 -7.347 -2.74 12
-23.741 -7.139 -2.781 14
-22.598 -6.928 -2.813 8
-21.545 -6.735 -2.855 15
-34.755 -13.53 0.614 13
-19.013 -7.128 1.614 16
-15.955 -5.764 1.775 10
-18.875 -6.571 1.483 19
-16.704 -5.609 1.601 28
-16.458 -5.334 1.571 10
-15.878 -4.973 1.574 14
-16.529 -5.012 1.468 18
-20.966 -6.162 0.998 23
-16.634 -4.751 1.364 0
-19.72 -5.48 1.005 9
-20.555 -5.585 0.856 15
-93.861 -24.981 -7.093 11
0.0 -0.0 3.0 0
0.0 -0.0 3.0 0
0.0 -0.0 3.0 0
-57.609 -14.643 -4.142 4
-51.843 -13.152 -3.702 11
-47.642 -12.106 -3.437 10
-44.182 -11.275 -3.25 6
-39.874 -10.258 -2.922 12
-37.878 -9.842 -2.914 21
-35.661 -9.388 -2.866 8
-31.25 -8.346 -2.42 16
-27.909 -7.578 -2.112 16
-27.339 -7.553 -2.289 39
-27.574 -7.763 -2.64 38
-26.411 -7.579 -2.711 14
-25.048 -7.332 -2.728 12
-23.874 -7.13 -2.774 14
-22.729 -6.923 -2.809 15
-21.642 -6.723 -2.845 16
-35.854 -13.867 0.555 29
-19.052 -7.093 1.621 0
-15.92 -5.709 1.787 17
-18.078 -6.245 1.558 17
-16.9 -5.628 1.597 35
-17.456 -5.608 1.497 16
-16.711 -5.187 1.513 14
-16.681 -5.009 1.468 22
-20.651 -6.008 1.048 23
-18.542 -5.24 1.196 2
-121.623 -33.432 -9.168 30
-20.573 -5.527 0.878 26
-20.661 -5.435 0.804 25
0.0 -0.0 3.0 0
0.0 -0.0 3.0 0
-65.201 -16.477 -4.683 3
-58.264 -14.633 -4.137 4
-52.478 -13.156 -3.703 5
-38.547 -9.681 -2.147 7
-38.663 -9.755 -2.408 2
-38.006 -9.67 -2.583 5
-37.957 -9.759 -2.864 14
-35.88 -9.349 -2.842 7
-33.78 -8.935 -2.802 4
-28.105 -7.562 -2.1 9
-27.553 -7.546 -2.284 25
-27.625 -7.714 -2.604 39
-26.551 -7.56 -2.697 17
-25.175 -7.315 -2.715 13
-23.97 -7.109 -2.757 13
-22.835 -6.91 -2.798 15
-21.743 -6.713 -2.836 16
-35.889 -13.79 0.568 48
-38.458 -14.219 0.236 27
-15.96 -5.682 1.792 1
-17.388 -5.959 1.624 16
-17.555 -5.798 1.554 19
-17.479 -5.566 1.509 16
-16.702 -5.136 1.527 7
-16.55 -4.921 1.495 9
-19.582 -5.638 1.168 4
-19.873 -5.557 1.087 20
-121.721 -33.089 -9.043 62
-20.622 -5.476 0.898 17
-20.69 -5.379 0.827 20
0.0 -0.0 3.0 0
0.0 -0.0 3.0 0
0.0 -0.0 3.0 0
-58.955 -14.627 -4.134 4
-38.592 -9.559 -1.871 5
-38.63 -9.589 -2.098 255
-44.863 -11.19 -3.203 6
-40.609 -10.218 -2.899 10
-38.059 -9.682 -2.817 12
-36.111 -9.315 -2.82 9
-33.977 -8.899 -2.779 5
-28.145 -7.503 -2.061 2
-27.562 -7.483 -2.24 28
-27.744 -7.683 -2.582 31
-26.691 -7.54 -2.682 14
-25.332 -7.307 -2.709 17
-24.088 -7.095 -2.745 14
-22.926 -6.892 -2.783 16
-21.832 -6.7 -2.824 16
-35.86 -13.69 0.586 50
-17.444 -6.406 1.755 4
-17.501 -6.185 1.685 21
-17.38 -5.91 1.636 24
-17.646 -5.78 1.559 19
-18.208 -5.747 1.46 23
-17.533 -5.342 1.468 22
-17.78 -5.236 1.399 4
-19.813 -5.647 1.165 7
-19.867 -5.495 1.108 18
-121.822 -32.747 -8.919 62
-20.697 -5.433 0.914 19
-20.758 -5.333 0.845 1
0.0 -0.0 3.0 0
-76.927 -19.149 -5.526 4
0.0 -0.0 3.0 0
-59.631 -14.614 -4.128 5
-38.61 -9.449 -1.814 25
-38.602 -9.469 -2.035 255
-45.221 -11.15 -3.181 6
-38.66 -9.62 -2.554 4
-38.399 -9.663 -2.806 26
-36.345 -9.279 -2.798 8
-34.194 -8.869 -2.76 4
-30.612 -8.085 -2.453 2
-27.779 -7.476 -2.235 24
-27.851 -7.649 -2.557 38
-26.846 -7.525 -2.671 14
-25.456 -7.289 -2.695 21
-24.203 -7.079 -2.733 10
-23.024 -6.877 -2.77 15
-21.936 -6.691 -2.816 12
-35.114 -13.318 0.652 10
-17.447 -6.363 1.763 11
-17.444 -6.119 1.699 22
-17.429 -5.88 1.642 22
-17.725 -5.758 1.564 18
-18.426 -5.764 1.455 16
-17.528 -5.29 1.483 23
-17.677 -5.154 1.424 10
-19.623 -5.535 1.202 14
-20.042 -5.484 1.112 16
-121.906 -32.4 -8.793 64
-20.68 -5.366 0.94 25
-97.825 -24.83 -7.032 28
0.0 -0.0 3.0 0
0.0 -0.0 3.0 0
0.0 -0.0 3.0 0
-60.23 -14.579 -4.111 3
-38.651 -9.344 -1.761 255
-38.577 -9.35 -1.971 255
-45.58 -11.108 -3.157 6
-38.362 -9.438 -2.449 4
-38.762 -9.65 -2.798 23
-36.56 -9.238 -2.772 7
-34.391 -8.833 -2.737 4
-31.424 -8.222 -2.546 12
-27.772 -7.408 -2.187 28
-28.068 -7.644 -2.554 38
-26.99 -7.507 -2.657 15
-25.587 -7.273 -2.682 20
-24.336 -7.069 -2.724 10
-23.126 -6.862 -2.758 12
-22.018 -6.674 -2.802 16
-34.983 -13.182 0.676 24
-17.51 -6.341 1.767 0
-17.282 -6.018 1.721 22
-17.417 -5.83 1.654 16
-17.649 -5.685 1.582 20
-18.43 -5.715 1.469 22
-17.593 -5.26 1.492 29
-17.726 -5.118 1.435 17
-19.993 -5.581 1.187 15
-20.182 -5.462 1.119 20
0.0 -0.0 3.0 0
-20.678 -5.302 0.965 17
-114.545 -28.723 -8.605 11
0.0 -0.0 3.0 0
0.0 -0.0 3.0 0
0.0 -0.0 3.0 0
-61.011 -14.583 -4.113 4
-38.621 -9.221 -1.699 255
-38.59 -9.24 -1.913 255
-45.961 -11.07 -3.136 5
-38.313 -9.319 -2.381 9
-38.922 -9.584 -2.759 21
-36.798 -9.201 -2.75 7
-34.596 -8.798 -2.713 4
-31.412 -8.143 -2.492 32
-27.986 -7.4 -2.182 24
-28.467 -7.689 -2.586 30
-27.138 -7.489 -2.643 13
-25.74 -7.262 -2.674 19
-24.454 -7.054 -2.712 15
-23.235 -6.85 -2.748 15
-22.133 -6.669 -2.797 17
-35.24 -13.192 0.674 40
-36.39 -13.088 0.456 5
-17.269 -5.969 1.731 23
-17.575 -5.838 1.652 16
-17.557 -5.609 1.602 17
-18.483 -5.681 1.478 17
-17.645 -5.226 1.501 27
-17.744 -5.071 1.449 2
-19.921 -5.502 1.212 25
0.0 -0.0 3.0 0
-19.832 -5.152 1.125 1
-20.722 -5.251 0.984 14
-114.937 -28.469 -8.502 11
0.0 -0.0 3.0 0
0.0 -0.0 3.0 0
0.0 -0.0 3.0 0
-61.743 -14.572 -4.107 3
-38.599 -9.101 -1.637 255
-38.642 -9.139 -1.86 3
-46.32 -11.025 -3.111 5
-41.856 -10.066 -2.811 8
-38.85 -9.462 -2.685 12
-37.032 -9.163 -2.726 6
-34.828 -8.769 -2.695 5
-31.435 -8.072 -2.444 3
-28.074 -7.357 -2.152 28
-28.381 -7.602 -2.523 31
-27.274 -7.468 -2.627 13
-25.901 -7.253 -2.667 19
-24.553 -7.034 -2.696 14
-23.344 -6.837 -2.737 14
-22.226 -6.656 -2.786 12
-35.425 -13.177 0.677 36
-36.514 -13.042 0.465 9
-17.201 -5.901 1.746 22
-17.396 -5.732 1.677 17
-17.503 -5.545 1.618 12
-18.673 -5.688 1.476 23
-17.778 -5.216 1.504 32
-19.055 -5.393 1.351 3
-19.841 -5.422 1.238 24
0.0 -0.0 3.0 0
-19.856 -5.098 1.144 23
-20.724 -5.188 1.008 12
0.0 -0.0 3.0 0
0.0 -0.0 3.0 0
0.0 -0.0 3.0 0
0.0 -0.0 3.0 0
-62.424 -14.545 -4.094 4
-38.573 -8.981 -1.576 255
-50.699 -11.845 -3.298 15
-46.701 -10.982 -3.088 6
-42.18 -10.026 -2.789 9
-39.521 -9.519 -2.72 15
-37.3 -9.133 -2.707 11
-35.029 -8.732 -2.671 4
-32.914 -8.373 -2.647 4
-28.074 -7.292 -2.106 8
-28.488 -7.567 -2.497 25
-27.433 -7.451 -2.615 13
-26.062 -7.245 -2.661 13
-24.686 -7.024 -2.688 14
-23.457 -6.826 -2.727 15
-22.341 -6.65 -2.781 12
-35.637 -13.171 0.678 41
-36.773 -13.043 0.465 8
-17.177 -5.85 1.757 20
-17.346 -5.671 1.691 22
-18.502 -5.812 1.551 19
-19.525 -5.894 1.421 24
-17.636 -5.125 1.531 17
-19.673 -5.511 1.315 18
-19.911 -5.384 1.251 24
-20.983 -5.493 1.109 0
-19.884 -5.046 1.163 24
0.0 -0.0 3.0 0
0.0 -0.0 3.0 0
0.0 -0.0 3.0 0
0.0 -0.0 3.0 0
0.0 -0.0 3.0 0
-63.087 -14.51 -4.077 3
-38.6 -8.873 -1.521 191
-51.131 -11.797 -3.272 11
-47.045 -10.929 -3.058 18
-42.538 -9.994 -2.77 9
-39.815 -9.484 -2.698 12
-37.492 -9.083 -2.675 19
-35.253 -8.7 -2.65 4
-31.103 -7.837 -2.286 6
-28.028 -7.216 -2.053 21
-28.659 -7.549 -2.485 38
-27.576 -7.432 -2.6 14
-26.223 -7.236 -2.654 13
-24.807 -7.009 -2.676 14
-23.577 -6.816 -2.72 14
-22.46 -6.645 -2.776 12
-35.673 -13.099 0.69 45
-39.81 -14.024 0.274 30
-17.179 -5.808 1.766 10
-17.374 -5.635 1.699 23
-18.544 -5.776 1.56 13
-19.483 -5.829 1.438 24
-17.7 -5.095 1.539 18
-19.566 -5.426 1.341 22
-19.884 -5.32 1.272 19
-20.949 -5.422 1.133 6
-19.923 -4.996 1.182 22
-114.976 -28.089 -7.782 13
0.0 -0.0 3.0 0
-101.695 -23.806 -7.105 26
0.0 -0.0 3.0 0
0.0 -0.0 3.0 0
-63.897 -14.505 -4.074 3
-38.65 -8.77 -1.469 3
-51.664 -11.77 -3.258 4
-47.419 -10.883 -3.033 24
-42.87 -9.954 -2.747 12
-40.067 -9.436 -2.67 12
-37.692 -9.034 -2.645 10
-35.458 -8.662 -2.625 5
-31.009 -7.739 -2.22 32
-28.223 -7.201 -2.042 23
-28.72 -7.501 -2.45 11
-27.72 -7.412 -2.585 14
-26.353 -7.219 -2.64 14
-24.936 -6.997 -2.666 14
-23.697 -6.807 -2.712 15
-22.586 -6.642 -2.774 13
-35.963 -13.121 0.686 32
-40.0 -13.994 0.28 30
-40.612 -13.629 0.103 25
-17.342 -5.581 1.711 23
-18.574 -5.737 1.57 23
-19.662 -5.831 1.438 20
-17.702 -5.046 1.553 14
-19.639 -5.391 1.352 21
-19.792 -5.238 1.298 12
-20.981 -5.369 1.151 1
-19.958 -4.946 1.2 15
0.0 -0.0 3.0 0
0.0 -0.0 3.0 0
-102.706 -23.729 -7.072 15
0.0 -0.0 3.0 0
0.0 -0.0 3.0 0
-64.569 -14.464 -4.055 3
-57.829 -12.951 -3.599 5
-52.088 -11.716 -3.23 7
-47.839 -10.844 -3.011 25
-43.217 -9.916 -2.725 13
-40.33 -9.391 -2.643 11
-37.995 -9.009 -2.629 6
-35.671 -8.627 -2.602 5
-30.892 -7.636 -2.151 30
-28.165 -7.121 -1.986 28
-28.853 -7.473 -2.43 11
-27.863 -7.392 -2.57 14
-26.495 -7.205 -2.629 14
-25.054 -6.982 -2.654 12
-23.824 -6.8 -2.706 15
-22.671 -6.627 -2.761 24
-36.153 -13.105 0.689 30
-40.2 -13.968 0.285 29
-40.814 -13.596 0.11 27
-17.394 -5.554 1.718 24
-18.626 -5.705 1.578 36
-19.815 -5.823 1.44 30
-17.996 -5.081 1.543 20
-19.881 -5.401 1.349 23
-19.827 -5.19 1.314 7
0.0 -0.0 3.0 0
-19.977 -4.892 1.22 8
0.0 -0.0 3.0 0
0.0 -0.0 3.0 0
-97.587 -22.25 -6.444 31
0.0 -0.0 3.0 0
0.0 -0.0 3.0 0
0.0 -0.0 3.0 0
-58.394 -12.906 -3.576 4
-52.61 -11.682 -3.211 9
-48.241 -10.8 -2.986 25
-43.614 -9.889 -2.709 10
-40.559 -9.338 -2.611 10
-38.256 -8.973 -2.607 7
-35.887 -8.59 -2.579 4
-30.801 -7.541 -2.087 31
-28.298 -7.091 -1.965 25
-27.744 -7.125 -2.177 5
-28.014 -7.374 -2.557 15
-26.618 -7.185 -2.613 14
-25.194 -6.973 -2.646 12
-23.936 -6.788 -2.696 13
-22.786 -6.62 -2.755 16
-36.143 -13.017 0.705 21
-18.11 -6.249 1.785 14
-40.887 -13.521 0.126 52
-17.396 -5.511 1.728 17
-18.659 -5.667 1.587 24
-20.39 -5.937 1.409 19
-18.397 -5.145 1.525 0
-19.985 -5.374 1.357 21
0.0 -0.0 3.0 0
0.0 -0.0 3.0 0
-19.969 -4.83 1.242 6
0.0 -0.0 3.0 0
-123.238 -28.28 -8.426 38
-102.515 -23.062 -6.789 10
0.0 -0.0 3.0 0
0.0 -0.0 3.0 0
0.0 -0.0 3.0 0
-59.045 -12.876 -3.561 4
-53.174 -11.654 -3.197 11
-48.646 -10.754 -2.961 27
-44.019 -9.861 -2.693 12
-40.845 -9.295 -2.585 11
-38.536 -8.941 -2.587 9
-36.068 -8.545 -2.549 11
-30.794 -7.466 -2.036 19
-28.534 -7.085 -1.961 24
-27.647 -7.04 -2.115 21
-28.165 -7.355 -2.542 16
-26.767 -7.172 -2.603 13
-25.33 -6.963 -2.638 12
-24.079 -6.785 -2.693 15
-22.882 -6.608 -2.745 12
-36.132 -12.931 0.72 24
-18.127 -6.212 1.792 19
-40.845 -13.408 0.15 45
-18.212 -5.724 1.678 2
-18.7 -5.631 1.596 27
-20.493 -5.914 1.415 16
-20.871 -5.78 1.343 13
-20.012 -5.326 1.372 26
0.0 -0.0 3.0 0
0.0 -0.0 3.0 0
-20.007 -4.781 1.26 6
-122.943 -28.561 -7.964 43
0.0 -0.0 3.0 0
-102.351 -22.715 -6.642 12
0.0 -0.0 3.0 0
0.0 -0.0 3.0 0
-66.997 -14.409 -4.028 3
-59.669 -12.838 -3.541 3
-53.689 -11.613 -3.175 10
-49.071 -10.711 -2.937 24
-44.316 -9.806 -2.662 15
-41.139 -9.255 -2.561 10
-38.808 -8.906 -2.565 21
-36.308 -8.514 -2.529 5
-34.129 -8.195 -2.528 3
-28.567 -7.03 -1.922 31
-27.794 -7.018 -2.099 16
-28.319 -7.337 -2.529 12
-26.905 -7.156 -2.591 13
-25.455 -6.949 -2.627 15
-24.191 -6.773 -2.683 15
-22.989 -6.6 -2.737 16
-36.306 -12.91 0.724 26
-18.133 -6.172 1.8 16
-38.458 -12.532 0.336 8
-18.168 -5.665 1.692 24
-18.748 -5.598 1.604 17
-20.516 -5.866 1.428 15
-18.471 -5.066 1.547 1
-20.061 -5.283 1.385 25
-122.367 -30.992 -7.07 12
0.0 -0.0 3.0 0
0.0 -0.0 3.0 0
-122.059 -27.993 -7.746 13
0.0 -0.0 3.0 0
0.0 -0.0 3.0 0
-90.502 -19.494 -5.679 10
0.0 -0.0 3.0 0
0.0 -0.0 3.0 0
-60.441 -12.827 -3.536 3
-54.23 -11.574 -3.154 10
-49.515 -10.669 -2.914 26
-44.737 -9.778 -2.646 11
-41.41 -9.207 -2.532 10
-39.173 -8.891 -2.556 9
-36.578 -8.488 -2.512 6
-34.351 -8.169 -2.51 3
-28.73 -7.006 -1.905 23
-27.803 -6.961 -2.057 35
-28.47 -7.318 -2.514 12
-27.05 -7.141 -2.579 13
-25.588 -6.937 -2.618 15
-24.314 -6.764 -2.676 12
-23.103 -6.593 -2.731 12
-36.486 -12.893 0.727 21
-18.165 -6.141 1.806 19
-38.631 -12.495 0.344 11
-18.159 -5.617 1.703 21
-18.781 -5.56 1.614 2
-20.539 -5.82 1.441 13
-20.948 -5.688 1.369 7
-20.064 -5.23 1.401 26
0.0 -0.0 3.0 0
0.0 -0.0 3.0 0
0.0 -0.0 3.0 0
0.0 -0.0 3.0 0
0.0 -0.0 3.0 0
-102.53 -22.136 -6.396 19
-90.81 -19.287 -5.587 16
0.0 -0.0 3.0 0
0.0 -0.0 3.0 0
-61.19 -12.808 -3.526 3
-54.889 -11.558 -3.146 9
-49.948 -10.623 -2.889 25
-45.088 -9.733 -2.62 12
-41.719 -9.167 -2.508 10
-39.515 -8.87 -2.542 11
-36.828 -8.457 -2.492 16
-34.592 -8.146 -2.494 5
-27.938 -6.75 -1.727 6
-27.835 -6.911 -2.021 28
-28.597 -7.293 -2.495 10
-27.192 -7.126 -2.568 14
-25.712 -6.923 -2.606 11
-24.449 -6.758 -2.67 13
-23.233 -6.591 -2.729 11
-36.675 -12.877 0.729 24
-37.658 -12.644 0.542 39
-17.285 -5.55 1.82 4
-18.107 -5.557 1.717 21
-18.845 -5.532 1.621 0
-43.792 -12.295 -0.294 19
0.0 -0.0 3.0 0
-20.048 -5.17 1.419 21
0.0 -0.0 3.0 0
0.0 -0.0 3.0 0
0.0 -0.0 3.0 0
0.0 -0.0 3.0 0
0.0 -0.0 3.0 0
-103.181 -21.966 -6.324 15
-91.126 -19.078 -5.494 16
0.0 -0.0 3.0 0
0.0 -0.0 3.0 0
-61.874 -12.77 -3.507 3
-55.372 -11.502 -3.116 11
-50.405 -10.58 -2.865 22
-46.535 -9.92 -2.727 6
-42.001 -9.12 -2.48 10
-39.792 -8.832 -2.519 16
-37.037 -8.416 -2.465 22
-34.767 -8.107 -2.469 5
-27.901 -6.68 -1.678 4
-28.024 -6.898 -2.012 4
-28.717 -7.265 -2.475 8
-27.341 -7.113 -2.557 12
-25.863 -6.917 -2.601 11
-24.58 -6.751 -2.665 15
-23.355 -6.586 -2.725 12
-36.863 -12.862 0.732 18
-37.848 -12.621 0.547 38
-17.32 -5.521 1.827 3
-18.135 -5.522 1.725 16
-20.72 -6.031 1.496 1
-19.899 -5.536 1.517 17
0.0 -0.0 3.0 0
-18.702 -4.773 1.541 0
0.0 -0.0 3.0 0
0.0 -0.0 3.0 0
0.0 -0.0 3.0 0
0.0 -0.0 3.0 0
0.0 -0.0 3.0 0
-109.564 -22.995 -6.761 22
-91.428 -18.867 -5.4 12
0.0 -0.0 3.0 0
0.0 -0.0 3.0 0
-62.519 -12.721 -3.482 3
-56.094 -11.492 -3.111 4
-50.869 -10.537 -2.841 5
-46.883 -9.869 -2.698 6
-42.311 -9.077 -2.454 10
-40.037 -8.786 -2.49 18
-37.26 -8.378 -2.441 23
-29.439 -6.797 -1.585 14
-29.112 -6.907 -1.836 2
-28.105 -6.859 -1.984 2
-28.597 -7.178 -2.409 2
-27.482 -7.098 -2.545 13
-26.018 -6.911 -2.596 11
-24.699 -6.741 -2.656 15
-23.458 -6.577 -2.717 19
-37.051 -12.846 0.735 16
-38.045 -12.602 0.55 31
-18.31 -5.793 1.769 21
-18.106 -5.469 1.737 24
-20.742 -5.985 1.508 6
-19.886 -5.481 1.531 20
0.0 -0.0 3.0 0
-20.049 -5.062 1.452 4
0.0 -0.0 3.0 0
0.0 -0.0 3.0 0
0.0 -0.0 3.0 0
0.0 -0.0 3.0 0
-123.933 -26.211 -7.59 29
-109.758 -22.706 -6.638 15
-91.762 -18.66 -5.308 13
0.0 -0.0 3.0 0
-69.613 -13.939 -3.798 21
-63.175 -12.671 -3.456 3
-56.652 -11.446 -3.086 3
-51.282 -10.482 -2.81 11
-47.25 -9.82 -2.669 6
-42.624 -9.035 -2.429 9
-40.271 -8.738 -2.46 19
-37.476 -8.337 -2.414 15
-29.402 -6.722 -1.534 28
-29.294 -6.886 -1.822 29
0.0 -0.0 3.0 0
-28.777 -7.166 -2.4 7
-27.619 -7.081 -2.532 13
-26.188 -6.909 -2.595 11
-24.822 -6.732 -2.649 11
-23.572 -6.57 -2.711 12
-37.265 -12.84 0.736 18
-38.124 -12.542 0.562 17
-18.334 -5.759 1.776 18
-43.156 -12.935 0.014 24
-20.764 -5.941 1.519 0
-19.938 -5.445 1.541 13
0.0 -0.0 3.0 0
-18.635 -4.655 1.577 17
0.0 -0.0 3.0 0
0.0 -0.0 3.0 0
0.0 -0.0 3.0 0
-123.637 -26.528 -7.183 27
0.0 -0.0 3.0 0
0.0 -0.0 3.0 0
-92.099 -18.452 -5.215 15
0.0 -0.0 3.0 0
-69.197 -13.651 -3.658 27
0.0 -0.0 3.0 0
-57.276 -11.409 -3.066 3
-51.794 -10.443 -2.789 17
-47.649 -9.776 -2.644 6
-42.961 -8.996 -2.405 10
-40.497 -8.687 -2.428 19
-37.73 -8.305 -2.393 7
-29.458 -6.668 -1.498 15
-29.402 -6.848 -1.795 27
0.0 -0.0 3.0 0
-28.805 -7.117 -2.363 20
-27.772 -7.068 -2.522 12
-26.347 -6.903 -2.59 13
-24.968 -6.729 -2.646 16
-23.682 -6.562 -2.705 12
-37.434 -12.818 0.74 20
-38.043 -12.432 0.584 23
-18.339 -5.718 1.785 23
-43.369 -12.897 0.023 22
-44.036 -12.493 -0.115 22
-19.94 -5.396 1.554 0
0.0 -0.0 3.0 0
-18.725 -4.627 1.585 15
0.0 -0.0 3.0 0
0.0 -0.0 3.0 0
0.0 -0.0 3.0 0
0.0 -0.0 3.0 0
-116.812 -24.011 -6.701 14
0.0 -0.0 3.0 0
0.0 -0.0 3.0 0
0.0 -0.0 3.0 0
-69.064 -13.422 -3.546 53
0.0 -0.0 3.0 0
-57.987 -11.387 -3.054 3
-52.293 -10.4 -2.765 20
-48.056 -9.731 -2.618 5
-43.301 -8.956 -2.381 10
-40.734 -8.638 -2.398 16
-29.432 -6.409 -1.162 21
-35.61 -7.981 -2.384 21
-29.557 -6.821 -1.776 28
0.0 -0.0 3.0 0
-28.871 -7.077 -2.333 6
-27.924 -7.055 -2.512 13
-26.49 -6.894 -2.583 19
-25.098 -6.722 -2.64 14
-23.815 -6.561 -2.703 11
-37.629 -12.805 0.742 18
-38.225 -12.407 0.588 23
-18.385 -5.692 1.79 12
-40.558 -11.965 0.238 6
-44.27 -12.452 -0.105 22
-44.964 -12.055 -0.23 25
0.0 -0.0 3.0 0
0.0 -0.0 3.0 0
0.0 -0.0 3.0 0
0.0 -0.0 3.0 0
-118.115 -25.483 -6.275 14
0.0 -0.0 3.0 0
0.0 -0.0 3.0 0
0.0 -0.0 3.0 0
-101.813 -19.789 -5.81 12
0.0 -0.0 3.0 0
-69.111 -13.227 -3.451 39
0.0 -0.0 3.0 0
-58.511 -11.325 -3.021 4
-52.785 -10.353 -2.739 20
-48.47 -9.687 -2.593 6
-43.618 -8.911 -2.354 10
-40.987 -8.591 -2.368 12
-29.421 -6.338 -1.116 29
-35.8 -7.943 -2.358 15
-29.678 -6.785 -1.751 27
0.0 -0.0 3.0 0
-29.441 -7.16 -2.395 10
-28.072 -7.041 -2.501 12
-26.645 -6.888 -2.578 18
-25.221 -6.713 -2.633 14
-23.925 -6.553 -2.697 11
-37.801 -12.783 0.746 19
-38.428 -12.389 0.592 21
-39.477 -12.132 0.421 31
-40.684 -11.908 0.251 7
-44.506 -12.411 -0.095 24
-45.21 -12.009 -0.218 24
0.0 -0.0 3.0 0
0.0 -0.0 3.0 0
0.0 -0.0 3.0 0
0.0 -0.0 3.0 0
0.0 -0.0 3.0 0
0.0 -0.0 3.0 0
-116.592 -23.275 -6.404 15
0.0 -0.0 3.0 0
-102.127 -19.545 -5.702 14
0.0 -0.0 3.0 0
-69.207 -13.042 -3.361 8
0.0 -0.0 3.0 0
-59.159 -11.284 -3.0 3
-53.312 -10.311 -2.716 19
-48.884 -9.641 -2.566 6
-43.931 -8.864 -2.326 10
-41.247 -8.546 -2.34 10
-29.475 -6.282 -1.079 11
-36.013 -7.911 -2.336 6
-29.805 -6.752 -1.728 30
0.0 -0.0 3.0 0
-29.625 -7.148 -2.386 21
-28.236 -7.03 -2.493 13
-26.795 -6.88 -2.572 18
-25.351 -6.706 -2.627 16
-24.043 -6.547 -2.691 10
-38.007 -12.774 0.748 21
-38.632 -12.373 0.595 23
-39.679 -12.106 0.427 31
-40.994 -11.905 0.251 32
-44.739 -12.37 -0.084 24
-45.451 -11.961 -0.205 25
0.0 -0.0 3.0 0
0.0 -0.0 3.0 0
0.0 -0.0 3.0 0
0.0 -0.0 3.0 0
-118.207 -24.828 -6.037 17
-117.693 -23.879 -6.166 16
0.0 -0.0 3.0 0
0.0 -0.0 3.0 0
-102.413 -19.294 -5.59 20
-71.629 -13.349 -3.225 5
-69.358 -12.867 -3.275 25
0.0 -0.0 3.0 0
0.0 -0.0 3.0 0
-53.855 -10.269 -2.692 18
-49.295 -9.593 -2.538 5
-44.338 -8.834 -2.308 8
-29.434 -6.027 -0.766 23
-38.789 -8.177 -2.31 25
-36.288 -7.892 -2.323 4
-29.964 -6.726 -1.709 29
0.0 -0.0 3.0 0
-29.787 -7.131 -2.373 21
-28.369 -7.012 -2.479 11
-26.965 -6.878 -2.57 11
-25.493 -6.702 -2.623 13
-24.171 -6.545 -2.689 9
-38.206 -12.763 0.75 20
-38.835 -12.355 0.598 19
-39.868 -12.076 0.433 24
-44.292 -12.762 0.054 23
-44.972 -12.329 -0.074 23
-45.573 -11.883 -0.184 50
-46.324 -11.499 -0.297 4
0.0 -0.0 3.0 0
0.0 -0.0 3.0 0
0.0 -0.0 3.0 0
0.0 -0.0 3.0 0
0.0 -0.0 3.0 0
0.0 -0.0 3.0 0
-124.402 -23.509 -6.979 16
-102.651 -19.033 -5.474 19
-92.772 -17.014 -4.934 14
-69.622 -12.712 -3.2 17
-67.742 -12.413 -3.325 4
-60.489 -11.198 -2.954 4
-54.41 -10.227 -2.669 19
-49.733 -9.548 -2.512 6
-44.78 -8.809 -2.293 7
-29.422 -5.954 -0.72 28
-39.008 -8.133 -2.282 11
-36.563 -7.872 -2.309 6
-30.157 -6.706 -1.696 27
-29.723 -6.833 -1.964 29
-29.944 -7.112 -2.359 24
-28.533 -7.001 -2.47 11
-27.112 -6.869 -2.563 11
-25.627 -6.695 -2.618 13
-24.296 -6.541 -2.686 8
-38.393 -12.747 0.752 17
-39.031 -12.335 0.602 17
-40.084 -12.055 0.438 24
-41.529 -11.872 0.259 6
-45.212 -12.289 -0.064 22
-45.52 -11.758 -0.151 45
-46.656 -11.465 -0.288 21
0.0 -0.0 3.0 0
0.0 -0.0 3.0 0
0.0 -0.0 3.0 0
0.0 -0.0 3.0 0
0.0 -0.0 3.0 0
0.0 -0.0 3.0 0
-121.39 -22.58 -6.585 21
-103.084 -18.807 -5.373 20
-94.458 -17.044 -4.948 8
-70.042 -12.584 -3.137 8
0.0 -0.0 3.0 0
-61.189 -11.156 -2.932 4
-54.882 -10.168 -2.636 7
-50.171 -9.501 -2.485 6
-29.434 -5.717 -0.435 5
-29.491 -5.898 -0.685 7
-39.336 -8.112 -2.268 6
-36.78 -7.839 -2.287 18
-30.388 -6.695 -1.688 11
-29.765 -6.784 -1.929 31
-30.097 -7.092 -2.344 11
-28.723 -6.998 -2.467 12
-27.258 -6.861 -2.556 12
-25.753 -6.687 -2.611 13
-24.421 -6.538 -2.683 7
-38.61 -12.742 0.753 23
-39.261 -12.327 0.604 18
-40.155 -11.989 0.452 18
-44.743 -12.691 0.07 28
-45.451 -12.249 -0.054 22
-46.148 -11.81 -0.164 21
-46.913 -11.412 -0.272 26
0.0 -0.0 3.0 0
0.0 -0.0 3.0 0
0.0 -0.0 3.0 0
-116.897 -23.562 -5.576 14
-117.437 -22.81 -5.756 14
-117.59 -22.092 -5.926 9
-123.851 -22.671 -6.623 13
-103.788 -18.627 -5.293 17
-96.931 -17.204 -5.022 10
0.0 -0.0 3.0 0
0.0 -0.0 3.0 0
-61.67 -11.072 -2.887 6
-55.621 -10.154 -2.628 4
-50.628 -9.456 -2.459 6
-29.479 -5.652 -0.396 6
-42.33 -8.364 -2.227 15
-39.648 -8.087 -2.252 5
-36.993 -7.805 -2.264 20
-34.69 -7.572 -2.302 4
-29.888 -6.754 -1.907 19
-30.369 -7.1 -2.351 19
-28.893 -6.989 -2.46 12
-27.393 -6.849 -2.546 12
-25.905 -6.686 -2.61 13
-1.2 -0.32 2.722 0
-38.785 -12.723 0.757 19
-39.452 -12.306 0.608 21
-40.114 -11.891 0.472 22
-41.004 -11.54 0.336 20
-45.575 -12.178 -0.036 52
-46.412 -11.767 -0.153 23
-47.163 -11.356 -0.256 24
0.0 -0.0 3.0 0
0.0 -0.0 3.0 0
0.0 -0.0 3.0 0
0.0 -0.0 3.0 0
0.0 -0.0 3.0 0
-116.528 -21.553 -5.708 12
-123.785 -22.293 -6.463 16
-104.511 -18.447 -5.213 15
0.0 -0.0 3.0 0
0.0 -0.0 3.0 0
0.0 -0.0 3.0 0
-62.418 -11.032 -2.866 3
-56.196 -10.108 -2.603 4
-51.074 -9.407 -2.431 6
-29.486 -5.58 -0.353 1
-42.648 -8.327 -2.203 13
-39.921 -8.053 -2.23 6
-37.221 -7.773 -2.243 20
-34.935 -7.554 -2.29 8
-30.095 -6.743 -1.899 19
-30.688 -7.119 -2.365 12
-29.068 -6.981 -2.454 12
-27.551 -6.843 -2.541 12
-26.069 -6.687 -2.611 11
-1.204 -0.319 2.723 1
-39.009 -12.72 0.757 13
-39.659 -12.29 0.611 21
-40.326 -11.869 0.477 22
-41.413 -11.565 0.33 30
-45.537 -12.064 -0.008 38
-46.66 -11.72 -0.14 23
-47.412 -11.3 -0.24 25
0.0 -0.0 3.0 0
0.0 -0.0 3.0 0
0.0 -0.0 3.0 0
0.0 -0.0 3.0 0
0.0 -0.0 3.0 0
0.0 -0.0 3.0 0
0.0 -0.0 3.0 0
0.0 -0.0 3.0 0
-88.194 -15.132 -4.056 38
0.0 -0.0 3.0 0
0.0 -0.0 3.0 0
-63.126 -10.982 -2.839 3
-56.72 -10.05 -2.571 3
-51.586 -9.369 -2.409 11
-45.961 -8.585 -2.159 13
-29.331 -5.658 -0.535 2
-40.237 -8.027 -2.213 6
-37.445 -7.741 -2.221 9
-35.13 -7.526 -2.27 18
-30.113 -6.69 -1.861 11
-31.01 -7.138 -2.379 11
-29.227 -6.969 -2.445 12
-27.697 -6.835 -2.534 12
-26.252 -6.694 -2.617 11
-1.209 -0.318 2.723 2
-39.196 -12.704 0.76 11
-39.869 -12.275 0.614 23
-40.533 -11.845 0.482 23
-41.626 -11.534 0.337 32
-43.004 -11.297 0.183 7
-46.912 -11.674 -0.128 23
-47.669 -11.245 -0.224 24
0.0 -0.0 3.0 0
0.0 -0.0 3.0 0
0.0 -0.0 3.0 0
-116.26 -22.461 -5.175 13
0.0 -0.0 3.0 0
0.0 -0.0 3.0 0
-118.371 -20.62 -5.753 13
0.0 -0.0 3.0 0
-88.171 -14.868 -3.933 44
0.0 -0.0 3.0 0
0.0 -0.0 3.0 0
0.0 -0.0 3.0 0
-57.314 -10.002 -2.544 3
-29.469 -5.276 -0.046 7
-45.988 -8.478 -2.094 31
-29.368 -5.596 -0.497 255
-40.616 -8.012 -2.203 6
-37.724 -7.719 -2.206 5
-35.345 -7.501 -2.253 22
-33.223 -7.318 -2.317 22
-31.363 -7.163 -2.398 15
-29.413 -6.964 -2.441 12
-27.836 -6.824 -2.526 12
-26.442 -6.702 -2.624 12
-1.213 -0.318 2.724 3
0.0 -0.0 3.0 0
-40.079 -12.26 0.617 19
-40.752 -11.826 0.486 21
-41.846 -11.506 0.344 30
-43.26 -11.268 0.191 9
-47.16 -11.627 -0.115 23
-47.918 -11.189 -0.208 24
0.0 -0.0 3.0 0
0.0 -0.0 3.0 0
0.0 -0.0 3.0 0
-116.19 -22.125 -5.053 13
-117.053 -21.398 -5.214 14
-123.807 -21.819 -5.815 13
0.0 -0.0 3.0 0
-123.545 -20.709 -6.22 13
-88.159 -14.607 -3.811 15
0.0 -0.0 3.0 0
0.0 -0.0 3.0 0
0.0 -0.0 3.0 0
-57.921 -9.954 -2.518 3
-45.673 -8.061 -1.654 5
-47.58 -8.655 -2.2 8
-29.354 -5.525 -0.452 255
-41.037 -8.006 -2.199 9
-38.014 -7.7 -2.193 6
-35.548 -7.475 -2.234 22
-33.393 -7.293 -2.299 47
-31.562 -7.153 -2.39 8
-29.599 -6.958 -2.436 12
-27.99 -6.817 -2.52 12
-26.606 -6.704 -2.625 11
-1.21 -0.315 2.726 4
0.0 -0.0 3.0 0
-40.289 -12.245 0.62 18
-40.967 -11.805 0.491 15
-42.074 -11.479 0.35 29
-45.407 -11.727 0.076 40
-47.408 -11.579 -0.103 23
-48.187 -11.137 -0.193 23
0.0 -0.0 3.0 0
0.0 -0.0 3.0 0
0.0 -0.0 3.0 0
0.0 -0.0 3.0 0
-116.951 -21.047 -5.079 13
-116.541 -20.201 -5.162 14
0.0 -0.0 3.0 0
-123.702 -20.371 -6.07 18
0.0 -0.0 3.0 0
0.0 -0.0 3.0 0
0.0 -0.0 3.0 0
0.0 -0.0 3.0 0
-58.578 -9.911 -2.494 3
-45.778 -7.963 -1.597 31
-47.976 -8.611 -2.174 8
-29.343 -5.456 -0.409 255
-41.356 -7.977 -2.18 11
-38.285 -7.675 -2.177 18
-35.727 -7.443 -2.211 11
-33.597 -7.275 -2.286 46
-31.815 -7.154 -2.391 6
-29.789 -6.954 -2.433 12
-28.162 -6.816 -2.519 12
-26.728 -6.695 -2.618 5
-1.203 -0.312 2.729 5
0.0 -0.0 3.0 0
-40.51 -12.235 0.622 16
-41.182 -11.784 0.495 17
-42.297 -11.452 0.356 27
-43.804 -11.218 0.203 6
-47.675 -11.536 -0.091 22
-48.443 -11.082 -0.178 23
-62.106 -13.439 -1.109 11
0.0 -0.0 3.0 0
0.0 -0.0 3.0 0
-116.38 -21.522 -4.833 11
0.0 -0.0 3.0 0
-116.708 -19.893 -5.037 15
0.0 -0.0 3.0 0
-123.551 -19.982 -5.897 16
0.0 -0.0 3.0 0
-89.616 -14.274 -3.962 11
0.0 -0.0 3.0 0
0.0 -0.0 3.0 0
-29.467 -4.907 0.28 8
-45.894 -7.866 -1.542 28
-48.39 -8.569 -2.149 8
-29.313 -5.383 -0.364 30
-29.167 -5.563 -0.613 6
-38.516 -7.642 -2.155 21
-36.003 -7.43 -2.203 5
-33.809 -7.259 -2.274 30
-32.048 -7.152 -2.389 14
-29.974 -6.947 -2.428 11
-28.323 -6.811 -2.515 11
-4.869 -1.213 1.983 2
-1.208 -0.311 2.729 8
0.0 -0.0 3.0 0
-40.701 -12.214 0.626 20
-41.412 -11.768 0.499 19
-42.317 -11.369 0.375 13
-45.326 -11.509 0.13 48
-47.926 -11.49 -0.079 21
-48.715 -11.029 -0.163 23
-52.1 -11.147 -0.408 14
0.0 -0.0 3.0 0
0.0 -0.0 3.0 0
0.0 -0.0 3.0 0
0.0 -0.0 3.0 0
-116.501 -19.522 -4.887 14
-118.638 -19.276 -5.182 16
0.0 -0.0 3.0 0
-88.465 -13.877 -3.471 15
-91.513 -14.311 -3.98 6
0.0 -0.0 3.0 0
0.0 -0.0 3.0 0
0.0 -0.0 3.0 0
-53.995 -9.119 -2.265 6
-48.809 -8.526 -2.123 8
-29.274 -5.309 -0.318 13
-29.152 -5.497 -0.57 29
-38.763 -7.613 -2.135 19
-36.244 -7.411 -2.189 4
-33.987 -7.236 -2.257 11
-32.209 -7.133 -2.375 14
-30.152 -6.94 -2.422 12
-28.477 -6.804 -2.509 13
-4.883 -1.209 1.986 5
-1.204 -0.309 2.732 11
-40.703 -12.814 0.74 28
-40.921 -12.204 0.628 13
-41.63 -11.749 0.503 26
-42.308 -11.281 0.395 16
-43.371 -10.921 0.277 11
-48.185 -11.445 -0.067 22
-48.975 -10.975 -0.147 22
0.0 -0.0 3.0 0
0.0 -0.0 3.0 0
0.0 -0.0 3.0 0
0.0 -0.0 3.0 0
0.0 -0.0 3.0 0
0.0 -0.0 3.0 0
-119.21 -19.02 -5.074 13
0.0 -0.0 3.0 0
0.0 -0.0 3.0 0
0.0 -0.0 3.0 0
0.0 -0.0 3.0 0
0.0 -0.0 3.0 0
-60.39 -9.74 -2.399 3
-54.48 -9.064 -2.233 5
-49.286 -8.492 -2.102 7
-44.862 -8.035 -2.021 13
-29.18 -5.44 -0.533 255
-38.991 -7.579 -2.112 9
-36.516 -7.397 -2.179 11
-34.257 -7.233 -2.255 6
-32.38 -7.116 -2.363 11
-30.353 -6.938 -2.42 15
-28.584 -6.786 -2.496 10
-4.897 -1.205 1.989 5
-1.205 -0.308 2.733 13
-40.724 -12.748 0.752 28
-41.119 -12.186 0.631 13
-41.844 -11.728 0.507 18
-42.551 -11.26 0.4 22
-43.716 -10.916 0.278 28
-48.443 -11.4 -0.055 21
-49.242 -10.922 -0.132 24
-50.038 -10.464 -0.199 18
0.0 -0.0 3.0 0
0.0 -0.0 3.0 0
0.0 -0.0 3.0 0
0.0 -0.0 3.0 0
0.0 -0.0 3.0 0
0.0 -0.0 3.0 0
-120.831 -18.477 -5.226 12
-89.865 -13.571 -3.328 24
0.0 -0.0 3.0 0
0.0 -0.0 3.0 0
-29.471 -4.56 0.576 13
-60.969 -9.674 -2.362 3
-55.043 -9.02 -2.208 6
-49.732 -8.451 -2.078 12
-45.223 -7.999 -1.998 14
-29.164 -5.376 -0.491 255
-39.323 -7.565 -2.103 5
-36.714 -7.368 -2.159 19
-34.492 -7.221 -2.246 6
-32.571 -7.104 -2.353 12
-30.534 -6.931 -2.415 13
-28.722 -6.777 -2.488 2
-4.934 -1.208 1.987 6
-1.206 -0.306 2.734 14
0.0 -0.0 3.0 0
0.0 -0.0 3.0 0
-42.077 -11.713 0.51 25
-42.773 -11.234 0.407 14
-43.959 -10.886 0.286 26
-45.447 -10.595 0.161 4
-49.513 -10.87 -0.117 21
-50.243 -10.388 -0.176 42
0.0 -0.0 3.0 0
-124.403 -22.888 -4.881 15
-116.808 -20.336 -4.402 13
0.0 -0.0 3.0 0
-117.639 -18.703 -4.556 9
0.0 -0.0 3.0 0
0.0 -0.0 3.0 0
-89.908 -13.315 -3.209 40
-91.631 -13.535 -3.602 9
0.0 -0.0 3.0 0
0.0 -0.0 3.0 0
-29.195 -4.556 0.474 0
-55.607 -8.975 -2.182 5
-50.135 -8.401 -2.048 9
-45.615 -7.967 -1.978 13
-29.14 -5.31 -0.448 255
-39.577 -7.536 -2.083 18
-36.928 -7.343 -2.142 19
-34.746 -7.214 -2.241 16
-32.747 -7.088 -2.341 11
-30.735 -6.929 -2.414 12
-5.235 -1.228 2.006 3
-4.956 -1.206 1.988 6
-1.203 -0.303 2.736 15
0.0 -0.0 3.0 0
0.0 -0.0 3.0 0
-42.291 -11.693 0.515 16
-43.023 -11.216 0.411 16
-44.202 -10.855 0.294 27
-45.637 -10.542 0.175 9
-49.784 -10.817 -0.102 21
-50.456 -10.313 -0.153 18
0.0 -0.0 3.0 0
-124.108 -22.514 -4.752 15
0.0 -0.0 3.0 0
0.0 -0.0 3.0 0
0.0 -0.0 3.0 0
0.0 -0.0 3.0 0
-126.251 -18.566 -5.266 27
-90.419 -13.126 -3.121 15
0.0 -0.0 3.0 0
0.0 -0.0 3.0 0
0.0 -0.0 3.0 0
-29.155 -4.474 0.52 6
-56.205 -8.933 -2.157 6
-50.651 -8.369 -2.029 6
-46.026 -7.937 -1.96 12
-29.124 -5.247 -0.408 255
-39.824 -7.505 -2.062 7
-37.168 -7.322 -2.127 18
-34.931 -7.192 -2.225 46
-32.957 -7.08 -2.335 13
-30.947 -6.93 -2.414 13
-5.261 -1.226 2.007 4
-4.989 -1.207 1.987 7
-1.207 -0.303 2.737 17
0.0 -0.0 3.0 0
0.0 -0.0 3.0 0
-42.52 -11.678 0.518 17
-43.245 -11.19 0.417 20
-44.41 -10.816 0.303 20
-49.233 -11.268 -0.019 21
-50.047 -10.763 -0.086 19
-50.888 -10.283 -0.144 22
0.0 -0.0 3.0 0
-123.82 -22.147 -4.626 14
0.0 -0.0 3.0 0
0.0 -0.0 3.0 0
-118.014 -18.091 -4.309 12
-118.563 -17.54 -4.445 13
0.0 -0.0 3.0 0
-91.041 -12.95 -3.039 15
0.0 -0.0 3.0 0
-29.468 -4.229 0.845 24
0.0 -0.0 3.0 0
-29.079 -4.387 0.568 6
-56.718 -8.875 -2.124 8
-51.188 -8.339 -2.011 6
-46.375 -7.896 -1.934 11
-29.138 -5.19 -0.37 177
-40.179 -7.495 -2.055 6
-37.381 -7.297 -2.109 7
-35.119 -7.171 -2.21 34
-33.108 -7.06 -2.32 10
-31.136 -6.925 -2.411 9
-5.286 -1.224 2.009 5
-5.014 -1.206 1.988 8
-1.208 -0.302 2.738 20
0.0 -0.0 3.0 0
-42.594 -12.318 0.606 7
-42.745 -11.661 0.521 13
-43.498 -11.172 0.421 17
-44.661 -10.788 0.31 21
-49.502 -11.226 -0.008 21
-50.212 -10.688 -0.065 32
-51.164 -10.22 -0.124 24
0.0 -0.0 3.0 0
-123.928 -21.852 -4.524 15
0.0 -0.0 3.0 0
0.0 -0.0 3.0 0
-118.056 -17.763 -4.177 17
0.0 -0.0 3.0 0
0.0 -0.0 3.0 0
-91.707 -12.778 -2.958 12
0.0 -0.0 3.0 0
0.0 -0.0 3.0 0
0.0 -0.0 3.0 0
0.0 -0.0 3.0 0
-57.226 -8.815 -2.089 3
-51.712 -8.306 -1.99 7
-46.782 -7.864 -1.914 8
-29.16 -5.135 -0.334 7
-40.496 -7.477 -2.043 17
-37.664 -7.284 -2.101 5
-35.342 -7.157 -2.2 25
-33.272 -7.042 -2.306 8
-5.685 -1.256 2.019 0
-5.316 -1.224 2.009 4
-5.04 -1.206 1.988 7
-1.212 -0.301 2.738 23
0.0 -0.0 3.0 0
-42.606 -12.249 0.619 51
-42.965 -11.644 0.525 13
-43.72 -11.147 0.427 18
-44.604 -10.686 0.336 14
-49.783 -11.187 0.002 21
-50.173 -10.57 -0.031 36
-51.451 -10.16 -0.106 22
0.0 -0.0 3.0 0
-123.625 -21.487 -4.399 21
0.0 -0.0 3.0 0
0.0 -0.0 3.0 0
0.0 -0.0 3.0 0
0.0 -0.0 3.0 0
-123.991 -17.146 -4.634 10
-92.34 -12.597 -2.874 15
-29.479 -4.015 1.042 1
-81.988 -11.307 -2.761 255
0.0 -0.0 3.0 0
0.0 -0.0 3.0 0
-57.931 -8.783 -2.071 3
-52.15 -8.257 -1.961 25
-47.185 -7.83 -1.893 9
-43.783 -7.621 -1.949 9
-40.758 -7.448 -2.024 29
-37.936 -7.27 -2.09 4
-35.533 -7.137 -2.185 12
-33.462 -7.03 -2.298 8
-5.668 -1.244 2.028 5
-5.353 -1.225 2.008 5
-1.448 -0.344 2.711 0
-1.209 -0.299 2.74 25
0.0 -0.0 3.0 0
0.0 -0.0 3.0 0
-43.201 -11.632 0.527 16
-43.988 -11.134 0.43 19
-44.722 -10.628 0.35 14
-45.888 -10.218 0.262 7
-50.126 -10.453 0.003 32
-51.741 -10.1 -0.088 22
0.0 -0.0 3.0 0
-123.367 -21.134 -4.277 37
0.0 -0.0 3.0 0
-119.462 -18.186 -3.981 10
0.0 -0.0 3.0 0
0.0 -0.0 3.0 0
-124.03 -16.791 -4.476 20
0.0 -0.0 3.0 0
-29.481 -3.931 1.083 4
-83.268 -11.251 -2.733 255
0.0 -0.0 3.0 0
0.0 -0.0 3.0 0
-58.534 -8.733 -2.042 4
-50.994 -7.958 -1.782 6
-47.616 -7.8 -1.874 9
-44.137 -7.595 -1.932 9
-41.007 -7.417 -2.003 27
-38.18 -7.25 -2.077 4
-35.771 -7.126 -2.177 5
-33.64 -7.016 -2.287 7
-5.706 -1.244 2.028 5
-5.394 -1.227 2.006 8
-1.429 -0.338 2.716 0
-1.209 -0.298 2.741 26
0.0 -0.0 3.0 0
0.0 -0.0 3.0 0
0.0 -0.0 3.0 0
-44.202 -11.107 0.436 17
-44.964 -10.598 0.358 16
-46.213 -10.198 0.268 28
-50.09 -10.339 0.035 34
-51.996 -10.034 -0.068 21
0.0 -0.0 3.0 0
-125.129 -21.126 -4.274 13
-122.53 -19.395 -4.059 11
-127.76 -19.104 -4.333 15
0.0 -0.0 3.0 0
0.0 -0.0 3.0 0
0.0 -0.0 3.0 0
0.0 -0.0 3.0 0
0.0 -0.0 3.0 0
-83.31 -11.025 -2.618 132
0.0 -0.0 3.0 0
0.0 -0.0 3.0 0
-52.199 -7.663 -1.424 2
-51.045 -7.851 -1.717 60
-47.979 -7.759 -1.848 3
-44.439 -7.559 -1.909 9
-41.261 -7.387 -1.983 9
-38.415 -7.229 -2.062 4
-36.006 -7.115 -2.169 4
-33.865 -7.012 -2.284 3
-5.735 -1.242 2.029 5
-5.427 -1.227 2.006 5
-1.331 -0.313 2.737 0
-1.206 -0.296 2.743 26
-42.641 -12.782 0.746 60
0.0 -0.0 3.0 0
0.0 -0.0 3.0 0
-44.465 -11.094 0.439 16
-45.214 -10.572 0.364 18
-46.48 -10.163 0.277 28
-50.054 -10.227 0.067 30
-52.317 -9.98 -0.051 21
0.0 -0.0 3.0 0
0.0 -0.0 3.0 0
0.0 -0.0 3.0 0
-128.18 -18.822 -4.225 15
0.0 -0.0 3.0 0
0.0 -0.0 3.0 0
0.0 -0.0 3.0 0
-29.481 -3.765 1.244 16
0.0 -0.0 3.0 0
-84.772 -10.984 -2.596 229
0.0 -0.0 3.0 0
-62.474 -8.629 -1.783 6
-52.061 -7.519 -1.341 34
-53.541 -8.115 -1.876 12
-47.761 -7.624 -1.764 26
-44.8 -7.533 -1.892 9
-41.624 -7.376 -1.975 5
-38.737 -7.223 -2.058 5
-36.278 -7.111 -2.166 7
-6.155 -1.265 2.047 1
-5.769 -1.241 2.03 5
-1.825 -0.411 2.667 0
-1.304 -0.306 2.744 0
-1.21 -0.295 2.744 26
-42.678 -12.727 0.756 6
0.0 -0.0 3.0 0
-44.518 -11.758 0.501 10
-44.698 -11.073 0.444 14
-45.467 -10.547 0.37 15
-46.742 -10.129 0.286 28
-48.279 -9.765 0.2 7
-52.623 -9.924 -0.034 21
-53.408 -9.383 -0.049 9
0.0 -0.0 3.0 0
0.0 -0.0 3.0 0
-128.612 -18.54 -4.117 14
0.0 -0.0 3.0 0
0.0 -0.0 3.0 0
0.0 -0.0 3.0 0
-29.494 -3.681 1.284 2
0.0 -0.0 3.0 0
-92.231 -11.694 -2.959 14
0.0 -0.0 3.0 0
0.0 -0.0 3.0 0
-50.947 -7.237 -1.179 12
-53.766 -8.031 -1.825 6
-47.979 -7.56 -1.724 27
-45.13 -7.502 -1.872 9
-41.975 -7.363 -1.967 5
-39.0 -7.207 -2.046 16
-36.485 -7.094 -2.154 19
-6.189 -1.263 2.048 5
-5.821 -1.245 2.027 9
-1.853 -0.414 2.665 0
-1.431 -0.333 2.72 1
-1.211 -0.294 2.744 26
0.0 -0.0 3.0 0
0.0 -0.0 3.0 0
-44.506 -11.681 0.517 36
-44.957 -11.059 0.447 16
-45.72 -10.522 0.377 16
-47.0 -10.095 0.295 25
-48.644 -9.739 0.207 6
-52.908 -9.863 -0.016 22
-53.793 -9.328 -0.031 21
0.0 -0.0 3.0 0
0.0 -0.0 3.0 0
-129.003 -18.253 -4.007 16
0.0 -0.0 3.0 0
0.0 -0.0 3.0 0
0.0 -0.0 3.0 0
0.0 -0.0 3.0 0
0.0 -0.0 3.0 0
-94.362 -11.704 -2.964 18
0.0 -0.0 3.0 0
0.0 -0.0 3.0 0
-51.028 -7.129 -1.116 8
-47.816 -7.038 -1.229 54
-49.219 -7.655 -1.783 13
-45.491 -7.476 -1.855 9
-42.349 -7.354 -1.96 5
-39.239 -7.186 -2.032 19
-36.687 -7.077 -2.142 23
-6.227 -1.262 2.049 4
-5.866 -1.247 2.026 6
0.0 -0.0 3.0 0
-1.386 -0.321 2.73 1
-1.208 -0.292 2.746 26
0.0 -0.0 3.0 0
0.0 -0.0 3.0 0
0.0 -0.0 3.0 0
-45.174 -11.036 0.452 17
-45.995 -10.503 0.381 16
-47.258 -10.061 0.304 22
-49.918 -9.894 0.163 42
-53.205 -9.806 0.002 23
-54.099 -9.26 -0.009 20
0.0 -0.0 3.0 0
0.0 -0.0 3.0 0
-129.444 -17.973 -3.899 17
-129.258 -16.923 -3.837 12
0.0 -0.0 3.0 0
-29.483 -3.563 1.413 39
0.0 -0.0 3.0 0
0.0 -0.0 3.0 0
0.0 -0.0 3.0 0
0.0 -0.0 3.0 0
-62.222 -8.128 -1.506 17
-53.602 -7.364 -1.252 35
-47.75 -6.924 -1.16 28
-49.574 -7.61 -1.755 10
-45.836 -7.447 -1.836 9
-42.719 -7.344 -1.953 4
-39.49 -7.169 -2.02 17
0.0 -0.0 3.0 0
-6.264 -1.26 2.05 5
-1.955 -0.413 2.678 0
-3.074 -0.679 2.45 0
-1.295 -0.299 2.749 1
-1.201 -0.288 2.749 26
0.0 -0.0 3.0 0
-44.549 -12.308 0.608 4
0.0 -0.0 3.0 0
-45.437 -11.023 0.455 14
-46.232 -10.475 0.388 16
-47.132 -9.946 0.335 16
-49.864 -9.785 0.194 51
-53.502 -9.748 0.02 23
-54.401 -9.19 0.014 21
0.0 -0.0 3.0 0
0.0 -0.0 3.0 0
-129.865 -17.69 -3.791 16
-129.671 -16.621 -3.715 16
0.0 -0.0 3.0 0
-29.499 -3.48 1.451 0
0.0 -0.0 3.0 0
0.0 -0.0 3.0 0
0.0 -0.0 3.0 0
0.0 -0.0 3.0 0
0.0 -0.0 3.0 0
-53.805 -7.268 -1.196 4
-48.014 -6.859 -1.121 31
-50.051 -7.583 -1.738 7
-46.177 -7.416 -1.816 8
-43.129 -7.34 -1.951 11
-39.721 -7.147 -2.005 7
-6.756 -1.283 2.068 4
-6.317 -1.263 2.049 7
-2.002 -0.42 2.672 0
-1.817 -0.399 2.677 0
-1.345 -0.308 2.741 1
-1.205 -0.288 2.75 25
0.0 -0.0 3.0 0
-44.54 -12.239 0.621 68
0.0 -0.0 3.0 0
-45.746 -11.024 0.455 4
-46.519 -10.46 0.392 18
-47.331 -9.901 0.347 21
-48.633 -9.449 0.29 5
-53.798 -9.691 0.037 22
-31.519 -5.256 1.292 10
0.0 -0.0 3.0 0
0.0 -0.0 3.0 0
-130.178 -17.392 -3.676 21
0.0 -0.0 3.0 0
0.0 -0.0 3.0 0
-119.611 -13.765 -3.129 14
-55.655 -6.301 0.062 10
0.0 -0.0 3.0 0
-100.614 -11.65 -2.936 10
-82.834 -9.943 -2.287 14
-53.657 -6.745 -0.739 3
-53.934 -7.162 -1.135 5
-54.854 -7.72 -1.639 7
-50.505 -7.552 -1.719 7
-46.553 -7.392 -1.8 9
-43.373 -7.308 -1.929 15
-40.046 -7.143 -2.001 4
-6.79 -1.279 2.071 4
-6.374 -1.265 2.046 9
0.0 -0.0 3.0 0
-1.891 -0.413 2.665 0
-1.311 -0.3 2.749 1
-1.202 -0.286 2.751 25
0.0 -0.0 3.0 0
0.0 -0.0 3.0 0
0.0 -0.0 3.0 0
-46.462 -11.122 0.432 27
-46.779 -10.439 0.397 13
-47.595 -9.871 0.355 19
-48.945 -9.416 0.3 25
-54.117 -9.638 0.053 21
-31.488 -5.181 1.317 14
-70.296 -10.696 -0.683 6
0.0 -0.0 3.0 0
-130.577 -17.107 -3.567 20
0.0 -0.0 3.0 0
-29.481 -3.434 1.543 201
0.0 -0.0 3.0 0
-55.685 -6.143 0.135 251
0.0 -0.0 3.0 0
0.0 -0.0 3.0 0
0.0 -0.0 3.0 0
-53.61 -6.609 -0.664 22
-52.792 -6.89 -0.978 28
-57.149 -7.923 -1.76 3
-50.997 -7.527 -1.703 6
-46.89 -7.361 -1.78 9
-43.657 -7.283 -1.913 16
-40.425 -7.147 -2.005 7
-6.836 -1.278 2.071 4
-2.144 -0.422 2.682 0
-3.064 -0.636 2.503 0
-2.161 -0.47 2.619 1
-2.19 -0.498 2.582 2
-1.206 -0.286 2.752 26
0.0 -0.0 3.0 0
0.0 -0.0 3.0 0
0.0 -0.0 3.0 0
-46.503 -11.058 0.447 11
-47.019 -10.413 0.404 14
-47.883 -9.846 0.362 15
-49.199 -9.372 0.313 25
-54.421 -9.583 0.07 20
-31.535 -5.123 1.336 8
0.0 -0.0 3.0 0
0.0 -0.0 3.0 0
-131.002 -16.825 -3.458 16
0.0 -0.0 3.0 0
0.0 -0.0 3.0 0
-120.167 -13.136 -2.848 16
-55.678 -5.982 0.211 255
-120.093 -12.934 -3.308 17
-104.399 -11.517 -2.868 21
-85.416 -9.81 -2.216 20
0.0 -0.0 3.0 0
-52.808 -6.774 -0.911 39
-57.724 -7.883 -1.736 3
-51.565 -7.512 -1.694 5
-47.226 -7.33 -1.76 8
-43.948 -7.26 -1.897 16
-7.443 -1.305 2.086 0
-6.889 -1.279 2.071 5
-2.144 -0.42 2.684 0
-1.962 -0.404 2.684 0
-3.121 -0.675 2.453 1
-1.243 -0.281 2.764 0
-1.199 -0.283 2.754 25
-44.565 -12.849 0.734 47
0.0 -0.0 3.0 0
0.0 -0.0 3.0 0
0.0 -0.0 3.0 0
-47.321 -10.403 0.406 14
-48.151 -9.818 0.369 16
-49.511 -9.34 0.322 23
-51.163 -8.909 0.276 7
-55.663 -8.924 0.101 21
-60.471 -8.927 -0.074 10
-130.191 -17.685 -3.437 15
-131.455 -16.547 -3.352 14
-29.477 -3.458 1.603 10
0.0 -0.0 3.0 0
-120.024 -12.775 -2.688 11
-55.623 -5.815 0.288 255
0.0 -0.0 3.0 0
-107.213 -11.536 -2.878 15
-53.68 -6.027 -0.205 2
-52.846 -6.259 -0.47 5
-52.903 -6.668 -0.85 23
-58.291 -7.841 -1.711 3
-52.191 -7.504 -1.689 5
-47.586 -7.304 -1.743 8
-44.239 -7.237 -1.881 14
-7.466 -1.298 2.091 4
-6.97 -1.284 2.067 9
0.0 -0.0 3.0 0
-2.017 -0.413 2.677 0
-3.123 -0.672 2.456 1
-1.22 -0.275 2.77 0
-1.199 -0.282 2.755 26
-44.581 -12.796 0.744 4
0.0 -0.0 3.0 0
-46.438 -11.693 0.515 15
0.0 -0.0 3.0 0
-47.56 -10.38 0.412 14
-48.446 -9.796 0.375 17
-49.635 -9.274 0.341 41
-51.46 -8.861 0.291 7
-55.974 -8.858 0.122 22
0.0 -0.0 3.0 0
-130.581 -17.428 -3.343 16
0.0 -0.0 3.0 0
-29.48 -3.379 1.635 255
0.0 -0.0 3.0 0
0.0 -0.0 3.0 0
-55.564 -5.648 0.366 255
0.0 -0.0 3.0 0
0.0 -0.0 3.0 0
-53.628 -5.884 -0.128 24
-52.777 -6.126 -0.396 41
0.0 -0.0 3.0 0
-58.873 -7.8 -1.687 4
-51.231 -7.271 -1.543 4
-47.965 -7.279 -1.727 8
-44.589 -7.224 -1.872 8
-7.515 -1.296 2.093 4
-2.341 -0.428 2.689 0
0.0 -0.0 3.0 0
-2.169 -0.442 2.655 1
-2.175 -0.466 2.623 1
-2.2 -0.493 2.586 2
-1.2 -0.281 2.756 27
0.0 -0.0 3.0 0
0.0 -0.0 3.0 0
-46.493 -11.642 0.525 21
0.0 -0.0 3.0 0
-47.849 -10.368 0.415 14
-48.733 -9.773 0.381 19
-50.01 -9.255 0.346 20
-54.822 -9.336 0.146 40
-56.294 -8.794 0.143 21
-57.18 -8.189 0.18 7
0.0 -0.0 3.0 0
0.0 -0.0 3.0 0
0.0 -0.0 3.0 0
0.0 -0.0 3.0 0
-119.27 -12.009 -2.347 14
-55.511 -5.483 0.443 255
0.0 -0.0 3.0 0
0.0 -0.0 3.0 0
-53.726 -5.758 -0.061 2
-52.796 -6.004 -0.328 38
0.0 -0.0 3.0 0
-59.412 -7.753 -1.658 3
-51.305 -7.188 -1.491 3
-48.344 -7.255 -1.712 8
-44.95 -7.213 -1.865 3
-7.573 -1.294 2.094 4
-2.634 -0.478 2.653 1
-3.111 -0.597 2.55 0
-2.166 -0.439 2.657 2
-2.183 -0.465 2.623 1
-2.197 -0.49 2.589 2
-1.2 -0.28 2.757 26
0.0 -0.0 3.0 0
0.0 -0.0 3.0 0
0.0 -0.0 3.0 0
0.0 -0.0 3.0 0
-48.131 -10.356 0.418 11
-49.023 -9.751 0.387 20
-49.932 -9.154 0.375 16
-54.757 -9.222 0.181 38
-56.613 -8.729 0.164 20
-57.607 -8.125 0.202 17
0.0 -0.0 3.0 0
-29.488 -3.489 1.661 9
0.0 -0.0 3.0 0
0.0 -0.0 3.0 0
0.0 -0.0 3.0 0
-55.478 -5.32 0.519 255
0.0 -0.0 3.0 0
-53.694 -5.342 0.278 2
-83.408 -8.729 -1.641 25
-52.948 -5.897 -0.269 13
0.0 -0.0 3.0 0
-51.243 -6.585 -0.957 27
-54.137 -7.487 -1.678 9
-48.762 -7.238 -1.7 8
-8.313 -1.321 2.109 2
-7.673 -1.301 2.089 7
-3.006 -0.542 2.606 9
-2.175 -0.415 2.687 0
-2.178 -0.439 2.657 1
-2.18 -0.462 2.626 1
-2.174 -0.483 2.595 2
-1.197 -0.278 2.758 25
0.0 -0.0 3.0 0
-46.465 -12.327 0.604 9
0.0 -0.0 3.0 0
0.0 -0.0 3.0 0
0.0 -0.0 3.0 0
-49.29 -9.726 0.394 16
-50.184 -9.114 0.387 20
-51.634 -8.602 0.37 3
-56.939 -8.668 0.184 20
-57.934 -8.048 0.229 19
0.0 -0.0 3.0 0
-29.49 -3.417 1.688 21
0.0 -0.0 3.0 0
0.0 -0.0 3.0 0
0.0 -0.0 3.0 0
-55.457 -5.159 0.594 72
0.0 -0.0 3.0 0
-53.636 -5.192 0.355 31
-54.759 -5.593 0.026 7
0.0 -0.0 3.0 0
0.0 -0.0 3.0 0
-51.205 -6.481 -0.894 58
-54.664 -7.463 -1.663 7
-49.149 -7.215 -1.686 7
-8.359 -1.316 2.112 4
-2.57 -0.432 2.697 1
-3.035 -0.543 2.605 5
-2.183 -0.414 2.688 2
-2.171 -0.435 2.66 1
-2.181 -0.46 2.627 1
-2.187 -0.484 2.594 1
-1.197 -0.277 2.759 20
0.0 -0.0 3.0 0
-46.46 -12.269 0.615 24
0.0 -0.0 3.0 0
-48.35 -11.075 0.443 16
0.0 -0.0 3.0 0
-49.592 -9.709 0.399 17
-50.475 -9.083 0.395 19
-51.883 -8.55 0.386 26
-57.277 -8.609 0.203 20
-58.281 -7.974 0.254 20
-80.777 -10.036 -0.653 6
0.0 -0.0 3.0 0
0.0 -0.0 3.0 0
0.0 -0.0 3.0 0
0.0 -0.0 3.0 0
-55.383 -4.992 0.672 7
0.0 -0.0 3.0 0
-53.717 -5.056 0.424 3
-54.836 -5.464 0.095 4
0.0 -0.0 3.0 0
-68.967 -7.953 -1.591 5
-51.32 -6.398 -0.844 26
-55.326 -7.457 -1.66 6
-49.641 -7.209 -1.682 8
-8.432 -1.315 2.113 4
-2.599 -0.434 2.696 0
-3.024 -0.538 2.609 5
-2.184 -0.412 2.689 2
-2.172 -0.433 2.662 2
-2.17 -0.456 2.631 1
-2.176 -0.479 2.598 1
-1.194 -0.275 2.761 17
0.0 -0.0 3.0 0
0.0 -0.0 3.0 0
0.0 -0.0 3.0 0
-48.4 -11.022 0.455 20
0.0 -0.0 3.0 0
-49.85 -9.684 0.405 17
-50.782 -9.056 0.403 16
-52.195 -8.51 0.398 29
-57.607 -8.549 0.222 20
0.0 -0.0 3.0 0
-29.477 -3.597 1.691 22
0.0 -0.0 3.0 0
0.0 -0.0 3.0 0
0.0 -0.0 3.0 0
0.0 -0.0 3.0 0
-136.349 -11.899 -2.549 15
-55.125 -4.849 0.635 8
0.0 -0.0 3.0 0
0.0 -0.0 3.0 0
0.0 -0.0 3.0 0
0.0 -0.0 3.0 0
-61.912 -7.603 -1.568 4
-55.789 -7.424 -1.639 4
-9.415 -1.352 2.122 0
-8.529 -1.318 2.111 6
0.0 -0.0 3.0 0
-2.376 -0.419 2.695 0
-2.2 -0.412 2.689 1
-2.172 -0.431 2.663 3
-2.19 -0.458 2.629 1
-1.227 -0.269 2.774 0
-1.186 -0.273 2.763 16
-46.49 -13.015 0.705 26
0.0 -0.0 3.0 0
0.0 -0.0 3.0 0
0.0 -0.0 3.0 0
0.0 -0.0 3.0 0
-50.139 -9.665 0.41 16
-51.072 -9.026 0.412 16
-52.506 -8.471 0.41 26
-54.331 -7.962 0.413 3
-42.0 -5.576 1.08 1
-29.505 -3.535 1.713 2
0.0 -0.0 3.0 0
0.0 -0.0 3.0 0
0.0 -0.0 3.0 0
0.0 -0.0 3.0 0
0.0 -0.0 3.0 0
-53.648 -4.569 0.771 38
-54.777 -4.864 0.522 15
0.0 -0.0 3.0 0
0.0 -0.0 3.0 0
0.0 -0.0 3.0 0
0.0 -0.0 3.0 0
-56.296 -7.398 -1.623 19
-9.433 -1.341 2.129 4
-2.871 -0.44 2.703 1
-2.918 -0.479 2.664 0
-2.228 -0.391 2.716 2
-2.185 -0.408 2.693 1
-2.169 -0.428 2.666 2
-2.195 -0.457 2.63 1
-1.208 -0.264 2.779 0
-1.19 -0.273 2.763 14
0.0 -0.0 3.0 0
0.0 -0.0 3.0 0
-48.349 -11.737 0.505 15
0.0 -0.0 3.0 0
0.0 -0.0 3.0 0
-50.428 -9.649 0.415 13
-51.393 -9.004 0.418 14
-52.825 -8.434 0.421 21
-54.595 -7.902 0.432 8
-59.307 -7.756 0.329 7
0.0 -0.0 3.0 0
0.0 -0.0 3.0 0
0.0 -0.0 3.0 0
0.0 -0.0 3.0 0
0.0 -0.0 3.0 0
-137.696 -11.226 -2.235 14
-53.735 -4.426 0.841 4
-54.872 -4.728 0.591 3
0.0 -0.0 3.0 0
0.0 -0.0 3.0 0
0.0 -0.0 3.0 0
0.0 -0.0 3.0 0
-56.909 -7.385 -1.615 8
-9.519 -1.339 2.131 4
-8.68 -1.317 2.111 0
-2.789 -0.455 2.682 1
-2.221 -0.387 2.719 2
-2.182 -0.405 2.695 3
-2.166 -0.425 2.668 2
-1.314 -0.272 2.78 0
-1.181 -0.257 2.784 0
-1.183 -0.27 2.765 12
0.0 -0.0 3.0 0
0.0 -0.0 3.0 0
-48.378 -11.689 0.516 25
0.0 -0.0 3.0 0
-50.263 -10.393 0.409 42
-50.721 -9.634 0.419 12
-51.667 -8.974 0.427 17
-53.135 -8.397 0.433 17
-58.625 -8.382 0.277 21
-29.495 -3.801 1.691 24
0.0 -0.0 3.0 0
0.0 -0.0 3.0 0
0.0 -0.0 3.0 0
0.0 -0.0 3.0 0
0.0 -0.0 3.0 0
0.0 -0.0 3.0 0
-54.606 -4.345 0.881 7
0.0 -0.0 3.0 0
0.0 -0.0 3.0 0
-85.3 -8.348 -1.627 8
0.0 -0.0 3.0 0
-63.971 -7.509 -1.512 6
-57.27 -7.341 -1.587 8
-4.092 -0.569 2.63 1
0.0 -0.0 3.0 0
-2.873 -0.465 2.675 1
-3.121 -0.54 2.607 3
-2.187 -0.403 2.696 3
-2.17 -0.424 2.669 1
-1.179 -0.243 2.803 1
-1.135 -0.246 2.794 1
-1.149 -0.261 2.773 5
0.0 -0.0 3.0 0
0.0 -0.0 3.0 0
0.0 -0.0 3.0 0
0.0 -0.0 3.0 0
0.0 -0.0 3.0 0
0.0 -0.0 3.0 0
-52.0 -8.956 0.432 16
-52.976 -8.288 0.466 19
-58.981 -8.331 0.293 20
-29.511 -3.746 1.71 1
0.0 -0.0 3.0 0
0.0 -0.0 3.0 0
0.0 -0.0 3.0 0
0.0 -0.0 3.0 0
0.0 -0.0 3.0 0
-53.665 -4.067 1.104 44
-54.749 -4.204 0.95 20
0.0 -0.0 3.0 0
0.0 -0.0 3.0 0
-85.494 -8.183 -1.536 10
0.0 -0.0 3.0 0
0.0 -0.0 3.0 0
-10.836 -1.372 2.143 1
-3.272 -0.451 2.707 0
