# .PCD v0.7 - Point Cloud Data file format
VERSION 0.7
FIELDS x y z intensity
SIZE 4 4 4 4
TYPE F F F F
COUNT 1 1 1 1
WIDTH 2073
HEIGHT 1
VIEWPOINT 0 0 0 1 0 0 0
POINTS 2073
DATA ascii
13.593 -8.074 -3.775 19
12.95 -7.673 -3.67 12
9.818 -7.581 1.663 12
9.192 -6.99 1.641 23
9.445 -7.074 1.496 21
9.434 -6.965 1.392 27
9.551 -6.952 1.267 30
9.448 -6.784 1.182 23
9.18 -6.503 1.135 25
40.56 -28.364 -5.672 24
11.233 -7.761 0.478 21
9.933 -6.782 0.665 25
9.793 -6.614 0.593 16
9.526 -6.362 0.558 29
9.865 -6.522 0.365 24
9.707 -6.355 0.303 22
9.233 -5.99 0.333 28
9.157 -5.889 0.254 31
9.873 -6.3 -0.073 25
22.719 -14.386 -4.33 5
21.724 -13.657 -4.261 5
20.79 -12.988 -4.199 5
19.957 -12.39 -4.153 6
19.155 -11.828 -4.107 7
18.39 -11.297 -4.059 7
17.702 -10.826 -4.03 7
17.055 -10.384 -4.004 10
16.471 -9.992 -3.996 18
15.827 -9.565 -3.949 6
15.161 -9.135 -3.884 12
14.596 -8.766 -3.849 13
14.045 -8.411 -3.811 12
13.503 -8.067 -3.769 11
12.887 -7.68 -3.676 14
10.509 -8.162 1.561 23
9.235 -7.064 1.627 14
9.417 -7.097 1.491 30
9.597 -7.129 1.354 25
9.556 -6.998 1.255 28
9.651 -6.973 1.132 31
11.595 -8.267 0.63 1
11.092 -7.807 0.613 18
11.185 -7.778 0.473 37
36.167 -24.851 -5.557 4
9.833 -6.684 0.567 4
9.586 -6.444 0.526 20
9.794 -6.518 0.366 23
9.65 -6.359 0.301 31
9.212 -6.017 0.321 26
9.097 -5.89 0.253 33
9.854 -6.329 -0.087 19
22.587 -14.397 -4.336 5
21.598 -13.668 -4.267 5
20.675 -13.001 -4.206 5
19.851 -12.406 -4.162 6
19.05 -11.842 -4.115 7
18.291 -11.309 -4.067 7
17.604 -10.835 -4.036 7
16.959 -10.391 -4.009 16
16.399 -10.01 -4.009 18
15.757 -9.582 -3.962 8
15.102 -9.155 -3.899 12
14.522 -8.775 -3.856 11
13.982 -8.424 -3.822 12
13.419 -8.065 -3.767 12
12.823 -7.687 -3.682 12
10.463 -8.174 1.559 15
9.173 -7.06 1.628 23
9.456 -7.169 1.476 22
9.623 -7.193 1.339 18
9.617 -7.087 1.233 31
9.651 -7.018 1.12 18
10.896 -7.817 0.758 20
11.031 -7.814 0.611 17
11.211 -7.846 0.451 25
35.859 -24.8 -5.539 4
33.267 -22.763 -5.285 5
9.571 -6.476 0.514 26
9.756 -6.536 0.359 23
9.628 -6.387 0.289 20
9.175 -6.032 0.314 32
9.074 -5.914 0.242 29
9.858 -6.374 -0.109 20
11.835 -7.593 -0.869 15
21.471 -13.678 -4.273 5
20.557 -13.012 -4.213 6
19.732 -12.412 -4.166 6
18.94 -11.849 -4.12 6
18.195 -11.323 -4.075 6
17.519 -10.852 -4.048 7
16.876 -10.406 -4.019 21
16.311 -10.019 -4.016 16
15.667 -9.587 -3.965 6
15.033 -9.17 -3.91 12
14.467 -8.795 -3.872 12
13.929 -8.442 -3.836 11
13.342 -8.066 -3.768 11
12.751 -7.687 -3.683 15
10.471 -8.228 1.549 8
9.184 -7.11 1.618 22
9.4 -7.17 1.476 22
9.417 -7.082 1.365 29
9.643 -7.15 1.217 27
9.61 -7.032 1.116 22
10.874 -7.852 0.749 20
11.132 -7.935 0.574 62
11.244 -7.92 0.427 3
35.601 -24.782 -5.533 4
33.02 -22.743 -5.278 5
9.568 -6.516 0.499 19
9.711 -6.549 0.354 44
9.613 -6.419 0.275 15
9.316 -6.166 0.255 39
9.03 -5.925 0.237 32
10.176 -6.623 -0.23 2
11.779 -7.608 -0.876 29
21.355 -13.693 -4.281 4
20.44 -13.023 -4.219 6
19.62 -12.422 -4.172 6
18.839 -11.863 -4.128 7
18.106 -11.34 -4.086 6
17.428 -10.865 -4.056 8
16.796 -10.423 -4.03 11
16.233 -10.034 -4.026 17
15.6 -9.605 -3.979 5
14.968 -9.185 -3.922 13
14.4 -8.807 -3.881 12
13.876 -8.46 -3.851 11
13.259 -8.062 -3.765 15
12.685 -7.692 -3.686 12
11.873 -9.385 1.345 24
9.266 -7.216 1.597 2
9.397 -7.211 1.467 28
9.431 -7.136 1.353 27
9.421 -7.029 1.247 16
9.633 -7.092 1.1 0
10.836 -7.874 0.742 15
10.914 -7.83 0.606 18
37.154 -26.339 -5.558 16
35.278 -24.717 -5.511 4
9.856 -6.832 0.513 0
9.511 -6.521 0.497 24
10.16 -6.897 0.214 32
9.607 -6.458 0.259 31
9.586 -6.386 0.157 34
8.997 -5.942 0.229 32
10.178 -6.669 -0.253 28
11.745 -7.637 -0.891 22
11.883 -7.67 -1.078 1
20.329 -13.037 -4.227 6
19.52 -12.44 -4.182 6
18.738 -11.876 -4.136 7
18.003 -11.348 -4.091 7
17.338 -10.877 -4.064 7
16.71 -10.435 -4.039 18
16.155 -10.048 -4.036 19
15.53 -9.621 -3.99 5
14.908 -9.205 -3.936 12
14.332 -8.819 -3.89 12
13.819 -8.476 -3.863 16
13.191 -8.069 -3.77 11
12.622 -7.698 -3.692 12
11.898 -9.46 1.332 23
10.53 -8.249 1.397 9
9.454 -7.298 1.449 24
9.806 -7.465 1.277 19
9.387 -7.047 1.243 28
9.75 -7.224 1.064 6
10.745 -7.857 0.747 22
10.819 -7.811 0.612 22
10.799 -7.705 0.496 3
34.995 -24.677 -5.497 5
32.5 -22.678 -5.254 5
9.492 -6.55 0.486 21
10.221 -6.983 0.179 26
9.579 -6.481 0.249 20
9.564 -6.414 0.144 37
8.954 -5.952 0.225 21
10.181 -6.715 -0.275 34
11.751 -7.69 -0.918 15
11.801 -7.667 -1.077 20
20.214 -13.049 -4.233 6
19.405 -12.447 -4.186 6
18.631 -11.885 -4.141 7
17.911 -11.362 -4.1 6
17.253 -10.894 -4.075 8
16.624 -10.447 -4.046 23
16.076 -10.062 -4.045 20
15.504 -9.664 -4.022 12
14.846 -9.222 -3.949 11
14.274 -8.836 -3.903 12
13.756 -8.487 -3.873 17
13.114 -8.068 -3.77 13
12.556 -7.702 -3.695 14
10.545 -8.433 1.513 0
10.533 -8.302 1.386 22
9.417 -7.313 1.446 22
9.853 -7.546 1.258 22
9.336 -7.053 1.242 34
9.668 -7.208 1.069 1
10.745 -7.906 0.733 19
10.772 -7.827 0.607 17
36.625 -26.299 -5.545 18
34.71 -24.635 -5.482 5
32.248 -22.648 -5.243 5
9.528 -6.618 0.46 24
9.442 -6.494 0.376 53
9.614 -6.548 0.221 4
9.481 -6.399 0.151 31
9.01 -6.03 0.188 43
10.157 -6.744 -0.289 33
21.9 -14.427 -4.351 31
11.758 -7.689 -1.089 28
20.103 -13.062 -4.24 6
19.296 -12.458 -4.192 6
18.537 -11.902 -4.151 6
17.819 -11.377 -4.109 6
17.162 -10.905 -4.082 7
16.544 -10.462 -4.057 22
15.998 -10.075 -4.055 19
15.449 -9.69 -4.04 16
14.789 -9.244 -3.966 11
14.207 -8.848 -3.913 12
13.696 -8.501 -3.884 13
13.043 -8.072 -3.773 16
12.49 -7.706 -3.699 12
10.356 -8.331 1.531 5
10.474 -8.304 1.386 25
9.57 -7.477 1.411 24
9.666 -7.448 1.28 29
9.321 -7.084 1.234 27
10.985 -8.24 0.792 23
10.429 -7.722 0.786 30
10.759 -7.867 0.595 32
36.342 -26.264 -5.534 14
34.45 -24.608 -5.473 5
31.998 -22.619 -5.233 5
9.577 -6.695 0.43 48
9.41 -6.514 0.368 71
9.81 -6.726 0.145 18
9.433 -6.409 0.146 30
9.018 -6.074 0.168 54
10.182 -6.804 -0.319 24
21.772 -14.437 -4.356 30
11.734 -7.724 -1.107 22
11.824 -7.733 -1.286 6
19.194 -12.472 -4.201 6
18.433 -11.911 -4.157 6
17.72 -11.386 -4.115 7
17.081 -10.923 -4.093 7
16.461 -10.476 -4.066 12
15.929 -10.095 -4.069 11
15.375 -9.703 -4.05 16
14.724 -9.259 -3.977 11
14.155 -8.868 -3.929 14
13.63 -8.51 -3.891 17
12.966 -8.072 -3.773 12
12.43 -7.714 -3.705 13
10.36 -8.383 1.522 18
10.468 -8.349 1.377 20
9.538 -7.497 1.406 22
9.681 -7.506 1.267 27
9.277 -7.094 1.231 24
10.495 -7.922 0.877 0
9.908 -7.383 0.883 5
10.782 -7.933 0.575 0
36.041 -26.212 -5.517 7
34.169 -24.565 -5.458 5
31.754 -22.591 -5.222 4
10.26 -7.219 0.229 27
9.257 -6.45 0.394 27
9.883 -6.82 0.105 16
9.385 -6.419 0.142 37
9.625 -6.525 -0.043 33
10.165 -6.837 -0.335 20
21.641 -14.445 -4.36 31
11.738 -7.777 -1.135 17
11.764 -7.744 -1.292 21
19.082 -12.48 -4.205 5
18.329 -11.92 -4.162 6
17.634 -11.404 -4.126 6
16.99 -10.934 -4.101 7
16.382 -10.491 -4.076 10
15.845 -10.104 -4.075 10
15.305 -9.718 -4.06 13
14.658 -9.274 -3.988 12
14.085 -8.878 -3.936 11
13.536 -8.502 -3.884 12
12.896 -8.075 -3.776 12
12.373 -7.723 -3.713 16
10.196 -8.299 1.537 26
10.419 -8.358 1.375 8
9.571 -7.569 1.391 26
9.462 -7.38 1.296 32
9.23 -7.102 1.229 19
10.433 -7.924 0.877 26
10.664 -7.995 0.707 11
10.234 -7.579 0.683 0
35.718 -26.144 -5.495 6
33.91 -24.536 -5.448 4
31.513 -22.565 -5.213 5
9.388 -6.65 0.447 2
9.229 -6.473 0.385 31
9.822 -6.822 0.104 28
9.417 -6.483 0.113 26
9.66 -6.592 -0.074 17
10.217 -6.918 -0.374 10
21.507 -14.449 -4.362 20
11.787 -7.861 -1.18 1
11.718 -7.763 -1.303 23
11.853 -7.802 -1.504 0
18.229 -11.932 -4.169 6
17.542 -11.417 -4.134 7
16.909 -10.95 -4.111 7
16.302 -10.505 -4.086 9
15.76 -10.113 -4.081 10
15.234 -9.734 -4.072 14
14.595 -9.29 -4.0 12
14.027 -8.894 -3.949 12
13.445 -8.495 -3.879 12
12.819 -8.074 -3.775 13
12.31 -7.728 -3.718 14
10.215 -8.363 1.525 22
10.342 -8.346 1.378 0
9.555 -7.601 1.384 20
9.221 -7.237 1.329 29
9.124 -7.063 1.239 31
9.492 -7.254 1.056 24
10.865 -8.198 0.649 24
10.194 -7.597 0.677 27
35.46 -26.12 -5.487 5
33.627 -24.487 -5.432 5
31.28 -22.544 -5.205 5
9.29 -6.622 0.458 25
9.274 -6.546 0.355 33
9.811 -6.859 0.088 17
9.424 -6.53 0.093 27
9.646 -6.626 -0.09 11
10.18 -6.938 -0.384 4
21.396 -14.468 -4.372 5
20.5 -13.761 -4.317 4
11.671 -7.782 -1.314 18
11.802 -7.82 -1.515 22
18.135 -11.946 -4.178 6
17.449 -11.429 -4.142 7
16.819 -10.961 -4.118 7
16.216 -10.516 -4.093 7
15.676 -10.122 -4.087 10
15.167 -9.75 -4.084 10
14.533 -9.307 -4.013 13
13.966 -8.909 -3.96 12
13.373 -8.5 -3.883 14
12.746 -8.075 -3.776 13
12.241 -7.729 -3.719 14
10.178 -8.382 1.522 10
10.271 -8.338 1.379 2
9.612 -7.693 1.365 24
9.18 -7.249 1.326 25
9.083 -7.075 1.236 11
9.466 -7.28 1.049 31
10.472 -7.95 0.72 6
10.16 -7.62 0.67 34
35.249 -26.131 -5.49 4
33.367 -24.453 -5.42 5
31.047 -22.52 -5.197 5
9.226 -6.62 0.459 46
9.274 -6.589 0.338 30
9.861 -6.939 0.054 5
9.547 -6.659 0.035 28
9.604 -6.641 -0.097 20
11.581 -7.944 -0.875 2
11.624 -7.912 -1.031 11
11.681 -7.892 -1.196 11
11.668 -7.831 -1.341 20
11.768 -7.847 -1.53 20
11.935 -7.912 -1.754 1
17.357 -11.442 -4.149 6
16.728 -10.972 -4.125 7
16.137 -10.531 -4.103 8
15.595 -10.132 -4.094 10
15.09 -9.76 -4.091 11
14.47 -9.323 -4.025 11
13.901 -8.921 -3.97 18
13.286 -8.494 -3.878 12
12.648 -8.06 -3.763 14
12.191 -7.741 -3.729 12
10.145 -8.403 1.518 34
10.409 -8.5 1.348 1
9.753 -7.852 1.331 16
9.199 -7.306 1.313 21
9.052 -7.094 1.231 11
9.409 -7.281 1.049 30
11.135 -8.507 0.561 27
10.123 -7.64 0.664 10
35.032 -26.135 -5.492 5
33.1 -24.414 -5.406 5
30.814 -22.495 -5.188 5
9.299 -6.715 0.422 23
9.236 -6.604 0.332 28
9.802 -6.943 0.053 6
9.645 -6.771 -0.015 16
9.565 -6.657 -0.104 32
11.537 -7.966 -0.885 21
11.587 -7.938 -1.044 27
11.653 -7.924 -1.213 16
11.681 -7.891 -1.374 31
11.74 -7.879 -1.549 21
11.84 -7.9 -1.747 22
17.278 -11.461 -4.162 7
16.654 -10.992 -4.138 7
16.054 -10.542 -4.111 9
15.507 -10.137 -4.098 10
15.017 -9.772 -4.1 17
14.404 -9.337 -4.036 12
13.843 -8.937 -3.983 18
13.202 -8.491 -3.875 14
12.565 -8.054 -3.758 15
12.131 -7.748 -3.735 12
9.72 -8.098 1.572 18
10.58 -8.692 1.311 25
9.911 -8.028 1.294 22
9.17 -7.328 1.308 23
9.294 -7.329 1.173 18
9.396 -7.316 1.04 25
9.428 -7.248 0.922 0
10.083 -7.657 0.659 24
34.834 -26.153 -5.498 5
32.847 -24.382 -5.395 4
30.582 -22.469 -5.178 5
9.333 -6.783 0.396 54
10.102 -7.271 0.062 20
9.829 -7.007 0.026 0
9.584 -6.772 -0.015 9
9.492 -6.649 -0.1 32
11.512 -8.001 -0.902 21
11.565 -7.975 -1.063 14
11.653 -7.976 -1.241 1
11.694 -7.951 -1.407 1
11.727 -7.921 -1.573 20
11.796 -7.921 -1.759 21
17.189 -11.475 -4.17 7
16.563 -11.001 -4.144 7
15.978 -10.557 -4.121 7
15.432 -10.151 -4.108 20
14.943 -9.784 -4.108 19
14.336 -9.349 -4.045 11
13.788 -8.955 -3.997 13
13.115 -8.484 -3.871 11
12.502 -8.06 -3.763 15
12.077 -7.758 -3.744 13
9.666 -8.1 1.572 16
10.514 -8.689 1.311 23
10.188 -8.302 1.235 23
9.608 -7.725 1.217 38
9.216 -7.312 1.177 20
9.354 -7.328 1.036 29
9.386 -7.261 0.918 19
10.093 -7.714 0.642 12
34.646 -26.176 -5.505 4
32.585 -24.342 -5.382 5
30.36 -22.449 -5.171 5
10.236 -7.488 0.126 21
10.342 -7.492 -0.027 32
11.165 -8.011 -0.401 14
9.532 -6.779 -0.018 21
9.472 -6.678 -0.114 20
11.509 -8.05 -0.926 2
20.884 -14.494 -4.385 5
20.029 -13.798 -4.336 5
19.227 -13.157 -4.293 6
11.739 -7.98 -1.607 16
11.77 -7.954 -1.779 26
11.877 -7.979 -1.986 19
16.482 -11.016 -4.154 7
15.902 -10.573 -4.131 9
15.351 -10.161 -4.115 21
14.873 -9.798 -4.119 17
14.273 -9.365 -4.057 13
13.73 -8.971 -4.009 13
13.034 -8.482 -3.869 10
12.435 -8.064 -3.766 17
12.015 -7.762 -3.748 13
9.584 -8.079 1.575 22
9.997 -8.31 1.385 27
9.899 -8.115 1.275 27
9.338 -7.553 1.256 29
9.19 -7.336 1.171 22
9.331 -7.355 1.029 28
9.41 -7.325 0.9 40
10.096 -7.765 0.626 0
34.445 -26.19 -5.51 4
32.327 -24.303 -5.368 4
10.837 -8.064 0.065 0
10.368 -7.633 0.07 11
10.376 -7.565 -0.057 18
11.125 -8.034 -0.41 18
9.534 -6.824 -0.038 27
9.442 -6.7 -0.124 4
21.731 -15.299 -4.462 5
20.764 -14.504 -4.39 5
19.911 -13.805 -4.34 5
19.12 -13.168 -4.299 6
11.752 -8.039 -1.642 0
11.757 -7.996 -1.804 25
11.829 -7.997 -1.997 23
16.392 -11.025 -4.159 7
15.822 -10.586 -4.14 9
15.277 -10.174 -4.124 18
14.809 -9.816 -4.132 17
14.216 -9.384 -4.072 12
13.657 -8.977 -4.013 19
12.953 -8.48 -3.867 9
12.383 -8.078 -3.778 15
11.964 -7.775 -3.758 13
9.552 -8.099 1.572 19
9.775 -8.173 1.411 13
9.444 -7.788 1.345 25
9.358 -7.615 1.242 24
9.149 -7.347 1.168 19
9.311 -7.385 1.021 26
0.0 -0.0 3.0 0
10.224 -7.911 0.581 7
10.606 -8.115 0.363 0
10.7 -8.095 0.213 0
10.795 -8.085 0.057 20
0.0 -0.0 3.0 0
10.426 -7.651 -0.091 54
11.123 -8.084 -0.431 0
9.51 -6.852 -0.051 34
22.627 -16.16 -4.536 7
21.596 -15.303 -4.464 5
20.638 -14.509 -4.393 5
19.799 -13.816 -4.346 4
19.013 -13.179 -4.305 6
18.257 -12.57 -4.258 5
11.759 -8.049 -1.836 14
11.806 -8.032 -2.019 20
11.907 -8.059 -2.233 19
15.74 -10.597 -4.148 9
15.196 -10.182 -4.129 13
14.707 -9.808 -4.126 19
14.145 -9.394 -4.079 14
13.592 -8.988 -4.022 14
12.872 -8.477 -3.864 10
12.322 -8.085 -3.784 14
11.907 -7.782 -3.765 11
9.588 -8.177 1.558 26
9.844 -8.281 1.39 29
9.362 -7.766 1.349 25
9.304 -7.617 1.241 24
10.205 -8.246 0.944 20
9.301 -7.422 1.011 28
9.193 -7.246 0.922 4
9.249 -7.203 0.798 41
10.368 -7.983 0.406 36
10.652 -8.111 0.207 22
10.746 -8.1 0.052 22
10.845 -8.087 -0.104 12
26.3 -19.424 -4.848 5
24.915 -18.225 -4.736 6
9.502 -6.891 -0.068 18
22.486 -16.164 -4.537 7
21.455 -15.301 -4.463 5
20.521 -14.52 -4.398 5
19.691 -13.829 -4.353 5
18.897 -13.183 -4.307 5
18.149 -12.576 -4.261 6
17.461 -12.027 -4.226 6
11.752 -8.047 -2.028 27
11.834 -8.059 -2.234 24
15.661 -10.609 -4.156 9
15.124 -10.197 -4.14 12
14.619 -9.809 -4.126 17
14.079 -9.407 -4.088 27
13.51 -8.987 -4.022 22
12.798 -8.478 -3.865 9
12.264 -8.094 -3.792 15
11.851 -7.79 -3.772 13
9.579 -8.217 1.551 22
9.692 -8.201 1.406 27
9.272 -7.738 1.355 28
9.29 -7.651 1.234 24
9.272 -7.538 1.121 2
9.914 -7.96 0.867 30
9.244 -7.332 0.898 64
9.22 -7.225 0.791 0
10.088 -7.816 0.46 33
10.619 -8.137 0.198 26
10.726 -8.136 0.039 3
27.672 -20.767 -4.972 5
26.122 -19.417 -4.845 5
24.737 -18.212 -4.731 6
9.469 -6.911 -0.077 24
22.348 -16.169 -4.54 7
21.329 -15.31 -4.467 5
20.397 -14.526 -4.401 5
19.57 -13.832 -4.355 5
18.791 -13.193 -4.313 6
18.051 -12.589 -4.268 6
17.371 -12.041 -4.235 6
11.794 -8.127 -2.078 19
11.823 -8.102 -2.262 35
11.886 -8.102 -2.465 15
15.049 -10.209 -4.148 19
14.548 -9.821 -4.136 15
14.013 -9.42 -4.098 19
13.434 -8.99 -4.024 23
12.711 -8.47 -3.859 13
12.185 -8.089 -3.788 24
11.8 -7.802 -3.782 14
9.567 -8.255 1.544 7
9.735 -8.286 1.389 18
9.252 -7.767 1.349 25
9.281 -7.691 1.224 27
9.239 -7.557 1.116 2
9.861 -7.967 0.865 21
9.885 -7.889 0.738 19
10.092 -7.958 0.567 14
10.025 -7.817 0.46 25
9.947 -7.671 0.359 4
29.233 -22.317 -5.123 5
27.487 -20.76 -4.969 5
25.944 -19.409 -4.842 5
24.584 -18.216 -4.732 6
9.439 -6.934 -0.087 19
22.208 -16.171 -4.541 7
21.194 -15.312 -4.468 5
20.281 -14.536 -4.407 5
19.465 -13.847 -4.363 5
18.688 -13.204 -4.319 5
17.953 -12.6 -4.275 6
17.271 -12.048 -4.239 5
11.805 -8.185 -2.115 3
11.793 -8.133 -2.282 25
11.844 -8.124 -2.479 17
14.972 -10.219 -4.155 23
14.478 -9.833 -4.144 16
11.145 -7.536 -2.679 2
13.351 -8.988 -4.022 16
12.628 -8.464 -3.854 15
12.143 -8.108 -3.803 17
11.744 -7.809 -3.788 12
9.915 -8.606 1.483 26
9.677 -8.284 1.39 25
9.283 -7.84 1.334 23
9.419 -7.853 1.187 45
9.972 -8.206 0.954 20
9.843 -8.001 0.856 27
9.793 -7.863 0.745 26
10.051 -7.975 0.562 0
9.929 -7.791 0.469 22
9.851 -7.644 0.368 29
29.026 -22.3 -5.117 5
27.287 -20.741 -4.962 5
25.767 -19.4 -4.838 5
24.417 -18.209 -4.729 6
9.428 -6.969 -0.103 26
22.068 -16.173 -4.542 7
21.069 -15.319 -4.471 5
20.164 -14.546 -4.411 5
19.35 -13.854 -4.366 5
18.578 -13.211 -4.323 6
17.858 -12.613 -4.282 6
17.187 -12.065 -4.25 6
16.566 -11.558 -4.222 7
11.806 -8.193 -2.32 18
11.808 -8.149 -2.496 27
11.896 -8.17 -2.72 15
14.405 -9.843 -4.152 16
11.059 -7.524 -2.67 2
13.26 -8.98 -4.016 17
12.557 -8.467 -3.856 15
12.094 -8.123 -3.816 21
11.69 -7.819 -3.797 14
9.929 -8.667 1.472 26
9.667 -8.325 1.382 21
9.274 -7.879 1.325 21
9.14 -7.666 1.23 30
9.463 -7.835 1.047 6
9.872 -8.075 0.836 12
9.777 -7.899 0.735 26
9.779 -7.808 0.613 0
9.854 -7.781 0.472 20
9.823 -7.671 0.359 27
28.822 -22.284 -5.111 5
27.091 -20.723 -4.955 5
25.59 -19.39 -4.834 6
24.255 -18.205 -4.728 7
9.432 -7.018 -0.125 11
21.922 -16.169 -4.54 7
20.932 -15.317 -4.471 5
20.045 -14.552 -4.415 5
19.245 -13.867 -4.373 5
18.475 -13.222 -4.329 5
17.763 -12.626 -4.29 6
17.091 -12.075 -4.255 6
16.477 -11.569 -4.229 7
11.813 -8.249 -2.357 1
11.79 -8.187 -2.522 22
11.829 -8.174 -2.723 32
11.177 -7.685 -2.583 2
10.98 -7.514 -2.663 2
11.178 -7.615 -2.95 0
12.447 -8.442 -3.836 55
12.024 -8.123 -3.816 21
11.637 -7.828 -3.805 17
9.844 -8.643 1.476 25
9.783 -8.475 1.353 8
9.335 -7.978 1.304 37
9.065 -7.649 1.234 31
9.439 -7.863 1.04 0
9.987 -8.219 0.798 13
9.749 -7.925 0.728 28
9.702 -7.795 0.617 29
9.823 -7.805 0.464 20
9.788 -7.692 0.351 26
28.622 -22.27 -5.106 5
26.901 -20.71 -4.95 5
25.41 -19.376 -4.829 6
24.103 -18.207 -4.728 6
22.883 -17.135 -4.629 6
21.797 -16.181 -4.545 7
20.807 -15.324 -4.474 5
19.925 -14.558 -4.418 5
19.137 -13.878 -4.379 5
18.369 -13.23 -4.333 6
17.665 -12.636 -4.296 6
17.008 -12.092 -4.265 6
16.389 -11.58 -4.236 6
15.809 -11.108 -4.214 8
11.791 -8.238 -2.557 18
11.808 -8.21 -2.749 42
11.124 -7.695 -2.591 5
10.894 -7.502 -2.653 3
11.107 -7.612 -2.947 2
12.412 -8.468 -3.857 35
11.97 -8.133 -3.824 20
11.568 -7.827 -3.804 22
9.854 -8.703 1.465 23
9.821 -8.558 1.336 23
9.608 -8.261 1.244 18
9.078 -7.706 1.221 28
10.456 -8.763 0.815 8
9.785 -8.101 0.829 26
9.8 -8.017 0.701 16
9.647 -7.798 0.616 26
9.785 -7.824 0.458 26
9.815 -7.762 0.327 11
28.419 -22.252 -5.099 6
26.709 -20.693 -4.943 6
25.243 -19.372 -4.827 6
23.93 -18.192 -4.722 6
22.732 -17.131 -4.627 6
21.658 -16.18 -4.545 7
20.679 -15.328 -4.476 5
19.812 -14.568 -4.423 6
19.026 -13.885 -4.383 5
18.267 -13.24 -4.339 5
17.567 -12.646 -4.301 6
16.918 -12.103 -4.272 6
16.307 -11.594 -4.245 7
15.738 -11.127 -4.226 6
11.797 -8.294 -2.594 2
11.775 -8.237 -2.767 33
11.071 -7.705 -2.598 4
10.821 -7.496 -2.649 4
11.021 -7.599 -2.937 2
12.326 -8.459 -3.85 37
11.909 -8.139 -3.83 24
11.53 -7.846 -3.82 14
9.804 -8.709 1.464 25
9.741 -8.539 1.34 21
9.592 -8.297 1.237 27
9.027 -7.709 1.22 30
10.426 -8.791 0.808 2
9.757 -8.128 0.822 31
35.589 -29.292 -5.399 29
9.616 -7.823 0.608 29
9.738 -7.836 0.454 29
30.132 -23.98 -5.257 4
28.195 -22.218 -5.087 5
26.523 -20.679 -4.938 5
25.07 -19.362 -4.823 6
23.776 -18.191 -4.721 6
22.58 -17.126 -4.625 6
21.522 -16.182 -4.546 7
20.549 -15.328 -4.476 5
19.684 -14.567 -4.422 5
18.915 -13.893 -4.387 5
18.167 -13.251 -4.345 6
17.473 -12.658 -4.308 6
16.828 -12.115 -4.279 6
16.222 -11.606 -4.252 7
15.654 -11.138 -4.233 6
15.114 -10.691 -4.211 9
11.775 -8.287 -2.803 20
11.012 -7.711 -2.602 4
10.747 -7.49 -2.644 6
10.948 -7.593 -2.932 2
11.176 -7.715 -3.247 2
11.846 -8.143 -3.833 27
11.476 -7.854 -3.827 12
9.782 -8.74 1.459 22
9.564 -8.433 1.361 23
9.567 -8.324 1.231 25
9.118 -7.833 1.192 28
10.13 -8.593 0.857 6
9.692 -8.123 0.823 27
35.302 -29.235 -5.383 22
9.618 -7.873 0.593 23
9.792 -7.929 0.424 0
29.906 -23.95 -5.247 4
27.993 -22.198 -5.079 5
26.334 -20.663 -4.932 5
24.891 -19.347 -4.817 6
23.615 -18.184 -4.719 6
22.435 -17.125 -4.625 7
21.389 -16.185 -4.547 7
20.428 -15.336 -4.48 5
19.58 -14.583 -4.431 5
18.805 -13.9 -4.391 5
18.061 -13.259 -4.349 5
17.381 -12.671 -4.316 6
16.735 -12.124 -4.285 6
16.143 -11.623 -4.263 7
15.574 -11.149 -4.24 8
15.035 -10.702 -4.218 9
11.786 -8.346 -2.844 5
10.963 -7.723 -2.611 4
10.674 -7.484 -2.639 5
10.853 -7.572 -2.916 2
11.087 -7.699 -3.235 2
11.779 -8.145 -3.834 28
11.42 -7.86 -3.833 12
9.732 -8.747 1.458 23
9.628 -8.539 1.34 24
9.413 -8.24 1.249 24
9.115 -7.878 1.181 31
9.896 -8.447 0.894 22
9.736 -8.21 0.8 40
10.092 -8.409 0.589 4
9.617 -7.921 0.578 14
31.86 -25.957 -5.434 10
29.691 -23.927 -5.239 4
27.797 -22.182 -5.074 5
26.139 -20.641 -4.923 6
24.718 -19.335 -4.812 6
23.471 -18.187 -4.72 7
22.297 -17.128 -4.626 6
21.256 -16.188 -4.548 7
20.307 -15.342 -4.483 5
19.462 -14.588 -4.433 5
18.703 -13.913 -4.397 5
17.965 -13.271 -4.356 5
17.287 -12.683 -4.322 6
16.645 -12.135 -4.292 6
16.058 -11.633 -4.269 7
15.496 -11.163 -4.249 6
14.965 -10.718 -4.23 9
14.454 -10.298 -4.211 10
10.901 -7.725 -2.613 4
10.598 -7.476 -2.633 4
10.774 -7.562 -2.908 2
11.007 -7.689 -3.226 2
11.689 -8.129 -3.821 10
11.375 -7.875 -3.846 16
9.707 -8.775 1.453 16
9.472 -8.451 1.357 21
9.394 -8.271 1.242 19
9.112 -7.922 1.171 27
9.819 -8.431 0.898 10
9.62 -8.162 0.813 29
9.601 -8.05 0.692 0
9.591 -7.949 0.57 26
9.771 -8.011 0.397 0
29.46 -23.891 -5.226 4
27.584 -22.151 -5.062 6
25.964 -20.632 -4.92 6
24.552 -19.328 -4.809 6
23.308 -18.177 -4.716 6
22.149 -17.123 -4.624 6
21.123 -16.189 -4.549 7
20.189 -15.351 -4.487 5
19.346 -14.593 -4.435 5
18.59 -13.917 -4.4 5
17.857 -13.275 -4.359 5
17.19 -12.691 -4.327 6
16.556 -12.146 -4.298 6
15.973 -11.645 -4.276 6
15.416 -11.174 -4.256 6
14.886 -10.727 -4.236 9
14.382 -10.31 -4.219 9
10.845 -7.733 -2.618 3
10.519 -7.465 -2.625 4
10.698 -7.553 -2.901 2
10.919 -7.672 -3.212 2
11.168 -7.813 -3.556 4
11.318 -7.881 -3.851 13
9.986 -9.08 1.399 8
9.367 -8.407 1.366 13
9.227 -8.173 1.263 18
9.147 -8.001 1.153 32
9.91 -8.561 0.865 28
9.567 -8.167 0.812 30
9.765 -8.237 0.638 27
9.741 -8.124 0.516 22
9.763 -8.054 0.383 29
29.243 -23.864 -5.217 5
27.389 -22.134 -5.056 6
25.785 -20.62 -4.915 6
24.389 -19.322 -4.807 6
23.161 -18.177 -4.716 7
21.999 -17.116 -4.621 7
20.997 -16.196 -4.552 7
20.071 -15.359 -4.491 5
19.234 -14.601 -4.439 5
18.479 -13.922 -4.402 5
17.755 -13.283 -4.363 5
17.098 -12.703 -4.334 6
16.472 -12.161 -4.307 6
15.889 -11.655 -4.283 6
15.333 -11.183 -4.262 6
14.811 -10.739 -4.243 9
11.162 -8.051 -2.637 4
10.786 -7.738 -2.622 3
10.456 -7.464 -2.625 4
10.619 -7.542 -2.893 2
10.837 -7.66 -3.203 2
11.079 -7.796 -3.542 4
11.177 -7.828 -3.804 14
9.666 -8.841 1.441 22
9.274 -8.373 1.373 25
9.199 -8.197 1.258 30
9.336 -8.216 1.103 30
9.77 -8.492 0.883 27
9.574 -8.224 0.796 16
9.706 -8.239 0.638 29
9.666 -8.111 0.52 30
9.686 -8.04 0.388 21
29.019 -23.83 -5.205 5
27.185 -22.108 -5.047 6
25.601 -20.603 -4.909 6
24.218 -19.308 -4.801 6
23.004 -18.169 -4.712 6
21.84 -17.1 -4.614 12
20.868 -16.198 -4.553 7
19.957 -15.369 -4.496 5
19.128 -14.613 -4.446 6
18.369 -13.927 -4.405 5
17.655 -13.293 -4.368 5
17.001 -12.711 -4.339 6
16.386 -12.174 -4.315 6
15.807 -11.668 -4.291 6
15.253 -11.194 -4.27 6
14.729 -10.746 -4.248 9
11.102 -8.057 -2.641 5
10.734 -7.747 -2.629 3
10.404 -7.472 -2.63 5
10.54 -7.531 -2.884 2
10.76 -7.65 -3.195 2
10.991 -7.779 -3.527 3
11.1 -7.819 -3.797 11
9.573 -8.807 1.447 15
9.314 -8.458 1.356 22
9.174 -8.224 1.252 19
9.281 -8.217 1.103 28
9.761 -8.535 0.872 17
9.584 -8.283 0.781 17
9.715 -8.297 0.621 32
9.634 -8.135 0.513 28
9.65 -8.061 0.381 33
28.805 -23.803 -5.196 5
27.0 -22.096 -5.042 6
25.429 -20.594 -4.905 6
24.062 -19.306 -4.8 6
22.855 -18.166 -4.711 6
21.702 -17.101 -4.614 24
20.733 -16.197 -4.553 7
19.833 -15.37 -4.497 5
19.018 -14.622 -4.45 6
18.265 -13.936 -4.41 5
17.56 -13.304 -4.375 5
16.91 -12.722 -4.345 6
16.297 -12.183 -4.32 6
15.725 -11.68 -4.298 6
15.176 -11.206 -4.277 6
14.662 -10.763 -4.26 9
11.045 -8.065 -2.647 4
10.678 -7.753 -2.633 3
10.355 -7.482 -2.638 5
10.47 -7.526 -2.88 3
10.675 -7.635 -3.183 2
10.909 -7.766 -3.516 3
11.033 -7.817 -3.795 9
9.518 -8.807 1.447 22
8.99 -8.212 1.404 14
9.129 -8.231 1.25 30
9.268 -8.254 1.094 29
9.809 -8.629 0.849 44
9.481 -8.244 0.791 24
9.623 -8.269 0.629 23
9.638 -8.188 0.497 31
9.648 -8.109 0.365 30
28.592 -23.775 -5.186 5
26.795 -22.066 -5.031 6
25.246 -20.576 -4.898 5
23.9 -19.298 -4.797 6
22.708 -18.164 -4.71 6
21.574 -17.109 -4.617 33
20.604 -16.198 -4.553 7
19.704 -15.368 -4.495 5
18.897 -14.622 -4.45 5
18.161 -13.945 -4.415 5
17.461 -13.313 -4.38 6
16.819 -12.734 -4.352 6
16.217 -12.199 -4.33 6
15.641 -11.69 -4.305 6
15.096 -11.216 -4.284 6
14.584 -10.771 -4.265 9
10.989 -8.072 -2.652 4
10.619 -7.758 -2.636 3
10.307 -7.491 -2.645 5
10.395 -7.516 -2.873 3
10.603 -7.627 -3.176 2
10.827 -7.753 -3.505 3
10.982 -7.826 -3.803 9
9.483 -8.826 1.444 27
8.892 -8.171 1.412 14
9.06 -8.218 1.253 28
9.298 -8.331 1.077 28
9.717 -8.601 0.856 22
9.434 -8.253 0.789 29
9.365 -8.097 0.678 27
9.677 -8.273 0.471 36
9.607 -8.125 0.36 31
28.394 -23.759 -5.181 5
26.61 -22.052 -5.026 6
25.059 -20.552 -4.889 6
23.738 -19.289 -4.793 6
22.559 -18.159 -4.708 6
21.442 -17.112 -4.619 37
20.476 -16.2 -4.554 7
19.593 -15.378 -4.501 5
18.792 -14.632 -4.455 5
18.058 -13.953 -4.419 5
17.359 -13.319 -4.383 6
16.722 -12.74 -4.355 6
16.127 -12.208 -4.336 6
15.553 -11.697 -4.309 6
15.022 -11.231 -4.293 6
14.511 -10.784 -4.274 9
10.926 -8.075 -2.654 3
10.57 -7.768 -2.644 4
10.252 -7.497 -2.649 4
10.32 -7.507 -2.865 3
10.527 -7.618 -3.169 2
10.739 -7.734 -3.49 3
10.924 -7.829 -3.805 8
9.495 -8.889 1.433 8
8.975 -8.295 1.388 24
9.041 -8.249 1.247 23
9.276 -8.361 1.07 10
9.552 -8.505 0.879 25
9.331 -8.213 0.799 26
9.253 -8.049 0.692 26
9.633 -8.285 0.467 18
9.709 -8.262 0.315 28
28.166 -23.716 -5.166 5
26.426 -22.038 -5.021 6
24.853 -20.512 -4.874 10
23.574 -19.276 -4.788 6
22.41 -18.154 -4.706 6
21.305 -17.111 -4.618 39
20.359 -16.21 -4.559 7
19.479 -15.386 -4.504 5
18.686 -14.642 -4.46 5
17.957 -13.963 -4.425 5
17.263 -13.329 -4.388 5
16.637 -12.756 -4.364 5
16.05 -12.226 -4.346 6
15.478 -11.713 -4.319 6
14.939 -11.238 -4.298 8
14.433 -10.792 -4.279 9
10.872 -8.085 -2.661 3
10.52 -7.779 -2.652 4
10.194 -7.499 -2.651 4
10.244 -7.496 -2.857 2
10.451 -7.608 -3.161 3
10.66 -7.723 -3.48 3
10.873 -7.837 -3.813 9
9.5 -8.946 1.423 19
8.849 -8.227 1.401 16
9.016 -8.276 1.241 23
9.256 -8.393 1.062 3
9.584 -8.585 0.859 27
9.294 -8.23 0.795 26
9.204 -8.057 0.69 27
9.648 -8.349 0.447 0
9.821 -8.41 0.267 2
27.963 -23.693 -5.158 4
26.231 -22.013 -5.012 6
24.685 -20.503 -4.87 25
23.416 -19.268 -4.785 6
22.264 -18.15 -4.704 6
21.172 -17.111 -4.618 39
20.231 -16.21 -4.559 7
19.368 -15.395 -4.509 5
18.577 -14.65 -4.464 5
17.851 -13.968 -4.427 5
17.168 -13.339 -4.394 5
16.54 -12.761 -4.368 6
15.955 -12.23 -4.348 6
15.39 -11.719 -4.323 6
14.862 -11.25 -4.306 6
14.357 -10.801 -4.286 9
10.813 -8.09 -2.665 3
10.464 -7.785 -2.656 4
10.146 -7.509 -2.658 4
10.169 -7.486 -2.848 2
10.373 -7.595 -3.151 2
10.581 -7.711 -3.47 3
10.809 -7.836 -3.812 18
9.024 -8.547 1.493 0
8.816 -8.244 1.397 23
9.011 -8.321 1.231 29
9.288 -8.473 1.044 25
9.601 -8.653 0.843 14
9.279 -8.268 0.785 27
9.164 -8.07 0.686 25
30.956 -26.958 -5.242 38
29.699 -25.591 -5.315 5
27.749 -23.659 -5.146 4
26.033 -21.983 -5.001 6
24.524 -20.497 -4.868 33
23.264 -19.264 -4.783 6
22.124 -18.151 -4.704 6
21.044 -17.117 -4.621 39
20.109 -16.215 -4.561 7
19.248 -15.398 -4.51 5
18.463 -14.651 -4.465 5
17.75 -13.978 -4.432 5
17.069 -13.347 -4.398 6
16.456 -12.776 -4.376 6
15.872 -12.242 -4.356 6
15.309 -11.73 -4.33 6
14.785 -11.261 -4.313 8
14.285 -10.813 -4.293 9
10.759 -8.099 -2.671 3
10.412 -7.792 -2.662 3
10.1 -7.519 -2.666 4
10.095 -7.475 -2.84 3
10.295 -7.583 -3.14 2
10.503 -7.698 -3.459 3
10.739 -7.83 -3.807 8
8.978 -8.553 1.492 5
8.944 -8.414 1.365 20
8.983 -8.345 1.226 28
9.268 -8.506 1.036 0
9.668 -8.766 0.814 16
9.265 -8.305 0.775 23
9.173 -8.129 0.669 23
30.76 -26.953 -5.24 18
29.468 -25.55 -5.302 5
27.55 -23.635 -5.138 5
25.85 -21.966 -4.995 6
24.357 -20.486 -4.864 35
23.107 -19.256 -4.78 6
21.973 -18.141 -4.701 6
20.922 -17.126 -4.625 32
19.99 -16.221 -4.564 8
19.135 -15.404 -4.513 5
18.358 -14.66 -4.47 5
17.65 -13.986 -4.437 5
16.98 -13.36 -4.406 6
16.368 -12.787 -4.383 6
15.783 -12.25 -4.361 6
15.23 -11.743 -4.338 6
14.705 -11.269 -4.318 8
14.216 -10.827 -4.303 9
10.709 -8.11 -2.679 3
10.356 -7.798 -2.666 3
10.048 -7.526 -2.671 4
10.026 -7.468 -2.835 2
10.223 -7.574 -3.133 2
10.427 -7.688 -3.451 3
10.651 -7.812 -3.791 12
8.916 -8.544 1.493 24
8.901 -8.423 1.363 27
8.995 -8.405 1.213 20
0.0 -0.0 3.0 0
9.661 -8.813 0.803 18
9.59 -8.649 0.683 27
9.288 -8.281 0.625 25
30.562 -26.945 -5.238 19
29.238 -25.508 -5.288 5
27.339 -23.601 -5.126 5
25.674 -21.953 -4.99 6
24.206 -20.486 -4.864 33
22.947 -19.243 -4.775 6
21.837 -18.143 -4.701 6
20.801 -17.134 -4.628 23
19.865 -16.222 -4.564 7
19.03 -15.417 -4.519 6
18.253 -14.668 -4.474 5
17.55 -13.995 -4.441 5
16.879 -13.365 -4.408 5
16.272 -12.792 -4.385 6
15.697 -12.26 -4.366 6
15.152 -11.756 -4.346 6
14.632 -11.282 -4.327 8
14.135 -10.831 -4.306 9
10.652 -8.116 -2.683 4
10.307 -7.808 -2.673 4
9.994 -7.531 -2.675 4
9.948 -7.455 -2.824 2
10.145 -7.56 -3.122 2
10.346 -7.672 -3.438 3
10.573 -7.799 -3.779 9
8.865 -8.545 1.493 24
8.847 -8.422 1.363 22
8.969 -8.431 1.208 24
0.0 -0.0 3.0 0
9.601 -8.811 0.803 28
9.542 -8.659 0.68 27
9.232 -8.282 0.625 29
30.325 -26.902 -5.225 18
29.022 -25.478 -5.278 5
27.141 -23.577 -5.118 5
25.48 -21.924 -4.98 5
24.054 -20.486 -4.864 29
22.796 -19.237 -4.772 6
21.695 -18.139 -4.7 6
20.68 -17.142 -4.632 10
19.744 -16.226 -4.566 7
18.905 -15.412 -4.517 5
18.147 -14.676 -4.478 5
17.45 -14.003 -4.445 5
16.789 -13.378 -4.415 5
16.184 -12.803 -4.392 6
15.621 -12.276 -4.376 5
15.065 -11.76 -4.349 6
14.552 -11.29 -4.332 6
14.065 -10.845 -4.315 9
10.599 -8.125 -2.689 4
10.254 -7.816 -2.678 4
9.945 -7.539 -2.681 4
9.88 -7.447 -2.818 2
10.073 -7.552 -3.115 2
10.268 -7.659 -3.427 3
10.494 -7.786 -3.768 6
8.873 -8.604 1.483 20
8.799 -8.426 1.362 25
9.062 -8.569 1.179 19
0.0 -0.0 3.0 0
9.62 -8.883 0.785 22
9.527 -8.697 0.67 32
9.218 -8.32 0.614 26
30.122 -26.886 -5.22 19
28.793 -25.433 -5.264 5
26.943 -23.551 -5.109 5
25.298 -21.905 -4.973 6
23.915 -20.496 -4.868 13
22.651 -19.235 -4.771 7
21.556 -18.137 -4.699 6
20.538 -17.132 -4.628 7
19.623 -16.227 -4.567 7
18.786 -15.412 -4.517 6
18.043 -14.684 -4.482 5
17.344 -14.006 -4.447 5
16.694 -13.386 -4.42 6
16.094 -12.811 -4.397 5
15.529 -12.28 -4.379 6
14.993 -11.777 -4.359 6
14.481 -11.305 -4.341 8
13.996 -10.858 -4.324 9
10.545 -8.133 -2.695 4
10.208 -7.827 -2.687 4
9.894 -7.545 -2.685 4
9.808 -7.438 -2.811 1
9.996 -7.537 -3.104 2
10.196 -7.65 -3.419 3
10.41 -7.768 -3.753 5
8.814 -8.595 1.484 9
8.754 -8.432 1.361 7
9.021 -8.582 1.176 29
0.0 -0.0 3.0 0
9.541 -8.862 0.79 24
9.493 -8.72 0.664 30
9.206 -8.36 0.603 28
29.918 -26.87 -5.215 20
28.57 -25.393 -5.251 5
26.751 -23.529 -5.102 4
25.12 -21.887 -4.966 6
23.755 -20.488 -4.864 6
22.507 -19.233 -4.771 7
21.421 -18.137 -4.699 6
20.411 -17.134 -4.628 6
19.51 -16.237 -4.571 7
18.688 -15.429 -4.525 6
17.935 -14.688 -4.484 5
17.25 -14.018 -4.454 5
16.599 -13.393 -4.424 6
16.007 -12.822 -4.403 5
15.446 -12.291 -4.385 6
14.906 -11.781 -4.361 6
14.405 -11.315 -4.348 8
13.921 -10.866 -4.329 9
10.494 -8.144 -2.703 4
10.161 -7.838 -2.695 4
9.845 -7.553 -2.692 4
9.737 -7.428 -2.803 2
9.924 -7.528 -3.096 2
10.119 -7.636 -3.408 3
10.341 -7.762 -3.747 4
8.729 -8.563 1.49 21
8.777 -8.504 1.347 17
9.004 -8.616 1.169 25
9.575 -9.055 0.909 0
9.559 -8.934 0.773 22
9.512 -8.79 0.645 26
9.176 -8.384 0.596 23
29.721 -26.858 -5.211 18
28.35 -25.355 -5.238 5
26.551 -23.499 -5.091 5
24.945 -21.87 -4.96 6
23.572 -20.457 -4.853 5
22.348 -19.217 -4.764 7
21.282 -18.133 -4.697 6
20.279 -17.131 -4.627 6
19.389 -16.238 -4.572 7
18.576 -15.433 -4.527 6
17.83 -14.694 -4.487 5
17.144 -14.02 -4.455 5
16.511 -13.405 -4.431 5
15.917 -12.83 -4.407 6
15.364 -12.301 -4.391 6
14.828 -11.792 -4.369 6
14.322 -11.319 -4.351 8
13.846 -10.874 -4.334 9
10.444 -8.154 -2.71 4
10.109 -7.846 -2.7 4
9.803 -7.565 -2.701 4
9.686 -7.433 -2.807 4
9.855 -7.52 -3.09 2
10.044 -7.624 -3.397 2
10.26 -7.745 -3.733 4
8.698 -8.582 1.487 4
8.757 -8.535 1.341 0
8.983 -8.648 1.162 27
9.539 -9.075 0.905 15
9.451 -8.886 0.784 20
9.571 -8.899 0.616 25
9.73 -8.945 0.435 25
29.507 -26.829 -5.203 12
28.143 -25.326 -5.229 5
26.363 -23.478 -5.084 5
24.764 -21.848 -4.952 5
23.398 -20.435 -4.844 5
22.198 -19.209 -4.761 7
21.15 -18.135 -4.698 6
20.158 -17.136 -4.63 6
19.265 -16.237 -4.571 7
18.466 -15.439 -4.53 5
17.726 -14.7 -4.49 5
17.051 -14.031 -4.46 5
16.416 -13.412 -4.434 6
15.827 -12.837 -4.411 6
15.275 -12.307 -4.395 6
14.753 -11.806 -4.377 6
14.255 -11.336 -4.362 8
13.777 -10.886 -4.343 9
10.391 -8.162 -2.715 4
10.059 -7.855 -2.707 4
9.754 -7.573 -2.707 4
9.695 -7.484 -2.847 4
9.784 -7.51 -3.082 2
9.972 -7.615 -3.389 3
10.18 -7.729 -3.719 3
8.864 -8.797 1.449 0
34.336 -33.663 -3.543 11
9.002 -8.718 1.147 0
9.634 -9.221 0.871 20
9.446 -8.935 0.772 22
9.405 -8.797 0.643 24
9.731 -9.001 0.419 25
29.236 -26.748 -5.178 8
27.918 -25.28 -5.214 5
26.173 -23.455 -5.076 5
24.596 -21.835 -4.947 6
23.245 -20.428 -4.842 5
22.054 -19.204 -4.759 7
21.007 -18.125 -4.694 6
20.029 -17.135 -4.629 7
19.154 -16.245 -4.575 8
18.356 -15.445 -4.533 6
17.618 -14.704 -4.492 5
16.945 -14.032 -4.461 5
16.324 -13.421 -4.439 4
15.745 -12.851 -4.42 6
15.199 -12.322 -4.404 6
14.672 -11.814 -4.382 6
14.178 -11.344 -4.367 8
13.711 -10.9 -4.352 9
10.34 -8.172 -2.722 4
10.013 -7.865 -2.714 4
9.711 -7.586 -2.716 4
9.692 -7.527 -2.881 4
9.716 -7.502 -3.075 2
9.904 -7.606 -3.382 3
10.108 -7.719 -3.71 3
9.287 -9.271 1.365 16
51.733 -51.02 -6.917 12
47.517 -46.291 -6.839 14
9.628 -9.271 0.86 20
9.358 -8.906 0.78 28
9.434 -8.879 0.621 27
9.685 -9.013 0.416 30
28.991 -26.687 -5.159 7
27.715 -25.251 -5.204 5
25.974 -23.421 -5.065 4
24.416 -21.811 -4.938 6
23.093 -20.421 -4.839 5
21.914 -19.202 -4.758 7
20.881 -18.13 -4.696 6
19.906 -17.136 -4.63 6
19.033 -16.244 -4.575 7
18.247 -15.449 -4.535 6
17.517 -14.712 -4.496 5
16.858 -14.048 -4.469 6
16.227 -13.425 -4.441 5
15.653 -12.856 -4.422 6
15.122 -12.337 -4.413 6
14.591 -11.821 -4.387 6
14.102 -11.353 -4.373 8
13.636 -10.907 -4.357 9
10.29 -8.182 -2.729 4
9.963 -7.874 -2.721 4
9.686 -7.611 -2.735 5
9.69 -7.569 -2.914 4
9.707 -7.54 -3.106 4
9.83 -7.594 -3.372 3
10.033 -7.707 -3.7 4
9.254 -9.293 1.361 4
33.789 -33.521 -3.516 17
47.218 -46.274 -6.836 24
9.562 -9.263 0.861 23
9.41 -9.009 0.754 19
9.738 -9.22 0.529 22
9.659 -9.044 0.407 30
28.787 -26.663 -5.152 6
27.514 -25.224 -5.196 5
25.79 -23.4 -5.057 5
24.239 -21.789 -4.93 6
22.94 -20.414 -4.836 5
21.768 -19.194 -4.755 7
20.743 -18.124 -4.693 6
19.783 -17.138 -4.63 7
18.919 -16.248 -4.577 8
18.141 -15.456 -4.538 5
17.41 -14.714 -4.497 5
16.753 -14.048 -4.469 5
16.144 -13.44 -4.45 5
15.566 -12.864 -4.427 6
15.034 -12.341 -4.415 6
14.519 -11.837 -4.396 6
14.029 -11.364 -4.38 8
13.564 -10.916 -4.363 8
10.23 -8.185 -2.731 4
9.908 -7.878 -2.724 4
9.691 -7.661 -2.773 6
9.692 -7.617 -2.951 4
9.701 -7.579 -3.137 4
9.758 -7.583 -3.363 3
9.965 -7.699 -3.692 4
9.251 -9.344 1.352 20
33.293 -33.224 -3.458 27
46.958 -46.295 -6.84 19
9.469 -9.228 0.87 28
9.345 -9.001 0.756 14
9.717 -9.257 0.52 22
9.67 -9.111 0.388 23
28.61 -26.663 -5.152 7
27.314 -25.196 -5.187 5
25.615 -23.387 -5.053 4
24.072 -21.774 -4.925 6
22.782 -20.401 -4.831 5
21.625 -19.188 -4.753 7
20.612 -18.123 -4.693 6
19.661 -17.139 -4.631 7
18.807 -16.255 -4.58 7
18.029 -15.458 -4.539 5
17.312 -14.723 -4.502 6
16.657 -14.055 -4.473 5
16.049 -13.445 -4.453 5
15.479 -12.873 -4.432 6
14.952 -12.35 -4.42 6
14.43 -11.837 -4.397 6
13.955 -11.374 -4.386 7
13.492 -10.925 -4.369 9
10.186 -8.198 -2.74 4
9.867 -7.893 -2.735 4
9.691 -7.707 -2.808 4
9.689 -7.66 -2.984 4
9.7 -7.624 -3.174 4
9.713 -7.591 -3.37 4
9.888 -7.683 -3.679 3
9.24 -9.388 1.345 0
28.013 -28.121 -2.466 12
46.573 -46.189 -6.818 19
9.313 -9.131 0.892 19
9.399 -9.109 0.729 17
9.728 -9.324 0.502 26
9.855 -9.341 0.322 0
28.441 -26.669 -5.154 6
27.109 -25.162 -5.176 5
25.401 -23.336 -5.035 13
23.91 -21.763 -4.921 6
22.625 -20.387 -4.826 5
21.479 -19.179 -4.749 8
20.475 -18.116 -4.69 6
19.538 -17.14 -4.631 7
18.69 -16.256 -4.58 7
17.92 -15.461 -4.541 5
17.211 -14.729 -4.505 6
16.563 -14.065 -4.478 5
15.955 -13.451 -4.456 5
15.392 -12.881 -4.437 6
14.873 -12.361 -4.427 6
14.355 -11.849 -4.404 6
13.876 -11.38 -4.39 8
13.42 -10.934 -4.375 8
10.13 -8.203 -2.744 4
9.818 -7.901 -2.74 4
9.693 -7.755 -2.844 4
9.693 -7.709 -3.023 4
9.702 -7.671 -3.212 4
9.712 -7.636 -3.407 4
9.816 -7.672 -3.669 3
26.942 -27.535 -1.855 27
27.446 -27.716 -2.387 25
28.107 -28.042 -2.961 3
9.24 -9.114 0.896 22
9.357 -9.122 0.726 32
9.871 -9.519 0.45 6
30.0 -28.611 -5.204 12
28.295 -26.696 -5.162 5
26.91 -25.132 -5.166 5
25.224 -23.318 -5.029 24
23.747 -21.749 -4.916 6
22.47 -20.374 -4.821 5
21.342 -19.177 -4.748 7
20.347 -18.116 -4.69 6
19.41 -17.135 -4.629 7
18.576 -16.258 -4.581 7
17.811 -15.464 -4.542 5
17.11 -14.735 -4.508 6
16.464 -14.068 -4.48 5
15.867 -13.46 -4.461 5
15.309 -12.891 -4.442 6
14.79 -12.369 -4.432 6
14.281 -11.86 -4.411 6
13.806 -11.393 -4.398 7
13.348 -10.942 -4.381 8
10.079 -8.212 -2.75 4
9.766 -7.907 -2.745 4
9.692 -7.801 -2.878 4
9.698 -7.759 -3.062 4
9.701 -7.715 -3.247 3
9.707 -7.677 -3.442 4
9.742 -7.66 -3.658 3
26.716 -27.464 -1.843 43
27.235 -27.665 -2.378 18
28.024 -28.127 -2.979 18
9.207 -9.136 0.891 25
9.348 -9.169 0.714 25
9.866 -9.572 0.435 0
29.801 -28.596 -5.2 16
28.129 -26.704 -5.164 5
26.723 -25.113 -5.16 5
25.044 -23.296 -5.021 26
23.586 -21.737 -4.912 6
22.319 -20.364 -4.817 5
21.197 -19.166 -4.744 7
20.222 -18.118 -4.691 7
19.291 -17.137 -4.63 6
18.468 -16.266 -4.585 8
17.708 -15.471 -4.546 6
17.009 -14.741 -4.511 6
16.374 -14.079 -4.486 5
15.782 -13.471 -4.467 5
15.222 -12.898 -4.447 6
14.714 -12.382 -4.44 6
14.2 -11.866 -4.415 6
13.733 -11.402 -4.405 7
13.282 -10.955 -4.389 8
10.032 -8.224 -2.758 4
9.719 -7.917 -2.752 5
9.693 -7.849 -2.915 4
9.694 -7.802 -3.095 4
9.708 -7.766 -3.288 4
9.706 -7.72 -3.478 4
9.718 -7.685 -3.681 4
26.632 -27.538 -1.856 36
27.049 -27.639 -2.373 20
27.47 -27.736 -2.895 22
9.192 -9.176 0.882 19
9.316 -9.194 0.708 24
31.829 -31.07 -5.325 13
29.069 -28.065 -5.048 1
27.972 -26.719 -5.169 5
26.511 -25.068 -5.145 5
24.854 -23.263 -5.01 30
23.42 -21.719 -4.905 5
22.165 -20.35 -4.812 5
21.058 -19.16 -4.741 7
20.092 -18.115 -4.689 6
19.169 -17.136 -4.63 7
18.349 -16.262 -4.583 7
17.605 -15.478 -4.549 6
16.911 -14.748 -4.515 5
16.279 -14.085 -4.489 5
15.693 -13.48 -4.472 5
15.141 -12.909 -4.453 6
14.629 -12.388 -4.443 6
14.128 -11.88 -4.423 7
13.662 -11.414 -4.412 7
13.208 -10.961 -4.393 8
9.973 -8.225 -2.759 4
9.684 -7.936 -2.766 5
9.686 -7.891 -2.946 6
9.695 -7.849 -3.132 4
9.698 -7.804 -3.32 4
9.709 -7.769 -3.519 4
9.716 -7.728 -3.718 4
26.528 -27.592 -1.865 25
26.838 -27.588 -2.362 19
27.091 -27.517 -2.849 34
9.144 -9.183 0.88 31
9.299 -9.232 0.698 17
31.625 -31.059 -5.322 12
29.421 -28.58 -5.195 17
27.821 -26.739 -5.175 5
26.333 -25.055 -5.141 5
24.675 -23.24 -5.002 25
23.254 -21.7 -4.898 6
22.014 -20.339 -4.808 5
20.919 -19.153 -4.738 8
19.959 -18.108 -4.687 6
19.047 -17.134 -4.629 6
18.244 -16.271 -4.587 7
17.5 -15.483 -4.552 6
16.811 -14.753 -4.517 5
16.183 -14.09 -4.492 5
15.6 -13.483 -4.474 5
15.055 -12.917 -4.457 6
14.553 -12.4 -4.45 6
14.051 -11.888 -4.429 6
13.587 -11.42 -4.416 7
13.142 -10.973 -4.401 8
9.917 -8.229 -2.762 1
9.688 -7.987 -2.803 6
9.687 -7.939 -2.983 6
9.69 -7.892 -3.166 4
9.635 -7.8 -3.316 2
9.707 -7.813 -3.556 4
9.714 -7.771 -3.755 3
26.289 -27.505 -1.85 42
26.579 -27.483 -2.342 40
26.886 -27.472 -2.839 22
9.169 -9.264 0.861 27
9.242 -9.231 0.698 30
31.266 -30.895 -5.278 10
28.839 -28.187 -5.082 4
27.665 -26.753 -5.179 7
26.144 -25.029 -5.132 5
24.497 -23.215 -4.994 25
23.083 -21.675 -4.889 6
21.853 -20.316 -4.799 7
20.786 -19.152 -4.738 7
19.837 -18.111 -4.688 6
18.929 -17.135 -4.629 7
18.125 -16.267 -4.586 7
17.395 -15.486 -4.553 5
16.713 -14.76 -4.521 5
16.096 -14.103 -4.498 5
15.506 -13.486 -4.476 5
14.963 -12.918 -4.458 6
14.469 -12.405 -4.454 6
13.974 -11.896 -4.434 6
13.516 -11.431 -4.424 7
13.07 -10.98 -4.406 8
9.864 -8.235 -2.766 0
9.683 -8.032 -2.836 4
9.693 -7.992 -3.023 4
9.688 -7.938 -3.202 4
9.315 -7.586 -3.143 2
9.707 -7.859 -3.595 4
9.711 -7.815 -3.793 4
26.169 -27.541 -1.856 31
26.386 -27.445 -2.335 36
26.713 -27.46 -2.837 37
9.082 -9.232 0.869 32
9.222 -9.267 0.689 28
30.988 -30.806 -5.255 11
28.62 -28.145 -5.07 10
27.506 -26.763 -5.182 8
25.947 -24.995 -5.121 5
24.331 -23.201 -4.989 25
22.923 -21.66 -4.883 5
21.7 -20.301 -4.793 18
20.648 -19.143 -4.734 7
19.702 -18.101 -4.683 6
18.819 -17.143 -4.633 6
18.017 -16.273 -4.588 8
17.292 -15.493 -4.556 6
16.616 -14.766 -4.524 6
16.001 -14.108 -4.501 5
15.427 -13.502 -4.484 6
14.891 -12.936 -4.469 6
14.39 -12.414 -4.459 6
13.902 -11.908 -4.441 6
13.441 -11.438 -4.428 7
13.007 -10.994 -4.416 8
12.592 -10.577 -4.406 8
9.686 -8.083 -2.873 4
9.685 -8.033 -3.054 6
9.649 -7.954 -3.214 3
9.253 -7.58 -3.138 3
9.702 -7.901 -3.63 4
9.714 -7.863 -3.835 4
26.018 -27.545 -1.857 42
26.264 -27.483 -2.342 38
26.69 -27.6 -2.867 24
9.142 -9.348 0.842 26
9.248 -9.35 0.669 26
30.765 -30.773 -5.246 16
28.36 -28.061 -5.046 18
27.355 -26.781 -5.188 7
25.751 -24.96 -5.11 5
24.15 -23.173 -4.979 26
22.767 -21.646 -4.879 5
21.567 -20.303 -4.794 26
20.518 -19.143 -4.734 7
19.586 -18.108 -4.686 6
18.695 -17.138 -4.63 7
17.907 -16.275 -4.589 7
17.19 -15.498 -4.559 5
16.516 -14.769 -4.525 5
15.908 -14.114 -4.504 5
15.342 -13.512 -4.49 5
14.805 -12.942 -4.472 6
14.314 -12.426 -4.466 6
13.819 -11.911 -4.443 6
13.365 -11.444 -4.432 7
12.939 -11.004 -4.422 8
12.525 -10.585 -4.412 8
9.686 -8.133 -2.909 4
9.685 -8.082 -3.09 6
9.402 -7.796 -3.091 5
9.191 -7.574 -3.133 4
9.341 -7.652 -3.421 3
9.716 -7.91 -3.876 4
25.936 -27.619 -1.87 29
26.176 -27.553 -2.356 41
26.441 -27.508 -2.847 39
9.228 -9.493 0.808 25
9.307 -9.468 0.639 23
30.696 -30.89 -5.277 15
28.198 -28.073 -5.05 21
27.202 -26.796 -5.192 9
25.572 -24.94 -5.104 5
23.982 -23.155 -4.973 25
22.605 -21.627 -4.872 5
21.414 -20.286 -4.787 28
20.38 -19.134 -4.731 7
19.46 -18.104 -4.685 6
18.574 -17.134 -4.629 7
17.797 -16.276 -4.59 7
17.085 -15.501 -4.56 6
16.419 -14.776 -4.529 5
15.819 -14.123 -4.509 6
15.245 -13.511 -4.49 5
14.722 -12.95 -4.477 6
14.238 -12.437 -4.473 6
13.751 -11.926 -4.452 6
13.298 -11.456 -4.44 7
12.865 -11.008 -4.425 8
12.455 -10.59 -4.415 8
9.684 -8.179 -2.943 4
9.688 -8.133 -3.129 4
9.358 -7.807 -3.1 4
9.132 -7.57 -3.13 3
9.276 -7.644 -3.414 3
9.713 -7.954 -3.914 4
25.859 -27.7 -1.884 42
26.014 -27.545 -2.354 41
9.398 -9.836 0.909 0
9.287 -9.612 0.781 17
9.275 -9.492 0.633 20
27.983 -28.334 -4.592 19
28.067 -28.114 -5.061 17
27.035 -26.796 -5.192 9
25.388 -24.915 -5.095 5
23.816 -23.138 -4.967 24
22.452 -21.616 -4.868 5
21.276 -20.282 -4.785 29
20.246 -19.126 -4.728 8
19.334 -18.1 -4.683 6
18.467 -17.142 -4.632 7
17.69 -16.281 -4.592 8
16.98 -15.503 -4.561 5
16.319 -14.778 -4.53 6
15.721 -14.124 -4.51 6
15.163 -13.523 -4.496 5
14.639 -12.957 -4.481 6
14.154 -12.441 -4.475 7
13.671 -11.93 -4.455 7
13.222 -11.462 -4.443 7
12.799 -11.019 -4.432 8
12.394 -10.602 -4.424 8
9.683 -8.23 -2.979 5
9.687 -8.182 -3.166 4
9.304 -7.808 -3.1 4
9.068 -7.561 -3.123 3
9.217 -7.64 -3.411 3
9.382 -7.728 -3.718 2
25.689 -27.682 -1.881 35
25.998 -27.693 -2.383 35
9.385 -9.88 0.9 1
9.271 -9.653 0.771 0
9.267 -9.542 0.621 0
27.283 -27.793 -4.447 25
27.919 -28.138 -5.069 15
26.865 -26.793 -5.191 11
25.184 -24.868 -5.08 4
23.64 -23.11 -4.957 22
22.3 -21.603 -4.863 6
21.141 -20.279 -4.785 26
20.117 -19.124 -4.727 7
19.213 -18.1 -4.683 6
18.355 -17.146 -4.634 6
17.58 -16.282 -4.592 8
16.878 -15.507 -4.563 6
16.231 -14.791 -4.536 6
15.634 -14.134 -4.515 5
15.079 -13.532 -4.501 5
14.562 -12.97 -4.488 6
14.078 -12.451 -4.481 6
13.608 -11.949 -4.466 6
13.155 -11.474 -4.451 7
12.728 -11.025 -4.436 8
12.324 -10.607 -4.427 8
9.674 -8.271 -3.01 0
9.689 -8.234 -3.205 4
9.255 -7.814 -3.105 4
9.003 -7.553 -3.116 2
9.15 -7.629 -3.402 3
9.304 -7.708 -3.701 3
25.65 -27.803 -1.902 42
25.866 -27.717 -2.388 36
9.327 -9.88 0.9 22
26.317 -27.568 -3.364 38
26.634 -27.59 -3.879 24
27.101 -27.778 -4.443 33
27.593 -27.981 -5.023 37
26.676 -26.769 -5.184 13
25.004 -24.844 -5.072 5
23.472 -23.09 -4.95 21
22.15 -21.592 -4.859 6
21.018 -20.287 -4.788 20
19.988 -19.121 -4.725 7
19.09 -18.098 -4.682 7
18.243 -17.149 -4.635 7
17.477 -16.288 -4.595 7
16.78 -15.513 -4.566 6
16.134 -14.795 -4.538 5
15.542 -14.139 -4.518 5
14.989 -13.535 -4.503 5
14.476 -12.973 -4.49 6
13.999 -12.459 -4.486 8
13.528 -11.953 -4.469 6
13.08 -11.479 -4.454 7
12.659 -11.033 -4.442 8
12.268 -10.624 -4.439 8
11.899 -10.235 -4.437 9
9.688 -8.282 -3.241 4
9.207 -7.819 -3.109 4
8.945 -7.548 -3.112 4
9.091 -7.625 -3.398 3
9.247 -7.706 -3.699 3
25.499 -27.805 -1.903 30
25.771 -27.781 -2.4 36
9.305 -9.916 0.892 1
26.172 -27.582 -3.368 26
26.493 -27.612 -3.884 35
26.923 -27.765 -4.44 21
27.38 -27.936 -5.011 20
26.497 -26.753 -5.179 13
24.821 -24.815 -5.063 5
23.311 -23.074 -4.945 17
21.998 -21.579 -4.854 6
20.88 -20.281 -4.785 9
19.857 -19.115 -4.723 8
18.97 -18.097 -4.682 6
18.123 -17.143 -4.633 7
17.364 -16.285 -4.594 8
16.673 -15.511 -4.565 6
16.04 -14.801 -4.541 5
15.459 -14.152 -4.525 5
14.904 -13.543 -4.507 5
14.39 -12.978 -4.493 6
13.918 -12.463 -4.489 7
13.457 -11.964 -4.476 6
13.013 -11.491 -4.463 7
12.596 -11.046 -4.451 7
12.201 -10.63 -4.443 8
11.833 -10.241 -4.44 9
9.706 -8.348 -3.291 3
9.163 -7.829 -3.117 4
8.892 -7.548 -3.112 3
9.026 -7.615 -3.39 3
9.172 -7.689 -3.684 3
25.475 -27.943 -1.927 41
25.644 -27.809 -2.406 40
25.81 -27.668 -2.881 35
26.021 -27.589 -3.37 24
26.33 -27.609 -3.884 21
26.713 -27.717 -4.427 20
27.138 -27.86 -4.989 20
26.314 -26.734 -5.173 11
24.641 -24.788 -5.054 5
23.144 -23.052 -4.938 14
21.844 -21.561 -4.848 5
20.732 -20.264 -4.778 5
19.723 -19.106 -4.719 7
18.842 -18.088 -4.678 6
18.011 -17.145 -4.633 7
17.261 -16.29 -4.596 7
16.574 -15.517 -4.568 5
15.943 -14.805 -4.544 6
15.361 -14.151 -4.524 6
14.825 -13.556 -4.514 5
14.313 -12.989 -4.499 6
13.842 -12.474 -4.495 8
13.38 -11.969 -4.479 7
12.94 -11.498 -4.467 7
12.528 -11.054 -4.456 8
12.136 -10.639 -4.45 9
11.778 -10.256 -4.451 9
10.084 -8.725 -3.575 3
9.106 -7.828 -3.116 4
8.844 -7.553 -3.116 4
8.968 -7.611 -3.386 3
9.113 -7.684 -3.679 3
25.386 -28.01 -1.939 34
25.509 -27.828 -2.409 35
25.656 -27.668 -2.881 36
25.901 -27.629 -3.379 25
26.168 -27.607 -3.883 23
26.519 -27.685 -4.418 24
26.931 -27.818 -4.977 21
26.116 -26.697 -5.162 10
24.47 -24.77 -5.048 5
22.972 -23.024 -4.928 11
21.692 -21.546 -4.842 6
20.582 -20.243 -4.771 5
19.589 -19.096 -4.715 7
18.728 -18.092 -4.68 6
17.9 -17.147 -4.634 6
17.157 -16.295 -4.598 8
16.481 -15.527 -4.573 6
15.847 -14.808 -4.545 6
15.278 -14.163 -4.531 5
14.743 -13.566 -4.52 5
14.23 -12.995 -4.503 6
13.761 -12.478 -4.498 8
13.311 -11.982 -4.487 6
12.868 -11.504 -4.471 7
12.457 -11.059 -4.46 8
12.075 -10.65 -4.457 8
11.715 -10.263 -4.457 9
9.965 -8.674 -3.537 22
9.063 -7.837 -3.123 4
8.799 -7.559 -3.121 4
8.906 -7.604 -3.381 3
9.054 -7.679 -3.675 3
25.313 -28.096 -1.954 42
25.478 -27.961 -2.435 39
25.673 -27.853 -2.92 34
25.815 -27.705 -3.396 34
26.101 -27.703 -3.907 34
26.345 -27.671 -4.415 22
26.709 -27.76 -4.96 31
25.926 -26.668 -5.153 10
24.28 -24.73 -5.035 5
22.817 -23.011 -4.923 13
21.541 -21.53 -4.836 6
20.451 -20.241 -4.77 5
19.459 -19.088 -4.712 7
18.608 -18.09 -4.679 6
17.788 -17.148 -4.635 7
17.048 -16.294 -4.598 7
16.377 -15.527 -4.573 6
15.754 -14.814 -4.548 6
15.189 -14.169 -4.534 5
14.656 -13.571 -4.523 5
14.156 -13.008 -4.51 6
13.683 -12.484 -4.501 8
13.238 -11.99 -4.492 6
12.806 -11.52 -4.481 7
12.392 -11.069 -4.466 8
12.008 -10.657 -4.462 8
11.655 -10.273 -4.464 10
9.862 -8.637 -3.509 27
9.02 -7.847 -3.131 4
8.754 -7.565 -3.126 4
8.84 -7.592 -3.37 3
8.987 -7.668 -3.666 3
25.223 -28.163 -1.966 43
25.396 -28.038 -2.45 39
25.582 -27.923 -2.935 37
25.724 -27.774 -3.412 37
26.003 -27.769 -3.924 26
26.265 -27.758 -4.438 31
26.52 -27.733 -4.952 23
25.712 -26.611 -5.136 11
24.106 -24.707 -5.028 5
22.662 -22.997 -4.919 22
21.401 -21.524 -4.834 6
20.309 -20.226 -4.764 5
19.328 -19.08 -4.709 7
18.489 -18.088 -4.678 6
17.672 -17.142 -4.632 6
16.945 -16.297 -4.6 8
16.276 -15.528 -4.574 5
15.663 -14.821 -4.552 5
15.1 -14.175 -4.537 5
14.57 -13.575 -4.525 5
14.074 -13.013 -4.513 6
13.611 -12.496 -4.508 8
13.161 -11.995 -4.495 7
12.734 -11.526 -4.485 7
12.331 -11.084 -4.476 8
11.949 -10.669 -4.471 7
11.598 -10.284 -4.472 9
9.835 -8.665 -3.53 24
8.969 -7.85 -3.133 5
8.709 -7.572 -3.131 4
8.789 -7.594 -3.372 3
8.931 -7.665 -3.663 3
25.136 -28.233 -1.978 36
25.308 -28.109 -2.464 40
25.443 -27.94 -2.939 35
25.624 -27.836 -3.426 31
25.889 -27.817 -3.936 33
26.124 -27.779 -4.443 31
26.332 -27.706 -4.945 32
25.532 -26.589 -5.129 13
23.936 -24.686 -5.021 5
22.51 -22.986 -4.915 24
21.248 -21.504 -4.827 5
20.187 -20.231 -4.766 5
19.206 -19.078 -4.708 8
18.37 -18.084 -4.676 6
17.561 -17.142 -4.632 7
16.842 -16.3 -4.601 7
16.173 -15.527 -4.573 6
15.57 -14.826 -4.554 5
15.006 -14.176 -4.537 5
14.485 -13.582 -4.529 5
13.991 -13.018 -4.516 6
13.535 -12.504 -4.513 9
13.09 -12.004 -4.501 6
