# .PCD v0.7 - Point Cloud Data file format
VERSION 0.7
FIELDS x y z intensity
SIZE 4 4 4 4
TYPE F F F F
COUNT 1 1 1 1
WIDTH 2003
HEIGHT 1
VIEWPOINT 0 0 0 1 0 0 0
POINTS 2003
DATA ascii
-1.92 -25.361 -3.323 31
-2.011 -26.414 -4.078 3
-1.913 -24.94 -4.151 6
-1.823 -23.637 -4.226 5
-1.746 -22.456 -4.296 5
-1.668 -21.341 -4.348 32
-1.609 -20.422 -4.433 9
-1.549 -19.555 -4.506 9
-1.5 -18.789 -4.591 7
-1.445 -18.0 -4.641 7
-1.399 -17.281 -4.694 8
-1.353 -16.613 -4.747 8
-1.311 -15.977 -4.792 39
-1.271 -15.398 -4.846 8
-1.231 -14.822 -4.881 8
-1.198 -14.298 -4.926 9
-1.165 -13.83 -4.985 8
-1.136 -13.364 -5.03 7
-1.101 -12.866 -5.04 8
-1.074 -12.45 -5.085 10
-1.045 -12.033 -5.116 10
-1.02 -11.641 -5.151 9
-0.994 -11.265 -5.184 12
-0.97 -10.895 -5.21 11
-0.945 -10.539 -5.234 12
-0.922 -10.202 -5.262 12
-0.901 -9.873 -5.284 13
-0.878 -9.55 -5.301 43
-2.62 -34.099 -3.013 28
-2.575 -33.252 -3.464 15
-2.507 -32.201 -3.845 13
-2.0 -25.49 -2.885 31
-1.995 -25.286 -3.304 41
-2.096 -26.42 -4.079 4
-1.994 -24.942 -4.152 6
-1.901 -23.643 -4.228 6
-1.82 -22.454 -4.296 6
-1.739 -21.34 -4.348 31
-1.677 -20.421 -4.433 9
-1.615 -19.554 -4.506 9
-1.564 -18.792 -4.593 8
-1.507 -18.0 -4.64 8
-1.46 -17.291 -4.699 8
-1.41 -16.609 -4.745 8
-1.367 -15.973 -4.791 40
-1.326 -15.398 -4.846 8
-1.284 -14.822 -4.881 8
-1.249 -14.298 -4.926 9
-1.215 -13.824 -4.981 8
-1.184 -13.357 -5.026 7
-1.148 -12.867 -5.04 8
-1.121 -12.45 -5.085 10
-1.09 -12.027 -5.112 9
-1.064 -11.635 -5.147 10
-1.037 -11.259 -5.18 12
-1.013 -10.896 -5.21 10
-0.987 -10.54 -5.235 12
-0.962 -10.2 -5.26 12
-0.941 -9.877 -5.288 15
-0.916 -9.548 -5.3 42
-2.719 -34.017 -2.998 28
-2.678 -33.24 -3.461 14
-2.609 -32.202 -3.845 13
-2.075 -25.417 -2.868 44
-2.072 -25.241 -3.293 46
-2.092 -25.335 -3.789 0
-2.075 -24.94 -4.152 6
-1.978 -23.645 -4.229 6
-1.894 -22.464 -4.299 4
-1.81 -21.338 -4.347 29
-1.746 -20.431 -4.436 8
-1.682 -19.561 -4.509 9
-1.628 -18.791 -4.592 8
-1.569 -18.002 -4.642 8
-1.519 -17.287 -4.697 8
-1.469 -16.615 -4.748 7
-1.423 -15.969 -4.788 39
-1.38 -15.397 -4.845 8
-1.337 -14.819 -4.879 8
-1.301 -14.298 -4.926 9
-1.266 -13.831 -4.985 8
-1.233 -13.357 -5.026 8
-1.196 -12.867 -5.04 8
-1.167 -12.448 -5.084 10
-1.136 -12.034 -5.117 8
-1.109 -11.64 -5.15 10
-1.08 -11.26 -5.181 12
-1.055 -10.892 -5.208 12
-1.028 -10.538 -5.233 12
-1.002 -10.201 -5.261 13
-0.979 -9.872 -5.283 13
-0.955 -9.552 -5.303 39
-2.826 -34.036 -3.001 36
-2.784 -33.271 -3.467 26
-2.71 -32.201 -3.845 14
-2.154 -25.391 -2.862 39
-2.151 -25.215 -3.287 49
-2.167 -25.255 -3.767 4
-2.156 -24.938 -4.151 6
-2.056 -23.646 -4.229 6
-1.969 -22.474 -4.302 4
-1.882 -21.351 -4.352 30
-1.814 -20.422 -4.433 6
-1.747 -19.552 -4.505 9
-1.693 -18.797 -4.594 7
-1.631 -18.001 -4.641 8
-1.579 -17.29 -4.698 8
-1.526 -16.612 -4.746 7
-1.48 -15.972 -4.79 37
-1.435 -15.397 -4.845 7
-1.39 -14.825 -4.883 8
-1.353 -14.302 -4.928 8
-1.316 -13.827 -4.983 8
-1.282 -13.357 -5.026 8
-1.243 -12.867 -5.04 8
-1.214 -12.451 -5.086 9
-1.181 -12.038 -5.119 10
-1.152 -11.633 -5.145 11
-1.123 -11.257 -5.179 12
-1.097 -10.893 -5.209 12
-1.069 -10.541 -5.236 11
-1.042 -10.201 -5.261 12
-1.019 -9.87 -5.282 13
-0.993 -9.543 -5.296 39
-2.932 -34.035 -3.001 29
-2.883 -33.216 -3.457 36
-2.812 -32.209 -3.846 13
-2.233 -25.381 -2.86 37
-2.229 -25.189 -3.28 52
-2.245 -25.226 -3.759 0
-2.238 -24.95 -4.154 7
-2.134 -23.652 -4.231 6
-2.043 -22.467 -4.3 5
-1.954 -21.365 -4.356 33
-1.883 -20.427 -4.435 6
-1.813 -19.554 -4.506 9
-1.757 -18.8 -4.596 7
-1.693 -18.0 -4.641 8
-1.639 -17.289 -4.697 7
-1.585 -16.618 -4.749 7
-1.537 -15.982 -4.795 9
-1.489 -15.393 -4.843 8
-1.443 -14.821 -4.881 8
-1.404 -14.302 -4.928 9
-1.366 -13.826 -4.983 8
-1.332 -13.364 -5.03 7
-1.291 -12.864 -5.038 8
-1.26 -12.445 -5.082 10
-1.226 -12.028 -5.113 10
-1.197 -11.636 -5.148 11
-1.167 -11.264 -5.184 10
-1.139 -10.894 -5.209 9
-1.11 -10.536 -5.231 12
-1.083 -10.202 -5.262 10
-1.058 -9.873 -5.284 13
-1.032 -9.55 -5.301 40
-3.035 -34.006 -2.996 30
-2.991 -33.254 -3.464 38
-2.414 -26.686 -2.672 5
-2.313 -25.374 -2.858 43
-2.309 -25.183 -3.279 54
-2.325 -25.207 -3.754 0
-2.319 -24.948 -4.154 7
-2.212 -23.653 -4.231 6
-2.118 -22.477 -4.303 5
-2.026 -21.37 -4.358 29
-1.952 -20.429 -4.436 8
-1.879 -19.549 -4.504 9
-1.821 -18.798 -4.595 7
-1.755 -18.006 -4.643 8
-1.699 -17.292 -4.699 7
-1.643 -16.621 -4.75 8
-1.593 -15.981 -4.795 9
-1.544 -15.396 -4.845 7
-1.497 -14.827 -4.884 8
-1.455 -14.298 -4.925 9
-1.417 -13.826 -4.983 8
-1.38 -13.357 -5.026 8
-1.339 -12.867 -5.04 8
-1.307 -12.448 -5.084 10
-1.271 -12.028 -5.113 9
-1.241 -11.64 -5.15 10
-1.21 -11.265 -5.184 11
-1.181 -10.895 -5.21 11
-1.152 -10.542 -5.237 14
-1.123 -10.199 -5.259 12
-1.097 -9.871 -5.283 13
-0.96 -8.567 -4.448 11
-3.149 -34.103 -3.013 27
-3.086 -33.162 -3.446 38
-2.496 -26.662 -2.667 10
-2.394 -25.37 -2.857 50
-2.389 -25.172 -3.276 52
-2.402 -25.158 -3.741 0
-2.401 -24.96 -4.157 7
-2.289 -23.654 -4.232 6
-2.193 -22.478 -4.304 5
-2.097 -21.371 -4.359 32
-2.021 -20.435 -4.438 9
-1.946 -19.554 -4.506 9
-1.885 -18.797 -4.594 6
-1.817 -18.005 -4.643 7
-1.759 -17.291 -4.698 8
-1.701 -16.623 -4.751 8
-1.649 -15.98 -4.794 9
-1.599 -15.399 -4.846 4
-1.549 -14.82 -4.88 8
-1.507 -14.298 -4.925 9
-1.467 -13.829 -4.984 7
-1.43 -13.36 -5.027 8
-1.386 -12.864 -5.038 9
-1.353 -12.448 -5.084 10
-1.317 -12.031 -5.115 9
-1.285 -11.637 -5.148 11
-1.253 -11.258 -5.179 11
-1.223 -10.891 -5.207 11
-1.193 -10.539 -5.234 12
-1.164 -10.203 -5.262 12
-1.137 -9.871 -5.283 12
-0.985 -8.487 -4.377 12
-3.255 -34.097 -3.012 30
-3.185 -33.114 -3.437 42
-2.565 -26.507 -2.634 1
-2.474 -25.368 -2.857 53
-2.468 -25.16 -3.273 56
-2.609 -26.431 -4.082 2
-2.483 -24.964 -4.158 6
-2.367 -23.658 -4.233 6
-2.268 -22.49 -4.308 4
-2.169 -21.38 -4.362 28
-2.089 -20.432 -4.437 18
-2.012 -19.556 -4.507 8
-1.949 -18.794 -4.593 5
-1.879 -18.007 -4.643 7
-1.819 -17.296 -4.701 8
-1.759 -16.622 -4.751 8
-1.705 -15.976 -4.792 9
-1.654 -15.401 -4.847 6
-1.602 -14.816 -4.878 7
-1.559 -14.297 -4.925 9
-1.517 -13.822 -4.98 8
-1.478 -13.356 -5.025 8
-1.434 -12.87 -5.042 10
-1.4 -12.451 -5.086 9
-1.362 -12.031 -5.115 10
-1.33 -11.637 -5.148 10
-1.296 -11.262 -5.182 12
-1.265 -10.892 -5.207 11
-1.234 -10.54 -5.234 11
-1.204 -10.2 -5.26 12
-1.176 -9.872 -5.283 13
-1.009 -8.401 -4.303 11
-3.341 -33.895 -2.977 14
-3.292 -33.147 -3.443 37
-2.635 -26.367 -2.604 1
-2.554 -25.356 -2.854 54
-2.548 -25.149 -3.27 57
-2.569 -25.205 -3.754 1
-2.565 -24.972 -4.161 6
-2.444 -23.65 -4.231 5
-2.343 -22.494 -4.309 5
-2.241 -21.385 -4.363 25
-2.157 -20.423 -4.433 22
-2.08 -19.569 -4.512 9
-2.014 -18.796 -4.594 5
-1.941 -18.005 -4.643 7
-1.879 -17.291 -4.698 7
-1.818 -16.623 -4.752 8
-1.762 -15.981 -4.795 9
-1.709 -15.4 -4.847 6
-1.654 -14.811 -4.875 7
-1.611 -14.299 -4.926 9
-1.568 -13.825 -4.982 8
-1.528 -13.356 -5.025 8
-1.482 -12.87 -5.042 8
-1.446 -12.447 -5.083 9
-1.408 -12.031 -5.115 10
-1.374 -11.637 -5.148 10
-1.34 -11.262 -5.182 11
-1.308 -10.892 -5.207 11
-1.275 -10.536 -5.232 11
-1.244 -10.2 -5.26 12
-1.051 -8.533 -4.16 11
-1.032 -8.311 -4.224 9
-3.463 -34.065 -3.007 35
-3.389 -33.071 -3.428 39
-2.703 -26.222 -2.574 9
-2.634 -25.353 -2.853 55
-2.627 -25.133 -3.266 57
-2.645 -25.147 -3.738 2
-2.647 -24.979 -4.163 7
-2.524 -23.674 -4.238 6
-2.418 -22.496 -4.309 5
-2.313 -21.386 -4.364 22
-2.226 -20.42 -4.432 33
-2.146 -19.567 -4.511 9
-2.077 -18.79 -4.592 5
-2.003 -18.003 -4.642 7
-1.939 -17.292 -4.699 8
-1.876 -16.625 -4.753 8
-1.818 -15.98 -4.794 9
-1.764 -15.402 -4.848 8
-1.708 -14.813 -4.876 7
-1.662 -14.295 -4.924 9
-1.618 -13.824 -4.981 8
-1.577 -13.358 -5.026 7
-1.53 -12.869 -5.042 8
-1.493 -12.453 -5.087 9
-1.453 -12.027 -5.112 10
-1.418 -11.636 -5.148 9
-1.383 -11.261 -5.182 12
-1.35 -10.894 -5.209 11
-1.317 -10.543 -5.237 11
-1.284 -10.2 -5.26 13
-1.073 -8.436 -4.078 10
-1.052 -8.203 -4.131 8
-3.557 -33.946 -2.986 17
-3.491 -33.06 -3.426 33
-2.78 -26.167 -2.562 10
-2.715 -25.352 -2.853 54
-2.707 -25.13 -3.266 57
-2.74 -25.281 -3.774 15
-2.729 -24.983 -4.164 6
-2.602 -23.67 -4.237 6
-2.491 -22.484 -4.306 5
-2.384 -21.39 -4.365 23
-2.294 -20.417 -4.431 27
-2.212 -19.564 -4.51 9
-2.141 -18.784 -4.589 7
-2.065 -18.008 -4.644 7
-1.999 -17.294 -4.7 7
-1.934 -16.623 -4.752 8
-1.875 -15.982 -4.795 9
-1.818 -15.397 -4.845 8
-1.76 -14.809 -4.874 7
-1.714 -14.3 -4.927 9
-1.669 -13.826 -4.983 8
-1.626 -13.354 -5.024 6
-1.577 -12.865 -5.039 7
-1.539 -12.446 -5.082 10
-1.499 -12.033 -5.117 11
-1.463 -11.639 -5.15 10
-1.426 -11.261 -5.182 12
-1.392 -10.891 -5.207 11
-1.357 -10.533 -5.23 11
-1.111 -8.558 -3.93 0
-1.095 -8.351 -4.007 13
-1.075 -8.128 -4.066 12
-3.678 -34.087 -3.01 38
-3.604 -33.144 -3.443 30
-2.858 -26.124 -2.553 11
-2.795 -25.351 -2.853 53
-2.789 -25.137 -3.267 56
-2.816 -25.226 -3.759 4
-2.811 -24.986 -4.165 6
-2.681 -23.681 -4.24 6
-2.568 -22.503 -4.312 5
-2.457 -21.398 -4.368 23
-2.363 -20.421 -4.433 13
-2.278 -19.565 -4.51 9
-2.205 -18.785 -4.59 7
-2.127 -18.006 -4.643 7
-2.06 -17.295 -4.7 7
-1.993 -16.625 -4.753 7
-1.932 -15.984 -4.796 9
-1.873 -15.399 -4.846 8
-1.815 -14.818 -4.879 7
-1.765 -14.296 -4.924 8
-1.719 -13.825 -4.982 8
-1.676 -13.36 -5.028 5
-1.626 -12.875 -5.045 8
-1.586 -12.445 -5.082 10
-1.544 -12.029 -5.114 9
-1.507 -11.635 -5.147 10
-1.469 -11.26 -5.181 11
-1.435 -10.894 -5.209 11
-1.399 -10.537 -5.232 12
-1.137 -8.497 -3.881 10
-1.118 -8.275 -3.943 9
-1.097 -8.051 -3.999 12
-3.782 -34.069 -3.007 35
-3.702 -33.086 -3.431 36
-2.935 -26.068 -2.541 11
-2.876 -25.347 -2.852 42
-2.87 -25.14 -3.268 56
-2.901 -25.249 -3.766 10
-2.893 -24.985 -4.164 6
-2.759 -23.685 -4.241 6
-2.641 -22.495 -4.309 5
-2.528 -21.395 -4.367 22
-2.434 -20.44 -4.44 10
-2.346 -19.572 -4.513 9
-2.27 -18.793 -4.593 8
-2.189 -18.003 -4.642 8
-2.12 -17.293 -4.699 7
-2.051 -16.627 -4.753 8
-1.988 -15.981 -4.795 9
-1.927 -15.39 -4.842 8
-1.867 -14.809 -4.874 7
-1.817 -14.291 -4.921 9
-1.77 -13.824 -4.981 8
-1.725 -13.358 -5.027 7
-1.673 -12.87 -5.042 9
-1.632 -12.441 -5.079 9
-1.59 -12.032 -5.115 10
-1.551 -11.635 -5.147 10
-1.513 -11.26 -5.181 12
-1.477 -10.894 -5.209 10
-1.44 -10.536 -5.232 10
-1.159 -8.41 -3.811 12
-1.142 -8.205 -3.885 8
-1.119 -7.977 -3.934 7
-3.883 -34.026 -3.0 28
-3.806 -33.091 -3.432 33
-3.015 -26.052 -2.537 20
-2.957 -25.35 -2.853 1
-2.952 -25.151 -3.271 54
-2.983 -25.252 -3.766 15
-2.974 -24.983 -4.164 6
-2.838 -23.692 -4.243 5
-2.718 -22.51 -4.314 5
-2.601 -21.405 -4.37 19
-2.503 -20.441 -4.44 9
-2.412 -19.573 -4.513 9
-2.335 -18.794 -4.593 8
-2.251 -18.004 -4.642 7
-2.18 -17.298 -4.702 7
-2.11 -16.628 -4.754 9
-2.044 -15.979 -4.794 9
-1.982 -15.392 -4.843 7
-1.921 -14.818 -4.879 7
-1.869 -14.296 -4.924 8
-1.82 -13.826 -4.982 7
-1.774 -13.358 -5.026 8
-1.721 -12.865 -5.039 8
-1.679 -12.444 -5.081 10
-1.635 -12.028 -5.113 10
-1.596 -11.634 -5.146 10
-1.556 -11.259 -5.18 12
-1.52 -10.893 -5.209 11
-1.201 -8.543 -3.675 5
-1.182 -8.337 -3.751 12
-1.162 -8.121 -3.814 10
-1.378 -9.543 -5.296 27
-3.999 -34.104 -3.013 40
-3.915 -33.133 -3.44 46
-3.093 -26.008 -2.528 13
0.0 -0.0 3.0 0
-3.035 -25.165 -3.274 53
-3.085 -25.419 -3.811 4
-3.057 -24.993 -4.167 6
-2.916 -23.691 -4.243 6
-2.793 -22.509 -4.314 6
-2.673 -21.409 -4.372 18
-2.573 -20.448 -4.442 9
-2.48 -19.577 -4.515 9
-2.399 -18.79 -4.592 7
-2.314 -18.005 -4.643 8
-2.24 -17.295 -4.7 8
-2.168 -16.625 -4.753 7
-2.1 -15.978 -4.793 9
-2.037 -15.394 -4.843 7
-1.975 -14.82 -4.88 8
-1.921 -14.294 -4.923 9
-1.871 -13.827 -4.983 5
-1.823 -13.356 -5.025 8
-1.769 -12.865 -5.039 8
-1.726 -12.443 -5.08 9
-1.681 -12.03 -5.114 10
-1.641 -11.64 -5.15 10
-1.599 -11.255 -5.177 11
-1.562 -10.889 -5.206 10
-1.224 -8.466 -3.614 12
-1.203 -8.256 -3.686 8
-1.183 -8.036 -3.743 11
-1.417 -9.549 -5.301 38
-4.121 -34.236 -3.037 29
-4.027 -33.192 -3.452 40
-3.171 -25.971 -2.52 12
-3.121 -25.366 -2.856 1
-3.117 -25.175 -3.277 54
-3.142 -25.214 -3.756 21
-3.139 -24.995 -4.167 6
-2.995 -23.697 -4.245 6
-2.869 -22.52 -4.317 5
-2.746 -21.416 -4.374 15
-2.642 -20.448 -4.442 9
-2.546 -19.577 -4.515 9
-2.463 -18.788 -4.591 8
-2.376 -18.009 -4.644 7
-2.3 -17.289 -4.697 7
-2.226 -16.619 -4.75 8
-2.156 -15.971 -4.79 9
-2.094 -15.402 -4.848 7
-2.028 -14.821 -4.881 7
-1.973 -14.292 -4.922 8
-1.922 -13.826 -4.982 4
-1.872 -13.354 -5.024 7
-1.816 -12.863 -5.038 8
-1.773 -12.445 -5.082 10
-1.726 -12.026 -5.112 9
-1.685 -11.633 -5.145 10
-1.643 -11.258 -5.179 10
-1.604 -10.892 -5.208 11
-1.245 -8.384 -3.55 9
-1.223 -8.171 -3.616 9
-1.203 -7.96 -3.679 7
-1.455 -9.546 -5.298 39
-4.211 -34.095 -3.012 5
-4.137 -33.238 -3.461 40
-3.251 -25.949 -2.516 13
0.0 -0.0 3.0 0
-3.201 -25.196 -3.282 50
-3.224 -25.212 -3.756 2
-3.222 -25.005 -4.17 6
-3.074 -23.703 -4.247 6
-2.944 -22.519 -4.317 5
-2.816 -21.408 -4.372 31
-2.712 -20.455 -4.445 9
-2.612 -19.573 -4.513 9
-2.528 -18.788 -4.591 8
-2.439 -18.009 -4.644 7
-2.36 -17.289 -4.697 8
-2.285 -16.623 -4.752 8
-2.214 -15.976 -4.792 9
-2.149 -15.403 -4.848 7
-2.083 -14.826 -4.883 7
-2.025 -14.294 -4.923 8
-1.972 -13.824 -4.981 8
-1.921 -13.349 -5.021 8
-1.865 -12.865 -5.039 8
-1.819 -12.443 -5.081 8
-1.772 -12.031 -5.115 9
-1.728 -11.628 -5.142 10
-1.687 -11.26 -5.181 10
-1.288 -8.515 -3.417 9
-1.264 -8.293 -3.48 6
-1.241 -8.078 -3.541 8
-1.532 -9.874 -5.285 11
-1.494 -9.542 -5.295 40
-4.343 -34.302 -3.048 2
-4.255 -33.346 -3.482 31
-3.329 -25.921 -2.51 15
0.0 -0.0 3.0 0
-3.285 -25.213 -3.286 53
-3.338 -25.46 -3.822 3
-3.305 -25.011 -4.172 6
-3.153 -23.709 -4.249 6
-3.019 -22.521 -4.318 5
-2.888 -21.407 -4.371 32
-2.781 -20.451 -4.443 9
-2.68 -19.581 -4.516 9
-2.592 -18.788 -4.591 8
-2.5 -17.999 -4.64 7
-2.421 -17.293 -4.699 8
-2.342 -16.617 -4.749 8
-2.271 -15.98 -4.794 9
-2.204 -15.403 -4.848 8
-2.136 -14.827 -4.884 7
-2.077 -14.292 -4.922 8
-2.023 -13.822 -4.98 8
-1.971 -13.354 -5.024 8
-1.912 -12.86 -5.036 8
-1.866 -12.441 -5.08 9
-1.817 -12.026 -5.112 9
-1.774 -11.634 -5.146 10
-1.73 -11.256 -5.178 12
-1.318 -8.499 -3.405 9
-1.284 -8.212 -3.416 8
-1.261 -7.998 -3.477 11
-1.57 -9.864 -5.277 13
-1.533 -9.548 -5.3 38
-4.926 -37.965 -3.694 7
-4.363 -33.361 -3.485 27
-3.409 -25.902 -2.506 15
0.0 -0.0 3.0 0
-3.369 -25.234 -3.292 54
-3.395 -25.265 -3.77 10
-3.389 -25.024 -4.175 6
-3.232 -23.715 -4.25 6
-3.096 -22.535 -4.322 5
-2.961 -21.417 -4.375 33
-2.85 -20.45 -4.443 9
-2.746 -19.576 -4.515 9
-2.658 -18.794 -4.593 7
-2.563 -18.006 -4.643 8
-2.482 -17.293 -4.699 8
-2.401 -16.617 -4.749 8
-2.327 -15.974 -4.791 9
-2.26 -15.408 -4.851 8
-2.19 -14.828 -4.884 8
-2.13 -14.3 -4.926 8
-2.074 -13.823 -4.981 8
-2.02 -13.349 -5.021 7
-1.96 -12.861 -5.037 6
-1.914 -12.447 -5.083 9
-1.863 -12.028 -5.113 9
-1.818 -11.632 -5.145 10
-1.773 -11.255 -5.177 11
-1.351 -8.496 -3.402 5
-1.317 -8.215 -3.419 2
-1.284 -7.945 -3.434 6
-1.611 -9.873 -5.284 16
-1.571 -9.545 -5.297 39
-5.05 -38.0 -3.701 7
-4.47 -33.379 -3.488 28
-3.49 -25.892 -2.503 15
0.0 -0.0 3.0 0
-3.452 -25.247 -3.295 56
-3.481 -25.294 -3.777 17
-3.472 -25.029 -4.177 7
-3.312 -23.72 -4.252 6
-3.171 -22.533 -4.321 5
-3.034 -21.419 -4.375 16
-2.92 -20.456 -4.446 9
-2.814 -19.583 -4.517 9
-2.722 -18.794 -4.593 8
-2.626 -18.005 -4.643 8
-2.542 -17.293 -4.699 8
-2.46 -16.618 -4.749 8
-2.384 -15.974 -4.791 9
-2.314 -15.402 -4.848 8
-2.244 -14.829 -4.885 8
-2.182 -14.298 -4.925 8
-2.125 -13.828 -4.983 7
-2.068 -13.343 -5.018 7
-2.009 -12.866 -5.039 8
-1.961 -12.448 -5.084 10
-1.909 -12.03 -5.114 10
-1.863 -11.634 -5.146 9
-1.816 -11.253 -5.176 11
-1.774 -10.888 -5.205 11
-1.366 -8.318 -3.499 5
-1.316 -7.945 -3.434 4
-1.651 -9.869 -5.281 14
-1.61 -9.544 -5.297 36
-5.171 -38.017 -3.703 7
-4.579 -33.404 -3.493 23
-3.571 -25.878 -2.501 15
0.0 -0.0 3.0 0
-3.536 -25.26 -3.298 56
-3.568 -25.325 -3.786 10
-3.555 -25.034 -4.178 6
-3.391 -23.725 -4.253 6
-3.246 -22.535 -4.322 5
-3.107 -21.429 -4.379 14
-2.99 -20.458 -4.446 10
-2.88 -19.578 -4.515 9
-2.787 -18.79 -4.592 8
-2.689 -18.009 -4.644 8
-2.602 -17.29 -4.698 8
-2.519 -16.622 -4.751 8
-2.442 -15.981 -4.795 9
-2.37 -15.403 -4.848 8
-2.297 -14.826 -4.883 7
-2.234 -14.299 -4.926 8
-2.175 -13.823 -4.98 7
-2.119 -13.349 -5.021 7
-2.057 -12.864 -5.038 7
-2.008 -12.447 -5.083 9
-1.954 -12.025 -5.111 10
-1.908 -11.632 -5.145 8
-1.86 -11.255 -5.177 12
-1.816 -10.886 -5.203 12
-1.435 -8.53 -3.665 0
-1.349 -7.954 -3.441 1
-1.69 -9.868 -5.28 14
-1.649 -9.544 -5.296 37
-5.292 -38.028 -3.705 8
-4.686 -33.413 -3.495 28
-3.652 -25.871 -2.499 16
0.0 -0.0 3.0 0
-3.619 -25.268 -3.3 56
-3.651 -25.326 -3.786 15
-3.638 -25.042 -4.181 6
-3.47 -23.73 -4.255 6
-3.323 -22.548 -4.326 5
-3.181 -21.442 -4.383 12
-3.06 -20.461 -4.447 9
-2.947 -19.577 -4.515 9
-2.852 -18.796 -4.594 8
-2.752 -18.015 -4.647 8
-2.663 -17.293 -4.7 8
-2.577 -16.618 -4.749 8
-2.497 -15.975 -4.792 10
-2.425 -15.406 -4.85 8
-2.351 -14.827 -4.884 8
-2.286 -14.299 -4.926 8
-2.226 -13.823 -4.981 7
-2.168 -13.35 -5.021 7
-2.106 -12.869 -5.041 8
-2.055 -12.448 -5.084 10
-2.0 -12.027 -5.112 9
-1.952 -11.631 -5.144 9
-1.903 -11.25 -5.174 12
-1.86 -10.892 -5.207 11
-1.813 -10.532 -5.229 12
-1.482 -8.54 -3.915 3
-1.395 -7.956 -3.676 5
-1.687 -9.539 -5.292 40
-5.416 -38.063 -3.712 7
-4.794 -33.43 -3.498 23
-3.733 -25.86 -2.497 15
0.0 -0.0 3.0 0
-3.702 -25.28 -3.303 55
-3.736 -25.346 -3.791 15
-3.722 -25.05 -4.183 6
-3.55 -23.735 -4.257 6
-3.398 -22.541 -4.324 5
-3.255 -21.452 -4.386 12
-3.131 -20.471 -4.451 9
-3.015 -19.579 -4.516 9
-2.916 -18.792 -4.592 8
-2.815 -18.014 -4.647 8
-2.725 -17.3 -4.702 8
-2.636 -16.621 -4.75 8
-2.554 -15.975 -4.792 9
-2.481 -15.406 -4.85 8
-2.405 -14.827 -4.884 7
-2.339 -14.3 -4.926 8
-2.277 -13.82 -4.979 7
-2.218 -13.35 -5.022 7
-2.154 -12.867 -5.04 7
-2.102 -12.446 -5.083 10
-2.047 -12.028 -5.113 10
-1.997 -11.632 -5.145 9
-1.947 -11.252 -5.175 11
-1.902 -10.887 -5.204 12
-1.855 -10.531 -5.228 12
-1.812 -10.202 -5.261 13
-1.511 -8.424 -4.069 0
-1.488 -8.223 -4.148 1
-5.539 -38.086 -3.716 6
-4.902 -33.443 -3.501 22
-3.816 -25.86 -2.497 12
0.0 -0.0 3.0 0
-3.785 -25.288 -3.305 54
-3.821 -25.357 -3.794 14
-3.806 -25.062 -4.186 6
-3.631 -23.751 -4.261 5
-3.475 -22.55 -4.327 4
-3.328 -21.453 -4.387 11
-3.2 -20.469 -4.45 9
-3.083 -19.586 -4.518 9
-2.983 -18.801 -4.596 8
-2.878 -18.014 -4.646 8
-2.786 -17.299 -4.702 5
-2.695 -16.621 -4.75 8
-2.611 -15.974 -4.791 9
-2.536 -15.403 -4.848 7
-2.458 -14.828 -4.884 8
-2.389 -14.29 -4.921 8
-2.327 -13.817 -4.977 7
-2.267 -13.344 -5.018 7
-2.203 -12.87 -5.042 7
-2.148 -12.444 -5.081 9
-2.092 -12.026 -5.112 8
-2.041 -11.627 -5.141 7
-1.991 -11.253 -5.176 10
-1.943 -10.882 -5.2 13
-1.896 -10.53 -5.227 13
-1.851 -10.192 -5.253 13
-1.557 -8.49 -4.124 5
-1.476 -7.977 -3.934 4
-5.664 -38.12 -3.722 7
-5.01 -33.455 -3.503 21
-3.887 -25.786 -2.481 2
-4.004 -26.356 -3.085 0
-3.868 -25.292 -3.306 53
-3.906 -25.368 -3.797 15
-3.89 -25.069 -4.188 7
-3.709 -23.747 -4.26 5
-3.554 -22.574 -4.335 4
-3.4 -21.455 -4.387 10
-3.271 -20.474 -4.452 9
-3.151 -19.591 -4.52 9
-3.048 -18.804 -4.597 7
-2.94 -18.013 -4.646 7
-2.847 -17.302 -4.703 8
-2.754 -16.62 -4.75 8
-2.668 -15.97 -4.789 9
-2.591 -15.403 -4.848 8
-2.512 -14.828 -4.884 8
-2.443 -14.297 -4.925 8
-2.378 -13.818 -4.978 7
-2.317 -13.348 -5.02 7
-2.252 -12.875 -5.045 7
-2.195 -12.441 -5.079 9
-2.138 -12.027 -5.113 10
-2.087 -11.631 -5.144 7
-2.035 -11.255 -5.177 11
-1.988 -10.89 -5.207 11
-1.938 -10.531 -5.228 13
-1.891 -10.19 -5.252 12
-1.848 -9.86 -5.274 15
-1.548 -8.189 -4.118 4
-5.127 -33.789 -2.958 9
-5.115 -33.448 -3.502 20
-3.974 -25.814 -2.487 2
-3.949 -25.454 -2.876 2
-3.953 -25.308 -3.31 54
-3.992 -25.387 -3.802 15
-3.973 -25.069 -4.189 6
-3.79 -23.759 -4.264 5
-3.63 -22.574 -4.335 4
-3.474 -21.463 -4.39 11
-3.341 -20.476 -4.453 10
-3.219 -19.596 -4.522 9
-3.113 -18.802 -4.596 8
-3.003 -18.015 -4.647 8
-2.908 -17.304 -4.704 8
-2.813 -16.62 -4.75 8
-2.725 -15.97 -4.789 9
-2.646 -15.399 -4.846 7
-2.565 -14.824 -4.882 7
-2.495 -14.294 -4.923 9
-2.429 -13.815 -4.976 7
-2.365 -13.339 -5.015 7
-2.3 -12.872 -5.044 8
-2.242 -12.442 -5.08 9
-2.184 -12.028 -5.113 9
-2.131 -11.626 -5.14 6
-2.079 -11.253 -5.176 12
-2.029 -10.882 -5.2 10
-1.98 -10.533 -5.229 11
-1.933 -10.195 -5.256 13
-1.888 -9.862 -5.275 14
-1.656 -8.576 -4.455 2
-5.237 -33.817 -2.963 12
-5.225 -33.471 -3.506 27
-4.062 -25.852 -2.495 1
-4.033 -25.465 -2.879 1
-4.037 -25.319 -3.313 53
-4.076 -25.394 -3.804 14
-4.058 -25.087 -4.194 6
-3.871 -23.771 -4.267 6
-3.705 -22.571 -4.334 5
-3.546 -21.46 -4.389 11
-3.411 -20.477 -4.453 10
-3.287 -19.598 -4.523 19
-3.178 -18.8 -4.596 8
-3.065 -18.01 -4.645 7
-2.968 -17.296 -4.701 9
-2.872 -16.622 -4.751 8
-2.782 -15.97 -4.789 9
-2.702 -15.398 -4.846 7
-2.619 -14.82 -4.88 8
-2.547 -14.294 -4.923 9
-2.48 -13.818 -4.978 7
-2.416 -13.346 -5.019 7
-2.348 -12.873 -5.044 7
-2.29 -12.446 -5.082 9
-2.229 -12.022 -5.109 10
-2.176 -11.63 -5.144 5
-2.122 -11.251 -5.174 11
-2.072 -10.884 -5.201 10
-2.022 -10.531 -5.228 13
-1.973 -10.19 -5.252 12
-1.928 -9.864 -5.277 14
-1.881 -9.537 -5.29 38
-5.347 -33.841 -2.967 19
-5.333 -33.483 -3.508 20
-4.156 -25.917 -2.509 1
0.0 -0.0 3.0 0
-4.121 -25.329 -3.315 54
-4.161 -25.404 -3.807 16
-4.141 -25.087 -4.193 6
-3.951 -23.774 -4.268 6
-3.781 -22.575 -4.335 4
-3.62 -21.465 -4.391 10
-3.481 -20.482 -4.455 9
-3.352 -19.585 -4.518 36
-3.245 -18.809 -4.599 8
-3.129 -18.015 -4.647 7
-3.029 -17.298 -4.702 8
-2.931 -16.621 -4.75 8
-2.84 -15.972 -4.79 9
-2.756 -15.395 -4.844 7
-2.673 -14.82 -4.88 8
-2.599 -14.294 -4.923 9
-2.531 -13.815 -4.976 7
-2.465 -13.34 -5.015 8
-2.397 -12.873 -5.044 8
-2.337 -12.443 -5.081 10
-2.276 -12.023 -5.11 10
-2.221 -11.628 -5.142 6
-2.166 -11.252 -5.175 13
-2.116 -10.888 -5.205 10
-2.063 -10.529 -5.226 12
-2.013 -10.189 -5.251 12
-1.967 -9.86 -5.273 14
-1.92 -9.536 -5.289 37
-5.413 -33.587 -2.922 26
-5.44 -33.487 -3.509 20
-4.249 -25.982 -2.523 0
0.0 -0.0 3.0 0
-4.205 -25.34 -3.318 54
-4.247 -25.419 -3.811 15
-4.225 -25.093 -4.195 6
-4.032 -23.781 -4.271 6
-3.858 -22.579 -4.336 5
-3.695 -21.48 -4.396 10
-3.552 -20.485 -4.456 9
-3.419 -19.586 -4.518 42
-3.31 -18.81 -4.6 8
-3.193 -18.017 -4.648 7
-3.09 -17.301 -4.703 8
-2.99 -16.62 -4.75 8
-2.896 -15.968 -4.788 9
-2.811 -15.39 -4.842 7
-2.727 -14.819 -4.879 8
-2.653 -14.296 -4.925 9
-2.582 -13.815 -4.976 7
-2.515 -13.34 -5.015 8
-2.445 -12.87 -5.042 8
-2.385 -12.447 -5.083 9
-2.322 -12.024 -5.11 9
-2.265 -11.626 -5.14 10
-2.21 -11.25 -5.174 11
-2.157 -10.879 -5.198 11
-2.105 -10.53 -5.227 12
-2.055 -10.193 -5.254 11
-2.007 -9.858 -5.272 14
-1.958 -9.535 -5.288 29
-5.519 -33.586 -2.922 16
-5.551 -33.516 -3.515 28
-4.343 -26.042 -2.535 7
0.0 -0.0 3.0 0
-4.29 -25.35 -3.32 55
-4.333 -25.437 -3.816 16
-4.312 -25.114 -4.201 7
-4.111 -23.784 -4.271 6
-3.936 -22.589 -4.34 5
-3.767 -21.476 -4.395 10
-3.624 -20.494 -4.459 9
-3.488 -19.591 -4.52 33
-3.375 -18.808 -4.599 8
-3.255 -18.012 -4.646 7
-3.15 -17.292 -4.699 7
-3.049 -16.618 -4.749 8
-2.954 -15.973 -4.791 9
-2.867 -15.393 -4.843 8
-2.781 -14.823 -4.881 8
-2.704 -14.289 -4.921 9
-2.633 -13.812 -4.974 8
-2.565 -13.342 -5.017 8
-2.493 -12.867 -5.04 8
-2.431 -12.441 -5.079 9
-2.368 -12.021 -5.108 10
-2.311 -11.63 -5.143 10
-2.254 -11.25 -5.174 10
-2.201 -10.884 -5.201 11
-2.146 -10.525 -5.223 10
-2.095 -10.188 -5.25 12
-2.048 -9.862 -5.275 14
-1.998 -9.536 -5.289 37
-5.606 -33.469 -2.901 18
-5.657 -33.511 -3.514 21
-4.44 -26.122 -2.552 6
0.0 -0.0 3.0 0
-4.375 -25.364 -3.324 54
-4.419 -25.446 -3.818 17
-4.396 -25.117 -4.202 7
-4.193 -23.794 -4.275 5
-4.014 -22.6 -4.343 5
-3.842 -21.483 -4.397 10
-3.693 -20.487 -4.456 9
-3.554 -19.583 -4.517 14
-3.44 -18.806 -4.598 8
-3.32 -18.02 -4.649 7
-3.212 -17.297 -4.701 8
-3.109 -16.623 -4.752 7
-3.012 -15.976 -4.792 9
-2.923 -15.392 -4.843 7
-2.835 -14.818 -4.879 8
-2.757 -14.292 -4.922 9
-2.685 -13.818 -4.978 8
-2.614 -13.339 -5.015 8
-2.541 -12.867 -5.04 8
-2.479 -12.441 -5.079 9
-2.414 -12.025 -5.111 9
-2.355 -11.623 -5.139 10
-2.297 -11.245 -5.17 11
-2.244 -10.885 -5.202 11
-2.189 -10.529 -5.226 10
-2.135 -10.183 -5.246 12
-2.087 -9.858 -5.272 14
-2.037 -9.537 -5.29 35
-5.753 -33.712 -2.944 2
-5.766 -33.521 -3.516 21
-4.551 -26.278 -2.586 2
0.0 -0.0 3.0 0
-4.459 -25.374 -3.326 53
-4.506 -25.463 -3.823 17
-4.48 -25.119 -4.203 7
-4.276 -23.812 -4.28 5
-4.091 -22.603 -4.344 5
-3.916 -21.491 -4.4 10
-3.765 -20.502 -4.462 8
-3.626 -19.607 -4.526 10
-3.506 -18.807 -4.598 8
-3.382 -18.015 -4.647 7
-3.273 -17.294 -4.7 8
-3.169 -16.625 -4.753 7
-3.07 -15.978 -4.793 9
-2.979 -15.394 -4.844 7
-2.889 -14.82 -4.88 8
-2.81 -14.295 -4.924 8
-2.737 -13.818 -4.978 7
-2.664 -13.339 -5.015 8
-2.59 -12.867 -5.04 7
-2.525 -12.438 -5.077 9
-2.461 -12.025 -5.111 9
-2.401 -11.628 -5.142 10
-2.341 -11.246 -5.171 11
-2.286 -10.878 -5.197 11
-2.23 -10.527 -5.225 12
-2.177 -10.19 -5.252 13
-2.127 -9.856 -5.27 13
-2.075 -9.533 -5.286 34
-6.663 -38.334 -3.759 6
-5.875 -33.535 -3.518 21
-5.715 -32.395 -3.886 13
0.0 -0.0 3.0 0
-4.545 -25.391 -3.331 54
-4.591 -25.472 -3.825 19
-4.565 -25.132 -4.206 6
-4.354 -23.802 -4.277 6
-4.169 -22.614 -4.348 5
-3.99 -21.494 -4.401 9
-3.835 -20.498 -4.461 9
-3.695 -19.611 -4.528 8
-3.572 -18.81 -4.6 8
-3.445 -18.012 -4.646 7
-3.334 -17.296 -4.701 8
-3.227 -16.62 -4.75 8
-3.127 -15.972 -4.79 9
-3.035 -15.393 -4.843 7
-2.943 -14.816 -4.878 8
-2.863 -14.294 -4.923 8
-2.788 -13.817 -4.977 8
-2.714 -13.335 -5.012 7
-2.638 -12.867 -5.04 8
-2.574 -12.441 -5.08 10
-2.506 -12.018 -5.106 9
-2.446 -11.628 -5.142 11
-2.385 -11.246 -5.171 11
-2.328 -10.876 -5.196 12
-2.272 -10.525 -5.223 12
-2.217 -10.185 -5.248 11
-2.167 -9.857 -5.271 12
-2.115 -9.534 -5.287 34
-6.791 -38.369 -3.765 6
-5.988 -33.567 -3.525 24
-5.82 -32.401 -3.887 14
0.0 -0.0 3.0 0
-4.63 -25.4 -3.333 53
-4.678 -25.489 -3.83 20
-4.651 -25.144 -4.21 6
-4.436 -23.816 -4.281 6
-4.246 -22.616 -4.348 4
-4.064 -21.497 -4.402 9
-3.907 -20.505 -4.463 9
-3.762 -19.611 -4.528 9
-3.639 -18.815 -4.602 8
-3.509 -18.02 -4.649 5
-3.395 -17.293 -4.7 8
-3.286 -16.618 -4.749 8
-3.185 -15.978 -4.793 9
-3.091 -15.391 -4.842 8
-2.997 -14.815 -4.877 8
-2.915 -14.29 -4.921 9
-2.839 -13.816 -4.977 8
-2.764 -13.337 -5.014 7
-2.686 -12.863 -5.038 9
-2.621 -12.441 -5.079 9
-2.552 -12.019 -5.107 9
-2.491 -11.625 -5.14 10
-2.429 -11.246 -5.171 11
-2.372 -10.88 -5.198 11
-2.314 -10.525 -5.223 11
-2.258 -10.183 -5.246 12
-2.207 -9.855 -5.269 13
-2.153 -9.532 -5.286 29
-6.919 -38.403 -3.771 6
-6.091 -33.542 -3.52 32
-5.925 -32.407 -3.888 14
0.0 -0.0 3.0 0
-4.716 -25.417 -3.337 54
-4.764 -25.498 -3.832 21
-4.736 -25.149 -4.211 6
-4.518 -23.829 -4.285 5
-4.324 -22.626 -4.352 5
-4.138 -21.504 -4.404 8
-3.977 -20.505 -4.463 9
-3.831 -19.614 -4.529 9
-3.705 -18.819 -4.603 8
-3.573 -18.02 -4.649 7
-3.457 -17.294 -4.7 7
-3.346 -16.619 -4.75 8
-3.243 -15.976 -4.792 9
-3.148 -15.396 -4.845 7
-3.051 -14.817 -4.878 8
-2.968 -14.292 -4.922 8
-2.89 -13.815 -4.976 7
-2.814 -13.337 -5.014 7
-2.736 -12.866 -5.04 8
-2.668 -12.437 -5.077 9
-2.598 -12.015 -5.104 10
-2.535 -11.618 -5.135 10
-2.474 -11.247 -5.171 11
-2.415 -10.878 -5.197 11
-2.356 -10.523 -5.222 12
-2.3 -10.186 -5.249 15
-2.247 -9.855 -5.269 14
-2.192 -9.53 -5.284 34
-7.046 -38.428 -3.776 6
-6.207 -33.589 -3.529 24
-6.03 -32.408 -3.888 14
0.0 -0.0 3.0 0
-4.802 -25.429 -3.34 53
-4.852 -25.514 -3.836 21
-4.822 -25.157 -4.214 6
-4.599 -23.83 -4.286 6
-4.402 -22.632 -4.354 5
-4.214 -21.513 -4.408 8
-4.051 -20.522 -4.469 9
-3.901 -19.621 -4.532 8
-3.771 -18.819 -4.603 7
-3.637 -18.021 -4.649 6
-3.519 -17.299 -4.702 8
-3.405 -16.62 -4.75 8
-3.3 -15.973 -4.791 9
-3.201 -15.384 -4.839 8
-3.106 -14.818 -4.879 8
-3.02 -14.287 -4.919 8
-2.942 -13.814 -4.975 7
-2.865 -13.339 -5.015 8
-2.783 -12.859 -5.035 8
-2.716 -12.44 -5.079 9
-2.645 -12.018 -5.106 10
-2.581 -11.621 -5.137 11
-2.518 -11.247 -5.171 10
-2.458 -10.878 -5.197 11
-2.398 -10.523 -5.222 12
-2.341 -10.184 -5.247 13
-2.286 -9.85 -5.265 13
-2.231 -9.528 -5.283 35
-7.175 -38.469 -3.783 7
-6.322 -33.628 -3.537 22
-6.138 -32.424 -3.892 13
-4.885 -25.601 -2.91 7
-4.889 -25.445 -3.344 52
-4.938 -25.526 -3.84 23
-4.907 -25.166 -4.216 7
-4.681 -23.843 -4.289 6
-4.48 -22.637 -4.355 4
-4.288 -21.519 -4.41 10
-4.121 -20.517 -4.468 12
-3.969 -19.624 -4.533 9
-3.838 -18.823 -4.605 8
-3.702 -18.028 -4.653 7
-3.58 -17.295 -4.7 9
-3.465 -16.618 -4.749 8
-3.357 -15.971 -4.79 9
-3.258 -15.386 -4.839 6
-3.16 -14.817 -4.878 8
-3.072 -14.282 -4.917 9
-2.994 -13.816 -4.977 7
-2.915 -13.339 -5.015 8
-2.833 -12.861 -5.037 8
-2.763 -12.436 -5.076 9
-2.691 -12.018 -5.106 10
-2.625 -11.618 -5.135 10
-2.561 -11.244 -5.169 11
-2.5 -10.875 -5.195 12
-2.44 -10.524 -5.222 9
-2.383 -10.188 -5.25 11
-2.326 -9.851 -5.266 14
-2.27 -9.525 -5.28 35
-7.304 -38.502 -3.789 6
-6.432 -33.636 -3.538 22
-6.243 -32.421 -3.891 14
-4.969 -25.604 -2.911 34
-4.975 -25.457 -3.347 53
-5.026 -25.541 -3.844 25
-4.993 -25.174 -4.218 6
-4.762 -23.844 -4.29 6
-4.559 -22.647 -4.358 4
-4.363 -21.525 -4.412 10
-4.19 -20.509 -4.465 33
-4.039 -19.631 -4.535 9
-3.904 -18.825 -4.606 8
-3.764 -18.021 -4.649 6
-3.643 -17.3 -4.702 8
-3.526 -16.625 -4.753 7
-3.415 -15.972 -4.79 9
-3.315 -15.39 -4.842 7
-3.214 -14.811 -4.875 8
-3.124 -14.281 -4.916 9
-3.046 -13.818 -4.978 7
-2.965 -13.338 -5.014 8
-2.881 -12.861 -5.036 8
-2.811 -12.439 -5.078 10
-2.737 -12.014 -5.104 10
-2.671 -11.621 -5.137 10
-2.606 -11.243 -5.169 10
-2.543 -10.872 -5.192 10
-2.482 -10.521 -5.22 10
-2.422 -10.179 -5.243 13
-2.365 -9.845 -5.261 13
-2.31 -9.53 -5.284 30
-7.431 -38.523 -3.793 6
-6.538 -33.628 -3.537 34
-6.35 -32.433 -3.894 14
-5.056 -25.62 -2.915 0
-5.062 -25.473 -3.351 52
-5.111 -25.542 -3.844 32
-5.079 -25.182 -4.221 6
-4.846 -23.864 -4.296 5
-4.636 -22.648 -4.359 5
-4.437 -21.527 -4.412 10
-4.262 -20.516 -4.467 24
-4.107 -19.63 -4.535 8
-3.971 -18.828 -4.607 8
-3.829 -18.025 -4.651 7
-3.704 -17.3 -4.702 8
-3.586 -16.626 -4.753 7
-3.473 -15.973 -4.791 8
-3.371 -15.391 -4.842 7
-3.269 -14.817 -4.878 8
-3.179 -14.285 -4.919 8
-3.096 -13.81 -4.973 8
-3.015 -13.333 -5.011 8
-2.932 -12.866 -5.04 7
-2.859 -12.438 -5.077 10
-2.784 -12.017 -5.106 10
-2.716 -11.617 -5.135 9
-2.649 -11.24 -5.166 10
-2.588 -10.878 -5.197 11
-2.525 -10.525 -5.223 13
-2.463 -10.179 -5.243 12
-2.406 -9.846 -5.261 15
-2.348 -9.524 -5.279 37
-7.563 -38.569 -3.801 6
-6.654 -33.667 -3.544 22
-6.455 -32.433 -3.894 14
0.0 -0.0 3.0 0
-5.149 -25.488 -3.355 52
-5.196 -25.541 -3.844 41
-5.164 -25.189 -4.223 6
-4.927 -23.864 -4.296 6
-4.715 -22.656 -4.361 5
-4.512 -21.533 -4.414 9
-4.335 -20.521 -4.469 24
-4.177 -19.636 -4.538 9
-4.037 -18.828 -4.607 7
-3.892 -18.021 -4.65 7
-3.765 -17.296 -4.701 8
-3.645 -16.623 -4.751 8
-3.531 -15.974 -4.791 9
-3.428 -15.392 -4.843 7
-3.323 -14.814 -4.877 8
-3.231 -14.284 -4.918 9
-3.148 -13.811 -4.974 8
-3.066 -13.335 -5.012 7
-2.98 -12.862 -5.037 8
-2.907 -12.437 -5.077 10
-2.831 -12.016 -5.105 10
-2.761 -11.617 -5.134 10
-2.694 -11.243 -5.168 11
-2.629 -10.871 -5.192 12
-2.566 -10.521 -5.22 11
-2.504 -10.176 -5.241 12
-2.447 -9.849 -5.264 12
-2.388 -9.524 -5.279 32
-7.693 -38.604 -3.807 6
-6.766 -33.685 -3.548 18
-6.56 -32.433 -3.894 14
-5.396 -26.469 -3.111 3
-5.234 -25.496 -3.357 48
-5.277 -25.522 -3.839 49
-5.252 -25.203 -4.227 6
-5.009 -23.872 -4.298 6
-4.795 -22.672 -4.367 5
-4.587 -21.538 -4.416 10
-4.403 -20.508 -4.464 20
-4.246 -19.638 -4.538 9
-4.104 -18.831 -4.608 7
-3.955 -18.02 -4.649 7
-3.828 -17.3 -4.702 8
-3.706 -16.626 -4.753 8
-3.589 -15.971 -4.789 9
-3.484 -15.393 -4.843 7
-3.379 -14.818 -4.879 8
-3.285 -14.286 -4.919 9
-3.2 -13.813 -4.975 7
-3.116 -13.333 -5.011 7
-3.029 -12.864 -5.038 8
-2.954 -12.433 -5.074 9
-2.877 -12.016 -5.105 10
-2.807 -11.616 -5.134 9
-2.737 -11.237 -5.164 10
-2.672 -10.868 -5.189 11
-2.609 -10.521 -5.22 11
-2.546 -10.18 -5.243 12
-2.487 -9.846 -5.262 13
-2.427 -9.525 -5.28 34
-7.823 -38.64 -3.813 6
-6.884 -33.73 -3.556 18
-6.668 -32.443 -3.896 14
-5.433 -26.227 -3.055 9
-5.319 -25.498 -3.357 49
-5.361 -25.518 -3.837 11
-5.338 -25.21 -4.229 5
-5.091 -23.875 -4.299 6
-4.872 -22.669 -4.365 5
-4.663 -21.543 -4.418 7
-4.477 -20.521 -4.469 12
-4.315 -19.641 -4.539 9
-4.171 -18.833 -4.609 8
-4.019 -18.016 -4.647 8
-3.89 -17.3 -4.702 7
-3.765 -16.623 -4.752 7
-3.648 -15.975 -4.792 9
-3.541 -15.394 -4.844 7
-3.433 -14.812 -4.876 7
-3.338 -14.283 -4.917 9
-3.253 -13.815 -4.976 6
-3.167 -13.335 -5.012 7
-3.078 -12.862 -5.037 8
-3.001 -12.432 -5.073 10
-2.923 -12.011 -5.101 10
-2.852 -11.616 -5.133 10
-2.783 -11.242 -5.168 11
-2.716 -10.871 -5.192 12
-2.651 -10.521 -5.22 11
-2.587 -10.179 -5.243 10
-2.527 -9.847 -5.263 14
-2.466 -9.522 -5.277 32
-7.957 -38.69 -3.822 6
-6.992 -33.724 -3.555 30
-6.775 -32.45 -3.898 14
-5.533 -26.291 -3.07 9
-5.404 -25.502 -3.358 51
-5.461 -25.588 -3.856 1
-5.425 -25.221 -4.232 6
-5.174 -23.886 -4.303 5
-4.952 -22.68 -4.369 5
-4.738 -21.547 -4.419 8
-4.552 -20.537 -4.475 9
-4.384 -19.639 -4.539 9
-4.236 -18.828 -4.607 8
-4.084 -18.022 -4.65 7
-3.953 -17.303 -4.704 7
-3.826 -16.626 -4.753 8
-3.705 -15.971 -4.79 9
-3.599 -15.397 -4.845 7
-3.489 -14.817 -4.878 7
-3.391 -14.28 -4.916 9
-3.304 -13.813 -4.975 6
-3.216 -13.33 -5.009 7
-3.127 -12.861 -5.036 9
-3.049 -12.43 -5.072 9
-2.969 -12.01 -5.101 9
-2.897 -11.615 -5.133 9
-2.827 -11.238 -5.165 9
-2.759 -10.87 -5.191 11
-2.692 -10.514 -5.215 11
-2.627 -10.173 -5.238 11
-2.567 -9.844 -5.26 13
-2.504 -9.517 -5.273 34
-8.093 -38.743 -3.831 6
-7.097 -33.707 -3.552 23
-6.881 -32.452 -3.898 15
-5.631 -26.347 -3.083 8
-5.489 -25.504 -3.359 51
-5.529 -25.508 -3.835 2
-5.513 -25.235 -4.236 6
-5.258 -23.897 -4.306 6
-5.031 -22.687 -4.372 4
-4.815 -21.559 -4.423 11
-4.623 -20.538 -4.475 10
-4.453 -19.64 -4.539 9
-4.304 -18.834 -4.609 8
-4.15 -18.032 -4.654 7
-4.015 -17.302 -4.703 7
-3.885 -16.623 -4.751 7
-3.764 -15.971 -4.79 8
-3.656 -15.402 -4.848 8
-3.542 -14.811 -4.875 8
-3.444 -14.281 -4.916 9
-3.356 -13.81 -4.973 6
-3.267 -13.331 -5.01 8
-3.177 -12.862 -5.037 8
-3.097 -12.432 -5.074 10
-3.017 -12.012 -5.102 10
-2.944 -11.617 -5.134 10
-2.87 -11.234 -5.162 10
-2.802 -10.866 -5.188 11
-2.734 -10.514 -5.215 12
-2.669 -10.173 -5.238 13
-2.607 -9.844 -5.26 14
-2.544 -9.52 -5.276 33
-8.222 -38.769 -3.836 6
-7.188 -33.625 -3.536 21
-6.987 -32.452 -3.898 16
-5.733 -26.417 -3.099 8
-5.574 -25.507 -3.36 52
-5.621 -25.54 -3.843 8
-5.6 -25.244 -4.239 7
-5.342 -23.911 -4.31 6
-5.111 -22.699 -4.375 5
-4.889 -21.559 -4.424 15
-4.696 -20.543 -4.477 9
-4.524 -19.65 -4.543 9
-4.37 -18.832 -4.609 8
-4.214 -18.027 -4.652 8
-4.077 -17.304 -4.704 8
-3.947 -16.629 -4.754 8
-3.822 -15.971 -4.79 9
-3.713 -15.402 -4.848 8
-3.597 -14.811 -4.875 8
-3.499 -14.286 -4.919 8
-3.407 -13.808 -4.972 8
-3.317 -13.326 -5.007 8
-3.226 -12.861 -5.036 8
-3.145 -12.431 -5.073 9
-3.063 -12.011 -5.101 10
-2.988 -11.612 -5.131 10
-2.915 -11.237 -5.164 9
-2.845 -10.866 -5.188 11
-2.777 -10.517 -5.217 13
-2.709 -10.17 -5.236 12
-2.647 -9.84 -5.257 13
-2.583 -9.517 -5.273 33
-7.188 -33.387 -2.887 8
-7.302 -33.645 -3.54 13
-7.095 -32.461 -3.9 16
-5.838 -26.499 -3.118 7
-5.66 -25.509 -3.36 52
-5.709 -25.549 -3.846 4
-5.689 -25.261 -4.243 6
-5.426 -23.925 -4.315 5
-5.192 -22.71 -4.379 5
-4.961 -21.548 -4.42 28
-4.768 -20.548 -4.479 9
-4.593 -19.651 -4.543 9
-4.438 -18.838 -4.611 6
-4.279 -18.033 -4.655 7
-4.139 -17.3 -4.702 8
-4.007 -16.629 -4.754 5
-3.881 -15.974 -4.791 9
-3.769 -15.398 -4.846 8
-3.652 -14.812 -4.875 8
-3.551 -14.28 -4.915 9
-3.46 -13.808 -4.972 8
-3.368 -13.33 -5.009 7
-3.274 -12.855 -5.033 8
-3.193 -12.429 -5.072 9
-3.11 -12.009 -5.1 10
-3.035 -11.615 -5.133 10
-2.96 -11.235 -5.163 10
-2.89 -10.869 -5.19 11
-2.82 -10.516 -5.216 12
-2.752 -10.173 -5.238 12
-2.688 -9.841 -5.257 14
-2.622 -9.514 -5.27 27
-7.277 -33.3 -2.872 1
-7.419 -33.684 -3.548 17
-7.202 -32.466 -3.901 16
-5.952 -26.618 -3.145 5
-5.746 -25.514 -3.361 49
-5.809 -25.616 -3.864 10
-5.777 -25.27 -4.246 6
-5.509 -23.931 -4.316 6
-5.269 -22.709 -4.379 5
-5.037 -21.552 -4.421 20
-4.84 -20.548 -4.479 9
-4.662 -19.648 -4.542 9
-4.506 -18.842 -4.613 6
-4.343 -18.031 -4.654 7
-4.202 -17.303 -4.704 7
-4.069 -16.634 -4.757 4
-3.939 -15.971 -4.789 9
-3.826 -15.401 -4.847 8
-3.707 -14.808 -4.874 8
-3.604 -14.28 -4.915 8
-3.511 -13.806 -4.971 8
-3.419 -13.327 -5.008 7
-3.324 -12.856 -5.033 8
-3.242 -12.43 -5.072 9
-3.157 -12.008 -5.099 10
-3.08 -11.614 -5.132 10
-3.004 -11.235 -5.163 10
-2.933 -10.867 -5.189 10
-2.862 -10.515 -5.215 12
-2.794 -10.175 -5.24 11
-2.726 -9.834 -5.252 14
-2.662 -9.514 -5.271 36
-8.628 -38.913 -3.861 6
-7.519 -33.639 -3.539 30
-7.308 -32.464 -3.9 16
-6.082 -26.803 -3.188 4
-5.833 -25.524 -3.364 47
-5.893 -25.606 -3.861 71
-5.864 -25.279 -4.249 6
-5.592 -23.937 -4.318 5
-5.349 -22.715 -4.381 4
-5.114 -21.563 -4.425 13
-4.914 -20.555 -4.482 10
-4.732 -19.653 -4.544 9
-4.572 -18.837 -4.611 7
-4.408 -18.033 -4.655 7
-4.265 -17.304 -4.704 7
-4.128 -16.63 -4.755 8
-3.997 -15.97 -4.789 9
-3.883 -15.398 -4.845 8
-3.762 -14.808 -4.874 8
-3.656 -14.274 -4.912 9
-3.564 -13.807 -4.971 7
-3.469 -13.325 -5.006 8
-3.372 -12.851 -5.03 8
-3.289 -12.429 -5.071 10
-3.204 -12.01 -5.101 10
-3.126 -11.612 -5.131 9
-3.049 -11.234 -5.162 12
-2.976 -10.864 -5.186 10
-2.903 -10.508 -5.21 11
-2.834 -10.168 -5.234 11
-2.768 -9.837 -5.254 14
-2.701 -9.514 -5.271 34
-8.761 -38.944 -3.867 7
-7.652 -33.743 -3.559 23
-7.416 -32.472 -3.902 15
-7.06 -30.667 -4.08 4
-5.923 -25.547 -3.37 45
-5.972 -25.573 -3.852 24
-5.952 -25.288 -4.251 7
-5.676 -23.946 -4.321 6
-5.431 -22.729 -4.385 5
-5.193 -21.581 -4.431 7
-4.986 -20.555 -4.482 9
-4.802 -19.656 -4.545 8
-4.64 -18.842 -4.612 8
-4.473 -18.034 -4.655 7
-4.328 -17.306 -4.705 8
-4.19 -16.633 -4.756 8
-4.058 -15.98 -4.794 9
-3.94 -15.4 -4.847 8
-3.819 -14.815 -4.877 8
-3.709 -14.27 -4.91 9
-3.616 -13.803 -4.969 7
-3.522 -13.333 -5.011 5
-3.422 -12.855 -5.033 8
-3.337 -12.426 -5.07 9
-3.251 -12.007 -5.099 10
-3.171 -11.61 -5.129 10
-3.093 -11.229 -5.158 11
-3.02 -10.865 -5.188 11
-2.947 -10.511 -5.212 12
-2.875 -10.168 -5.234 11
-2.808 -9.837 -5.254 13
-2.74 -9.511 -5.268 34
-8.898 -38.995 -3.876 7
-7.751 -33.697 -3.55 31
-7.525 -32.481 -3.904 14
-7.164 -30.68 -4.083 6
-6.013 -25.568 -3.375 39
-6.065 -25.604 -3.861 9
-6.04 -25.297 -4.254 7
-5.76 -23.955 -4.324 6
-5.51 -22.732 -4.386 5
-5.272 -21.595 -4.436 7
-5.061 -20.567 -4.486 9
-4.873 -19.661 -4.547 7
-4.709 -18.849 -4.616 7
-4.539 -18.04 -4.657 7
-4.393 -17.315 -4.709 7
-4.251 -16.634 -4.757 8
-4.115 -15.971 -4.79 8
-3.998 -15.404 -4.849 8
-3.873 -14.811 -4.875 8
-3.764 -14.274 -4.912 9
-3.668 -13.804 -4.97 8
-3.573 -13.333 -5.011 5
-3.471 -12.853 -5.031 8
-3.385 -12.424 -5.068 9
-3.296 -12.002 -5.096 9
-3.216 -11.605 -5.126 10
-3.137 -11.228 -5.157 10
-3.064 -10.868 -5.189 11
-2.989 -10.51 -5.211 12
-2.916 -10.164 -5.231 12
-2.848 -9.832 -5.25 14
-2.779 -9.507 -5.265 31
-9.035 -39.041 -3.884 6
-7.892 -33.831 -3.576 16
-7.633 -32.484 -3.905 14
-7.268 -30.689 -4.085 6
-6.108 -25.606 -3.384 38
-6.148 -25.59 -3.857 2
-6.129 -25.312 -4.258 7
-5.845 -23.964 -4.327 6
-5.591 -22.745 -4.39 5
-5.349 -21.605 -4.439 9
-5.134 -20.57 -4.487 10
-4.943 -19.665 -4.549 5
-4.776 -18.846 -4.614 6
-4.603 -18.033 -4.655 7
-4.455 -17.313 -4.708 8
-4.313 -16.64 -4.759 8
-4.174 -15.973 -4.791 9
-4.054 -15.399 -4.846 7
-3.929 -14.811 -4.875 8
-3.819 -14.276 -4.914 9
-3.721 -13.804 -4.97 7
-3.623 -13.327 -5.008 5
-3.521 -12.85 -5.029 7
-3.433 -12.421 -5.067 9
-3.345 -12.007 -5.099 10
-3.262 -11.606 -5.127 10
-3.182 -11.225 -5.156 11
-3.107 -10.863 -5.186 11
-3.032 -10.509 -5.21 12
-2.958 -10.167 -5.233 12
-2.89 -9.835 -5.253 12
-2.819 -9.509 -5.266 25
-9.173 -39.091 -3.893 6
-8.029 -33.941 -3.597 21
-7.74 -32.488 -3.906 12
-7.375 -30.709 -4.09 6
-6.201 -25.638 -3.392 8
-6.266 -25.722 -3.892 1
-6.219 -25.327 -4.262 6
-5.93 -23.977 -4.331 6
-5.67 -22.747 -4.391 5
-5.425 -21.608 -4.44 7
-5.207 -20.573 -4.488 10
-5.014 -19.668 -4.55 4
-4.843 -18.847 -4.615 5
-4.67 -18.042 -4.658 8
-4.515 -17.304 -4.704 8
-4.373 -16.634 -4.757 8
-4.234 -15.976 -4.792 9
-4.112 -15.401 -4.847 8
-3.984 -14.81 -4.875 8
-3.872 -14.273 -4.912 8
-3.773 -13.804 -4.97 8
-3.674 -13.327 -5.008 6
-3.572 -12.857 -5.034 8
-3.483 -12.426 -5.069 10
-3.392 -12.004 -5.097 10
-3.308 -11.605 -5.126 10
-3.227 -11.228 -5.157 11
-3.151 -10.862 -5.185 11
-3.073 -10.504 -5.207 13
-2.999 -10.162 -5.229 13
-2.93 -9.831 -5.249 13
-2.859 -9.509 -5.266 22
-9.307 -39.121 -3.898 7
-8.162 -34.035 -3.616 23
-7.847 -32.488 -3.905 12
-7.485 -30.74 -4.097 6
-6.321 -25.777 -3.427 1
-6.34 -25.668 -3.878 24
-6.307 -25.331 -4.264 6
-6.013 -23.981 -4.332 5
-5.752 -22.759 -4.395 4
-5.504 -21.621 -4.445 8
-5.281 -20.579 -4.49 9
-5.084 -19.668 -4.55 4
-4.912 -18.855 -4.618 8
-4.735 -18.042 -4.659 7
-4.58 -17.312 -4.708 7
-4.435 -16.64 -4.759 8
-4.294 -15.981 -4.795 8
-4.17 -15.404 -4.849 8
-4.039 -14.809 -4.874 8
-3.927 -14.276 -4.913 8
-3.826 -13.804 -4.97 8
-3.724 -13.324 -5.006 8
-3.62 -12.851 -5.03 9
-3.532 -12.429 -5.072 10
-3.438 -12.002 -5.096 10
-3.354 -11.603 -5.124 9
-3.272 -11.225 -5.156 11
-3.193 -10.856 -5.181 11
-3.118 -10.51 -5.211 12
-3.042 -10.164 -5.231 12
-2.97 -9.831 -5.249 14
-2.899 -9.508 -5.265 22
-9.449 -39.181 -3.909 7
-8.274 -34.037 -3.616 35
-7.958 -32.502 -3.909 15
-7.591 -30.755 -4.1 6
-6.472 -26.034 -3.491 3
-6.744 -26.934 -4.217 4
-6.397 -25.345 -4.268 7
-6.096 -23.982 -4.332 5
-5.834 -22.767 -4.398 4
-5.58 -21.623 -4.445 8
-5.356 -20.589 -4.494 9
-5.155 -19.675 -4.552 5
-4.982 -18.861 -4.62 6
-4.798 -18.031 -4.654 7
-4.642 -17.306 -4.705 8
-4.495 -16.638 -4.758 8
-4.354 -15.983 -4.796 8
-4.227 -15.402 -4.848 8
-4.094 -14.805 -4.872 8
-3.981 -14.275 -4.913 7
-3.878 -13.8 -4.968 8
-3.777 -13.327 -5.008 7
-3.671 -12.851 -5.03 8
-3.578 -12.42 -5.066 8
-3.484 -11.997 -5.092 10
-3.4 -11.604 -5.125 10
-3.316 -11.224 -5.155 11
-3.238 -10.858 -5.182 11
-3.158 -10.502 -5.205 11
-3.082 -10.16 -5.227 12
-3.011 -9.83 -5.248 12
-2.939 -9.508 -5.265 17
-9.596 -39.264 -3.923 11
-8.396 -34.078 -3.624 25
-8.066 -32.504 -3.909 14
-7.699 -30.778 -4.106 6
-7.235 -28.718 -4.16 7
-6.839 -26.948 -4.221 5
-6.485 -25.353 -4.27 6
-6.183 -23.997 -4.337 5
-5.913 -22.769 -4.398 5
-5.658 -21.629 -4.447 10
-5.429 -20.592 -4.495 9
-5.226 -19.678 -4.554 9
-5.049 -18.858 -4.619 6
-4.867 -18.046 -4.66 7
-4.705 -17.306 -4.705 7
-4.556 -16.635 -4.757 8
-4.413 -15.981 -4.795 9
-4.284 -15.401 -4.847 8
-4.148 -14.8 -4.869 8
-4.035 -14.275 -4.913 7
-3.93 -13.8 -4.967 8
-3.826 -13.321 -5.004 8
-3.721 -12.851 -5.03 8
-3.628 -12.424 -5.068 9
-3.534 -12.004 -5.096 10
-3.446 -11.602 -5.124 9
-3.362 -11.225 -5.156 10
-3.281 -10.856 -5.181 11
-3.202 -10.503 -5.206 12
-3.125 -10.162 -5.229 12
-3.052 -9.831 -5.249 12
-2.977 -9.501 -5.259 17
-9.732 -39.296 -3.929 11
-8.55 -34.247 -3.657 24
-8.174 -32.504 -3.909 14
-7.81 -30.811 -4.113 6
-7.335 -28.729 -4.163 7
-6.933 -26.96 -4.224 5
-6.574 -25.359 -4.272 6
-6.267 -24.005 -4.339 6
-5.993 -22.774 -4.4 5
-5.736 -21.637 -4.45 7
-5.506 -20.605 -4.5 9
-5.297 -19.68 -4.555 9
-5.117 -18.861 -4.62 8
-4.932 -18.046 -4.66 7
-4.767 -17.3 -4.702 7
-4.619 -16.64 -4.759 7
-4.471 -15.979 -4.793 9
-4.342 -15.399 -4.846 8
-4.206 -14.806 -4.872 8
-4.089 -14.273 -4.912 8
-3.984 -13.802 -4.969 7
-3.878 -13.32 -5.003 8
-3.769 -12.844 -5.026 9
-3.675 -12.418 -5.064 10
-3.581 -12.001 -5.095 9
-3.492 -11.599 -5.122 9
-3.405 -11.22 -5.152 11
-3.324 -10.851 -5.177 12
-3.244 -10.502 -5.205 12
-3.166 -10.158 -5.225 11
-3.094 -9.833 -5.251 14
-3.016 -9.497 -5.256 16
-9.872 -39.343 -3.937 10
-8.653 -34.21 -3.65 24
-8.281 -32.501 -3.908 14
-7.92 -30.837 -4.119 6
-7.438 -28.753 -4.169 7
-7.027 -26.966 -4.226 5
-6.665 -25.377 -4.277 6
-6.351 -24.008 -4.34 5
-6.076 -22.785 -4.403 6
-5.813 -21.642 -4.452 8
-5.579 -20.607 -4.5 9
-5.372 -19.697 -4.561 12
-5.186 -18.864 -4.622 6
-4.998 -18.046 -4.66 7
-4.83 -17.301 -4.703 8
-4.68 -16.641 -4.76 7
-4.532 -15.984 -4.796 9
-4.4 -15.401 -4.847 8
-4.262 -14.807 -4.873 8
-4.142 -14.269 -4.909 8
-4.037 -13.801 -4.968 8
-3.93 -13.323 -5.005 7
-3.82 -12.848 -5.028 8
-3.724 -12.418 -5.065 9
-3.627 -11.998 -5.093 10
-3.538 -11.6 -5.122 10
-3.45 -11.218 -5.15 11
-3.369 -10.852 -5.178 11
-3.286 -10.497 -5.201 12
-3.208 -10.159 -5.226 12
-3.133 -9.826 -5.245 13
-3.056 -9.499 -5.257 14
-10.004 -39.355 -3.939 10
-8.777 -34.256 -3.659 41
-8.392 -32.515 -3.911 12
-8.013 -30.799 -4.11 10
-7.54 -28.772 -4.174 7
-7.123 -26.982 -4.23 5
-6.752 -25.376 -4.276 7
-6.44 -24.03 -4.347 6
-6.162 -22.808 -4.411 5
-5.893 -21.654 -4.456 10
-5.652 -20.605 -4.499 9
-5.441 -19.693 -4.559 32
-5.255 -18.867 -4.623 6
-5.063 -18.046 -4.66 7
-4.895 -17.308 -4.706 7
-4.741 -16.638 -4.758 7
-4.59 -15.978 -4.793 9
-4.457 -15.399 -4.846 8
-4.319 -14.809 -4.874 8
-4.197 -14.271 -4.911 8
-4.09 -13.801 -4.968 8
-3.98 -13.316 -5.001 8
-3.87 -12.847 -5.028 8
-3.773 -12.418 -5.064 9
-3.674 -11.995 -5.091 9
-3.584 -11.597 -5.12 11
-3.496 -11.218 -5.15 9
-3.412 -10.85 -5.176 11
-3.331 -10.501 -5.204 12
-3.25 -10.157 -5.225 12
-3.174 -9.825 -5.244 13
-3.096 -9.498 -5.256 14
-10.145 -39.406 -3.948 10
-8.919 -34.366 -3.68 26
-8.5 -32.512 -3.911 13
-8.134 -30.865 -4.126 6
-7.641 -28.786 -4.177 7
-7.221 -27.006 -4.236 4
-6.846 -25.4 -4.283 6
-6.526 -24.04 -4.35 5
-6.241 -22.807 -4.411 5
-5.969 -21.655 -4.456 7
-5.727 -20.613 -4.503 7
-5.508 -19.68 -4.554 38
-5.322 -18.862 -4.621 5
-5.131 -18.053 -4.663 7
-4.96 -17.312 -4.708 7
-4.804 -16.642 -4.76 8
-4.649 -15.975 -4.792 9
-4.516 -15.404 -4.849 7
-4.375 -14.808 -4.873 8
-4.251 -14.27 -4.91 8
-4.143 -13.8 -4.967 8
-4.031 -13.315 -5.0 7
-3.919 -12.844 -5.026 8
-3.82 -12.411 -5.06 9
-3.722 -11.995 -5.091 9
-3.632 -11.6 -5.123 11
-3.541 -11.218 -5.151 10
-3.456 -10.848 -5.175 10
-3.373 -10.499 -5.203 13
-3.292 -10.156 -5.224 12
-3.215 -9.826 -5.245 13
-3.136 -9.497 -5.255 15
-10.285 -39.448 -3.956 9
-9.046 -34.416 -3.69 32
-8.609 -32.517 -3.912 12
-8.248 -30.905 -4.135 7
-7.743 -28.801 -4.181 7
-7.317 -27.021 -4.24 5
-6.938 -25.417 -4.288 6
-6.614 -24.054 -4.354 6
-6.324 -22.818 -4.414 5
-6.048 -21.663 -4.459 8
-5.802 -20.618 -4.504 6
-5.579 -19.682 -4.555 34
-5.392 -18.868 -4.623 5
-5.196 -18.052 -4.663 7
-5.024 -17.311 -4.707 7
-4.866 -16.645 -4.762 7
-4.711 -15.983 -4.796 10
-4.574 -15.401 -4.847 8
-4.429 -14.802 -4.871 8
-4.304 -14.265 -4.907 9
-4.195 -13.798 -4.966 8
-4.083 -13.314 -5.0 7
-3.969 -12.843 -5.025 8
-3.869 -12.411 -5.06 9
-3.769 -11.992 -5.089 10
-3.676 -11.595 -5.119 10
-3.586 -11.216 -5.149 9
-3.501 -10.852 -5.177 11
-3.415 -10.494 -5.199 13
-3.332 -10.151 -5.22 13
-3.255 -9.822 -5.242 13
-3.177 -9.498 -5.257 15
-10.423 -39.482 -3.962 8
-9.147 -34.37 -3.681 36
-8.718 -32.517 -3.912 13
-8.361 -30.936 -4.142 6
-7.848 -28.827 -4.187 7
-7.412 -27.03 -4.243 5
-7.029 -25.429 -4.292 6
-6.699 -24.06 -4.356 6
-6.408 -22.833 -4.419 5
-6.128 -21.675 -4.463 8
-5.879 -20.631 -4.509 7
-5.651 -19.687 -4.557 28
-5.461 -18.87 -4.624 8
-5.261 -18.048 -4.661 7
-5.087 -17.311 -4.707 7
-4.926 -16.639 -4.759 7
-4.771 -15.983 -4.796 8
-4.632 -15.402 -4.848 8
-4.487 -14.807 -4.873 8
-4.36 -14.27 -4.91 8
-4.25 -13.804 -4.969 7
-4.135 -13.316 -5.001 8
-4.019 -12.839 -5.023 8
-3.917 -12.407 -5.057 9
-3.817 -11.992 -5.088 10
-3.723 -11.594 -5.118 9
-3.632 -11.217 -5.149 8
-3.544 -10.846 -5.173 11
-3.459 -10.495 -5.2 11
-3.375 -10.152 -5.221 12
-3.297 -9.823 -5.243 14
-3.217 -9.497 -5.255 14
-10.569 -39.543 -3.972 7
-9.296 -34.497 -3.706 25
-8.832 -32.537 -3.916 14
-8.467 -30.945 -4.144 6
-7.947 -28.833 -4.189 7
-7.508 -27.041 -4.246 5
-7.119 -25.438 -4.294 6
-6.787 -24.073 -4.36 5
-6.491 -22.843 -4.422 5
-6.205 -21.678 -4.464 7
-5.954 -20.634 -4.51 9
-5.724 -19.692 -4.559 12
-5.532 -18.879 -4.628 6
-5.33 -18.057 -4.665 7
-5.152 -17.314 -4.709 7
-4.989 -16.642 -4.76 7
-4.828 -15.973 -4.791 9
-4.689 -15.4 -4.846 8
-4.545 -14.812 -4.876 7
-4.417 -14.274 -4.912 8
-4.302 -13.798 -4.967 8
-4.186 -13.311 -4.998 7
-4.07 -12.842 -5.025 8
-3.968 -12.414 -5.061 9
-3.865 -11.992 -5.089 8
-3.77 -11.595 -5.119 9
-3.676 -11.214 -5.147 9
-3.591 -10.853 -5.179 11
-3.501 -10.493 -5.198 11
-3.416 -10.147 -5.217 13
-3.338 -9.821 -5.241 18
-3.256 -9.496 -5.254 14
-10.713 -39.594 -3.982 7
-9.429 -34.568 -3.719 21
-8.941 -32.536 -3.916 13
-8.58 -30.976 -4.151 6
-8.052 -28.857 -4.195 6
-7.606 -27.06 -4.251 5
-7.212 -25.454 -4.299 7
-6.871 -24.075 -4.361 6
-6.576 -22.856 -4.426 5
-6.285 -21.688 -4.468 7
-6.031 -20.646 -4.515 10
-5.802 -19.715 -4.568 9
-5.6 -18.877 -4.627 7
-5.395 -18.053 -4.663 7
-5.218 -17.32 -4.711 8
-5.05 -16.638 -4.758 7
-4.891 -15.984 -4.796 9
-4.747 -15.397 -4.845 8
-4.599 -14.806 -4.872 7
-4.47 -14.269 -4.91 8
-4.358 -13.804 -4.97 8
-4.239 -13.314 -5.0 7
-4.118 -12.834 -5.019 8
