# .PCD v0.7 - Point Cloud Data file format
VERSION 0.7
FIELDS x y z intensity
SIZE 4 4 4 4
TYPE F F F F
COUNT 1 1 1 1
WIDTH 2032
HEIGHT 1
VIEWPOINT 0 0 0 1 0 0 0
POINTS 2032
DATA ascii
-9.418 -8.706 -3.325 6
-9.345 -8.581 -3.466 5
-9.394 -8.571 -3.696 5
-9.512 -8.624 -3.984 2
-9.673 -8.714 -4.312 5
-9.597 -8.591 -4.468 5
-9.439 -10.809 1.094 255
0.0 -0.0 3.0 0
-9.396 -10.528 0.762 3
-9.512 -10.545 0.566 255
-9.52 -10.446 0.395 255
-9.523 -10.346 0.228 255
-9.521 -10.24 0.064 255
-9.528 -10.15 -0.103 255
-9.556 -10.082 -0.276 79
-21.871 -22.868 -4.874 12
-20.524 -21.262 -4.739 30
-19.795 -20.329 -4.803 28
-19.361 -19.709 -4.963 15
-18.496 -18.673 -4.926 7
-17.642 -17.661 -4.863 13
-16.948 -16.834 -4.85 6
-16.255 -16.016 -4.812 7
-15.609 -15.264 -4.777 7
-15.024 -14.584 -4.754 7
-14.513 -13.983 -4.751 6
-14.018 -13.411 -4.743 7
-13.536 -12.857 -4.725 9
-13.105 -12.365 -4.726 10
-12.697 -11.895 -4.725 9
-12.315 -11.463 -4.732 9
-11.945 -11.044 -4.733 9
-9.327 -8.568 -3.225 12
-9.365 -8.546 -3.44 6
-9.434 -8.557 -3.685 5
-10.286 -9.271 -4.508 15
-9.97 -8.927 -4.49 26
-9.64 -8.578 -4.457 5
-9.438 -10.742 1.106 255
-9.399 -10.579 0.944 3
-9.397 -10.465 0.776 4
-9.513 -10.481 0.58 255
-9.518 -10.381 0.412 255
-9.518 -10.277 0.246 255
-9.527 -10.184 0.08 255
-9.532 -10.091 -0.085 255
-9.596 -10.062 -0.269 5
-22.135 -22.999 -4.919 14
-20.783 -21.396 -4.787 26
-19.922 -20.332 -4.805 30
-19.492 -19.718 -4.967 15
-18.616 -18.677 -4.928 7
-17.767 -17.675 -4.869 8
-17.052 -16.83 -4.848 6
-16.368 -16.025 -4.816 8
-15.706 -15.262 -4.776 7
-15.108 -14.574 -4.749 7
-14.603 -13.981 -4.75 7
-14.096 -13.402 -4.737 8
-13.618 -12.853 -4.723 9
-13.183 -12.36 -4.723 12
-12.767 -11.887 -4.72 10
-12.382 -11.453 -4.725 10
-9.348 -8.589 -3.014 2
-9.34 -8.528 -3.196 6
-9.392 -8.519 -3.419 6
-9.483 -8.548 -3.678 3
-10.267 -9.198 -4.448 22
-9.999 -8.899 -4.467 15
-9.697 -8.577 -4.456 8
-9.444 -10.685 1.116 255
-9.436 -10.557 0.948 17
-9.4 -10.405 0.788 4
-9.516 -10.421 0.594 255
-9.519 -10.318 0.428 255
-9.526 -10.223 0.261 255
-9.53 -10.124 0.097 255
-9.556 -10.055 -0.074 53
0.0 -0.0 3.0 0
-22.259 -22.984 -4.914 11
-20.892 -21.373 -4.779 27
-20.05 -20.333 -4.805 29
-19.624 -19.727 -4.97 16
-18.74 -18.682 -4.93 6
-17.888 -17.683 -4.873 7
-17.165 -16.835 -4.85 7
-16.473 -16.027 -4.817 8
-15.803 -15.261 -4.776 6
-15.197 -14.568 -4.746 6
-14.691 -13.978 -4.748 7
-14.184 -13.401 -4.737 7
-13.694 -12.846 -4.718 9
-13.255 -12.35 -4.717 24
-12.843 -11.884 -4.718 8
-12.451 -11.446 -4.721 8
-9.335 -8.525 -2.969 4
-9.362 -8.495 -3.172 6
-9.429 -8.501 -3.406 5
-9.573 -8.577 -3.701 0
-10.431 -9.289 -4.522 13
-10.033 -8.877 -4.449 11
-9.738 -8.563 -4.444 10
-9.439 -10.616 1.128 255
-9.46 -10.522 0.955 255
-9.403 -10.346 0.801 4
-9.527 -10.37 0.606 255
-9.522 -10.258 0.442 255
-9.521 -10.155 0.279 255
-9.533 -10.064 0.114 255
-9.602 -10.041 -0.07 4
-23.929 -24.78 -5.051 2
-22.009 -22.584 -4.776 7
-21.091 -21.442 -4.804 24
-20.178 -20.336 -4.806 31
-19.75 -19.729 -4.971 17
-18.866 -18.69 -4.933 7
-18.0 -17.682 -4.873 6
-17.259 -16.821 -4.844 6
-16.575 -16.026 -4.816 7
-15.909 -15.266 -4.778 7
-15.29 -14.565 -4.744 7
-14.776 -13.971 -4.744 8
-14.262 -13.391 -4.732 7
-13.778 -12.844 -4.717 9
-13.33 -12.343 -4.712 29
-12.919 -11.88 -4.715 8
-9.364 -8.556 -2.771 1
-9.34 -8.477 -2.935 5
-9.388 -8.468 -3.152 6
-9.477 -8.492 -3.399 4
-10.25 -9.129 -4.132 17
-10.358 -9.169 -4.425 11
-10.08 -8.866 -4.44 11
-9.795 -8.562 -4.443 14
-9.441 -10.556 1.139 255
-9.463 -10.461 0.967 255
-9.413 -10.295 0.812 4
-9.551 -10.333 0.615 21
-9.521 -10.196 0.458 255
-9.524 -10.095 0.295 255
-9.557 -10.028 0.124 64
-20.038 -20.824 -3.367 3
-23.99 -24.69 -5.022 8
-22.037 -22.473 -4.738 2
-21.23 -21.449 -4.807 27
-20.303 -20.334 -4.805 31
-19.883 -19.737 -4.974 17
-18.984 -18.689 -4.933 6
-18.121 -17.689 -4.876 6
-17.358 -16.811 -4.839 6
-16.68 -16.026 -4.816 7
-16.006 -15.263 -4.777 7
-15.382 -14.561 -4.742 6
-14.859 -13.961 -4.739 7
-14.351 -13.39 -4.731 7
-9.329 -8.642 -2.193 6
-13.399 -12.331 -4.705 33
-12.987 -11.869 -4.708 8
-9.345 -8.486 -2.724 3
-9.353 -8.437 -2.907 5
-9.417 -8.442 -3.133 6
-9.539 -8.496 -3.402 1
-10.258 -9.081 -4.095 16
-10.536 -9.271 -4.507 23
-10.238 -8.952 -4.511 21
-9.854 -8.563 -4.444 43
-9.444 -10.496 1.149 255
-9.463 -10.398 0.979 255
-9.428 -10.25 0.821 4
-9.545 -10.265 0.63 11
-9.526 -10.139 0.472 255
-9.531 -10.042 0.309 255
-9.6 -10.011 0.129 4
-24.051 -24.841 -4.595 27
-24.125 -24.675 -5.017 3
-22.821 -23.127 -4.963 16
-21.271 -21.356 -4.773 24
-20.429 -20.331 -4.804 30
-20.026 -19.755 -4.981 15
-19.114 -18.699 -4.937 7
-18.237 -17.69 -4.876 5
-17.465 -16.809 -4.838 7
-16.786 -16.026 -4.816 8
-16.125 -15.281 -4.786 7
-15.478 -14.56 -4.742 7
-14.939 -13.948 -4.732 7
-14.432 -13.382 -4.726 7
-9.366 -8.622 -2.181 29
-13.479 -12.327 -4.703 33
-9.389 -8.528 -2.538 0
-9.346 -8.436 -2.69 5
-9.379 -8.409 -2.888 5
-9.462 -8.431 -3.125 5
-10.232 -9.059 -3.826 6
-10.266 -9.033 -4.057 19
-10.444 -9.135 -4.397 13
-10.289 -8.942 -4.503 23
-9.898 -8.551 -4.433 37
-9.438 -10.428 1.161 255
-9.457 -10.33 0.992 255
-9.443 -10.205 0.831 4
-9.556 -10.214 0.642 1
-9.534 -10.085 0.486 255
-9.555 -10.005 0.319 80
-20.036 -20.767 -2.955 11
-24.125 -24.764 -4.571 15
0.0 -0.0 3.0 0
0.0 -0.0 3.0 0
-21.377 -21.329 -4.763 25
-20.56 -20.335 -4.806 30
-20.161 -19.763 -4.985 12
-19.232 -18.697 -4.936 6
-18.366 -17.704 -4.882 6
-17.581 -16.815 -4.841 6
-16.888 -16.022 -4.814 8
-16.242 -15.295 -4.793 7
-15.573 -14.558 -4.741 7
-15.033 -13.948 -4.731 7
-14.516 -13.376 -4.722 7
-9.4 -8.599 -2.167 255
-13.554 -12.319 -4.698 32
-9.36 -8.449 -2.487 2
-9.359 -8.394 -2.662 5
-9.413 -8.387 -2.873 5
-9.515 -8.427 -3.122 3
-10.253 -9.022 -3.798 6
-10.289 -8.999 -4.031 17
-10.404 -9.046 -4.325 27
-10.328 -8.923 -4.487 27
-9.939 -8.536 -4.42 35
-9.44 -10.368 1.172 255
-9.456 -10.268 1.004 255
-9.464 -10.166 0.839 4
-9.498 -10.09 0.67 2
-9.533 -10.022 0.501 255
-9.597 -9.988 0.324 6
-24.133 -24.859 -4.128 5
-24.213 -24.701 -4.552 6
-24.466 -24.715 -5.03 4
-23.17 -23.19 -4.985 14
-21.528 -21.345 -4.769 24
-20.697 -20.342 -4.808 29
-20.291 -19.766 -4.986 16
-19.359 -18.702 -4.939 7
-18.471 -17.694 -4.878 5
-17.687 -16.809 -4.838 6
-16.991 -16.018 -4.813 8
-16.36 -15.308 -4.8 7
-15.655 -14.543 -4.733 31
-15.121 -13.942 -4.728 7
-9.339 -8.552 -1.938 1
-9.384 -8.532 -2.127 255
-13.627 -12.308 -4.691 21
-9.35 -8.389 -2.448 4
-9.376 -8.358 -2.638 6
-9.449 -8.368 -2.86 5
-9.585 -8.437 -3.13 0
-10.298 -9.006 -3.787 6
-10.162 -8.835 -3.903 12
-10.225 -8.837 -4.156 27
-10.373 -8.909 -4.475 19
-9.977 -8.518 -4.405 20
-9.436 -10.302 1.183 255
-9.454 -10.204 1.016 255
-9.487 -10.129 0.847 3
-9.448 -9.977 0.697 3
-9.556 -9.986 0.51 57
-9.648 -9.98 0.326 0
0.0 -0.0 3.0 0
-24.337 -24.674 -4.544 1
-24.654 -24.751 -5.042 4
-23.345 -23.221 -4.996 14
-21.449 -21.135 -4.693 28
-20.839 -20.355 -4.813 28
-20.427 -19.775 -4.99 15
-19.484 -18.704 -4.94 7
-18.601 -17.707 -4.884 8
-17.8 -16.811 -4.839 6
-17.086 -16.007 -4.807 8
-16.46 -15.307 -4.799 7
-15.748 -14.538 -4.73 31
-15.204 -13.931 -4.722 7
-9.37 -8.527 -1.923 9
-9.379 -8.475 -2.092 255
-9.323 -8.369 -2.23 4
-9.362 -8.347 -2.42 5
-9.404 -8.332 -2.62 6
-9.494 -8.357 -2.852 4
-12.115 -10.599 -4.701 11
-10.326 -8.977 -3.765 23
-10.32 -8.918 -3.967 27
-10.264 -8.818 -4.141 26
-10.405 -8.883 -4.454 20
-9.994 -8.483 -4.374 19
-9.442 -10.249 1.193 255
-9.458 -10.149 1.027 255
-9.529 -10.113 0.85 2
-9.427 -9.895 0.716 3
-9.603 -9.975 0.513 4
0.0 -0.0 3.0 0
0.0 -0.0 3.0 0
0.0 -0.0 3.0 0
0.0 -0.0 3.0 0
-23.529 -23.259 -5.009 14
-21.492 -21.045 -4.66 26
-20.971 -20.355 -4.814 26
-20.563 -19.782 -4.992 12
-19.612 -18.709 -4.942 7
-18.704 -17.692 -4.877 34
-17.922 -16.82 -4.843 7
-17.18 -15.995 -4.801 8
-16.564 -15.307 -4.799 7
-15.841 -14.533 -4.727 31
-15.301 -13.932 -4.723 7
-9.395 -8.496 -1.905 255
-9.357 -8.403 -2.049 255
-9.296 -8.292 -2.182 12
-9.379 -8.311 -2.397 5
-9.441 -8.313 -2.607 5
-9.569 -8.371 -2.862 1
-12.182 -10.593 -4.696 26
-10.387 -8.976 -3.764 29
-10.208 -8.768 -3.851 24
-10.341 -8.831 -4.151 37
-10.455 -8.874 -4.446 39
-10.008 -8.445 -4.341 17
-9.438 -10.183 1.204 255
-9.456 -10.086 1.039 255
-9.421 -9.939 0.887 2
-9.403 -9.81 0.735 6
-32.13 -33.171 -5.271 24
0.0 -0.0 3.0 0
0.0 -0.0 3.0 0
-24.664 -24.699 -4.551 2
0.0 -0.0 3.0 0
-23.694 -23.276 -5.015 14
-21.906 -21.318 -4.759 29
-21.12 -20.372 -4.82 25
-20.708 -19.797 -4.999 16
-19.742 -18.716 -4.944 6
-18.823 -17.694 -4.878 36
-18.033 -16.818 -4.843 6
-17.275 -15.983 -4.795 8
-16.66 -15.299 -4.795 7
-15.943 -14.534 -4.728 29
-15.381 -13.919 -4.715 7
-9.384 -8.434 -1.869 255
-9.343 -8.338 -2.01 255
-9.293 -8.239 -2.148 255
-9.404 -8.282 -2.378 5
-9.479 -8.296 -2.596 4
-12.62 -10.973 -4.684 10
-12.246 -10.584 -4.69 34
-10.432 -8.96 -3.752 24
-10.417 -8.895 -3.949 25
-10.355 -8.791 -4.119 26
-10.497 -8.857 -4.432 42
-10.065 -8.443 -4.34 16
-9.439 -10.124 1.215 255
-9.457 -10.027 1.051 255
-9.418 -9.877 0.901 13
-9.417 -9.766 0.745 5
-32.388 -33.235 -5.286 23
0.0 -0.0 3.0 0
0.0 -0.0 3.0 0
0.0 -0.0 3.0 0
0.0 -0.0 3.0 0
-23.863 -23.296 -5.021 11
-22.06 -21.334 -4.765 32
-21.275 -20.393 -4.828 24
-20.847 -19.806 -5.002 16
-19.881 -18.73 -4.95 6
-18.945 -17.697 -4.879 29
-18.148 -16.819 -4.843 6
-17.376 -15.975 -4.791 8
-16.75 -15.285 -4.788 7
-16.039 -14.531 -4.726 31
-15.484 -13.924 -4.718 7
-9.364 -8.364 -1.829 255
-9.326 -8.271 -1.97 255
-9.287 -8.183 -2.113 255
-9.434 -8.257 -2.362 5
-9.546 -8.303 -2.601 2
-12.691 -10.967 -4.679 19
-12.308 -10.573 -4.682 39
-10.496 -8.961 -3.752 21
-10.375 -8.806 -3.88 29
-10.424 -8.797 -4.124 22
-10.523 -8.826 -4.406 38
-10.116 -8.436 -4.334 15
-9.442 -10.068 1.225 255
-9.46 -9.971 1.062 255
-9.47 -9.872 0.902 255
-9.425 -9.715 0.757 4
-32.654 -33.305 -5.304 23
0.0 -0.0 3.0 0
0.0 -0.0 3.0 0
0.0 -0.0 3.0 0
0.0 -0.0 3.0 0
-24.054 -23.337 -5.035 11
-22.176 -21.312 -4.757 29
-21.435 -20.419 -4.838 23
-20.984 -19.811 -5.004 17
-20.01 -18.733 -4.952 6
-19.062 -17.695 -4.878 25
-18.262 -16.818 -4.843 7
-17.479 -15.969 -4.789 8
-16.851 -15.281 -4.786 6
-16.147 -14.536 -4.729 30
-15.567 -13.912 -4.711 7
-9.355 -8.304 -1.794 255
-9.317 -8.212 -1.934 255
-9.269 -8.117 -2.072 255
-9.476 -8.243 -2.353 4
-13.151 -11.369 -4.668 33
-12.754 -10.955 -4.671 34
-12.38 -10.571 -4.68 41
-10.56 -8.961 -3.752 13
-10.457 -8.822 -3.893 32
-10.493 -8.802 -4.128 29
-10.584 -8.825 -4.405 43
-10.178 -8.438 -4.335 16
-9.444 -10.012 1.235 255
-9.457 -9.908 1.074 255
-9.479 -9.821 0.912 255
-9.424 -9.657 0.771 5
-32.921 -33.375 -5.321 21
-31.538 -31.642 -5.478 15
0.0 -0.0 3.0 0
-25.356 -24.926 -4.621 2
-25.507 -24.825 -5.066 1
-24.242 -23.374 -5.048 9
-22.533 -21.521 -4.833 30
-21.574 -20.422 -4.839 24
-21.127 -19.821 -5.008 16
-20.144 -18.74 -4.955 6
-19.182 -17.694 -4.878 21
-18.376 -16.818 -4.843 6
-17.586 -15.966 -4.787 6
-16.944 -15.27 -4.78 7
-16.246 -14.535 -4.728 30
-15.664 -13.911 -4.711 8
-9.335 -8.233 -1.754 255
-9.297 -8.143 -1.893 255
-9.288 -8.083 -2.051 73
-9.528 -8.237 -2.349 2
-13.224 -11.362 -4.664 38
-12.822 -10.947 -4.665 14
-12.442 -10.559 -4.672 41
-10.635 -8.97 -3.76 10
-10.485 -8.793 -3.87 26
-10.829 -9.03 -4.313 28
-10.629 -8.81 -4.393 38
-10.235 -8.436 -4.334 16
-9.444 -9.953 1.245 255
-9.459 -9.853 1.085 255
-9.478 -9.762 0.925 255
-9.435 -9.609 0.781 5
-33.43 -33.686 -5.399 17
-31.718 -31.629 -5.475 21
0.0 -0.0 3.0 0
0.0 -0.0 3.0 0
0.0 -0.0 3.0 0
-24.42 -23.4 -5.057 7
-22.829 -21.668 -4.887 27
-21.721 -20.434 -4.844 23
-21.273 -19.833 -5.013 16
-20.278 -18.748 -4.958 6
-19.307 -17.699 -4.88 14
-18.488 -16.815 -4.841 6
-17.701 -15.969 -4.789 7
-17.04 -15.26 -4.775 7
-16.348 -14.535 -4.728 34
-9.384 -8.282 -1.591 0
-9.336 -8.184 -1.725 255
-9.318 -8.111 -1.873 77
-9.379 -8.112 -2.069 9
-9.6 -8.248 -2.356 0
-13.291 -11.349 -4.655 37
-12.888 -10.936 -4.658 10
-12.512 -10.555 -4.668 43
-10.66 -8.938 -3.735 24
-10.546 -8.792 -3.869 28
-10.749 -8.911 -4.216 32
-10.67 -8.793 -4.378 22
-10.284 -8.427 -4.325 13
-9.446 -9.897 1.255 255
-9.459 -9.793 1.096 255
-9.48 -9.707 0.937 255
-9.442 -9.559 0.793 5
-33.791 -33.844 -5.438 8
-31.927 -31.643 -5.479 22
0.0 -0.0 3.0 0
0.0 -0.0 3.0 0
0.0 -0.0 3.0 0
-24.596 -23.422 -5.065 7
-22.963 -21.66 -4.884 28
-21.863 -20.439 -4.846 21
-21.408 -19.834 -5.013 16
-20.404 -18.746 -4.957 6
-19.428 -17.698 -4.88 8
-18.609 -16.818 -4.843 6
-17.81 -15.967 -4.788 8
-17.134 -15.248 -4.769 7
-16.442 -14.527 -4.724 32
-9.377 -8.225 -1.559 3
-9.377 -8.169 -1.716 6
-9.398 -8.13 -1.885 7
-9.498 -8.164 -2.102 4
-13.807 -11.79 -4.657 32
-13.366 -11.344 -4.652 35
-12.959 -10.93 -4.653 10
-12.573 -10.543 -4.66 41
-10.749 -8.958 -3.751 17
-10.604 -8.787 -3.865 18
-10.783 -8.886 -4.195 30
-10.745 -8.802 -4.386 37
-10.33 -8.415 -4.315 12
-9.465 -9.857 1.262 108
-9.461 -9.737 1.107 255
-9.479 -9.648 0.949 255
-9.455 -9.515 0.803 5
-38.241 -38.069 -6.492 3
-32.164 -31.684 -5.49 22
0.0 -0.0 3.0 0
-26.196 -25.28 -4.729 4
0.0 -0.0 3.0 0
-24.794 -23.464 -5.079 5
-23.057 -21.614 -4.867 33
-21.991 -20.431 -4.843 23
-21.551 -19.843 -5.017 18
-20.539 -18.752 -4.96 6
-19.568 -17.714 -4.887 6
-18.732 -16.824 -4.845 7
-17.92 -15.966 -4.787 7
-17.216 -15.225 -4.757 7
-16.542 -14.524 -4.723 20
-9.373 -8.169 -1.528 5
-9.398 -8.136 -1.697 6
-9.458 -8.132 -1.886 5
-9.573 -8.178 -2.11 1
-13.881 -11.78 -4.65 21
-13.436 -11.334 -4.645 36
-13.033 -10.925 -4.65 10
-12.646 -10.539 -4.657 42
-10.833 -8.974 -3.762 24
-11.569 -9.53 -4.446 4
-10.883 -8.915 -4.219 18
-10.798 -8.794 -4.379 30
-10.384 -8.411 -4.311 14
-9.497 -9.833 1.266 12
-9.462 -9.682 1.118 255
-9.481 -9.592 0.961 255
-9.468 -9.469 0.814 4
-9.5 -9.4 0.656 0
-32.359 -31.683 -5.489 23
0.0 -0.0 3.0 0
0.0 -0.0 3.0 0
0.0 -0.0 3.0 0
-25.001 -23.515 -5.097 5
-23.257 -21.665 -4.885 31
-22.158 -20.458 -4.853 24
-21.692 -19.848 -5.019 18
-20.677 -18.759 -4.963 6
-19.703 -17.725 -4.892 5
-18.853 -16.827 -4.846 7
-18.03 -15.963 -4.786 8
-17.312 -15.214 -4.752 6
-9.389 -8.192 -1.356 2
-9.382 -8.126 -1.504 6
-9.421 -8.105 -1.679 5
-9.502 -8.119 -1.878 5
-14.417 -12.24 -4.648 14
-13.955 -11.771 -4.644 11
-13.517 -11.332 -4.644 30
-13.102 -10.916 -4.644 12
-12.708 -10.527 -4.648 41
-10.861 -8.943 -3.739 30
0.0 -0.0 3.0 0
-11.234 -9.148 -4.408 21
-10.84 -8.776 -4.364 29
-10.436 -8.403 -4.305 14
-9.501 -9.78 1.276 3
-9.469 -9.632 1.128 255
-9.48 -9.533 0.974 255
-9.488 -9.433 0.822 4
-9.47 -9.314 0.678 2
-32.588 -31.714 -5.498 24
0.0 -0.0 3.0 0
-26.273 -25.045 -4.657 1
0.0 -0.0 3.0 0
-24.308 -22.72 -4.823 3
-23.383 -21.647 -4.879 33
-22.295 -20.456 -4.852 24
-21.834 -19.852 -5.021 17
-20.809 -18.761 -4.964 6
-19.838 -17.735 -4.896 5
-18.966 -16.821 -4.844 7
-18.134 -15.955 -4.782 7
-17.417 -15.211 -4.75 5
-9.381 -8.134 -1.325 4
-9.394 -8.086 -1.482 6
-9.45 -8.08 -1.665 5
-9.557 -8.115 -1.876 2
-14.501 -12.236 -4.646 9
-14.032 -11.763 -4.639 9
-13.587 -11.321 -4.636 29
-13.171 -10.906 -4.637 26
-12.778 -10.521 -4.644 38
-11.04 -9.036 -3.809 20
-10.937 -8.902 -3.955 7
-11.297 -9.145 -4.405 25
-10.901 -8.774 -4.362 30
-10.49 -8.398 -4.3 13
-9.53 -9.752 1.28 0
-9.47 -9.576 1.139 255
-9.481 -9.477 0.985 255
-9.515 -9.403 0.829 3
-9.454 -9.242 0.696 3
-32.844 -31.768 -5.512 27
0.0 -0.0 3.0 0
0.0 -0.0 3.0 0
0.0 -0.0 3.0 0
-25.375 -23.571 -5.116 6
-23.509 -21.628 -4.872 29
-22.429 -20.45 -4.85 26
-21.972 -19.853 -5.021 16
-20.945 -18.766 -4.966 6
-19.965 -17.736 -4.896 5
-19.087 -16.822 -4.844 7
-18.25 -15.956 -4.782 8
-9.401 -8.159 -1.157 1
-9.387 -8.088 -1.301 5
-9.417 -8.055 -1.465 6
-9.494 -8.066 -1.657 5
-15.096 -12.739 -4.654 7
-14.58 -12.226 -4.639 9
-14.112 -11.757 -4.635 9
-13.663 -11.315 -4.632 25
-13.239 -10.897 -4.63 33
-12.846 -10.513 -4.638 18
-11.054 -8.993 -3.777 24
-10.918 -8.834 -3.902 11
-11.295 -9.09 -4.361 21
-10.954 -8.765 -4.355 37
-10.536 -8.386 -4.289 14
0.0 -0.0 3.0 0
-9.471 -9.52 1.15 255
-9.479 -9.419 0.998 255
-9.543 -9.375 0.836 2
-9.449 -9.181 0.711 5
-33.1 -31.821 -5.526 27
0.0 -0.0 3.0 0
0.0 -0.0 3.0 0
-26.749 -24.93 -5.1 2
-25.533 -23.57 -5.116 4
-23.767 -21.73 -4.909 32
-22.578 -20.458 -4.853 27
-22.099 -19.843 -5.017 13
-21.083 -18.772 -4.968 6
-20.098 -17.742 -4.899 5
-19.197 -16.813 -4.84 6
-18.369 -15.96 -4.784 7
-9.387 -8.095 -1.125 4
-9.395 -8.045 -1.278 5
-9.446 -8.029 -1.451 6
-9.54 -8.056 -1.651 3
-15.177 -12.727 -4.647 7
-14.662 -12.218 -4.635 9
-14.184 -11.744 -4.627 8
-13.733 -11.303 -4.624 17
-13.305 -10.884 -4.621 33
-12.916 -10.507 -4.634 12
-11.113 -8.987 -3.772 17
-10.99 -8.84 -3.906 16
-11.171 -8.936 -4.236 30
-11.012 -8.76 -4.351 34
-10.585 -8.375 -4.281 15
0.0 -0.0 3.0 0
-9.475 -9.467 1.16 255
-9.482 -9.366 1.009 255
-9.454 -9.231 0.869 6
-9.449 -9.126 0.725 4
-33.356 -31.873 -5.54 27
-33.137 -31.325 -5.982 15
-30.748 -28.773 -5.797 3
-26.985 -24.995 -5.121 3
-25.205 -23.124 -4.962 4
-23.951 -21.762 -4.921 30
-22.736 -20.472 -4.859 26
-22.236 -19.841 -5.016 12
-21.219 -18.774 -4.969 7
-20.231 -17.748 -4.902 5
-19.324 -16.818 -4.843 6
-9.416 -8.129 -0.965 0
-9.387 -8.044 -1.099 5
-9.415 -8.012 -1.26 6
-9.486 -8.014 -1.442 6
-9.621 -8.073 -1.661 0
-15.263 -12.72 -4.643 9
-14.743 -12.211 -4.63 9
-14.264 -11.738 -4.623 9
-13.809 -11.297 -4.62 12
-13.38 -10.879 -4.618 36
-12.983 -10.497 -4.627 11
-11.091 -8.915 -3.718 27
-11.066 -8.848 -3.912 34
-11.426 -9.087 -4.358 23
-11.063 -8.748 -4.341 30
-10.636 -8.367 -4.274 13
0.0 -0.0 3.0 0
-9.472 -9.409 1.171 255
-9.493 -9.322 1.019 255
-9.462 -9.185 0.88 35
-9.443 -9.066 0.74 5
-33.625 -31.936 -5.557 26
-33.414 -31.394 -6.002 12
-30.99 -28.822 -5.812 4
0.0 -0.0 3.0 0
-25.961 -23.67 -5.15 5
-24.101 -21.762 -4.921 29
-22.885 -20.479 -4.861 26
-22.372 -19.837 -5.015 11
-21.364 -18.784 -4.973 6
-20.358 -17.748 -4.902 5
-19.446 -16.818 -4.843 5
-9.401 -8.066 -0.934 3
-9.398 -8.003 -1.078 5
-9.449 -7.991 -1.249 6
-9.532 -8.002 -1.435 4
-15.914 -13.27 -4.662 7
-15.352 -12.715 -4.64 7
-14.828 -12.205 -4.627 9
-14.342 -11.729 -4.617 35
-13.885 -11.289 -4.615 9
-13.449 -10.869 -4.61 34
-13.051 -10.489 -4.621 11
-11.271 -9.006 -3.787 22
-11.201 -8.902 -3.955 11
-11.214 -8.865 -4.179 23
-11.127 -8.748 -4.341 27
-10.691 -8.361 -4.269 12
0.0 -0.0 3.0 0
-9.472 -9.353 1.182 255
-9.491 -9.264 1.031 255
-9.496 -9.162 0.885 255
-9.446 -9.014 0.753 5
-33.937 -32.036 -5.584 23
-33.72 -31.488 -6.029 10
-31.246 -28.881 -5.83 4
-29.058 -26.584 -5.638 3
-26.151 -23.695 -5.159 4
-24.251 -21.762 -4.921 25
-23.035 -20.484 -4.863 25
-22.5 -19.827 -5.011 12
-21.503 -18.789 -4.975 6
-20.495 -17.754 -4.905 5
-9.424 -8.1 -0.777 0
-9.397 -8.012 -0.908 5
-9.417 -7.97 -1.061 6
-9.478 -7.964 -1.235 5
-9.598 -8.007 -1.438 1
-16.013 -13.27 -4.662 8
-15.435 -12.706 -4.634 9
-14.907 -12.194 -4.62 9
-14.416 -11.718 -4.61 36
-13.958 -11.28 -4.608 9
-13.517 -10.858 -4.603 33
-13.113 -10.475 -4.61 11
-11.302 -8.976 -3.764 2
-11.805 -9.326 -4.286 15
-11.41 -8.968 -4.262 44
-11.194 -8.749 -4.342 22
-10.74 -8.351 -4.259 14
0.0 -0.0 3.0 0
-9.475 -9.302 1.192 255
-9.485 -9.203 1.044 255
-9.502 -9.113 0.896 255
-9.454 -8.966 0.764 5
-34.319 -32.2 -5.628 25
-34.042 -31.595 -6.06 9
-31.509 -28.946 -5.85 4
-29.295 -26.635 -5.654 2
-26.356 -23.733 -5.172 5
-24.436 -21.791 -4.931 31
-23.193 -20.496 -4.868 28
-22.631 -19.817 -5.007 11
-21.646 -18.794 -4.978 6
-20.625 -17.756 -4.905 5
-9.403 -8.031 -0.745 2
-9.404 -7.968 -0.886 5
-9.442 -7.941 -1.046 6
-9.521 -7.95 -1.227 4
-16.722 -13.863 -4.685 7
-16.11 -13.268 -4.661 8
-15.522 -12.697 -4.629 9
-14.992 -12.188 -4.616 9
-14.499 -11.714 -4.607 9
-14.028 -11.267 -4.6 10
-13.592 -10.852 -4.598 28
-13.189 -10.472 -4.609 11
-11.794 -9.311 -4.016 8
-11.251 -8.836 -3.903 2
-11.289 -8.82 -4.142 17
-11.266 -8.755 -4.346 16
-10.794 -8.345 -4.254 14
0.0 -0.0 3.0 0
-9.477 -9.249 1.202 255
-9.498 -9.162 1.053 255
-9.507 -9.063 0.908 255
-9.462 -8.92 0.776 5
-36.397 -33.942 -6.095 17
-34.31 -31.649 -6.075 10
-31.796 -29.03 -5.875 5
-29.523 -26.678 -5.668 3
-26.55 -23.759 -5.181 4
-24.534 -21.743 -4.914 30
-23.358 -20.513 -4.874 26
-22.762 -19.807 -5.003 11
-21.795 -18.805 -4.982 6
-20.751 -17.751 -4.903 3
-9.393 -7.972 -0.717 4
-9.42 -7.932 -0.869 6
-9.476 -7.92 -1.035 5
-9.581 -7.95 -1.227 2
-16.815 -13.853 -4.679 6
-16.202 -13.26 -4.656 11
-15.611 -12.691 -4.626 9
-15.08 -12.184 -4.613 7
-14.583 -11.708 -4.604 9
-14.104 -11.259 -4.594 14
-13.661 -10.841 -4.591 26
-13.257 -10.462 -4.601 11
-11.39 -8.938 -3.735 12
-12.108 -9.452 -4.385 20
-11.611 -9.018 -4.303 37
-11.308 -8.736 -4.33 32
-10.843 -8.334 -4.245 17
0.0 -0.0 3.0 0
-9.479 -9.197 1.212 255
-9.495 -9.104 1.065 255
-9.506 -9.008 0.92 255
-9.475 -8.878 0.786 5
-9.507 -8.812 0.639 2
-33.146 -30.388 -5.714 5
-32.008 -29.044 -5.88 19
-29.758 -26.724 -5.683 3
-26.75 -23.791 -5.192 3
-24.822 -21.861 -4.957 30
-23.508 -20.515 -4.875 27
-22.896 -19.799 -4.999 11
-21.943 -18.815 -4.986 7
-9.423 -8.011 -0.567 2
-9.403 -7.93 -0.698 5
-9.445 -7.902 -0.854 6
-9.518 -7.905 -1.028 5
-17.543 -14.466 -4.692 6
-16.917 -13.85 -4.677 4
-16.308 -13.264 -4.658 8
-15.692 -12.678 -4.618 7
-15.156 -12.17 -4.604 9
-14.655 -11.694 -4.594 9
-14.183 -11.253 -4.59 21
-13.736 -10.833 -4.586 20
-13.325 -10.452 -4.594 11
-11.44 -8.924 -3.725 12
-11.303 -8.772 -3.853 18
-11.702 -9.035 -4.317 41
-11.347 -8.715 -4.313 49
-10.897 -8.327 -4.239 14
0.0 -0.0 3.0 0
-9.484 -9.148 1.222 255
-9.5 -9.055 1.075 255
-9.513 -8.961 0.931 255
-9.485 -8.835 0.797 5
-9.503 -8.755 0.654 5
-33.225 -30.275 -5.681 255
-32.279 -29.11 -5.9 17
-29.999 -26.774 -5.699 3
-26.945 -23.815 -5.2 4
-25.02 -21.899 -4.971 28
-23.641 -20.503 -4.87 30
-23.03 -19.79 -4.996 10
-22.093 -18.823 -4.99 6
-9.401 -7.941 -0.536 4
-9.415 -7.891 -0.68 5
-9.473 -7.876 -0.841 6
-9.57 -7.898 -1.024 3
-17.638 -14.454 -4.685 6
-17.016 -13.845 -4.674 3
-16.393 -13.25 -4.65 10
-15.788 -12.676 -4.616 7
-15.244 -12.165 -4.602 7
-14.741 -11.69 -4.592 9
-14.257 -11.243 -4.583 21
-13.805 -10.822 -4.578 11
-13.389 -10.44 -4.585 12
-11.554 -8.959 -3.751 9
-11.556 -8.915 -3.965 11
-11.577 -8.887 -4.196 30
-11.406 -8.709 -4.308 31
-10.954 -8.323 -4.235 14
0.0 -0.0 3.0 0
-9.492 -9.1 1.231 177
-9.504 -9.005 1.086 255
-9.518 -8.912 0.943 255
-9.504 -8.799 0.806 5
-9.507 -8.706 0.667 3
-9.517 -8.619 0.528 4
0.0 -0.0 3.0 0
-30.232 -26.816 -5.713 3
-27.152 -23.849 -5.212 2
-25.219 -21.935 -4.984 24
-23.821 -20.53 -4.881 25
-23.155 -19.774 -4.989 10
-9.43 -7.984 -0.389 1
-9.41 -7.899 -0.517 5
-9.443 -7.864 -0.667 6
-9.509 -7.856 -0.832 5
-9.636 -7.902 -1.026 0
-17.745 -14.45 -4.683 5
-17.109 -13.834 -4.668 6
-16.488 -13.244 -4.647 8
-15.872 -12.665 -4.61 6
-15.326 -12.155 -4.595 8
-14.822 -11.682 -4.587 8
-14.333 -11.234 -4.577 30
-13.88 -10.815 -4.573 10
-13.46 -10.433 -4.58 18
-11.66 -8.987 -3.772 6
-11.475 -8.8 -3.875 13
-11.808 -9.01 -4.296 29
-11.473 -8.709 -4.307 26
-11.003 -8.312 -4.225 12
0.0 -0.0 3.0 0
-9.513 -9.067 1.238 25
-9.505 -8.953 1.097 255
-9.516 -8.857 0.955 255
-9.528 -8.768 0.814 4
-9.488 -8.635 0.686 3
-9.536 -8.583 0.539 6
-9.518 -8.478 0.408 4
0.0 -0.0 3.0 0
-27.345 -23.869 -5.219 1
-25.254 -21.827 -4.945 30
-23.987 -20.544 -4.886 30
-23.29 -19.764 -4.985 8
-9.413 -7.92 -0.362 4
-9.426 -7.863 -0.501 5
-9.473 -7.84 -0.656 5
-9.56 -7.849 -0.828 4
-18.621 -15.176 -4.733 6
-17.852 -14.447 -4.682 5
-17.206 -13.824 -4.663 6
-16.576 -13.232 -4.639 9
-15.967 -12.661 -4.608 7
-15.409 -12.145 -4.589 7
-14.903 -11.674 -4.581 9
-14.404 -11.219 -4.568 20
-13.952 -10.805 -4.566 11
-13.531 -10.423 -4.573 28
-11.647 -8.924 -3.725 8
-11.534 -8.793 -3.87 13
-11.928 -9.048 -4.327 42
-11.524 -8.696 -4.297 32
-11.066 -8.311 -4.225 14
0.0 -0.0 3.0 0
-9.52 -9.021 1.247 7
-9.507 -8.901 1.108 255
-9.529 -8.815 0.965 119
-9.561 -8.746 0.819 5
-9.474 -8.571 0.703 4
-9.569 -8.561 0.545 5
-9.534 -8.441 0.419 6
-9.521 -8.341 0.29 4
-9.511 -8.251 0.159 0
-25.444 -21.855 -4.955 16
-24.106 -20.516 -4.876 29
-9.44 -7.96 -0.216 0
-9.41 -7.867 -0.339 5
-9.444 -7.828 -0.485 6
-9.503 -7.815 -0.644 5
-9.626 -7.853 -0.83 1
-18.731 -15.169 -4.729 7
-17.954 -14.437 -4.677 6
-17.308 -13.82 -4.66 6
-16.665 -13.22 -4.633 9
-16.054 -12.652 -4.602 8
-15.497 -12.139 -4.585 8
-14.983 -11.665 -4.575 9
-14.489 -11.217 -4.566 10
-14.027 -10.797 -4.56 12
-13.596 -10.411 -4.564 33
-11.747 -8.947 -3.742 3
-11.769 -8.918 -3.968 1
-11.89 -8.966 -4.261 42
-11.562 -8.675 -4.279 32
-11.118 -8.302 -4.217 12
-75.43 -71.956 -9.688 18
-9.527 -8.974 1.256 1
-9.51 -8.852 1.119 255
-9.573 -8.804 0.967 6
-9.6 -8.728 0.824 0
-9.472 -8.516 0.718 4
-9.632 -8.563 0.544 0
-9.567 -8.417 0.427 5
-9.53 -8.297 0.304 6
-9.521 -8.208 0.174 4
-9.507 -8.115 0.046 0
-24.264 -20.521 -4.877 31
-9.422 -7.896 -0.19 3
-9.422 -7.828 -0.323 5
-9.468 -7.799 -0.472 5
-9.548 -7.802 -0.638 4
-19.675 -15.95 -4.779 8
-18.853 -15.172 -4.731 7
-18.07 -14.44 -4.678 6
-17.414 -13.818 -4.659 7
-16.76 -13.212 -4.628 8
-16.147 -12.646 -4.598 9
-15.582 -12.131 -4.58 7
-15.064 -11.656 -4.569 8
-14.565 -11.207 -4.559 9
-14.099 -10.787 -4.553 20
-13.67 -10.404 -4.559 33
-11.871 -8.986 -3.772 5
-11.594 -8.734 -3.824 14
-12.1 -9.071 -4.346 19
-11.558 -8.621 -4.234 20
-11.175 -8.296 -4.212 12
0.0 -0.0 3.0 0
-9.557 -8.95 1.26 0
-9.526 -8.814 1.127 96
-9.636 -8.808 0.967 0
-44.583 -40.289 -7.045 5
-9.466 -8.46 0.733 5
-33.29 -29.418 -5.436 28
-9.635 -8.425 0.424 0
-9.572 -8.282 0.309 5
-9.539 -8.172 0.186 6
-9.513 -8.07 0.063 4
-9.474 -7.963 -0.057 0
-9.419 -7.843 -0.169 4
-9.442 -7.795 -0.309 6
-9.497 -7.774 -0.461 5
-9.605 -7.8 -0.637 2
-19.802 -15.952 -4.78 8
-18.965 -15.167 -4.728 7
-18.172 -14.43 -4.673 13
-17.511 -13.807 -4.653 7
-16.855 -13.204 -4.624 7
-16.237 -12.638 -4.593 7
-15.668 -12.122 -4.575 7
-15.145 -11.646 -4.563 9
-14.648 -11.202 -4.556 10
-14.168 -10.774 -4.544 12
-13.74 -10.395 -4.552 30
-11.791 -8.873 -3.686 5
-11.668 -8.737 -3.826 3
-11.871 -8.848 -4.165 49
-11.562 -8.574 -4.195 13
-11.227 -8.287 -4.204 15
0.0 -0.0 3.0 0
0.0 -0.0 3.0 0
-9.567 -8.799 1.13 12
-50.407 -45.802 -7.574 27
-45.019 -40.438 -7.082 4
-9.469 -8.411 0.746 5
-33.339 -29.282 -5.396 11
-31.003 -26.943 -5.237 255
-9.619 -8.271 0.313 0
-9.566 -8.144 0.196 5
-9.525 -8.03 0.077 6
-9.429 -7.875 -0.023 2
-9.427 -7.801 -0.152 5
-9.466 -7.766 -0.296 6
-9.536 -7.756 -0.453 5
-20.856 -16.829 -4.848 5
-19.932 -15.956 -4.782 8
-19.075 -15.159 -4.724 6
-18.285 -14.43 -4.672 12
-17.611 -13.798 -4.649 7
-16.95 -13.196 -4.618 7
-16.331 -12.631 -4.589 8
-15.756 -12.114 -4.57 9
-15.226 -11.637 -4.557 9
-14.724 -11.192 -4.549 10
-14.249 -10.77 -4.541 10
-13.811 -10.386 -4.546 33
-11.85 -8.864 -3.679 9
-11.724 -8.727 -3.819 0
-12.116 -8.977 -4.269 30
-11.615 -8.563 -4.185 12
-11.285 -8.282 -4.199 13
0.0 -0.0 3.0 0
0.0 -0.0 3.0 0
-9.608 -8.785 1.133 1
0.0 -0.0 3.0 0
-45.465 -40.593 -7.121 4
-9.472 -8.362 0.759 5
-33.352 -29.114 -5.348 11
-31.071 -26.836 -5.205 20
-31.705 -27.094 -5.803 3
-9.625 -8.143 0.196 0
-9.555 -8.004 0.087 5
-9.423 -7.821 -0.002 4
-9.442 -7.764 -0.137 6
-9.495 -7.741 -0.286 5
-9.593 -7.753 -0.452 2
-20.995 -16.835 -4.85 6
-20.051 -15.95 -4.779 8
-19.201 -15.162 -4.725 6
-18.399 -14.428 -4.672 14
-17.711 -13.79 -4.644 7
-17.045 -13.187 -4.613 7
-16.421 -12.621 -4.584 7
-15.848 -12.11 -4.567 7
-15.313 -11.631 -4.553 9
-14.804 -11.183 -4.543 9
-14.324 -10.761 -4.535 10
-13.885 -10.378 -4.54 31
-11.939 -8.877 -3.689 3
-12.325 -9.12 -4.125 44
-12.272 -9.039 -4.32 21
-11.67 -8.554 -4.177 12
-11.331 -8.267 -4.187 13
0.0 -0.0 3.0 0
0.0 -0.0 3.0 0
0.0 -0.0 3.0 0
0.0 -0.0 3.0 0
-45.931 -40.76 -7.163 3
-9.48 -8.319 0.771 5
-9.464 -8.21 0.646 1
-30.964 -26.579 -5.126 5
-31.796 -27.004 -5.774 4
-29.708 -24.98 -5.601 4
-9.443 -7.861 0.139 2
-9.431 -7.778 0.014 5
-9.465 -7.734 -0.125 5
-9.531 -7.721 -0.277 5
-9.652 -7.752 -0.452 0
-21.122 -16.829 -4.848 5
-20.173 -15.946 -4.777 8
-19.317 -15.158 -4.723 6
-18.486 -14.405 -4.659 24
-17.817 -13.785 -4.641 7
-17.146 -13.182 -4.611 8
-16.517 -12.617 -4.581 7
-15.925 -12.093 -4.557 7
-15.398 -11.623 -4.548 9
-14.887 -11.176 -4.539 9
-14.397 -10.749 -4.527 11
-13.962 -10.373 -4.536 29
-13.164 -9.729 -4.331 10
-12.021 -8.842 -3.908 83
-12.329 -9.028 -4.311 21
-11.726 -8.545 -4.17 12
-11.391 -8.264 -4.183 13
0.0 -0.0 3.0 0
0.0 -0.0 3.0 0
0.0 -0.0 3.0 0
0.0 -0.0 3.0 0
-46.377 -40.907 -7.199 4
-9.492 -8.278 0.782 5
-9.457 -8.154 0.662 4
-30.96 -26.412 -5.075 5
0.0 -0.0 3.0 0
-29.955 -25.031 -5.619 4
-9.436 -7.807 0.159 3
-9.442 -7.738 0.03 6
-9.491 -7.706 -0.113 5
-9.581 -7.713 -0.274 4
-22.313 -17.807 -4.928 6
-21.262 -16.834 -4.85 5
-20.304 -15.948 -4.778 8
-19.43 -15.151 -4.72 7
-18.595 -14.398 -4.655 27
-17.911 -13.772 -4.634 7
-17.239 -13.17 -4.604 8
-16.611 -12.609 -4.576 7
-16.016 -12.087 -4.553 7
-15.479 -11.612 -4.541 9
-14.957 -11.162 -4.529 10
-14.469 -10.737 -4.518 13
-14.03 -10.361 -4.528 28
-12.464 -9.157 -3.9 17
-12.432 -9.091 -4.102 41
-12.364 -9.0 -4.288 30
-11.782 -8.535 -4.162 17
-11.44 -8.251 -4.173 13
-74.11 -68.266 -9.037 31
0.0 -0.0 3.0 0
0.0 -0.0 3.0 0
0.0 -0.0 3.0 0
-46.836 -41.064 -7.238 8
-9.5 -8.235 0.794 5
-9.417 -8.07 0.686 4
-30.96 -26.249 -5.025 7
-30.924 -25.938 -5.428 4
-9.449 -7.847 0.298 1
-9.432 -7.754 0.178 5
-9.462 -7.706 0.042 6
-9.529 -7.689 -0.106 5
-9.638 -7.709 -0.272 1
-22.465 -17.815 -4.932 6
-21.398 -16.835 -4.85 5
-20.429 -15.944 -4.776 8
-19.553 -15.15 -4.719 7
-18.709 -14.395 -4.654 27
-18.014 -13.764 -4.629 8
-17.343 -13.167 -4.602 9
-16.695 -12.594 -4.568 7
-16.102 -12.077 -4.547 7
-15.563 -11.604 -4.536 9
-15.043 -11.156 -4.525 10
-14.545 -10.728 -4.512 14
-12.478 -9.159 -3.654 12
-12.481 -9.114 -3.868 44
-12.496 -9.083 -4.097 29
-12.409 -8.98 -4.272 27
-11.837 -8.526 -4.154 15
-11.497 -8.245 -4.167 14
0.0 -0.0 3.0 0
0.0 -0.0 3.0 0
0.0 -0.0 3.0 0
0.0 -0.0 3.0 0
-47.264 -41.189 -7.269 4
-9.496 -8.181 0.808 3
-9.47 -8.066 0.687 4
-30.967 -26.092 -4.977 5
-30.957 -25.805 -5.385 5
-9.43 -7.781 0.321 3
-9.446 -7.717 0.191 5
-9.49 -7.68 0.052 6
-9.576 -7.678 -0.102 4
-23.784 -18.905 -5.025 7
-22.602 -17.81 -4.929 5
-21.548 -16.845 -4.855 5
-20.557 -15.943 -4.776 7
-19.676 -15.149 -4.719 6
-18.814 -14.385 -4.649 23
-18.121 -13.758 -4.626 8
-17.436 -13.154 -4.595 9
-16.798 -12.593 -4.567 7
-16.194 -12.07 -4.542 7
-15.648 -11.595 -4.53 9
-15.123 -11.147 -4.519 10
-14.629 -10.725 -4.51 10
-12.47 -9.097 -3.61 32
-12.5 -9.074 -3.837 26
-12.827 -9.269 -4.242 34
-12.452 -8.958 -4.254 31
-11.893 -8.517 -4.146 15
-11.546 -8.232 -4.156 13
0.0 -0.0 3.0 0
0.0 -0.0 3.0 0
0.0 -0.0 3.0 0
0.0 -0.0 3.0 0
0.0 -0.0 3.0 0
-9.432 -8.077 0.836 5
-9.504 -8.046 0.693 4
-30.993 -25.954 -4.935 10
-9.474 -7.848 0.45 0
-9.434 -7.736 0.336 4
-9.459 -7.679 0.205 6
-9.519 -7.655 0.061 5
-9.626 -7.669 -0.099 1
-23.946 -18.913 -5.028 7
-22.754 -17.816 -4.932 5
-21.676 -16.837 -4.851 5
-20.682 -15.939 -4.774 8
-19.796 -15.145 -4.717 6
-18.926 -14.379 -4.646 27
-18.227 -13.752 -4.623 8
-17.531 -13.144 -4.589 9
-16.889 -12.582 -4.56 7
-16.28 -12.059 -4.535 7
-15.729 -11.583 -4.522 9
-15.203 -11.138 -4.512 10
-12.454 -9.074 -3.354 20
-12.48 -9.05 -3.575 35
-12.59 -9.084 -3.846 13
-12.975 -9.32 -4.281 20
-12.521 -8.955 -4.251 16
-11.958 -8.513 -4.143 14
-11.598 -8.222 -4.147 14
0.0 -0.0 3.0 0
0.0 -0.0 3.0 0
0.0 -0.0 3.0 0
0.0 -0.0 3.0 0
0.0 -0.0 3.0 0
-9.46 -8.051 0.843 5
-9.5 -7.992 0.708 4
-31.028 -25.822 -4.895 11
-9.448 -7.778 0.473 3
-9.444 -7.696 0.35 5
-9.487 -7.654 0.214 6
-9.566 -7.644 0.066 4
-24.835 -19.661 -4.944 9
-24.104 -18.918 -5.03 7
-22.9 -17.817 -4.933 6
-21.822 -16.844 -4.854 5
-20.817 -15.94 -4.775 7
-19.913 -15.138 -4.713 6
-19.035 -14.371 -4.641 28
-18.34 -13.75 -4.622 8
-17.633 -13.137 -4.585 9
-16.98 -12.57 -4.553 7
-16.372 -12.052 -4.531 7
-15.814 -11.573 -4.516 9
-12.458 -9.07 -3.118 1
-12.461 -9.024 -3.319 30
-12.547 -9.043 -3.57 18
-13.493 -9.678 -4.293 10
-13.001 -9.283 -4.253 21
-12.59 -8.951 -4.249 16
-12.022 -8.509 -4.14 15
-11.65 -8.211 -4.138 14
0.0 -0.0 3.0 0
0.0 -0.0 3.0 0
0.0 -0.0 3.0 0
0.0 -0.0 3.0 0
0.0 -0.0 3.0 0
-9.467 -8.008 0.854 4
-9.458 -7.908 0.732 4
-9.485 -7.844 0.602 0
-9.44 -7.723 0.491 4
-9.457 -7.659 0.363 6
-9.513 -7.626 0.224 5
-9.622 -7.641 0.067 2
-24.98 -19.651 -4.94 9
-24.272 -18.929 -5.035 8
-23.062 -17.83 -4.938 5
-21.963 -16.845 -4.855 5
-20.946 -15.938 -4.773 7
-20.033 -15.133 -4.71 6
-19.155 -14.37 -4.641 31
-18.441 -13.739 -4.615 7
-17.732 -13.128 -4.579 8
-17.083 -12.568 -4.552 7
-16.462 -12.043 -4.525 7
-15.895 -11.561 -4.508 7
-12.446 -9.006 -3.074 26
-12.5 -8.998 -3.3 23
-12.607 -9.032 -3.562 0
-13.279 -9.467 -4.134 15
-13.086 -9.289 -4.257 22
-12.653 -8.944 -4.243 21
-12.069 -8.493 -4.126 13
-11.704 -8.202 -4.13 13
0.0 -0.0 3.0 0
0.0 -0.0 3.0 0
0.0 -0.0 3.0 0
0.0 -0.0 3.0 0
0.0 -0.0 3.0 0
-9.567 -8.044 0.845 4
-9.414 -7.823 0.757 4
-9.458 -7.774 0.623 2
-9.447 -7.68 0.505 5
-9.482 -7.631 0.372 7
-9.55 -7.608 0.231 4
-9.687 -7.644 0.066 0
-25.132 -19.645 -4.937 10
-24.441 -18.94 -5.039 9
-23.206 -17.827 -4.937 5
-22.095 -16.838 -4.852 5
-21.081 -15.939 -4.774 7
-20.154 -15.127 -4.708 5
-19.274 -14.367 -4.639 30
-18.548 -13.731 -4.611 7
-17.831 -13.118 -4.573 8
-17.174 -12.556 -4.544 7
-16.557 -12.036 -4.521 7
-12.459 -9.005 -2.848 5
-12.458 -8.959 -3.043 26
-12.566 -8.99 -3.295 1
-13.04 -9.286 -3.747 10
-13.266 -9.401 -4.084 17
-13.162 -9.288 -4.256 22
-12.708 -8.929 -4.231 18
-12.122 -8.48 -4.116 32
-11.759 -8.193 -4.122 13
0.0 -0.0 3.0 0
0.0 -0.0 3.0 0
-64.783 -56.143 -8.934 7
0.0 -0.0 3.0 0
0.0 -0.0 3.0 0
-9.614 -8.033 0.848 5
-9.481 -7.831 0.755 5
-9.444 -7.714 0.642 4
-9.462 -7.645 0.516 6
-9.51 -7.606 0.381 5
-9.603 -7.601 0.233 3
-26.293 -20.616 -4.914 24
-25.281 -19.636 -4.934 9
-24.603 -18.944 -5.041 10
-23.365 -17.835 -4.941 5
-22.245 -16.846 -4.855 5
-21.214 -15.937 -4.773 7
-20.278 -15.124 -4.706 6
-19.392 -14.364 -4.637 31
-18.652 -13.72 -4.605 5
-17.936 -13.112 -4.57 9
-17.268 -12.545 -4.538 8
-16.643 -12.024 -4.514 7
-12.437 -8.934 -2.802 35
-12.494 -8.93 -3.024 19
-15.013 -10.675 -4.475 12
-13.078 -9.256 -3.725 9
-13.703 -9.653 -4.274 17
-13.081 -9.175 -4.168 20
-12.768 -8.919 -4.223 19
-12.172 -8.466 -4.103 18
-11.819 -8.188 -4.118 13
0.0 -0.0 3.0 0
0.0 -0.0 3.0 0
-65.69 -56.592 -9.029 7
0.0 -0.0 3.0 0
0.0 -0.0 3.0 0
-9.618 -7.988 0.86 5
-9.482 -7.783 0.768 3
-9.453 -7.674 0.654 5
-9.484 -7.615 0.526 7
-9.538 -7.58 0.39 4
-9.668 -7.605 0.232 0
-26.533 -20.674 -4.936 30
-25.437 -19.632 -4.932 9
-24.775 -18.956 -5.046 11
-23.522 -17.84 -4.943 5
-22.377 -16.837 -4.851 6
-21.343 -15.932 -4.77 8
-20.398 -15.117 -4.703 6
-19.504 -14.355 -4.633 30
-18.759 -13.712 -4.601 6
-18.041 -13.106 -4.567 9
-17.359 -12.532 -4.53 7
-12.437 -8.929 -2.58 2
-12.445 -8.885 -2.77 27
-15.607 -11.086 -4.478 10
-15.089 -10.663 -4.466 12
-13.139 -9.244 -3.716 7
-13.09 -9.165 -3.906 1
-13.253 -9.241 -4.22 37
-12.829 -8.909 -4.214 20
-12.236 -8.461 -4.1 10
-11.871 -8.177 -4.108 14
0.0 -0.0 3.0 0
0.0 -0.0 3.0 0
-66.574 -57.012 -9.118 7
0.0 -0.0 3.0 0
0.0 -0.0 3.0 0
-9.612 -7.934 0.874 5
-9.457 -7.715 0.788 4
-9.459 -7.631 0.667 5
-9.503 -7.582 0.536 5
-9.588 -7.572 0.393 4
-28.295 -22.116 -5.05 20
-26.738 -20.701 -4.946 17
-25.604 -19.636 -4.934 10
-24.948 -18.966 -5.051 18
-23.679 -17.845 -4.945 5
-22.525 -16.84 -4.853 6
-21.473 -15.926 -4.768 7
-20.525 -15.115 -4.701 6
-19.632 -14.357 -4.634 23
-18.863 -13.701 -4.595 7
-18.14 -13.095 -4.56 9
-17.463 -12.528 -4.528 7
-12.433 -8.871 -2.543 18
-12.493 -8.864 -2.756 17
-15.69 -11.077 -4.471 7
-15.165 -10.652 -4.458 13
-13.11 -9.167 -3.66 16
-13.832 -9.627 -4.255 18
-13.327 -9.237 -4.217 34
-12.883 -8.894 -4.202 23
-12.274 -8.438 -4.08 7
-11.926 -8.168 -4.1 13
0.0 -0.0 3.0 0
0.0 -0.0 3.0 0
0.0 -0.0 3.0 0
0.0 -0.0 3.0 0
0.0 -0.0 3.0 0
-9.576 -7.856 0.895 2
-9.457 -7.667 0.801 5
-9.481 -7.601 0.676 7
-9.539 -7.564 0.542 5
-9.64 -7.565 0.395 1
-28.63 -22.237 -5.094 20
-27.02 -20.786 -4.979 29
-25.773 -19.64 -4.935 9
-25.105 -18.963 -5.05 21
-23.836 -17.848 -4.947 5
-22.673 -16.843 -4.854 6
-21.605 -15.923 -4.766 7
-20.65 -15.109 -4.699 6
-19.76 -14.36 -4.635 13
-18.971 -13.692 -4.59 6
-18.243 -13.086 -4.555 9
-12.449 -8.875 -2.333 1
-12.444 -8.823 -2.513 28
-16.331 -11.515 -4.478 7
-15.755 -11.054 -4.456 15
-15.24 -10.639 -4.45 20
-13.356 -9.283 -3.744 7
-13.236 -9.157 -3.901 2
-13.349 -9.198 -4.186 24
-12.923 -8.868 -4.182 31
-12.294 -8.403 -4.051 11
-11.987 -8.161 -4.095 13
0.0 -0.0 3.0 0
0.0 -0.0 3.0 0
0.0 -0.0 3.0 0
0.0 -0.0 3.0 0
0.0 -0.0 3.0 0
-9.457 -7.711 0.934 4
-9.466 -7.627 0.813 5
-9.505 -7.573 0.685 7
-9.582 -7.551 0.547 5
-32.615 -25.433 -5.757 13
-28.7 -22.151 -5.062 18
-27.161 -20.762 -4.97 34
-25.956 -19.653 -4.94 8
-25.272 -18.968 -5.052 24
-23.993 -17.852 -4.948 5
-22.815 -16.84 -4.853 6
-21.739 -15.918 -4.764 7
-20.777 -15.105 -4.696 6
-19.876 -14.352 -4.631 5
-19.081 -13.684 -4.585 7
-18.342 -13.074 -4.548 8
-12.425 -8.802 -2.289 22
-12.485 -8.797 -2.497 21
-16.422 -11.507 -4.473 7
-15.857 -11.057 -4.458 10
-15.319 -10.629 -4.443 30
-13.302 -9.189 -3.676 11
-13.234 -9.1 -3.858 12
-13.006 -8.908 -3.96 19
-12.249 -8.357 -3.768 2
-12.422 -8.44 -4.082 15
-12.035 -8.148 -4.083 13
0.0 -0.0 3.0 0
0.0 -0.0 3.0 0
0.0 -0.0 3.0 0
0.0 -0.0 3.0 0
0.0 -0.0 3.0 0
-9.457 -7.664 0.946 5
-9.481 -7.592 0.823 7
-9.529 -7.545 0.693 5
-9.628 -7.539 0.55 3
-32.88 -25.479 -5.773 13
-29.198 -22.392 -5.15 20
-27.199 -20.66 -4.931 31
-26.131 -19.66 -4.943 6
-25.436 -18.969 -5.052 26
-24.157 -17.858 -4.951 5
-22.97 -16.846 -4.855 6
-21.875 -15.916 -4.763 7
-20.905 -15.101 -4.694 6
-19.995 -14.346 -4.628 5
-19.192 -13.677 -4.581 6
-12.466 -8.829 -2.098 0
-12.445 -8.761 -2.264 28
-12.597 -8.82 -2.511 2
-16.507 -11.495 -4.465 7
-15.94 -11.046 -4.451 10
-15.401 -10.62 -4.437 33
-12.37 -8.493 -3.171 1
-13.563 -9.271 -3.986 22
-12.213 -8.315 -3.497 3
-12.281 -8.329 -3.745 2
-12.48 -8.431 -4.074 13
-12.099 -8.144 -4.079 13
0.0 -0.0 3.0 0
0.0 -0.0 3.0 0
0.0 -0.0 3.0 0
0.0 -0.0 3.0 0
-9.47 -7.72 1.075 2
-9.465 -7.624 0.957 5
-9.502 -7.562 0.832 9
-9.52 -7.491 0.71 3
-9.709 -7.555 0.545 0
-33.14 -25.519 -5.787 11
-29.39 -22.397 -5.152 22
-27.212 -20.538 -4.884 34
-26.344 -19.693 -4.957 7
-25.606 -18.974 -5.054 25
-24.321 -17.865 -4.954 5
-23.112 -16.842 -4.854 6
-22.011 -15.913 -4.761 8
-21.036 -15.098 -4.693 6
-20.111 -14.337 -4.623 5
-19.306 -13.671 -4.578 6
-12.451 -8.762 -2.059 19
-12.486 -8.735 -2.248 20
-17.197 -11.965 -4.477 7
-16.596 -11.484 -4.458 7
-16.021 -11.034 -4.442 10
-15.477 -10.607 -4.427 31
-13.282 -9.064 -3.585 11
-12.324 -8.373 -3.31 11
-12.232 -8.278 -3.468 3
-12.514 -8.438 -3.833 2
-12.542 -8.423 -4.068 13
-12.157 -8.136 -4.073 20
0.0 -0.0 3.0 0
0.0 -0.0 3.0 0
0.0 -0.0 3.0 0
0.0 -0.0 3.0 0
-9.457 -7.662 1.09 5
-9.474 -7.584 0.968 8
-9.523 -7.532 0.84 6
-9.516 -7.441 0.725 4
-32.796 -25.359 -5.24 1
-33.407 -25.562 -5.802 11
-29.863 -22.613 -5.23 22
-27.312 -20.482 -4.862 32
-26.538 -19.712 -4.964 8
-25.786 -18.985 -5.059 22
-24.47 -17.859 -4.951 5
-23.258 -16.839 -4.852 6
-22.142 -15.904 -4.757 6
-21.167 -15.095 -4.691 6
-20.234 -14.332 -4.62 6
-19.408 -13.655 -4.569 6
-12.445 -8.703 -2.025 21
-12.53 -8.71 -2.233 6
-17.29 -11.955 -4.47 8
-16.684 -11.474 -4.451 9
-16.102 -11.021 -4.434 10
-15.492 -10.553 -4.389 5
-13.263 -8.996 -3.536 12
-12.193 -8.234 -3.205 14
-12.263 -8.25 -3.446 3
-13.14 -8.808 -4.132 32
-12.58 -8.4 -4.048 26
-12.209 -8.123 -4.061 13
0.0 -0.0 3.0 0
0.0 -0.0 3.0 0
0.0 -0.0 3.0 0
0.0 -0.0 3.0 0
-9.465 -7.622 1.1 5
-9.497 -7.556 0.975 13
-9.559 -7.514 0.845 5
-9.502 -7.384 0.742 4
-33.018 -25.371 -5.243 1
-33.656 -25.59 -5.811 10
-30.059 -22.617 -5.232 22
-27.577 -20.549 -4.888 31
-26.727 -19.725 -4.969 11
-25.961 -18.99 -5.061 24
-24.641 -17.868 -4.955 4
-23.407 -16.838 -4.852 6
-22.282 -15.902 -4.756 6
-21.292 -15.087 -4.687 6
-20.35 -14.323 -4.615 6
-12.454 -8.707 -1.826 0
-12.492 -8.681 -2.012 17
-12.567 -8.681 -2.216 4
-17.377 -11.939 -4.46 10
-16.769 -11.46 -4.442 7
-15.601 -10.612 -4.158 6
-15.503 -10.495 -4.349 2
-13.379 -9.02 -3.554 10
-12.168 -8.168 -3.155 17
-12.23 -8.178 -3.39 0
-13.197 -8.794 -4.121 51
-12.657 -8.402 -4.05 15
-12.263 -8.113 -4.053 13
0.0 -0.0 3.0 0
0.0 -0.0 3.0 0
0.0 -0.0 3.0 0
-9.533 -7.727 1.216 0
-9.47 -7.579 1.11 6
-9.518 -7.526 0.983 7
-9.605 -7.503 0.849 4
-9.507 -7.342 0.755 5
-33.266 -25.4 -5.253 1
-33.93 -25.635 -5.827 8
-30.191 -22.571 -5.215 20
-28.078 -20.789 -4.98 17
-26.919 -19.739 -4.975 14
-26.138 -18.998 -5.064 21
-24.806 -17.871 -4.957 5
-23.553 -16.834 -4.85 5
-22.419 -15.897 -4.753 7
-21.42 -15.08 -4.684 6
-20.473 -14.317 -4.612 5
-12.388 -8.605 -1.77 21
-12.642 -8.729 -2.039 9
-18.144 -12.453 -4.483 7
-17.467 -11.925 -4.452 12
-16.858 -11.449 -4.435 9
-15.547 -10.509 -4.089 25
-15.529 -10.449 -4.316 2
-13.478 -9.031 -3.561 10
-12.19 -8.133 -3.129 19
-12.236 -8.134 -3.355 0
-13.248 -8.776 -4.107 27
-12.704 -8.384 -4.035 31
-12.327 -8.109 -4.049 13
0.0 -0.0 3.0 0
0.0 -0.0 3.0 0
0.0 -0.0 3.0 0
-9.526 -7.674 1.228 1
-9.496 -7.555 1.116 14
-9.551 -7.505 0.989 5
-9.66 -7.498 0.85 2
-9.534 -7.316 0.763 5
-33.482 -25.405 -5.254 1
-34.208 -25.682 -5.843 6
-30.453 -22.623 -5.234 21
-28.317 -20.831 -4.996 17
-27.089 -19.736 -4.974 22
-26.319 -19.007 -5.068 16
-24.968 -17.872 -4.957 4
-23.706 -16.834 -4.85 5
-22.556 -15.892 -4.751 7
-21.555 -15.078 -4.682 6
-20.599 -14.313 -4.61 5
-12.466 -8.604 -1.769 27
-12.62 -8.658 -1.999 0
-18.245 -12.444 -4.477 7
-17.557 -11.912 -4.443 17
-16.949 -11.44 -4.429 8
-15.532 -10.435 -4.038 44
-15.568 -10.41 -4.289 2
-12.313 -8.2 -2.958 19
-12.254 -8.127 -3.124 14
-12.263 -8.104 -3.331 0
-13.309 -8.764 -4.097 37
-12.778 -8.384 -4.035 19
-12.376 -8.094 -4.036 14
0.0 -0.0 3.0 0
-83.797 -68.929 -10.398 20
0.0 -0.0 3.0 0
-9.53 -7.632 1.238 1
-9.517 -7.524 1.124 9
-9.587 -7.486 0.994 5
-44.966 -34.689 -6.947 4
-9.588 -7.313 0.764 4
-33.743 -25.441 -5.266 2
-34.5 -25.735 -5.861 4
-30.685 -22.65 -5.244 29
-28.673 -20.958 -5.045 28
-27.266 -19.738 -4.975 27
-26.504 -19.016 -5.072 15
-25.124 -17.868 -4.955 5
-23.865 -16.837 -4.851 5
-22.694 -15.885 -4.748 8
-21.687 -15.072 -4.68 6
-20.719 -14.303 -4.605 5
-12.487 -8.563 -1.747 28
-19.069 -13.0 -4.505 7
-18.337 -12.427 -4.467 7
-17.653 -11.901 -4.437 26
-15.591 -10.457 -3.791 11
-15.536 -10.373 -3.996 46
-15.606 -10.372 -4.262 1
-12.334 -8.164 -2.931 19
-12.305 -8.112 -3.113 15
-12.305 -8.083 -3.315 0
-13.351 -8.74 -4.077 44
-12.84 -8.375 -4.028 12
-12.443 -8.091 -4.033 13
0.0 -0.0 3.0 0
0.0 -0.0 3.0 0
0.0 -0.0 3.0 0
-9.541 -7.594 1.247 2
-9.546 -7.501 1.13 6
-9.641 -7.483 0.995 3
-45.369 -34.783 -6.974 4
-9.762 -7.399 0.738 9
-33.973 -25.452 -5.27 2
-34.836 -25.821 -5.891 8
-30.908 -22.668 -5.251 24
-28.828 -20.937 -5.037 30
-27.443 -19.738 -4.975 28
-26.676 -19.016 -5.072 13
-25.296 -17.874 -4.958 4
-24.018 -16.836 -4.851 6
-22.835 -15.88 -4.745 7
-21.816 -15.064 -4.675 6
-12.468 -8.552 -1.547 0
-12.556 -8.555 -1.742 16
-19.175 -12.989 -4.499 7
-18.445 -12.421 -4.463 7
-17.753 -11.894 -4.432 31
-15.548 -10.363 -3.73 25
-15.556 -10.321 -3.962 48
-15.657 -10.341 -4.241 1
-12.358 -8.13 -2.907 15
-12.348 -8.091 -3.097 15
-12.329 -8.05 -3.29 0
-13.423 -8.736 -4.074 39
-12.902 -8.367 -4.021 15
-12.494 -8.078 -4.022 14
0.0 -0.0 3.0 0
0.0 -0.0 3.0 0
0.0 -0.0 3.0 0
-9.567 -7.569 1.253 5
-9.578 -7.481 1.135 5
-9.711 -7.491 0.993 0
-45.865 -34.944 -7.02 3
-9.72 -7.32 0.762 1
-34.213 -25.47 -5.276 2
-35.056 -25.819 -5.89 3
-30.933 -22.541 -5.204 24
-29.037 -20.953 -5.043 29
-27.63 -19.745 -4.977 30
-26.874 -19.033 -5.079 10
-25.465 -17.877 -4.959 5
-24.181 -16.841 -4.853 5
-22.972 -15.873 -4.742 7
-21.935 -15.049 -4.668 6
-12.486 -8.508 -1.524 22
-20.114 -13.617 -4.548 6
-19.282 -12.977 -4.492 7
-18.537 -12.403 -4.453 7
-15.609 -10.391 -3.493 0
-15.539 -10.292 -3.684 45
-15.584 -10.276 -3.931 48
-15.704 -10.308 -4.218 1
-12.41 -8.115 -2.896 28
-12.409 -8.082 -3.09 5
-12.366 -8.026 -3.27 0
-13.483 -8.723 -4.064 39
-12.964 -8.358 -4.013 13
-12.555 -8.07 -4.016 14
0.0 -0.0 3.0 0
0.0 -0.0 3.0 0
-9.597 -7.65 1.374 0
-9.603 -7.551 1.257 1
-9.63 -7.475 1.136 4
-51.578 -39.54 -7.595 4
-46.33 -35.079 -7.059 4
0.0 -0.0 3.0 0
-34.472 -25.5 -5.286 2
-31.499 -23.052 -4.937 3
-30.988 -22.437 -5.166 14
-29.145 -20.896 -5.021 19
-27.808 -19.743 -4.977 34
-27.078 -19.055 -5.088 10
-25.631 -17.877 -4.959 5
-24.335 -16.837 -4.851 5
-23.12 -15.871 -4.741 7
-22.08 -15.05 -4.668 6
-12.484 -8.453 -1.494 21
-20.245 -13.618 -4.549 6
-19.385 -12.964 -4.485 7
-18.638 -12.392 -4.446 7
-15.555 -10.29 -3.43 20
-15.545 -10.231 -3.644 45
-15.628 -10.241 -3.907 47
-15.854 -10.343 -4.242 0
-12.471 -8.104 -2.888 0
-13.477 -8.724 -3.574 9
-12.389 -7.994 -3.245 0
-13.531 -8.703 -4.047 42
-13.02 -8.346 -4.003 12
-12.607 -8.057 -4.004 14
0.0 -0.0 3.0 0
0.0 -0.0 3.0 0
-9.595 -7.603 1.384 4
-9.673 -7.56 1.255 2
-9.69 -7.476 1.136 2
-52.128 -39.715 -7.642 4
-46.79 -35.206 -7.095 4
0.0 -0.0 3.0 0
-34.697 -25.504 -5.287 1
-31.34 -22.789 -4.847 6
-31.119 -22.387 -5.148 13
-29.266 -20.847 -5.002 14
-28.011 -19.759 -4.983 32
-25.369 -17.735 -4.528 3
-25.814 -17.888 -4.964 5
-24.492 -16.836 -4.851 5
-23.264 -15.867 -4.739 7
-22.213 -15.042 -4.664 7
-12.511 -8.416 -1.475 19
-20.376 -13.618 -4.549 4
-19.498 -12.955 -4.48 7
-18.75 -12.386 -4.442 7
-15.536 -10.212 -3.381 34
-15.56 -10.176 -3.609 47
-15.684 -10.213 -3.889 39
-14.481 -9.389 -3.574 5
-14.079 -9.094 -3.607 1
-14.054 -9.043 -3.814 30
-14.116 -9.053 -4.073 19
-13.558 -8.668 -4.019 19
-13.082 -8.336 -3.995 13
-12.671 -8.052 -3.999 14
0.0 -0.0 3.0 0
-9.604 -7.669 1.509 0
-9.621 -7.577 1.389 5
0.0 -0.0 3.0 0
0.0 -0.0 3.0 0
-52.648 -39.863 -7.681 5
-47.261 -35.338 -7.133 4
-42.694 -31.55 -6.646 5
-31.616 -23.093 -4.503 2
-31.252 -22.58 -4.775 10
-31.158 -22.272 -5.106 12
-29.527 -20.897 -5.022 16
-28.224 -19.78 -4.992 30
-25.381 -17.629 -4.483 255
-25.997 -17.897 -4.968 5
-24.64 -16.827 -4.847 6
-23.406 -15.86 -4.735 7
-12.481 -8.398 -1.279 1
-12.582 -8.409 -1.471 3
-20.473 -13.594 -4.535 3
-19.602 -12.94 -4.471 8
-15.622 -10.254 -3.161 9
-15.532 -10.144 -3.339 49
-15.584 -10.129 -3.578 48
-15.759 -10.198 -3.879 26
-14.478 -9.329 -3.532 8
-15.31 -9.828 -4.141 9
0.0 -0.0 3.0 0
-14.184 -9.042 -4.064 47
-13.584 -8.633 -3.991 11
-13.144 -8.327 -3.987 12
-12.723 -8.038 -3.987 13
0.0 -0.0 3.0 0
-9.592 -7.614 1.52 1
-9.662 -7.564 1.392 0
0.0 -0.0 3.0 0
0.0 -0.0 3.0 0
-53.195 -40.029 -7.726 10
-12.83 -9.533 0.267 0
-43.214 -31.732 -6.702 9
-31.395 -22.785 -4.403 7
-31.202 -22.399 -4.713 12
-31.136 -22.112 -5.048 14
-29.772 -20.934 -5.036 15
-28.403 -19.776 -4.99 30
0.0 -0.0 3.0 0
-26.148 -17.884 -4.962 4
-24.807 -16.831 -4.848 6
-23.545 -15.849 -4.73 7
-12.501 -8.356 -1.257 26
-21.477 -14.261 -4.583 6
-20.595 -13.586 -4.531 3
-19.715 -12.932 -4.466 8
-15.55 -10.142 -3.094 19
-15.53 -10.079 -3.298 44
-15.621 -10.088 -3.552 47
-15.854 -10.195 -3.877 1
-14.805 -9.48 -3.638 0
-14.938 -9.53 -3.924 4
-14.797 -9.406 -4.088 32
-14.192 -8.993 -4.026 43
-13.647 -8.623 -3.983 11
-13.206 -8.317 -3.979 14
-12.777 -8.026 -3.977 22
0.0 -0.0 3.0 0
-9.605 -7.58 1.527 54
-11.638 -9.057 1.075 7
0.0 -0.0 3.0 0
0.0 -0.0 3.0 0
-53.725 -40.176 -7.765 6
-12.822 -9.468 0.285 3
-31.708 -23.136 -4.073 1
-31.296 -22.569 -4.333 5
-31.163 -22.228 -4.654 13
-31.139 -21.972 -4.997 14
-29.669 -20.726 -4.956 5
-25.514 -17.649 -4.131 1
0.0 -0.0 3.0 0
-25.291 -17.185 -4.651 1
-24.961 -16.826 -4.846 5
-23.712 -15.858 -4.734 12
-12.531 -8.321 -1.24 34
-21.601 -14.25 -4.577 6
-20.697 -13.566 -4.52 3
-19.832 -12.924 -4.462 9
-15.53 -10.064 -3.047 36
-15.538 -10.02 -3.261 45
-15.671 -10.056 -3.531 43
-17.044 -10.892 -4.347 8
-14.714 -9.363 -3.556 6
-15.483 -9.818 -4.133 5
-14.22 -8.984 -3.77 39
-14.298 -9.006 -4.036 35
-13.707 -8.609 -3.971 11
-13.268 -8.308 -3.971 14
-12.835 -8.016 -3.968 14
-9.59 -7.635 1.654 0
-9.637 -7.56 1.53 2
-11.725 -9.07 1.072 2
0.0 -0.0 3.0 0
0.0 -0.0 3.0 0
-54.364 -40.402 -7.826 5
-48.656 -35.703 -7.238 4
-31.453 -22.805 -3.972 15
-31.216 -22.367 -4.268 17
-31.146 -22.073 -4.6 15
-31.154 -21.841 -4.949 15
-30.277 -21.014 -5.067 19
0.0 -0.0 3.0 0
0.0 -0.0 3.0 0
-25.376 -17.13 -4.627 1
-25.132 -16.829 -4.848 6
-23.861 -15.853 -4.732 12
-12.57 -8.293 -1.225 14
-21.738 -14.247 -4.575 5
-20.826 -13.561 -4.517 5
-19.939 -12.911 -4.454 8
-15.534 -10.002 -3.01 54
-15.546 -9.961 -3.224 44
-15.739 -10.036 -3.518 34
-17.131 -10.879 -4.338 8
-14.678 -9.283 -3.5 24
-14.408 -9.08 -3.597 18
-14.168 -8.898 -3.705 25
-14.347 -8.983 -4.018 36
-13.774 -8.6 -3.964 8
-13.323 -8.294 -3.959 23
-12.896 -8.008 -3.961 13
-9.606 -7.604 1.659 7
-9.687 -7.554 1.532 0
-81.328 -62.534 -10.292 49
0.0 -0.0 3.0 0
0.0 -0.0 3.0 0
-54.832 -40.496 -7.851 10
-12.799 -9.332 0.324 1
-31.325 -22.569 -3.9 25
-31.179 -22.198 -4.213 18
-31.144 -21.93 -4.551 16
