# .PCD v0.7 - Point Cloud Data file format
VERSION 0.7
FIELDS x y z intensity
SIZE 4 4 4 4
TYPE F F F F
COUNT 1 1 1 1
WIDTH 2283
HEIGHT 1
VIEWPOINT 0 0 0 1 0 0 0
POINTS 2283
DATA ascii
-1.881 -0.901 2.521 6
-1.844 -0.879 2.513 12
-1.944 -0.922 2.468 1
-1.8 -0.852 2.488 3
-1.793 -0.846 2.471 5
-1.744 -0.821 2.467 3
-1.732 -0.815 2.45 16
-1.734 -0.815 2.429 3
-1.708 -0.804 2.416 0
-1.671 -0.787 2.407 0
-1.641 -0.773 2.396 0
-1.631 -0.77 2.376 0
-1.582 -0.749 2.372 0
-1.565 -0.742 2.355 0
0.0 -0.0 3.0 0
0.0 -0.0 3.0 0
0.0 -0.0 3.0 0
-3.518 -2.044 2.528 0
-2.072 -1.183 2.705 2
-2.062 -1.156 2.69 7
-2.04 -1.125 2.677 8
-2.035 -1.104 2.662 8
-2.029 -1.085 2.647 8
-2.03 -1.07 2.632 6
-2.048 -1.064 2.613 7
-2.051 -1.052 2.596 9
-2.007 -1.019 2.588 9
-1.974 -0.99 2.58 9
-1.936 -0.963 2.571 10
-1.908 -0.94 2.562 10
-1.894 -0.925 2.549 19
-1.879 -0.912 2.535 11
-1.882 -0.908 2.517 8
-1.852 -0.888 2.508 14
-1.947 -0.931 2.463 0
-1.78 -0.848 2.491 1
-1.773 -0.842 2.474 4
-1.737 -0.825 2.465 3
-1.719 -0.814 2.451 15
-1.728 -0.818 2.427 1
-1.702 -0.806 2.415 0
-1.668 -0.79 2.404 0
-1.628 -0.772 2.397 0
-1.611 -0.765 2.38 0
-1.587 -0.755 2.367 0
-1.566 -0.747 2.351 0
0.0 -0.0 3.0 0
0.0 -0.0 3.0 0
0.0 -0.0 3.0 0
-2.089 -1.222 2.718 1
-2.062 -1.185 2.705 3
-2.055 -1.159 2.689 7
-2.04 -1.133 2.675 8
-2.035 -1.112 2.66 8
-2.026 -1.091 2.646 7
-2.048 -1.086 2.626 7
-2.048 -1.072 2.61 8
-2.04 -1.055 2.595 8
-1.993 -1.018 2.589 9
-1.956 -0.989 2.58 9
-1.919 -0.961 2.572 10
-1.909 -0.947 2.558 12
-1.901 -0.936 2.543 29
-1.883 -0.921 2.531 9
-1.864 -0.906 2.518 6
-1.848 -0.894 2.505 19
-1.853 -0.892 2.485 0
-1.749 -0.839 2.496 1
-1.759 -0.842 2.474 4
-1.724 -0.823 2.465 3
-1.709 -0.815 2.45 13
-1.708 -0.814 2.43 1
-1.685 -0.803 2.416 0
-1.672 -0.798 2.399 0
-1.632 -0.779 2.391 0
-1.588 -0.759 2.386 0
-1.553 -0.744 2.376 0
-1.539 -0.739 2.358 0
0.0 -0.0 3.0 0
0.0 -0.0 3.0 0
0.0 -0.0 3.0 0
-2.092 -1.231 2.716 2
-2.065 -1.194 2.702 5
-2.044 -1.162 2.689 8
-2.037 -1.139 2.673 8
-2.032 -1.117 2.658 8
-2.029 -1.1 2.643 7
-2.051 -1.096 2.623 7
-2.048 -1.08 2.607 8
-2.023 -1.054 2.596 8
-1.983 -1.021 2.587 9
-1.95 -0.993 2.578 9
-1.919 -0.968 2.569 10
-1.898 -0.949 2.558 12
-1.898 -0.942 2.541 18
-1.883 -0.927 2.528 5
-1.854 -0.908 2.517 14
-1.845 -0.899 2.502 24
-1.843 -0.893 2.484 0
-1.746 -0.844 2.493 1
-1.749 -0.843 2.473 4
-1.714 -0.825 2.464 3
-1.703 -0.818 2.448 11
-1.698 -0.816 2.429 0
-1.682 -0.808 2.413 0
-1.652 -0.793 2.402 0
-1.619 -0.778 2.392 0
-1.592 -0.766 2.38 0
-1.554 -0.749 2.372 0
-1.55 -0.748 2.35 0
0.0 -0.0 3.0 0
0.0 -0.0 3.0 0
0.0 -0.0 3.0 0
-2.078 -1.231 2.716 2
-2.055 -1.196 2.702 6
-2.044 -1.169 2.687 8
-2.033 -1.145 2.672 8
-2.032 -1.126 2.656 7
-2.036 -1.111 2.639 6
-2.054 -1.106 2.619 8
-2.044 -1.086 2.605 8
-2.009 -1.054 2.596 8
-1.969 -1.021 2.587 9
-1.932 -0.991 2.579 9
-1.905 -0.968 2.569 11
-1.892 -0.953 2.556 22
-1.884 -0.942 2.541 9
-1.88 -0.933 2.525 6
-1.851 -0.913 2.515 14
-1.838 -0.902 2.5 24
-29.337 -14.328 -5.272 6
-1.729 -0.841 2.495 0
-1.746 -0.848 2.47 4
-1.704 -0.825 2.464 3
-1.686 -0.815 2.45 10
-1.698 -0.821 2.425 0
-1.666 -0.804 2.416 0
-1.653 -0.799 2.398 0
-1.602 -0.775 2.394 0
-1.572 -0.761 2.384 0
-1.548 -0.75 2.37 0
-1.52 -0.738 2.358 0
0.0 -0.0 3.0 0
0.0 -0.0 3.0 0
-2.104 -1.277 2.729 1
-2.067 -1.233 2.715 3
-2.051 -1.202 2.7 7
-2.041 -1.176 2.685 9
-2.033 -1.152 2.67 8
-2.028 -1.131 2.654 7
-2.05 -1.128 2.634 7
-2.047 -1.11 2.618 8
-2.03 -1.086 2.605 8
-1.995 -1.054 2.595 8
-1.955 -1.021 2.587 9
-1.922 -0.993 2.578 10
-1.898 -0.972 2.567 13
-1.895 -0.962 2.552 24
-1.881 -0.947 2.538 6
-1.856 -0.928 2.527 11
-1.851 -0.919 2.511 16
-1.832 -0.906 2.498 13
-1.753 -0.862 2.502 0
-1.708 -0.837 2.497 0
-1.726 -0.844 2.473 4
-1.691 -0.825 2.464 3
-1.676 -0.816 2.45 9
-1.668 -0.812 2.432 0
-1.663 -0.808 2.413 0
-1.626 -0.791 2.404 0
-1.593 -0.775 2.394 0
-1.573 -0.766 2.38 0
-1.545 -0.754 2.368 0
-1.525 -0.745 2.353 0
0.0 -0.0 3.0 0
0.0 -0.0 3.0 0
-2.093 -1.279 2.728 2
-2.064 -1.239 2.714 5
-2.044 -1.206 2.699 8
-2.03 -1.177 2.685 9
-2.029 -1.158 2.668 8
-2.031 -1.141 2.651 7
-2.053 -1.137 2.631 7
-2.047 -1.118 2.615 9
-2.016 -1.086 2.605 8
-1.988 -1.058 2.594 8
-1.941 -1.022 2.587 9
-1.915 -0.997 2.577 10
-1.888 -0.974 2.567 14
-1.881 -0.962 2.552 12
-1.881 -0.954 2.535 6
-1.853 -0.933 2.525 13
-1.844 -0.923 2.509 19
-1.829 -0.91 2.496 8
-29.022 -14.379 -5.302 3
-1.698 -0.839 2.496 0
-1.712 -0.843 2.473 5
-1.684 -0.827 2.463 3
-1.666 -0.817 2.449 8
-1.665 -0.816 2.429 0
-1.632 -0.799 2.42 0
-1.616 -0.791 2.404 0
-1.583 -0.775 2.394 0
-1.556 -0.763 2.382 0
-1.539 -0.755 2.366 0
-1.519 -0.746 2.352 0
0.0 -0.0 3.0 0
0.0 -0.0 3.0 0
-2.076 -1.277 2.729 2
-2.057 -1.243 2.713 6
-2.044 -1.213 2.697 9
-2.03 -1.185 2.682 9
-2.033 -1.168 2.665 7
-2.035 -1.151 2.648 6
-2.05 -1.143 2.629 8
-2.044 -1.123 2.613 8
-2.002 -1.087 2.604 8
-1.963 -1.052 2.596 8
-1.924 -1.02 2.588 9
-1.908 -1.0 2.575 12
-1.898 -0.986 2.561 26
-1.878 -0.967 2.549 9
-1.867 -0.954 2.535 5
-1.849 -0.938 2.522 13
-1.838 -0.926 2.508 16
-1.829 -0.917 2.492 5
-28.873 -14.408 -5.319 2
-1.688 -0.84 2.496 0
-1.696 -0.841 2.475 7
-1.678 -0.83 2.461 3
-1.657 -0.818 2.448 7
-1.665 -0.821 2.425 0
-1.636 -0.806 2.414 0
-1.607 -0.792 2.403 0
-1.57 -0.774 2.395 0
-1.55 -0.765 2.381 0
-1.523 -0.752 2.369 0
-1.499 -0.741 2.356 0
0.0 -0.0 3.0 0
-2.104 -1.326 2.742 1
-2.069 -1.28 2.728 3
-2.05 -1.246 2.712 6
-2.037 -1.217 2.697 9
-2.03 -1.193 2.68 9
-2.029 -1.173 2.664 7
-2.055 -1.171 2.642 7
-2.046 -1.149 2.627 8
-2.023 -1.12 2.614 9
-1.985 -1.085 2.605 8
-1.953 -1.054 2.595 9
-1.92 -1.026 2.586 10
-1.898 -1.002 2.575 12
-1.892 -0.99 2.559 17
-1.882 -0.976 2.545 5
-1.854 -0.954 2.535 13
-1.846 -0.943 2.519 14
-1.827 -0.928 2.507 10
-1.822 -0.92 2.49 3
-28.687 -14.418 -5.324 1
-1.682 -0.842 2.494 0
-1.686 -0.841 2.474 7
-1.661 -0.827 2.463 3
-1.636 -0.814 2.451 5
-1.649 -0.819 2.427 0
-1.647 -0.817 2.406 0
-1.604 -0.796 2.4 0
-1.561 -0.774 2.395 0
-1.534 -0.761 2.384 0
-1.517 -0.753 2.368 0
-1.506 -0.749 2.349 0
0.0 -0.0 3.0 0
-2.08 -1.319 2.744 2
-2.065 -1.286 2.727 5
-2.046 -1.252 2.711 8
-2.03 -1.221 2.696 9
-2.033 -1.202 2.678 8
-2.032 -1.184 2.661 7
-2.048 -1.174 2.641 7
-2.046 -1.157 2.624 8
-2.009 -1.12 2.614 9
-1.974 -1.087 2.605 8
-1.936 -1.053 2.596 9
-1.91 -1.027 2.585 10
-1.894 -1.008 2.572 18
-1.881 -0.992 2.558 10
-1.878 -0.982 2.542 7
-1.857 -0.963 2.53 13
-1.843 -0.949 2.517 17
-1.835 -0.938 2.501 4
-1.819 -0.926 2.487 1
-1.675 -0.848 2.511 0
-1.662 -0.838 2.496 0
-1.669 -0.838 2.476 8
-1.644 -0.824 2.465 4
-1.62 -0.811 2.453 4
-1.622 -0.811 2.432 0
-1.624 -0.811 2.411 0
-1.584 -0.791 2.404 0
-1.544 -0.771 2.398 0
-1.535 -0.766 2.379 0
-1.511 -0.755 2.366 1
-1.48 -0.74 2.356 0
0.0 -0.0 3.0 0
-2.069 -1.32 2.743 2
-2.065 -1.294 2.725 5
-2.042 -1.258 2.71 8
-2.029 -1.228 2.694 9
-2.023 -1.205 2.677 8
-2.046 -1.199 2.656 6
-2.051 -1.184 2.638 8
-2.035 -1.159 2.623 8
-1.991 -1.119 2.615 9
-1.957 -1.085 2.605 8
-1.925 -1.055 2.595 9
-1.906 -1.033 2.583 12
-1.891 -1.013 2.57 23
-1.878 -0.997 2.556 7
-1.861 -0.98 2.543 11
-1.854 -0.968 2.528 11
-1.832 -0.95 2.516 12
-1.828 -0.941 2.5 3
-1.815 -0.93 2.485 0
0.0 -0.0 3.0 0
-1.662 -0.844 2.493 0
-1.656 -0.838 2.476 9
-1.635 -0.826 2.464 3
-1.603 -0.808 2.455 4
-1.622 -0.816 2.428 0
-1.607 -0.808 2.413 0
-1.588 -0.798 2.399 0
-1.541 -0.774 2.395 0
-1.535 -0.771 2.376 0
-1.481 -0.745 2.375 0
-1.461 -0.735 2.361 0
-2.093 -1.368 2.759 1
-2.062 -1.324 2.743 3
-2.047 -1.291 2.726 6
-2.039 -1.264 2.708 8
-2.032 -1.238 2.691 9
-2.029 -1.216 2.674 8
-2.055 -1.213 2.652 7
-2.044 -1.188 2.637 8
-2.021 -1.159 2.623 8
-1.977 -1.118 2.615 9
-1.946 -1.087 2.604 8
-1.918 -1.058 2.594 10
-1.896 -1.035 2.582 12
-1.887 -1.019 2.568 12
-1.881 -1.006 2.552 5
-1.854 -0.982 2.542 13
-1.85 -0.973 2.525 13
-1.826 -0.953 2.514 6
-1.821 -0.945 2.498 2
-1.802 -0.93 2.485 0
0.0 -0.0 3.0 0
-1.645 -0.841 2.494 0
-1.639 -0.835 2.478 9
-1.632 -0.83 2.461 4
-1.597 -0.81 2.454 3
-1.609 -0.815 2.429 0
-1.601 -0.81 2.412 0
-1.575 -0.797 2.4 0
-1.532 -0.774 2.395 0
-1.522 -0.769 2.377 0
-1.482 -0.75 2.371 0
-1.468 -0.743 2.354 0
-2.069 -1.361 2.76 3
-2.055 -1.327 2.742 4
-2.05 -1.301 2.723 7
-2.035 -1.269 2.707 8
-2.025 -1.242 2.69 9
-2.025 -1.222 2.673 7
-2.052 -1.219 2.65 7
-2.047 -1.199 2.634 8
-2.011 -1.161 2.623 9
-1.963 -1.118 2.615 8
-1.922 -1.081 2.606 9
-1.908 -1.06 2.593 10
-1.896 -1.042 2.579 23
-1.884 -1.024 2.565 9
-1.868 -1.006 2.552 5
-1.851 -0.988 2.539 11
-1.84 -0.975 2.525 15
-1.829 -0.962 2.51 4
-1.828 -0.955 2.492 1
-1.774 -0.922 2.489 0
-1.642 -0.849 2.51 0
-1.618 -0.833 2.499 0
-1.629 -0.836 2.478 10
-1.618 -0.829 2.462 4
-1.587 -0.81 2.453 3
-1.586 -0.808 2.434 1
-1.588 -0.808 2.413 0
-1.569 -0.799 2.398 0
-1.522 -0.774 2.395 0
-1.509 -0.767 2.379 0
-1.489 -0.758 2.364 0
-1.456 -0.741 2.356 0
-2.068 -1.369 2.759 3
-2.058 -1.338 2.74 5
-2.043 -1.305 2.723 8
-2.031 -1.275 2.706 8
-2.028 -1.252 2.688 8
-2.042 -1.241 2.668 8
-2.044 -1.223 2.649 8
-2.026 -1.194 2.635 8
-1.986 -1.154 2.625 9
-1.953 -1.12 2.614 8
-1.919 -1.087 2.604 9
-1.897 -1.062 2.592 12
-1.893 -1.048 2.577 18
-1.877 -1.028 2.564 5
-1.857 -1.007 2.552 13
-1.847 -0.993 2.537 10
-1.833 -0.978 2.523 10
-1.822 -0.965 2.508 3
-1.818 -0.957 2.491 0
-1.788 -0.936 2.481 0
-1.656 -0.862 2.502 0
-1.643 -0.852 2.488 0
-1.619 -0.837 2.477 14
-1.602 -0.826 2.464 4
-1.577 -0.811 2.453 4
-1.573 -0.807 2.435 3
-1.585 -0.812 2.41 0
-1.549 -0.794 2.402 0
-1.506 -0.771 2.398 0
-1.503 -0.769 2.377 0
-1.46 -0.747 2.373 0
-1.44 -0.737 2.359 0
-2.061 -1.373 2.758 4
-2.051 -1.341 2.739 6
-2.039 -1.31 2.721 8
-2.034 -1.285 2.703 8
-2.028 -1.26 2.686 8
-2.048 -1.252 2.665 8
-2.047 -1.233 2.646 8
-2.012 -1.194 2.635 8
-1.976 -1.157 2.624 9
-1.936 -1.118 2.615 9
-1.912 -1.091 2.603 10
-1.897 -1.069 2.589 14
-1.889 -1.053 2.575 9
-1.877 -1.035 2.561 5
-1.857 -1.015 2.548 13
-1.844 -0.999 2.534 13
-1.833 -0.985 2.52 3
-1.816 -0.968 2.507 1
-1.818 -0.963 2.488 0
-1.778 -0.937 2.48 0
-1.625 -0.852 2.508 0
-1.623 -0.847 2.491 0
-1.609 -0.837 2.477 14
-1.595 -0.828 2.462 4
-1.568 -0.811 2.453 4
-1.556 -0.804 2.437 4
-1.572 -0.811 2.411 0
-1.526 -0.787 2.407 0
-1.507 -0.776 2.394 0
-1.501 -0.773 2.374 0
-1.471 -0.758 2.364 0
-1.437 -0.741 2.356 0
-2.057 -1.378 2.757 5
-2.04 -1.343 2.739 7
-2.036 -1.316 2.72 8
-2.027 -1.289 2.703 8
-2.031 -1.27 2.683 7
-2.044 -1.258 2.663 9
-2.037 -1.235 2.646 8
-1.998 -1.193 2.635 9
-1.959 -1.155 2.625 9
-1.922 -1.117 2.615 9
-1.901 -1.091 2.603 11
-1.894 -1.075 2.587 21
-1.879 -1.054 2.574 7
-1.86 -1.033 2.561 12
-1.85 -1.018 2.547 11
-1.834 -1.0 2.534 12
-1.83 -0.99 2.517 3
-1.809 -0.972 2.505 0
-1.811 -0.967 2.486 0
-1.734 -0.921 2.49 0
-1.622 -0.857 2.505 0
-1.606 -0.844 2.493 0
-1.603 -0.84 2.475 16
-1.586 -0.828 2.462 4
-1.551 -0.808 2.455 4
-1.54 -0.801 2.439 5
-1.562 -0.811 2.411 0
-1.533 -0.795 2.401 0
-1.494 -0.775 2.395 0
-1.471 -0.763 2.382 0
-1.451 -0.752 2.369 0
-1.428 -0.74 2.357 0
-2.05 -1.382 2.756 6
-2.036 -1.348 2.738 7
-2.032 -1.322 2.719 8
-2.03 -1.298 2.7 8
-2.047 -1.289 2.679 8
-2.047 -1.268 2.66 9
-2.026 -1.236 2.646 8
-1.977 -1.189 2.637 9
-1.945 -1.154 2.625 8
-1.915 -1.121 2.614 9
-1.897 -1.097 2.601 11
-1.893 -1.082 2.585 12
-1.878 -1.061 2.571 4
-1.856 -1.038 2.559 13
-1.843 -1.022 2.545 12
-1.834 -1.007 2.53 5
-1.82 -0.992 2.516 2
-1.812 -0.981 2.5 0
-1.76 -0.946 2.497 0
0.0 -0.0 3.0 0
-1.636 -0.87 2.498 0
-1.579 -0.836 2.498 0
-1.593 -0.84 2.475 16
-1.576 -0.829 2.462 4
-1.545 -0.81 2.454 4
-1.537 -0.805 2.436 6
-1.546 -0.808 2.413 0
-1.52 -0.794 2.402 0
-1.481 -0.773 2.396 0
-1.472 -0.767 2.379 0
-1.448 -0.755 2.367 0
-1.409 -0.734 2.362 0
-2.043 -1.385 2.756 7
-2.036 -1.355 2.737 7
-2.034 -1.332 2.717 8
-2.032 -1.309 2.698 6
-2.046 -1.296 2.677 8
-2.04 -1.273 2.659 9
-2.009 -1.235 2.646 9
-1.97 -1.194 2.635 9
-1.927 -1.151 2.626 9
-1.908 -1.125 2.613 10
-1.897 -1.104 2.598 18
-1.88 -1.081 2.585 9
-1.875 -1.067 2.569 5
-1.849 -1.042 2.558 11
-1.84 -1.026 2.543 16
-1.827 -1.011 2.529 3
-1.813 -0.995 2.515 1
-1.788 -0.974 2.504 0
-1.767 -0.956 2.492 0
-1.727 -0.929 2.485 0
-1.599 -0.856 2.506 0
-1.586 -0.846 2.492 0
-1.593 -0.846 2.471 16
-1.566 -0.829 2.462 4
-1.535 -0.81 2.453 4
-1.514 -0.798 2.442 7
-1.543 -0.811 2.411 0
-1.517 -0.797 2.399 0
-1.471 -0.773 2.396 0
-1.472 -0.772 2.375 0
-1.429 -0.75 2.371 0
-1.393 -0.73 2.365 0
-2.042 -1.392 2.755 7
-2.032 -1.362 2.735 7
-2.027 -1.336 2.716 7
-2.028 -1.314 2.697 6
-2.042 -1.303 2.675 9
-2.033 -1.276 2.658 9
-1.995 -1.234 2.646 8
-1.953 -1.19 2.636 9
-1.92 -1.155 2.625 9
-1.901 -1.128 2.611 11
-1.894 -1.11 2.596 17
-1.879 -1.089 2.582 4
-1.861 -1.067 2.569 13
-1.852 -1.051 2.554 10
-1.829 -1.028 2.542 10
-1.826 -1.018 2.525 3
-1.83 -1.012 2.507 0
-1.781 -0.978 2.502 0
0.0 -0.0 3.0 0
-1.697 -0.919 2.49 0
-1.593 -0.859 2.504 0
-27.1 -14.548 -5.741 14
-1.577 -0.843 2.473 15
-1.556 -0.829 2.461 4
-1.529 -0.812 2.452 4
-1.511 -0.801 2.439 8
-1.523 -0.806 2.414 0
-1.494 -0.79 2.405 1
-1.465 -0.774 2.396 0
-1.449 -0.765 2.381 0
-1.433 -0.756 2.366 0
-1.4 -0.739 2.358 0
-2.032 -1.394 2.754 7
-2.024 -1.365 2.735 7
-2.036 -1.35 2.713 6
-2.051 -1.337 2.691 8
-2.042 -1.31 2.673 9
-2.019 -1.275 2.658 9
-1.981 -1.233 2.646 9
-1.939 -1.19 2.636 8
-1.917 -1.16 2.623 9
-1.894 -1.132 2.61 12
-1.873 -1.106 2.597 12
-1.876 -1.094 2.58 4
-1.857 -1.073 2.567 12
-1.845 -1.054 2.552 14
-1.836 -1.039 2.537 3
-1.816 -1.019 2.525 1
-1.799 -1.002 2.511 0
-1.771 -0.979 2.501 0
-1.722 -0.945 2.498 0
-1.683 -0.918 2.491 0
-1.579 -0.858 2.505 0
-1.57 -0.849 2.49 0
-1.567 -0.844 2.473 14
-1.547 -0.83 2.461 4
-1.516 -0.811 2.453 4
-1.501 -0.802 2.439 9
-1.527 -0.813 2.409 0
-1.488 -0.792 2.403 0
-1.459 -0.776 2.394 0
-1.433 -0.761 2.384 0
-1.417 -0.752 2.369 0
-1.381 -0.733 2.363 0
-2.028 -1.399 2.753 7
-2.024 -1.373 2.733 7
-2.033 -1.356 2.712 6
-2.044 -1.341 2.69 8
-2.045 -1.321 2.671 9
-2.001 -1.273 2.659 9
-1.964 -1.23 2.647 9
-1.925 -1.189 2.636 9
-1.903 -1.16 2.623 10
-1.893 -1.139 2.608 19
-1.886 -1.121 2.592 7
-1.862 -1.094 2.58 11
-1.854 -1.078 2.564 8
-1.835 -1.055 2.552 13
-1.826 -1.041 2.536 3
-1.789 -1.011 2.529 0
0.0 -0.0 3.0 0
0.0 -0.0 3.0 0
-1.716 -0.948 2.496 0
0.0 -0.0 3.0 0
-1.573 -0.859 2.504 0
-26.819 -14.595 -5.77 13
-1.554 -0.842 2.474 13
-1.537 -0.83 2.461 4
-1.509 -0.813 2.452 4
-1.498 -0.805 2.436 11
-1.504 -0.806 2.414 0
-1.475 -0.789 2.405 0
-1.456 -0.778 2.392 0
-1.421 -0.759 2.385 0
-1.411 -0.753 2.368 0
-1.388 -0.741 2.356 0
-2.024 -1.405 2.752 7
-2.026 -1.383 2.731 6
-2.035 -1.366 2.71 5
-2.046 -1.351 2.688 9
-2.027 -1.318 2.671 10
-1.984 -1.27 2.66 10
-1.953 -1.231 2.647 9
-1.915 -1.191 2.636 9
-1.892 -1.161 2.623 10
-1.889 -1.145 2.606 12
-1.869 -1.119 2.593 4
-1.855 -1.097 2.579 14
-1.843 -1.079 2.564 11
-1.835 -1.063 2.549 5
-1.819 -1.044 2.535 2
-1.806 -1.028 2.521 0
0.0 -0.0 3.0 0
0.0 -0.0 3.0 0
-1.712 -0.953 2.493 0
-1.697 -0.939 2.48 0
-1.566 -0.862 2.502 0
-26.699 -14.629 -5.79 11
-1.547 -0.844 2.472 10
-1.53 -0.832 2.46 4
-1.496 -0.812 2.453 4
-1.489 -0.805 2.436 12
-1.491 -0.805 2.415 0
-1.466 -0.79 2.405 0
-1.444 -0.777 2.393 0
-1.428 -0.768 2.378 0
-1.392 -0.748 2.373 0
-1.363 -0.731 2.364 1
-2.026 -1.415 2.75 8
-2.022 -1.388 2.73 6
-2.057 -1.389 2.705 6
-2.039 -1.354 2.687 8
-2.017 -1.319 2.671 10
-1.97 -1.269 2.66 9
-1.936 -1.229 2.648 9
-1.908 -1.194 2.635 9
-1.892 -1.169 2.62 12
-1.882 -1.148 2.605 9
-1.869 -1.126 2.59 5
-1.851 -1.103 2.577 10
-1.843 -1.086 2.561 15
-1.835 -1.07 2.546 3
-1.819 -1.051 2.532 0
-1.792 -1.027 2.521 0
0.0 -0.0 3.0 0
0.0 -0.0 3.0 0
0.0 -0.0 3.0 0
-1.677 -0.934 2.482 0
-1.563 -0.866 2.5 0
-26.576 -14.66 -5.809 11
-1.538 -0.845 2.472 10
-1.524 -0.834 2.458 4
-1.494 -0.815 2.45 4
-1.486 -0.809 2.433 12
-1.485 -0.806 2.414 0
-1.459 -0.791 2.404 0
-1.424 -0.771 2.397 0
-1.405 -0.76 2.385 0
-1.392 -0.753 2.368 1
-1.337 -0.722 2.373 3
-2.019 -1.418 2.75 7
-2.028 -1.401 2.728 6
-2.05 -1.393 2.704 8
-2.041 -1.365 2.685 9
-1.999 -1.316 2.672 10
-1.956 -1.269 2.66 9
-1.925 -1.231 2.647 9
-1.9 -1.198 2.634 11
-1.895 -1.178 2.617 16
-1.882 -1.155 2.602 5
-1.855 -1.125 2.59 15
-1.854 -1.112 2.573 9
-1.843 -1.094 2.558 9
-1.831 -1.076 2.543 3
-1.815 -1.057 2.53 0
-1.792 -1.034 2.518 0
0.0 -0.0 3.0 0
0.0 -0.0 3.0 0
0.0 -0.0 3.0 0
-1.663 -0.933 2.483 0
-1.547 -0.863 2.502 0
-26.349 -14.634 -5.793 10
-1.528 -0.845 2.472 8
-1.508 -0.831 2.461 4
-1.481 -0.813 2.451 4
-1.476 -0.809 2.434 12
-1.485 -0.812 2.41 0
-1.447 -0.789 2.405 0
-1.418 -0.772 2.397 0
-1.403 -0.763 2.382 0
-1.37 -0.745 2.375 1
-1.331 -0.723 2.372 8
-2.025 -1.431 2.748 7
-2.034 -1.414 2.725 5
-2.046 -1.398 2.703 9
-2.024 -1.362 2.686 9
-1.985 -1.316 2.672 10
-1.946 -1.27 2.66 9
-1.911 -1.23 2.647 9
-1.897 -1.204 2.632 11
-1.884 -1.18 2.617 10
-1.882 -1.163 2.6 4
-1.855 -1.133 2.588 13
-1.844 -1.114 2.573 13
-1.832 -1.095 2.558 3
-1.817 -1.075 2.544 1
-1.778 -1.042 2.536 0
-1.765 -1.025 2.522 0
0.0 -0.0 3.0 0
0.0 -0.0 3.0 0
0.0 -0.0 3.0 0
-1.65 -0.932 2.483 0
-1.54 -0.865 2.501 0
-1.498 -0.838 2.497 0
-1.515 -0.844 2.473 7
-1.505 -0.835 2.458 4
-1.478 -0.817 2.449 4
-1.467 -0.808 2.434 11
-1.469 -0.808 2.413 0
-1.437 -0.789 2.405 0
-1.405 -0.77 2.398 0
-1.39 -0.76 2.384 0
-1.351 -0.739 2.38 2
-1.325 -0.724 2.37 3
-2.021 -1.436 2.747 7
-2.049 -1.433 2.721 7
-2.045 -1.406 2.701 9
-2.007 -1.359 2.686 9
-1.965 -1.31 2.673 10
-1.925 -1.264 2.661 10
-1.911 -1.237 2.645 9
-1.899 -1.213 2.629 15
-1.884 -1.188 2.614 7
-1.854 -1.154 2.603 10
-1.851 -1.138 2.586 8
-1.84 -1.119 2.57 12
-1.825 -1.098 2.556 3
-1.817 -1.082 2.541 0
0.0 -0.0 3.0 0
0.0 -0.0 3.0 0
0.0 -0.0 3.0 0
0.0 -0.0 3.0 0
0.0 -0.0 3.0 0
-1.66 -0.944 2.476 0
-1.534 -0.868 2.499 0
-26.206 -14.752 -5.864 11
-1.508 -0.845 2.472 4
-1.492 -0.833 2.459 4
-1.465 -0.815 2.45 4
-1.454 -0.807 2.435 10
-1.462 -0.81 2.412 0
-1.438 -0.794 2.401 0
-1.399 -0.772 2.397 0
-1.381 -0.76 2.385 0
-1.335 -0.734 2.384 4
-1.323 -0.727 2.368 5
-2.026 -1.449 2.744 6
-2.052 -1.443 2.72 7
-2.041 -1.412 2.7 9
-1.993 -1.358 2.686 9
-1.954 -1.311 2.673 9
-1.915 -1.266 2.661 10
-1.904 -1.241 2.644 11
-1.889 -1.215 2.629 12
-1.883 -1.195 2.612 3
-1.854 -1.161 2.6 14
-1.847 -1.144 2.584 10
-1.836 -1.124 2.569 5
-1.822 -1.104 2.554 2
-1.81 -1.086 2.539 0
0.0 -0.0 3.0 0
0.0 -0.0 3.0 0
0.0 -0.0 3.0 0
0.0 -0.0 3.0 0
-1.658 -0.955 2.492 0
0.0 -0.0 3.0 0
-1.517 -0.864 2.501 0
-1.485 -0.842 2.494 0
-1.499 -0.846 2.471 3
-1.485 -0.835 2.458 4
-1.458 -0.817 2.449 4
-1.448 -0.808 2.434 8
-1.44 -0.802 2.417 0
-1.425 -0.792 2.403 0
-1.387 -0.77 2.399 0
-1.368 -0.757 2.387 1
-1.333 -0.737 2.382 4
-1.314 -0.726 2.369 9
-2.035 -1.464 2.742 6
-2.047 -1.449 2.718 8
-2.027 -1.412 2.7 9
-1.979 -1.357 2.687 9
-1.94 -1.31 2.673 9
-1.907 -1.269 2.66 10
-1.893 -1.242 2.644 11
-1.885 -1.219 2.627 9
-1.876 -1.199 2.611 4
-1.853 -1.169 2.598 10
-1.84 -1.147 2.583 14
-1.823 -1.124 2.569 3
-1.811 -1.105 2.554 0
-1.793 -1.083 2.54 0
0.0 -0.0 3.0 0
0.0 -0.0 3.0 0
-1.67 -0.983 2.521 0
0.0 -0.0 3.0 0
-1.611 -0.935 2.503 0
-1.626 -0.937 2.48 0
-1.504 -0.862 2.502 0
-1.478 -0.843 2.493 0
-1.482 -0.842 2.474 2
-1.472 -0.833 2.459 4
-1.449 -0.817 2.449 4
-1.431 -0.805 2.437 7
-1.44 -0.807 2.414 0
-1.415 -0.792 2.403 0
-1.387 -0.774 2.395 0
-1.342 -0.748 2.394 2
-1.324 -0.736 2.382 4
-1.304 -0.725 2.369 6
-2.053 -1.486 2.738 7
-2.043 -1.455 2.717 8
-2.01 -1.408 2.701 9
-1.965 -1.356 2.687 9
-1.92 -1.305 2.675 10
-1.9 -1.272 2.659 11
-1.896 -1.252 2.641 18
-1.884 -1.228 2.625 7
-1.856 -1.194 2.612 13
-1.85 -1.174 2.596 8
-1.836 -1.152 2.581 10
-1.829 -1.135 2.564 3
-1.791 -1.1 2.556 0
0.0 -0.0 3.0 0
0.0 -0.0 3.0 0
0.0 -0.0 3.0 0
0.0 -0.0 3.0 0
0.0 -0.0 3.0 0
0.0 -0.0 3.0 0
0.0 -0.0 3.0 0
-1.505 -0.868 2.499 0
-1.469 -0.844 2.493 0
-1.469 -0.84 2.475 1
-1.469 -0.837 2.456 4
-1.436 -0.814 2.451 4
-1.428 -0.808 2.434 6
-1.427 -0.805 2.415 0
-1.393 -0.784 2.409 0
-1.365 -0.767 2.401 1
-1.33 -0.746 2.396 6
-1.314 -0.736 2.383 6
-1.302 -0.728 2.367 6
-2.049 -1.491 2.737 8
-2.036 -1.459 2.716 9
-1.999 -1.409 2.7 9
-1.955 -1.357 2.687 9
-1.916 -1.31 2.673 10
-1.893 -1.275 2.658 13
-1.892 -1.257 2.64 11
-1.881 -1.232 2.623 3
-1.855 -1.201 2.61 12
-1.842 -1.178 2.594 11
-1.829 -1.156 2.579 3
-1.818 -1.136 2.564 1
-1.804 -1.115 2.55 0
0.0 -0.0 3.0 0
-1.733 -1.051 2.532 0
0.0 -0.0 3.0 0
-1.683 -1.004 2.51 0
0.0 -0.0 3.0 0
0.0 -0.0 3.0 0
0.0 -0.0 3.0 0
-1.498 -0.871 2.497 0
-1.446 -0.836 2.498 0
-1.46 -0.84 2.475 1
-1.463 -0.839 2.455 4
-1.426 -0.814 2.451 5
-1.409 -0.802 2.438 5
-1.421 -0.807 2.414 0
-1.393 -0.789 2.405 0
-1.339 -0.757 2.409 2
-1.324 -0.747 2.395 3
-1.308 -0.737 2.382 8
-1.302 -0.733 2.363 5
-2.042 -1.495 2.736 9
-2.019 -1.454 2.717 8
-1.982 -1.405 2.701 9
-1.938 -1.354 2.687 9
-1.906 -1.312 2.673 10
-1.889 -1.281 2.657 13
-1.891 -1.265 2.637 10
-1.86 -1.227 2.625 11
-1.858 -1.211 2.607 7
-1.835 -1.181 2.593 14
-1.828 -1.163 2.577 3
-1.805 -1.135 2.564 0
-1.783 -1.11 2.552 0
0.0 -0.0 3.0 0
-1.709 -1.044 2.535 0
0.0 -0.0 3.0 0
0.0 -0.0 3.0 0
0.0 -0.0 3.0 0
0.0 -0.0 3.0 0
-1.603 -0.943 2.477 0
-1.482 -0.867 2.499 0
-1.466 -0.853 2.487 0
-1.437 -0.832 2.48 0
-1.453 -0.838 2.456 4
-1.417 -0.815 2.45 5
-1.403 -0.804 2.437 4
-1.415 -0.808 2.413 0
-1.387 -0.79 2.405 0
-1.333 -0.758 2.408 3
-1.315 -0.746 2.396 4
-1.299 -0.736 2.382 6
-1.29 -0.73 2.366 5
-2.037 -1.5 2.735 8
-1.998 -1.449 2.718 8
-1.968 -1.404 2.702 9
-1.924 -1.352 2.688 9
-1.898 -1.314 2.672 11
-1.892 -1.29 2.654 17
-1.891 -1.273 2.635 7
-1.86 -1.235 2.623 14
-1.847 -1.211 2.606 11
-1.838 -1.19 2.59 7
-1.821 -1.166 2.576 2
-1.807 -1.144 2.561 0
0.0 -0.0 3.0 0
-1.721 -1.068 2.547 0
0.0 -0.0 3.0 0
-1.676 -1.021 2.524 0
0.0 -0.0 3.0 0
0.0 -0.0 3.0 0
0.0 -0.0 3.0 0
0.0 -0.0 3.0 0
-1.472 -0.867 2.499 0
-1.453 -0.851 2.488 0
-1.434 -0.836 2.477 0
-1.444 -0.838 2.456 5
-1.411 -0.816 2.449 5
-1.397 -0.805 2.436 5
-1.392 -0.8 2.419 1
-1.355 -0.777 2.414 1
-1.33 -0.761 2.405 3
-1.315 -0.751 2.392 7
-1.3 -0.74 2.379 4
-1.281 -0.728 2.367 4
-2.033 -1.507 2.734 8
-1.987 -1.45 2.718 7
-1.951 -1.4 2.702 9
-1.916 -1.355 2.687 9
-1.894 -1.319 2.671 11
-1.888 -1.296 2.653 11
-1.883 -1.275 2.634 6
-1.856 -1.24 2.621 12
-1.837 -1.213 2.606 16
-1.834 -1.196 2.588 2
-1.817 -1.172 2.574 0
0.0 -0.0 3.0 0
-1.749 -1.104 2.554 0
0.0 -0.0 3.0 0
0.0 -0.0 3.0 0
0.0 -0.0 3.0 0
-1.633 -0.994 2.515 0
0.0 -0.0 3.0 0
0.0 -0.0 3.0 0
0.0 -0.0 3.0 0
-1.472 -0.873 2.496 1
-1.437 -0.848 2.491 0
-1.427 -0.838 2.476 0
-1.427 -0.834 2.458 5
-1.401 -0.816 2.45 5
-1.381 -0.801 2.439 5
-1.389 -0.804 2.416 1
-1.339 -0.773 2.418 3
-1.321 -0.76 2.406 3
-1.309 -0.752 2.391 6
-1.291 -0.74 2.379 5
-1.269 -0.726 2.369 3
-2.016 -1.502 2.735 8
-1.977 -1.451 2.718 8
-1.934 -1.397 2.703 9
-1.909 -1.359 2.686 9
-1.89 -1.325 2.67 14
-1.887 -1.305 2.65 9
-1.866 -1.272 2.635 14
-1.852 -1.246 2.619 8
-1.833 -1.218 2.604 11
-1.824 -1.197 2.588 2
-1.807 -1.172 2.573 0
-1.77 -1.136 2.564 0
-1.746 -1.109 2.552 0
-1.724 -1.085 2.54 0
0.0 -0.0 3.0 0
0.0 -0.0 3.0 0
0.0 -0.0 3.0 0
0.0 -0.0 3.0 0
-1.568 -0.947 2.496 0
-1.56 -0.937 2.481 0
-1.469 -0.876 2.494 1
-1.434 -0.851 2.489 0
-1.398 -0.826 2.484 0
-1.418 -0.834 2.458 6
-1.391 -0.816 2.45 5
-1.371 -0.801 2.439 5
-1.373 -0.8 2.419 2
-1.333 -0.774 2.416 5
-1.309 -0.758 2.408 5
-1.297 -0.749 2.393 5
-1.288 -0.743 2.377 4
-1.266 -0.729 2.367 2
-2.002 -1.501 2.735 9
-1.96 -1.447 2.719 8
-1.92 -1.395 2.703 9
-1.902 -1.362 2.686 11
-1.889 -1.333 2.668 15
-1.892 -1.316 2.647 3
-1.859 -1.276 2.634 16
-1.844 -1.249 2.618 15
-1.829 -1.223 2.603 3
-1.83 -1.209 2.584 1
-1.797 -1.173 2.573 0
0.0 -0.0 3.0 0
0.0 -0.0 3.0 0
-1.714 -1.086 2.539 0
0.0 -0.0 3.0 0
-1.642 -1.021 2.524 0
-1.606 -0.991 2.517 0
0.0 -0.0 3.0 0
0.0 -0.0 3.0 0
-1.524 -0.921 2.49 0
-1.453 -0.873 2.496 1
-1.431 -0.855 2.486 0
-1.402 -0.834 2.479 0
-1.408 -0.834 2.458 7
-1.382 -0.815 2.45 6
-1.365 -0.802 2.438 5
-1.348 -0.79 2.426 4
-1.327 -0.776 2.416 3
-1.299 -0.757 2.409 7
-1.3 -0.756 2.388 4
-1.276 -0.74 2.379 3
-1.238 -0.717 2.377 3
-1.985 -1.497 2.736 8
-1.943 -1.442 2.72 9
-1.916 -1.401 2.702 9
-1.891 -1.362 2.685 11
-1.892 -1.343 2.665 10
-1.879 -1.315 2.648 4
-1.858 -1.283 2.632 17
-1.84 -1.254 2.617 15
-1.832 -1.233 2.599 2
-1.826 -1.214 2.582 0
-1.861 -1.225 2.554 0
0.0 -0.0 3.0 0
0.0 -0.0 3.0 0
-1.687 -1.075 2.544 0
0.0 -0.0 3.0 0
0.0 -0.0 3.0 0
0.0 -0.0 3.0 0
-1.576 -0.971 2.505 0
-1.568 -0.96 2.489 0
0.0 -0.0 3.0 0
-1.453 -0.879 2.493 1
-25.001 -15.041 -6.037 10
-1.389 -0.831 2.481 0
-1.395 -0.832 2.46 8
-1.373 -0.814 2.451 6
-1.359 -0.804 2.437 5
-1.338 -0.789 2.427 5
-1.327 -0.78 2.412 4
-1.297 -0.76 2.406 5
-1.285 -0.751 2.392 5
-1.273 -0.743 2.377 2
-1.216 -0.708 2.385 6
-1.974 -1.497 2.736 9
-1.929 -1.441 2.72 8
-1.912 -1.406 2.701 10
-1.897 -1.375 2.682 16
-1.9 -1.358 2.661 8
-1.858 -1.309 2.649 6
-1.854 -1.289 2.63 30
-1.833 -1.258 2.616 8
-1.818 -1.232 2.6 2
-1.831 -1.226 2.578 0
0.0 -0.0 3.0 0
0.0 -0.0 3.0 0
0.0 -0.0 3.0 0
0.0 -0.0 3.0 0
0.0 -0.0 3.0 0
0.0 -0.0 3.0 0
0.0 -0.0 3.0 0
-1.585 -0.984 2.499 0
0.0 -0.0 3.0 0
-1.524 -0.933 2.483 0
-1.437 -0.874 2.495 1
-24.872 -15.061 -6.05 10
-1.389 -0.837 2.477 0
-1.386 -0.832 2.46 8
-1.373 -0.82 2.447 6
-1.349 -0.803 2.437 5
-1.326 -0.786 2.429 3
-1.315 -0.777 2.414 7
-1.294 -0.764 2.403 4
-1.282 -0.754 2.389 3
-1.264 -0.742 2.378 2
-1.22 -0.715 2.379 1
-1.954 -1.491 2.737 8
-1.925 -1.446 2.719 9
-1.904 -1.409 2.7 11
-1.889 -1.378 2.682 12
-1.912 -1.375 2.657 4
-1.851 -1.313 2.648 7
-1.847 -1.292 2.629 58
-1.836 -1.267 2.613 2
-1.817 -1.239 2.597 0
-1.827 -1.231 2.576 0
0.0 -0.0 3.0 0
0.0 -0.0 3.0 0
0.0 -0.0 3.0 0
0.0 -0.0 3.0 0
0.0 -0.0 3.0 0
-1.615 -1.025 2.522 0
-1.582 -0.996 2.514 0
0.0 -0.0 3.0 0
0.0 -0.0 3.0 0
-1.52 -0.938 2.48 0
-1.424 -0.873 2.496 1
-24.733 -15.075 -6.058 6
-1.373 -0.833 2.48 0
-1.383 -0.835 2.458 9
-1.36 -0.818 2.448 6
-1.343 -0.805 2.436 5
-1.323 -0.79 2.426 6
-1.305 -0.777 2.415 6
-1.291 -0.766 2.401 6
-1.267 -0.749 2.393 2
-1.223 -0.722 2.394 10
-1.223 -0.721 2.373 1
-1.934 -1.484 2.738 8
-1.911 -1.445 2.719 9
-1.9 -1.415 2.699 11
-1.885 -1.383 2.681 7
-1.905 -1.378 2.656 3
-1.837 -1.311 2.649 4
-1.839 -1.295 2.629 30
-1.825 -1.268 2.612 2
-1.839 -1.262 2.59 0
-1.866 -1.266 2.564 0
0.0 -0.0 3.0 0
-1.777 -1.179 2.547 0
0.0 -0.0 3.0 0
-1.669 -1.085 2.539 0
0.0 -0.0 3.0 0
-1.579 -1.009 2.53 0
0.0 -0.0 3.0 0
-1.562 -0.983 2.499 0
0.0 -0.0 3.0 0
-1.488 -0.923 2.488 0
-1.424 -0.879 2.493 1
-24.506 -15.035 -6.034 4
-1.373 -0.838 2.476 0
-1.367 -0.831 2.461 10
-1.354 -0.819 2.447 6
-1.334 -0.804 2.437 6
-1.317 -0.791 2.425 6
-1.306 -0.782 2.411 5
-1.275 -0.762 2.405 4
-1.257 -0.749 2.394 2
-1.227 -0.729 2.389 1
-1.196 -0.708 2.384 9
-1.926 -1.488 2.738 8
-1.904 -1.448 2.719 10
-1.896 -1.42 2.698 14
-1.878 -1.387 2.68 5
-1.936 -1.409 2.649 2
-1.836 -1.318 2.647 3
-1.832 -1.298 2.628 11
-1.821 -1.273 2.611 1
-1.812 -1.252 2.593 0
-1.855 -1.267 2.564 0
0.0 -0.0 3.0 0
0.0 -0.0 3.0 0
0.0 -0.0 3.0 0
-1.662 -1.088 2.538 0
0.0 -0.0 3.0 0
0.0 -0.0 3.0 0
0.0 -0.0 3.0 0
0.0 -0.0 3.0 0
-1.538 -0.967 2.486 0
-1.484 -0.927 2.486 0
-1.424 -0.884 2.49 0
-24.321 -15.02 -6.025 5
-1.354 -0.831 2.48 0
-1.361 -0.832 2.46 12
-1.348 -0.821 2.446 6
-1.324 -0.803 2.438 6
-1.307 -0.79 2.426 8
-1.3 -0.783 2.41 5
-1.269 -0.762 2.405 3
-1.245 -0.746 2.396 3
-1.217 -0.727 2.39 1
-1.218 -0.726 2.369 3
-1.913 -1.485 2.738 9
-1.899 -1.453 2.717 10
-1.901 -1.433 2.695 10
-1.874 -1.392 2.679 4
-1.957 -1.433 2.643 2
-1.832 -1.323 2.645 4
-1.828 -1.303 2.626 3
-1.811 -1.274 2.61 0
0.0 -0.0 3.0 0
-1.854 -1.274 2.561 0
0.0 -0.0 3.0 0
-1.724 -1.158 2.555 0
0.0 -0.0 3.0 0
0.0 -0.0 3.0 0
0.0 -0.0 3.0 0
-1.595 -1.032 2.519 0
-1.549 -0.995 2.515 0
-1.529 -0.975 2.503 0
-1.528 -0.967 2.486 0
-1.491 -0.937 2.48 0
-1.424 -0.89 2.486 0
-1.379 -0.857 2.485 0
-1.341 -0.829 2.482 0
-1.354 -0.834 2.459 15
-1.335 -0.818 2.448 6
-1.318 -0.805 2.437 6
-1.308 -0.795 2.422 8
-1.294 -0.784 2.409 5
-1.263 -0.763 2.404 2
-1.214 -0.732 2.407 3
-1.205 -0.724 2.392 3
-1.209 -0.725 2.37 13
-1.905 -1.488 2.738 9
-1.901 -1.463 2.716 11
-1.884 -1.428 2.696 8
-1.866 -1.394 2.678 8
-1.93 -1.422 2.645 1
-1.831 -1.331 2.643 4
-1.824 -1.309 2.625 2
-1.813 -1.285 2.607 0
-1.862 -1.303 2.577 0
-1.947 -1.346 2.537 0
-1.876 -1.283 2.533 0
0.0 -0.0 3.0 0
0.0 -0.0 3.0 0
0.0 -0.0 3.0 0
0.0 -0.0 3.0 0
-1.552 -1.011 2.528 0
-1.542 -0.997 2.514 0
0.0 -0.0 3.0 0
0.0 -0.0 3.0 0
-1.468 -0.929 2.485 0
-1.418 -0.892 2.485 0
-1.354 -0.847 2.491 0
-1.329 -0.827 2.483 0
-1.348 -0.835 2.458 17
-1.329 -0.82 2.447 6
-1.309 -0.804 2.437 6
-1.302 -0.796 2.421 6
-1.281 -0.781 2.411 4
-1.248 -0.759 2.407 2
-1.227 -0.744 2.398 1
-1.206 -0.729 2.388 4
-1.209 -0.729 2.366 28
-1.901 -1.494 2.737 10
-1.891 -1.464 2.715 15
-1.877 -1.431 2.696 4
-1.856 -1.396 2.678 13
-1.913 -1.418 2.646 1
-1.811 -1.325 2.645 2
-1.823 -1.316 2.623 1
-1.793 -1.278 2.609 0
0.0 -0.0 3.0 0
-2.023 -1.408 2.515 0
0.0 -0.0 3.0 0
0.0 -0.0 3.0 0
0.0 -0.0 3.0 0
0.0 -0.0 3.0 0
-1.587 -1.05 2.532 0
0.0 -0.0 3.0 0
0.0 -0.0 3.0 0
-1.525 -0.985 2.498 0
0.0 -0.0 3.0 0
0.0 -0.0 3.0 0
-1.411 -0.893 2.484 0
-1.335 -0.84 2.495 0
-1.342 -0.84 2.475 0
-1.345 -0.838 2.456 19
-1.323 -0.821 2.446 6
-1.3 -0.803 2.437 6
-1.299 -0.799 2.419 6
-1.272 -0.781 2.412 2
-1.217 -0.744 2.419 6
-1.212 -0.738 2.402 1
-1.216 -0.739 2.38 6
-1.21 -0.734 2.362 56
-1.89 -1.495 2.736 10
-1.886 -1.47 2.714 8
-1.879 -1.442 2.693 3
-1.851 -1.401 2.677 12
-1.884 -1.406 2.65 0
-1.794 -1.321 2.646 1
-1.803 -1.31 2.624 0
-1.782 -1.279 2.609 0
-1.783 -1.264 2.589 0
-2.121 -1.486 2.488 0
0.0 -0.0 3.0 0
0.0 -0.0 3.0 0
0.0 -0.0 3.0 0
0.0 -0.0 3.0 0
0.0 -0.0 3.0 0
-1.523 -1.006 2.531 0
-1.503 -0.985 2.52 0
0.0 -0.0 3.0 0
0.0 -0.0 3.0 0
-1.455 -0.933 2.483 0
-1.405 -0.895 2.483 0
-1.335 -0.846 2.491 0
-1.323 -0.833 2.479 0
-1.332 -0.836 2.457 20
-1.31 -0.818 2.448 6
-1.3 -0.808 2.434 5
-1.283 -0.795 2.422 4
-1.266 -0.781 2.411 2
-1.22 -0.751 2.413 1
-1.203 -0.738 2.402 5
-1.21 -0.74 2.379 17
-1.204 -0.734 2.362 88
-1.889 -1.502 2.735 11
-1.882 -1.475 2.713 6
-1.859 -1.435 2.695 11
-1.847 -1.406 2.675 8
-1.794 -1.347 2.664 0
-1.768 -1.309 2.649 1
0.0 -0.0 3.0 0
-1.781 -1.287 2.607 0
-1.827 -1.303 2.576 0
-2.136 -1.506 2.482 1
0.0 -0.0 3.0 0
0.0 -0.0 3.0 0
0.0 -0.0 3.0 0
-1.595 -1.08 2.542 0
-1.561 -1.046 2.534 0
-1.513 -1.006 2.531 0
-1.506 -0.994 2.515 0
-1.486 -0.973 2.504 0
-1.472 -0.956 2.491 0
0.0 -0.0 3.0 0
-1.405 -0.901 2.48 0
-1.325 -0.845 2.492 0
-1.313 -0.833 2.479 0
-1.323 -0.835 2.458 19
-1.307 -0.821 2.446 6
-1.287 -0.805 2.436 4
-1.28 -0.798 2.42 3
-1.225 -0.761 2.426 6
-1.208 -0.748 2.416 1
-1.216 -0.75 2.393 5
-1.207 -0.743 2.377 29
-1.201 -0.737 2.359 80
-1.888 -1.51 2.734 13
-1.878 -1.48 2.712 3
-1.858 -1.443 2.693 13
-1.84 -1.409 2.675 11
-1.774 -1.34 2.666 0
-1.745 -1.301 2.651 2
0.0 -0.0 3.0 0
0.0 -0.0 3.0 0
0.0 -0.0 3.0 0
-2.134 -1.514 2.479 1
0.0 -0.0 3.0 0
0.0 -0.0 3.0 0
0.0 -0.0 3.0 0
-1.579 -1.075 2.544 0
-1.535 -1.035 2.539 0
0.0 -0.0 3.0 0
0.0 -0.0 3.0 0
-1.489 -0.981 2.5 0
-1.456 -0.952 2.494 0
-1.406 -0.914 2.493 0
-1.405 -0.907 2.476 0
-1.332 -0.855 2.486 0
-1.301 -0.83 2.481 0
-1.32 -0.839 2.455 18
-1.298 -0.82 2.447 5
-1.284 -0.809 2.433 5
-1.264 -0.793 2.424 2
-1.222 -0.764 2.425 1
-1.196 -0.745 2.418 4
-1.206 -0.749 2.394 12
-1.207 -0.747 2.373 43
-1.195 -0.738 2.359 37
-1.89 -1.521 2.732 7
-1.867 -1.481 2.712 6
-1.85 -1.446 2.693 10
-1.832 -1.412 2.674 13
-1.751 -1.33 2.668 0
-1.728 -1.296 2.653 3
0.0 -0.0 3.0 0
0.0 -0.0 3.0 0
-1.803 -1.303 2.577 0
-2.138 -1.527 2.474 1
0.0 -0.0 3.0 0
0.0 -0.0 3.0 0
0.0 -0.0 3.0 0
0.0 -0.0 3.0 0
-1.573 -1.068 2.524 0
-1.512 -1.019 2.525 0
0.0 -0.0 3.0 0
-1.46 -0.968 2.507 0
-1.453 -0.956 2.491 0
-1.403 -0.918 2.491 0
-1.385 -0.9 2.48 0
-1.3 -0.84 2.495 0
-1.298 -0.834 2.479 0
-1.307 -0.836 2.457 16
-1.295 -0.823 2.445 4
-1.275 -0.808 2.434 3
-1.239 -0.782 2.432 4
-1.219 -0.767 2.422 1
-1.199 -0.751 2.413 3
-1.21 -0.756 2.388 21
-1.204 -0.75 2.371 47
-1.19 -0.738 2.359 18
-1.876 -1.517 2.732 5
-1.857 -1.481 2.712 14
-1.852 -1.456 2.691 8
-1.828 -1.417 2.673 6
-1.737 -1.329 2.669 0
-1.718 -1.297 2.653 5
0.0 -0.0 3.0 0
-1.788 -1.315 2.598 0
-1.773 -1.289 2.581 0
-2.13 -1.531 2.473 1
0.0 -0.0 3.0 0
0.0 -0.0 3.0 0
-1.656 -1.154 2.534 0
0.0 -0.0 3.0 0
-1.54 -1.054 2.531 0
-1.499 -1.016 2.526 0
0.0 -0.0 3.0 0
-1.447 -0.966 2.508 0
-1.417 -0.94 2.5 0
-1.384 -0.911 2.495 0
-1.395 -0.912 2.473 0
-1.31 -0.852 2.488 0
-1.288 -0.833 2.48 0
-1.301 -0.837 2.456 12
-1.288 -0.825 2.443 4
-1.266 -0.807 2.435 2
-1.23 -0.781 2.433 2
-1.21 -0.765 2.423 2
-1.206 -0.76 2.406 8
-1.204 -0.756 2.388 25
-1.192 -0.746 2.374 34
-1.187 -0.741 2.356 15
-1.868 -1.521 2.732 3
-1.855 -1.488 2.711 15
-1.838 -1.454 2.691 12
-1.811 -1.412 2.674 1
-1.724 -1.327 2.669 0
-1.714 -1.301 2.651 8
0.0 -0.0 3.0 0
-1.796 -1.331 2.593 0
-1.791 -1.311 2.574 0
-2.132 -1.543 2.469 1
-1.68 -1.202 2.562 0
0.0 -0.0 3.0 0
0.0 -0.0 3.0 0
0.0 -0.0 3.0 0
-1.521 -1.046 2.534 0
-1.492 -1.019 2.525 0
-1.463 -0.991 2.517 0
-1.447 -0.972 2.505 0
-1.411 -0.941 2.5 0
-1.397 -0.925 2.487 0
-1.382 -0.91 2.475 0
-1.284 -0.841 2.495 0
-1.276 -0.83 2.481 0
-1.292 -0.836 2.457 10
-1.279 -0.824 2.444 3
-1.253 -0.804 2.437 3
-1.218 -0.778 2.435 1
-1.201 -0.765 2.424 4
-1.2 -0.761 2.406 18
-1.198 -0.757 2.387 34
-1.193 -0.751 2.37 17
-1.187 -0.745 2.352 12
-1.858 -1.521 2.732 7
-1.857 -1.499 2.709 10
-1.837 -1.462 2.689 11
-1.816 -1.425 2.671 1
-1.688 -1.308 2.674 0
-1.697 -1.297 2.652 11
0.0 -0.0 3.0 0
-1.802 -1.342 2.59 0
-1.746 -1.286 2.582 0
-2.123 -1.546 2.468 2
0.0 -0.0 3.0 0
0.0 -0.0 3.0 0
0.0 -0.0 3.0 0
-1.551 -1.084 2.54 0
-1.498 -1.038 2.538 0
-1.479 -1.016 2.526 0
-1.463 -0.997 2.514 0
-1.437 -0.972 2.505 0
-1.404 -0.943 2.499 0
-1.403 -0.935 2.482 0
-1.357 -0.899 2.481 0
-1.291 -0.85 2.489 0
-1.279 -0.838 2.477 0
-1.282 -0.836 2.457 9
-1.27 -0.824 2.444 2
-1.225 -0.791 2.446 5
-1.209 -0.777 2.435 1
-1.214 -0.777 2.414 3
-1.203 -0.768 2.4 20
-1.195 -0.76 2.385 27
-1.19 -0.754 2.368 15
-1.184 -0.748 2.35 11
-1.853 -1.526 2.731 14
-1.846 -1.499 2.709 12
-1.83 -1.464 2.689 3
-1.775 -1.401 2.677 1
-1.678 -1.307 2.674 0
-1.69 -1.299 2.652 14
0.0 -0.0 3.0 0
-1.788 -1.341 2.59 0
-1.732 -1.284 2.583 0
-2.109 -1.545 2.468 1
0.0 -0.0 3.0 0
0.0 -0.0 3.0 0
0.0 -0.0 3.0 0
-1.579 -1.111 2.528 0
-1.529 -1.067 2.525 0
-1.453 -1.005 2.531 0
0.0 -0.0 3.0 0
-1.405 -0.956 2.513 0
-1.382 -0.933 2.504 0
-1.365 -0.916 2.492 0
-1.363 -0.909 2.475 0
-1.278 -0.847 2.491 0
-1.273 -0.839 2.476 0
-1.273 -0.835 2.458 8
-1.264 -0.824 2.444 2
-1.216 -0.79 2.447 1
-1.203 -0.778 2.435 5
-1.208 -0.779 2.413 14
-1.197 -0.768 2.4 24
-1.192 -0.762 2.383 17
-1.187 -0.757 2.365 11
-1.184 -0.752 2.346 4
-1.855 -1.537 2.729 13
-1.833 -1.496 2.709 14
-1.828 -1.472 2.687 1
-1.724 -1.369 2.684 0
-1.665 -1.304 2.675 0
-1.68 -1.299 2.652 17
0.0 -0.0 3.0 0
-1.746 -1.318 2.597 0
0.0 -0.0 3.0 0
-2.11 -1.556 2.464 2
0.0 -0.0 3.0 0
0.0 -0.0 3.0 0
-1.581 -1.131 2.543 0
0.0 -0.0 3.0 0
0.0 -0.0 3.0 0
-1.456 -1.013 2.528 0
0.0 -0.0 3.0 0
-1.408 -0.965 2.508 0
-1.382 -0.939 2.501 0
-1.361 -0.92 2.49 0
-1.35 -0.906 2.477 0
-1.256 -0.838 2.496 1
-1.263 -0.838 2.476 0
-1.273 -0.84 2.454 5
-1.229 -0.807 2.456 4
-1.219 -0.797 2.442 1
-1.216 -0.791 2.425 3
-1.205 -0.781 2.411 21
-1.197 -0.773 2.396 24
-1.19 -0.765 2.38 16
-1.181 -0.757 2.365 10
-1.179 -0.753 2.346 1
-1.851 -1.541 2.728 8
-1.837 -1.509 2.707 10
-1.827 -1.48 2.685 1
-1.72 -1.374 2.683 0
-1.651 -1.302 2.675 0
-1.673 -1.302 2.651 18
0.0 -0.0 3.0 0
-1.735 -1.318 2.597 0
-1.73 -1.299 2.578 0
-2.102 -1.56 2.463 1
0.0 -0.0 3.0 0
0.0 -0.0 3.0 0
0.0 -0.0 3.0 0
-1.534 -1.094 2.536 0
-1.459 -1.031 2.541 0
-1.44 -1.009 2.53 0
-1.427 -0.992 2.516 0
-1.389 -0.958 2.512 0
-1.366 -0.935 2.503 0
-1.355 -0.921 2.49 0
-1.337 -0.904 2.478 0
-1.256 -0.844 2.493 1
-1.254 -0.837 2.477 0
-1.261 -0.837 2.456 4
-1.223 -0.809 2.455 1
-1.201 -0.789 2.447 3
-1.213 -0.794 2.423 12
-1.208 -0.788 2.406 21
-1.191 -0.774 2.395 18
-1.187 -0.767 2.379 13
-1.178 -0.76 2.362 7
-1.179 -0.757 2.342 0
-1.84 -1.541 2.728 13
-1.83 -1.513 2.706 3
-1.807 -1.472 2.687 0
-1.688 -1.357 2.687 0
-1.632 -1.294 2.677 0
-1.662 -1.301 2.651 18
0.0 -0.0 3.0 0
-1.719 -1.314 2.598 0
0.0 -0.0 3.0 0
-2.09 -1.562 2.462 1
0.0 -0.0 3.0 0
0.0 -0.0 3.0 0
0.0 -0.0 3.0 0
-1.505 -1.08 2.542 0
-1.477 -1.051 2.532 0
-1.446 -1.02 2.525 0
0.0 -0.0 3.0 0
-1.398 -0.97 2.506 0
-1.381 -0.952 2.494 0
-1.355 -0.927 2.486 0
-1.306 -0.888 2.487 0
-1.263 -0.853 2.487 0
-1.235 -0.83 2.481 0
-1.232 -0.823 2.465 5
-1.211 -0.805 2.457 1
-1.204 -0.797 2.442 2
-1.203 -0.793 2.424 21
-1.208 -0.793 2.403 19
-1.189 -0.776 2.393 12
-1.178 -0.766 2.38 10
-1.181 -0.766 2.357 1
0.0 -0.0 3.0 0
-1.835 -1.547 2.727 13
-1.825 -1.517 2.705 1
0.0 -0.0 3.0 0
-1.668 -1.349 2.689 0
-1.64 -1.309 2.674 0
-1.655 -1.304 2.651 20
0.0 -0.0 3.0 0
-1.699 -1.306 2.601 0
0.0 -0.0 3.0 0
-2.073 -1.559 2.463 0
0.0 -0.0 3.0 0
0.0 -0.0 3.0 0
-1.572 -1.146 2.537 0
-1.479 -1.069 2.546 0
-1.464 -1.048 2.533 0
-1.427 -1.012 2.528 0
0.0 -0.0 3.0 0
-1.376 -0.961 2.51 0
-1.365 -0.946 2.497 0
-1.339 -0.922 2.489 0
-1.287 -0.881 2.491 0
-1.247 -0.848 2.491 0
-1.229 -0.831 2.481 0
-1.226 -0.825 2.464 1
-1.202 -0.804 2.458 2
-1.207 -0.804 2.437 8
-1.21 -0.802 2.418 19
-1.193 -0.787 2.407 20
-1.183 -0.777 2.393 10
-1.181 -0.773 2.374 8
-1.173 -0.765 2.358 0
-1.131 -0.734 2.362 0
-1.825 -1.547 2.727 7
-1.818 -1.52 2.704 1
0.0 -0.0 3.0 0
-1.646 -1.339 2.691 0
-1.618 -1.3 2.676 0
-1.639 -1.299 2.652 20
0.0 -0.0 3.0 0
-1.72 -1.331 2.593 0
0.0 -0.0 3.0 0
-2.068 -1.564 2.461 1
-1.714 -1.283 2.533 0
-1.573 -1.165 2.553 0
0.0 -0.0 3.0 0
-1.463 -1.063 2.549 0
0.0 -0.0 3.0 0
-1.433 -1.023 2.523 0
-1.41 -0.999 2.513 0
-1.366 -0.96 2.511 0
-1.356 -0.946 2.497 0
-1.348 -0.935 2.482 0
-1.287 -0.886 2.488 0
-1.241 -0.849 2.49 1
-1.217 -0.828 2.482 1
-1.22 -0.826 2.464 1
-1.202 -0.809 2.455 2
-1.201 -0.805 2.436 17
-1.204 -0.803 2.416 17
-1.193 -0.792 2.403 14
-1.183 -0.782 2.389 9
-1.175 -0.774 2.373 2
-1.167 -0.766 2.357 0
0.0 -0.0 3.0 0
-1.82 -1.552 2.726 1
-1.81 -1.523 2.704 0
0.0 -0.0 3.0 0
-1.651 -1.352 2.688 0
-1.601 -1.294 2.677 0
-1.632 -1.301 2.651 18
0.0 -0.0 3.0 0
-1.663 -1.295 2.604 0
-1.716 -1.321 2.571 0
-2.059 -1.568 2.46 0
0.0 -0.0 3.0 0
0.0 -0.0 3.0 0
0.0 -0.0 3.0 0
-1.475 -1.079 2.542 0
-1.451 -1.052 2.532 0
-1.426 -1.025 2.522 0
-1.401 -0.999 2.513 0
-1.353 -0.958 2.512 0
-1.334 -0.937 2.502 0
-1.317 -0.918 2.491 0
-1.293 -0.896 2.483 0
-1.238 -0.853 2.488 0
-1.223 -0.838 2.477 1
-1.205 -0.82 2.467 2
-1.214 -0.822 2.445 6
-1.204 -0.812 2.431 17
-1.201 -0.805 2.415 21
-1.184 -0.791 2.404 11
-1.174 -0.781 2.39 9
-1.169 -0.775 2.373 0
-1.146 -0.756 2.366 0
0.0 -0.0 3.0 0
-1.813 -1.555 2.726 1
0.0 -0.0 3.0 0
0.0 -0.0 3.0 0
-2.658 -2.189 2.495 4
-1.588 -1.291 2.678 0
-1.621 -1.302 2.651 16
0.0 -0.0 3.0 0
-1.637 -1.282 2.608 0
0.0 -0.0 3.0 0
-2.036 -1.56 2.463 0
0.0 -0.0 3.0 0
0.0 -0.0 3.0 0
-1.526 -1.134 2.542 0
-1.462 -1.076 2.543 0
-1.425 -1.04 2.537 0
-1.422 -1.029 2.52 0
-1.391 -0.998 2.513 0
-1.362 -0.97 2.506 0
-1.337 -0.945 2.498 0
-1.288 -0.905 2.499 0
-1.262 -0.88 2.492 0
-1.219 -0.845 2.492 1
-1.22 -0.841 2.474 1
-1.208 -0.828 2.462 2
-1.208 -0.824 2.444 14
-1.201 -0.815 2.43 16
-1.192 -0.804 2.416 15
-1.184 -0.796 2.4 11
-1.18 -0.79 2.383 2
-1.166 -0.777 2.371 0
0.0 -0.0 3.0 0
0.0 -0.0 3.0 0
-1.811 -1.562 2.725 1
0.0 -0.0 3.0 0
0.0 -0.0 3.0 0
-2.639 -2.186 2.495 4
-1.587 -1.298 2.676 0
-1.611 -1.301 2.651 15
0.0 -0.0 3.0 0
-1.648 -1.299 2.603 0
0.0 -0.0 3.0 0
0.0 -0.0 3.0 0
-2.059 -1.571 2.428 0
0.0 -0.0 3.0 0
-1.488 -1.113 2.55 0
-1.433 -1.062 2.549 0
-1.4 -1.028 2.542 0
-1.388 -1.011 2.529 0
-1.372 -0.991 2.517 0
-1.334 -0.956 2.513 0
-1.321 -0.939 2.501 0
-1.269 -0.897 2.503 0
-1.243 -0.873 2.496 0
-1.229 -0.857 2.485 3
-1.214 -0.842 2.474 1
-1.22 -0.842 2.454 5
-1.205 -0.826 2.443 16
-1.195 -0.816 2.429 16
-1.189 -0.807 2.413 12
-1.184 -0.801 2.396 11
-1.18 -0.795 2.379 0
-1.163 -0.78 2.368 0
-1.143 -0.763 2.36 0
0.0 -0.0 3.0 0
0.0 -0.0 3.0 0
0.0 -0.0 3.0 0
0.0 -0.0 3.0 0
-1.614 -1.345 2.689 0
-1.568 -1.291 2.678 0
-1.604 -1.303 2.651 12
0.0 -0.0 3.0 0
-1.598 -1.268 2.612 0
0.0 -0.0 3.0 0
0.0 -0.0 3.0 0
-2.06 -1.582 2.424 0
0.0 -0.0 3.0 0
0.0 -0.0 3.0 0
-1.445 -1.078 2.543 0
-1.43 -1.057 2.529 0
-1.384 -1.014 2.527 0
-1.368 -0.994 2.515 0
-1.343 -0.969 2.506 0
-1.299 -0.929 2.506 0
-1.266 -0.9 2.501 0
-1.228 -0.867 2.499 0
-1.219 -0.856 2.486 1
-1.205 -0.841 2.475 2
-1.208 -0.838 2.456 13
-1.205 -0.832 2.439 13
-1.189 -0.817 2.428 13
-1.186 -0.81 2.411 12
-1.181 -0.804 2.394 5
-1.156 -0.783 2.389 0
-1.148 -0.774 2.373 0
-1.146 -0.769 2.354 0
0.0 -0.0 3.0 0
0.0 -0.0 3.0 0
0.0 -0.0 3.0 0
0.0 -0.0 3.0 0
-1.61 -1.35 2.688 0
-1.576 -1.305 2.675 0
-1.597 -1.306 2.65 9
-1.62 -1.309 2.625 0
0.0 -0.0 3.0 0
-1.613 -1.273 2.586 0
-1.989 -1.554 2.465 0
-2.061 -1.593 2.42 0
0.0 -0.0 3.0 0
-1.453 -1.101 2.555 0
-1.417 -1.063 2.549 0
-1.42 -1.056 2.53 0
-1.396 -1.03 2.52 0
-1.343 -0.983 2.521 0
-1.293 -0.939 2.522 0
-1.271 -0.915 2.513 0
-1.248 -0.893 2.505 0
-1.221 -0.868 2.499 1
-1.219 -0.861 2.483 1
-1.214 -0.853 2.467 3
-1.208 -0.844 2.452 15
-1.196 -0.831 2.44 14
-1.186 -0.82 2.426 10
-1.183 -0.813 2.41 12
-1.175 -0.805 2.393 0
-1.144 -0.78 2.391 0
-1.148 -0.779 2.369 0
0.0 -0.0 3.0 0
0.0 -0.0 3.0 0
0.0 -0.0 3.0 0
0.0 -0.0 3.0 0
0.0 -0.0 3.0 0
-1.594 -1.344 2.69 0
-1.581 -1.317 2.672 0
-1.584 -1.302 2.651 5
-1.597 -1.299 2.628 0
-1.565 -1.258 2.616 0
0.0 -0.0 3.0 0
-1.633 -1.283 2.558 0
-2.04 -1.587 2.422 0
-1.478 -1.138 2.563 0
0.0 -0.0 3.0 0
-1.416 -1.069 2.546 0
-1.395 -1.045 2.535 0
-1.365 -1.013 2.528 0
-1.352 -0.995 2.515 0
-1.296 -0.947 2.518 0
-1.274 -0.923 2.509 0
-1.235 -0.89 2.507 1
-1.215 -0.869 2.498 1
-1.204 -0.856 2.486 2
-1.211 -0.855 2.466 11
-1.205 -0.847 2.45 14
-1.193 -0.833 2.438 13
-1.183 -0.822 2.424 12
-1.177 -0.814 2.409 8
-1.181 -0.814 2.387 0
-1.141 -0.782 2.389 0
-1.133 -0.774 2.374 0
0.0 -0.0 3.0 0
0.0 -0.0 3.0 0
0.0 -0.0 3.0 0
0.0 -0.0 3.0 0
0.0 -0.0 3.0 0
-1.583 -1.345 2.69 0
0.0 -0.0 3.0 0
-1.573 -1.302 2.651 3
-1.587 -1.299 2.628 0
-1.564 -1.264 2.613 0
-1.528 -1.221 2.603 0
0.0 -0.0 3.0 0
-2.053 -1.607 2.415 0
-1.462 -1.133 2.565 0
0.0 -0.0 3.0 0
-1.409 -1.071 2.545 0
-1.382 -1.042 2.536 0
-1.346 -1.005 2.531 0
-1.352 -1.002 2.511 0
-1.293 -0.95 2.516 0
-1.264 -0.922 2.51 0
-1.22 -0.884 2.51 1
-1.215 -0.875 2.495 1
-1.207 -0.864 2.481 2
-1.208 -0.859 2.464 16
-1.196 -0.845 2.451 14
-1.187 -0.835 2.437 9
-1.18 -0.826 2.422 12
-1.174 -0.816 2.407 1
-1.163 -0.806 2.393 0
-1.114 -0.768 2.4 0
-1.109 -0.761 2.383 0
-1.119 -0.765 2.358 0
0.0 -0.0 3.0 0
0.0 -0.0 3.0 0
0.0 -0.0 3.0 0
0.0 -0.0 3.0 0
-1.57 -1.341 2.69 0
0.0 -0.0 3.0 0
-1.569 -1.307 2.65 2
-1.592 -1.31 2.624 0
-1.563 -1.272 2.611 0
-1.56 -1.255 2.592 0
-1.594 -1.269 2.563 0
-2.063 -1.625 2.409 0
0.0 -0.0 3.0 0
0.0 -0.0 3.0 0
-1.406 -1.076 2.543 0
-1.385 -1.05 2.532 0
-1.355 -1.019 2.525 0
-1.305 -0.974 2.525 0
-1.255 -0.929 2.527 0
-1.233 -0.905 2.519 0
-1.223 -0.892 2.505 1
-1.206 -0.873 2.496 1
-1.207 -0.869 2.478 9
-1.202 -0.859 2.463 13
-1.196 -0.851 2.447 13
-1.184 -0.837 2.435 12
-1.171 -0.824 2.423 9
-1.171 -0.819 2.405 0
-1.157 -0.806 2.392 0
-1.12 -0.777 2.393 0
-1.127 -0.779 2.37 0
-1.11 -0.764 2.359 0
0.0 -0.0 3.0 0
0.0 -0.0 3.0 0
0.0 -0.0 3.0 0
0.0 -0.0 3.0 0
-1.587 -1.363 2.685 0
0.0 -0.0 3.0 0
-1.559 -1.306 2.65 2
-1.603 -1.328 2.619 0
0.0 -0.0 3.0 0
-1.556 -1.26 2.591 0
-1.523 -1.22 2.58 0
-2.045 -1.622 2.41 0
-1.442 -1.132 2.566 0
-2.121 -1.648 2.334 0
0.0 -0.0 3.0 0
-1.369 -1.045 2.535 0
-1.348 -1.02 2.525 0
-1.296 -0.973 2.526 0
-1.255 -0.935 2.524 0
-1.218 -0.9 2.521 1
-1.204 -0.884 2.51 1
-1.212 -0.884 2.49 2
-1.204 -0.872 2.476 14
-1.201 -0.865 2.459 12
-1.19 -0.852 2.447 10
-1.181 -0.84 2.433 12
-1.18 -0.836 2.415 1
-1.167 -0.823 2.402 0
-1.136 -0.797 2.4 0
-1.117 -0.779 2.391 0
-1.124 -0.781 2.368 0
-1.105 -0.764 2.359 0
0.0 -0.0 3.0 0
0.0 -0.0 3.0 0
0.0 -0.0 3.0 0
0.0 -0.0 3.0 0
-1.574 -1.36 2.686 0
0.0 -0.0 3.0 0
-1.546 -1.303 2.651 1
-1.572 -1.31 2.624 0
-1.528 -1.258 2.615 0
-1.54 -1.255 2.592 0
-1.492 -1.202 2.586 0
-1.509 -1.204 2.562 0
-1.408 -1.112 2.573 0
-2.128 -1.664 2.328 0
-1.359 -1.053 2.553 0
-1.375 -1.056 2.53 0
-1.314 -1.001 2.533 0
-1.277 -0.965 2.529 0
-1.249 -0.936 2.523 0
-1.218 -0.905 2.519 0
-1.207 -0.892 2.506 2
-1.206 -0.885 2.489 7
-1.204 -0.877 2.473 13
-1.192 -0.863 2.461 13
-1.186 -0.855 2.445 12
-1.18 -0.845 2.43 11
-1.159 -0.826 2.422 0
-1.143 -0.811 2.411 0
-1.13 -0.798 2.399 0
-1.126 -0.79 2.382 0
-1.107 -0.773 2.374 0
0.0 -0.0 3.0 0
0.0 -0.0 3.0 0
0.0 -0.0 3.0 0
0.0 -0.0 3.0 0
0.0 -0.0 3.0 0
-1.546 -1.345 2.69 0
-1.537 -1.319 2.671 0
-1.551 -1.315 2.648 0
-1.552 -1.301 2.627 0
-1.499 -1.243 2.62 0
0.0 -0.0 3.0 0
-1.485 -1.204 2.585 0
-1.472 -1.182 2.57 0
-2.086 -1.658 2.363 1
-1.39 -1.095 2.558 0
-1.361 -1.062 2.549 0
-1.362 -1.053 2.531 0
-1.313 -1.007 2.53 0
-1.246 -0.948 2.538 0
-1.221 -0.921 2.531 1
-1.214 -0.909 2.517 1
-1.21 -0.899 2.502 2
-1.212 -0.894 2.484 12
-1.197 -0.878 2.472 11
-1.189 -0.867 2.458 10
-1.183 -0.858 2.443 13
-1.174 -0.846 2.429 2
-1.162 -0.833 2.417 0
-1.143 -0.815 2.408 0
-1.136 -0.806 2.392 0
-1.135 -0.801 2.374 0
-1.104 -0.776 2.372 0
-1.114 -0.779 2.346 0
0.0 -0.0 3.0 0
0.0 -0.0 3.0 0
0.0 -0.0 3.0 0
0.0 -0.0 3.0 0
-1.515 -1.326 2.694 0
-1.518 -1.311 2.673 0
-1.52 -1.297 2.652 0
-1.542 -1.301 2.627 0
-1.51 -1.259 2.615 0
-1.481 -1.222 2.603 0
-1.499 -1.223 2.579 0
0.0 -0.0 3.0 0
-1.434 -1.147 2.56 0
-2.117 -1.677 2.322 0
-1.358 -1.066 2.548 0
-1.322 -1.028 2.542 0
-1.282 -0.989 2.539 0
-1.255 -0.96 2.532 0
-1.218 -0.924 2.529 1
-1.208 -0.91 2.516 1
-1.204 -0.901 2.501 9
-1.205 -0.896 2.483 13
-1.194 -0.881 2.47 13
-1.183 -0.868 2.458 10
-1.183 -0.863 2.439 11
-1.156 -0.838 2.435 0
-1.159 -0.835 2.415 0
-1.134 -0.813 2.409 0
-1.115 -0.796 2.4 0
-1.087 -0.772 2.397 0
-1.107 -0.782 2.367 0
-1.105 -0.778 2.348 0
0.0 -0.0 3.0 0
0.0 -0.0 3.0 0
0.0 -0.0 3.0 0
0.0 -0.0 3.0 0
-1.517 -1.335 2.692 0
-1.52 -1.32 2.671 0
0.0 -0.0 3.0 0
-1.541 -1.308 2.625 0
-1.482 -1.243 2.62 0
-1.471 -1.22 2.603 0
-1.471 -1.208 2.584 0
-1.461 -1.188 2.568 0
-1.424 -1.146 2.56 0
-1.377 -1.098 2.557 0
-1.351 -1.067 2.547 0
-1.3 -1.018 2.547 0
-1.27 -0.986 2.54 0
-1.233 -0.949 2.537 0
-1.209 -0.924 2.529 1
-1.208 -0.916 2.513 2
-1.204 -0.906 2.498 13
-1.205 -0.901 2.48 10
-1.191 -0.885 2.468 11
-1.183 -0.873 2.454 13
-1.186 -0.87 2.435 3
-1.162 -0.848 2.428 0
-1.141 -0.828 2.42 0
-1.14 -0.823 2.402 0
-1.103 -0.793 2.403 0
-1.123 -0.803 2.373 0
-1.092 -0.777 2.371 0
-1.119 -0.792 2.335 0
0.0 -0.0 3.0 0
0.0 -0.0 3.0 0
0.0 -0.0 3.0 0
0.0 -0.0 3.0 0
-1.492 -1.321 2.695 0
-1.504 -1.315 2.672 1
0.0 -0.0 3.0 0
-1.522 -1.3 2.627 0
-1.475 -1.245 2.619 0
-1.47 -1.228 2.601 0
-1.422 -1.175 2.595 0
-1.421 -1.162 2.577 0
-1.396 -1.13 2.566 0
-2.099 -1.685 2.319 0
-1.344 -1.068 2.546 0
-1.29 -1.017 2.547 0
-1.245 -0.972 2.547 0
-1.224 -0.949 2.537 0
-1.205 -0.927 2.528 1
-1.211 -0.924 2.509 7
-1.203 -0.911 2.495 14
-1.196 -0.9 2.48 13
-1.179 -0.881 2.471 9
-1.183 -0.879 2.451 13
-1.168 -0.862 2.44 0
-1.15 -0.844 2.431 0
-1.135 -0.828 2.42 0
-1.122 -0.815 2.408 0
-1.115 -0.806 2.393 0
-1.105 -0.794 2.379 0
-1.104 -0.79 2.361 0
-1.072 -0.764 2.359 0
0.0 -0.0 3.0 0
0.0 -0.0 3.0 0
0.0 -0.0 3.0 0
0.0 -0.0 3.0 0
-1.476 -1.315 2.696 0
-1.494 -1.314 2.672 1
0.0 -0.0 3.0 0
-1.515 -1.301 2.627 0
-1.462 -1.242 2.62 0
-1.445 -1.214 2.605 0
-1.412 -1.174 2.596 0
-1.405 -1.157 2.579 0
-1.401 -1.142 2.562 0
-1.388 -1.121 2.547 0
-1.295 -1.036 2.56 0
-1.269 -1.006 2.552 0
-1.242 -0.976 2.545 0
-1.224 -0.954 2.535 1
-1.205 -0.932 2.525 2
-1.207 -0.927 2.507 11
-1.2 -0.915 2.493 12
-1.193 -0.903 2.479 10
-1.182 -0.889 2.466 14
-1.179 -0.882 2.449 5
-1.183 -0.878 2.43 0
-1.135 -0.838 2.434 0
-1.123 -0.825 2.423 0
-1.122 -0.82 2.405 0
-1.124 -0.817 2.384 0
-1.108 -0.801 2.374 0
-1.101 -0.792 2.359 0
-1.081 -0.774 2.351 0
0.0 -0.0 3.0 0
0.0 -0.0 3.0 0
0.0 -0.0 3.0 0
-1.516 -1.375 2.708 0
-1.472 -1.319 2.696 0
-1.475 -1.305 2.675 3
0.0 -0.0 3.0 0
-1.499 -1.296 2.628 0
-1.449 -1.239 2.621 0
-1.435 -1.213 2.606 0
-1.432 -1.198 2.588 0
-1.395 -1.156 2.579 0
-2.07 -1.698 2.348 0
-1.336 -1.085 2.561 0
-1.289 -1.037 2.56 0
-1.256 -1.003 2.554 0
-1.22 -0.965 2.55 0
-1.22 -0.958 2.533 1
-1.211 -0.943 2.519 6
-1.207 -0.933 2.504 13
-1.197 -0.918 2.491 14
-1.183 -0.902 2.479 8
-1.181 -0.894 2.463 13
-1.167 -0.877 2.452 0
-1.167 -0.873 2.433 0
-1.138 -0.846 2.429 0
-1.129 -0.834 2.416 0
-1.116 -0.82 2.404 0
-1.112 -0.813 2.387 0
-1.085 -0.789 2.384 0
