# .PCD v0.7 - Point Cloud Data file format
VERSION 0.7
FIELDS x y z intensity
SIZE 4 4 4 4
TYPE F F F F
COUNT 1 1 1 1
WIDTH 2134
HEIGHT 1
VIEWPOINT 0 0 0 1 0 0 0
POINTS 2134
DATA ascii
-26.395 -7.943 -2.562 19
-26.241 -8.013 -2.822 23
-24.929 -7.726 -2.822 20
-23.713 -7.467 -2.834 15
-22.625 -7.24 -2.863 14
-21.647 -7.038 -2.906 15
-20.695 -6.84 -2.946 15
-17.017 -7.026 1.761 17
-18.339 -7.317 1.578 29
-17.872 -6.896 1.534 21
-16.85 -6.289 1.548 18
-16.235 -5.867 1.537 20
-16.915 -5.922 1.413 13
-16.56 -5.626 1.387 20
-16.674 -5.504 1.317 26
-16.819 -5.401 1.245 20
-17.178 -5.381 1.147 27
-16.991 -5.195 1.109 17
-18.856 -5.652 0.83 15
-19.833 -5.837 0.642 33
-20.648 -5.986 0.459 19
-65.084 -18.631 -5.295 3
-57.921 -16.43 -4.662 11
-52.218 -14.715 -4.177 13
-47.838 -13.44 -3.848 6
-44.201 -12.417 -3.602 6
-41.081 -11.564 -3.41 7
-37.889 -10.72 -3.189 15
-35.825 -10.206 -3.132 7
0.0 -0.0 3.0 0
-27.994 -8.138 -2.285 34
-26.468 -7.793 -2.257 24
-26.429 -7.887 -2.522 26
-26.372 -7.989 -2.804 25
-25.077 -7.713 -2.812 17
-23.844 -7.454 -2.823 16
-22.744 -7.229 -2.854 15
-21.753 -7.027 -2.896 13
-20.788 -6.828 -2.936 16
-17.037 -6.989 1.768 23
-18.327 -7.262 1.588 21
-17.781 -6.811 1.552 22
-16.134 -5.976 1.62 13
-16.168 -5.796 1.555 23
-16.898 -5.866 1.428 19
-16.301 -5.489 1.426 24
-16.698 -5.462 1.33 25
-16.782 -5.338 1.265 28
-17.256 -5.351 1.157 13
-16.939 -5.127 1.134 28
-18.92 -5.612 0.846 18
-19.673 -5.727 0.686 32
-20.676 -5.929 0.483 8
0.0 -0.0 3.0 0
-58.666 -16.459 -4.675 3
-52.8 -14.715 -4.177 4
-48.24 -13.406 -3.831 18
-44.61 -12.398 -3.592 4
-41.399 -11.531 -3.392 7
-37.789 -10.582 -3.11 14
-36.069 -10.174 -3.113 7
-28.052 -7.991 -1.993 1
-28.116 -8.098 -2.259 35
-26.641 -7.775 -2.244 25
-26.571 -7.863 -2.506 20
-26.477 -7.956 -2.78 22
-25.213 -7.696 -2.8 16
-23.961 -7.436 -2.81 15
-22.862 -7.216 -2.844 14
-21.855 -7.014 -2.886 13
-20.879 -6.815 -2.925 15
-17.024 -6.937 1.777 6
-18.378 -7.232 1.594 25
-17.854 -6.79 1.557 21
-16.172 -5.944 1.628 18
-16.202 -5.761 1.564 15
-16.925 -5.826 1.439 24
-16.426 -5.482 1.428 21
-16.703 -5.412 1.345 12
-16.81 -5.296 1.279 17
-17.211 -5.284 1.18 7
-17.032 -5.102 1.143 23
-18.931 -5.556 0.867 22
-19.734 -5.683 0.704 25
-20.765 -5.889 0.5 18
0.0 -0.0 3.0 0
-59.426 -16.487 -4.688 3
-53.405 -14.72 -4.179 4
-48.635 -13.367 -3.811 20
-44.955 -12.359 -3.571 5
-41.745 -11.505 -3.377 6
-37.944 -10.517 -3.072 9
-36.325 -10.144 -3.095 8
-28.045 -7.912 -1.944 15
-28.253 -8.062 -2.236 34
-26.818 -7.757 -2.232 26
-27.057 -7.939 -2.559 11
-26.607 -7.931 -2.762 25
-25.342 -7.676 -2.785 15
-24.085 -7.42 -2.797 17
-22.977 -7.203 -2.833 14
-21.954 -7.0 -2.874 13
-20.972 -6.804 -2.914 16
-17.025 -6.892 1.785 5
-18.407 -7.193 1.602 19
-16.588 -6.262 1.669 4
-16.199 -5.907 1.636 17
-16.368 -5.774 1.56 20
-17.081 -5.83 1.438 51
-16.43 -5.435 1.442 29
-16.708 -5.364 1.36 18
-16.86 -5.259 1.291 15
-16.817 -5.111 1.24 0
-17.162 -5.088 1.148 19
-18.991 -5.514 0.883 18
-20.036 -5.707 0.694 19
-20.505 -5.751 0.559 0
0.0 -0.0 3.0 0
-60.138 -16.497 -4.692 3
-53.946 -14.702 -4.171 4
-49.068 -13.337 -3.796 18
-45.304 -12.319 -3.55 4
-42.075 -11.472 -3.359 6
-38.064 -10.441 -3.028 20
-36.588 -10.115 -3.078 25
-34.367 -9.602 -3.0 6
-28.348 -8.015 -2.205 1
-26.92 -7.718 -2.206 27
-27.003 -7.856 -2.501 11
-26.723 -7.902 -2.741 36
-25.483 -7.66 -2.772 15
-24.223 -7.409 -2.788 12
-23.107 -7.193 -2.825 15
-22.079 -6.994 -2.869 15
-21.074 -6.795 -2.907 14
-18.423 -7.41 1.694 19
-17.531 -6.805 1.677 14
-16.644 -6.238 1.674 0
-16.368 -5.923 1.633 33
-16.771 -5.868 1.537 26
-16.848 -5.701 1.472 11
-16.715 -5.48 1.429 31
-16.446 -5.231 1.401 55
-16.796 -5.189 1.314 10
-16.84 -5.066 1.255 0
-17.408 -5.106 1.142 16
-19.039 -5.468 0.901 18
-19.615 -5.525 0.768 17
-20.375 -5.651 0.601 2
0.0 -0.0 3.0 0
-60.792 -16.488 -4.688 4
-54.534 -14.695 -4.167 5
-49.512 -13.308 -3.781 19
-45.684 -12.286 -3.532 4
-42.421 -11.443 -3.343 6
-38.356 -10.411 -3.011 15
-36.726 -10.051 -3.039 35
-34.559 -9.562 -2.975 7
-32.541 -9.115 -2.919 5
-27.025 -7.679 -2.179 29
-26.942 -7.772 -2.442 15
-26.858 -7.877 -2.723 31
-25.631 -7.645 -2.761 12
-24.373 -7.4 -2.782 16
-23.229 -7.182 -2.816 13
-22.192 -6.984 -2.86 15
-21.16 -6.78 -2.893 15
-18.455 -7.375 1.7 18
-17.473 -6.735 1.691 23
-17.602 -6.548 1.608 14
-16.462 -5.912 1.635 29
-16.798 -5.829 1.547 25
-16.879 -5.663 1.483 11
-16.075 -5.222 1.503 27
-16.321 -5.142 1.428 17
-16.789 -5.136 1.331 9
-18.428 -5.487 1.111 19
-17.596 -5.107 1.141 1
-19.019 -5.403 0.926 15
-19.549 -5.446 0.8 31
0.0 -0.0 3.0 0
-69.545 -18.819 -5.379 10
-61.425 -16.469 -4.679 3
-55.175 -14.699 -4.169 6
-49.98 -13.282 -3.767 18
-46.048 -12.247 -3.512 4
-42.759 -11.409 -3.324 7
-38.526 -10.347 -2.974 23
-36.996 -10.022 -3.022 11
-34.778 -9.528 -2.954 6
-32.75 -9.087 -2.901 4
-27.334 -7.697 -2.192 29
-27.156 -7.767 -2.439 7
-26.977 -7.848 -2.702 40
-25.794 -7.634 -2.753 14
-24.516 -7.39 -2.773 13
-23.363 -7.173 -2.809 14
-22.295 -6.97 -2.848 15
-21.265 -6.772 -2.886 15
-18.464 -7.33 1.708 14
-17.43 -6.671 1.703 20
-17.97 -6.637 1.589 14
-16.484 -5.873 1.644 0
-16.715 -5.753 1.566 26
-16.751 -5.571 1.507 12
-15.972 -5.142 1.526 22
-16.332 -5.097 1.442 16
-18.039 -5.463 1.225 16
-16.638 -4.904 1.311 0
-17.612 -5.057 1.159 0
-19.186 -5.391 0.931 22
-19.601 -5.399 0.819 23
-21.852 -5.924 0.486 13
-70.266 -18.795 -5.368 13
0.0 -0.0 3.0 0
-55.787 -14.69 -4.165 8
-50.456 -13.256 -3.754 17
-46.448 -12.215 -3.495 4
-43.124 -11.381 -3.308 7
-38.584 -10.254 -2.92 17
-37.317 -10.005 -3.011 11
-34.993 -9.492 -2.932 7
-32.959 -9.059 -2.883 5
-27.39 -7.643 -2.156 26
-27.234 -7.723 -2.408 28
-27.107 -7.822 -2.683 35
-25.949 -7.621 -2.743 14
-24.647 -7.375 -2.762 13
-23.493 -7.163 -2.8 19
-22.393 -6.955 -2.836 16
-21.351 -6.757 -2.874 15
-34.489 -13.603 0.601 3
-17.468 -6.64 1.709 1
-17.75 -6.508 1.617 5
-17.759 -6.279 1.55 20
-16.682 -5.694 1.58 24
-16.524 -5.449 1.54 0
-15.911 -5.075 1.545 19
-16.305 -5.04 1.459 23
-18.147 -5.442 1.232 11
-16.581 -4.837 1.335 12
-19.562 -5.557 0.977 18
-19.79 -5.499 0.889 18
-19.546 -5.324 0.849 20
-21.864 -5.859 0.513 16
0.0 -0.0 3.0 0
0.0 -0.0 3.0 0
-56.376 -14.673 -4.156 8
-50.925 -13.226 -3.739 18
-46.835 -12.178 -3.475 5
-43.493 -11.351 -3.292 6
-38.7 -10.174 -2.874 9
-37.55 -9.964 -2.987 10
-35.216 -9.459 -2.911 7
-33.18 -9.033 -2.866 5
-27.563 -7.622 -2.141 22
-27.683 -7.782 -2.449 13
-27.276 -7.806 -2.671 39
-26.104 -7.608 -2.733 13
-24.778 -7.36 -2.75 13
-23.615 -7.151 -2.791 13
-22.503 -6.944 -2.827 16
-21.448 -6.746 -2.864 15
-34.579 -13.549 0.611 7
-19.063 -7.197 1.601 13
-17.455 -6.352 1.65 18
-17.839 -6.258 1.555 13
-16.738 -5.668 1.587 19
-16.531 -5.404 1.552 25
-15.993 -5.056 1.55 23
-16.594 -5.081 1.447 21
-20.982 -6.229 0.976 21
-16.692 -4.818 1.341 2
-19.645 -5.52 0.991 27
-20.472 -5.626 0.841 15
-19.641 -5.288 0.864 21
-21.923 -5.806 0.535 14
0.0 -0.0 3.0 0
-63.77 -16.507 -4.697 7
-56.915 -14.64 -4.141 6
-51.432 -13.202 -3.727 20
-47.254 -12.147 -3.459 5
-43.824 -11.31 -3.269 7
-39.662 -10.314 -2.955 9
-37.767 -9.917 -2.959 12
-35.446 -9.426 -2.89 8
-31.203 -8.414 -2.464 24
-27.778 -7.612 -2.135 12
-27.337 -7.619 -2.335 29
-27.413 -7.782 -2.654 34
-26.259 -7.594 -2.723 13
-24.917 -7.347 -2.74 12
-23.741 -7.139 -2.781 14
-22.601 -6.929 -2.814 8
-21.549 -6.736 -2.856 15
-34.751 -13.528 0.615 12
-19.084 -7.154 1.609 3
-16.011 -5.784 1.771 8
-18.725 -6.519 1.495 22
-16.742 -5.622 1.598 27
-16.496 -5.346 1.568 6
-16.065 -5.032 1.557 38
-16.609 -5.036 1.46 21
-20.813 -6.117 1.013 21
-16.63 -4.75 1.364 2
-19.708 -5.477 1.006 13
-20.582 -5.593 0.853 9
-19.624 -5.223 0.89 1
-21.942 -5.743 0.562 1
0.0 -0.0 3.0 0
-64.462 -16.488 -4.688 3
-57.616 -14.645 -4.143 3
-51.84 -13.152 -3.701 11
-47.631 -12.103 -3.435 10
-44.178 -11.274 -3.249 6
-39.886 -10.26 -2.924 12
-37.878 -9.842 -2.914 21
-35.658 -9.387 -2.865 8
-31.246 -8.345 -2.419 16
-27.909 -7.578 -2.112 21
-27.346 -7.555 -2.29 39
-27.57 -7.762 -2.639 38
-26.403 -7.576 -2.709 14
-25.048 -7.332 -2.728 12
-23.881 -7.132 -2.775 14
-22.729 -6.923 -2.809 14
-21.642 -6.723 -2.845 16
-35.847 -13.864 0.555 29
-38.264 -14.246 0.231 29
-15.995 -5.736 1.781 20
-18.112 -6.256 1.556 21
-16.983 -5.656 1.59 33
-17.475 -5.614 1.496 15
-16.711 -5.187 1.513 11
-16.544 -4.968 1.481 17
-20.716 -6.027 1.042 22
-19.753 -5.582 1.078 19
-19.725 -5.422 1.027 0
-20.604 -5.535 0.875 23
-20.684 -5.441 0.802 25
0.0 -0.0 3.0 0
0.0 -0.0 3.0 0
-65.162 -16.467 -4.679 4
-58.322 -14.647 -4.144 3
-52.463 -13.152 -3.701 4
-38.551 -9.683 -2.148 6
-38.644 -9.751 -2.405 3
-37.998 -9.668 -2.582 4
-37.965 -9.761 -2.865 15
-35.88 -9.349 -2.842 7
-33.78 -8.935 -2.802 5
-28.09 -7.558 -2.098 9
-27.553 -7.546 -2.284 25
-27.625 -7.714 -2.604 41
-26.551 -7.56 -2.697 17
-25.183 -7.317 -2.717 13
-23.962 -7.107 -2.755 14
-22.831 -6.908 -2.797 15
-21.735 -6.711 -2.834 15
-35.893 -13.792 0.568 48
-38.447 -14.215 0.237 27
-15.986 -5.691 1.79 20
-17.418 -5.97 1.622 14
-17.566 -5.802 1.553 24
-17.501 -5.573 1.507 18
-17.857 -5.491 1.425 16
-16.543 -4.919 1.496 18
-19.59 -5.641 1.167 2
-19.858 -5.553 1.088 20
-121.725 -33.09 -9.044 63
-20.614 -5.474 0.899 21
-20.705 -5.382 0.825 20
0.0 -0.0 3.0 0
0.0 -0.0 3.0 0
-66.017 -16.48 -4.685 3
-58.936 -14.623 -4.132 4
-38.589 -9.558 -1.87 4
-38.63 -9.589 -2.098 255
-44.871 -11.192 -3.204 6
-40.605 -10.217 -2.899 10
-38.056 -9.681 -2.817 12
-36.118 -9.317 -2.822 8
-33.981 -8.901 -2.781 4
-28.149 -7.504 -2.061 2
-27.569 -7.485 -2.241 28
-27.74 -7.682 -2.581 31
-26.684 -7.538 -2.681 14
-25.329 -7.306 -2.708 18
-24.081 -7.092 -2.743 14
-22.93 -6.893 -2.784 15
-21.832 -6.7 -2.824 15
-35.853 -13.687 0.587 51
-17.492 -6.423 1.751 3
-17.493 -6.181 1.686 19
-17.433 -5.928 1.631 22
-17.74 -5.812 1.551 22
-18.254 -5.762 1.456 25
-17.544 -5.345 1.467 25
-17.803 -5.242 1.397 1
-20.139 -5.739 1.135 16
-19.902 -5.505 1.105 18
-121.818 -32.746 -8.918 62
-20.709 -5.436 0.913 19
-20.754 -5.332 0.846 4
0.0 -0.0 3.0 0
-76.862 -19.133 -5.518 4
0.0 -0.0 3.0 0
-59.631 -14.614 -4.128 4
-38.614 -9.45 -1.815 24
-38.602 -9.469 -2.035 255
-45.225 -11.151 -3.181 6
-38.641 -9.615 -2.551 5
-38.388 -9.661 -2.805 26
-36.349 -9.28 -2.799 7
-34.194 -8.869 -2.76 4
-30.612 -8.085 -2.453 2
-27.775 -7.475 -2.234 23
-27.851 -7.649 -2.557 37
-26.843 -7.524 -2.67 14
-25.456 -7.289 -2.695 21
-24.199 -7.078 -2.732 10
-23.024 -6.877 -2.77 15
-21.925 -6.687 -2.813 14
-35.103 -13.313 0.653 10
-17.503 -6.383 1.759 12
-17.444 -6.119 1.699 19
-17.451 -5.888 1.641 23
-17.786 -5.778 1.559 24
-18.49 -5.785 1.45 18
-17.555 -5.298 1.481 23
-17.684 -5.156 1.424 8
-19.616 -5.533 1.202 21
-19.973 -5.464 1.119 24
-121.913 -32.403 -8.794 66
-20.699 -5.371 0.938 22
-97.809 -24.826 -7.03 29
0.0 -0.0 3.0 0
0.0 -0.0 3.0 0
0.0 -0.0 3.0 0
-60.238 -14.581 -4.112 4
-38.655 -9.345 -1.761 255
-38.581 -9.35 -1.972 255
-45.599 -11.113 -3.16 6
-38.362 -9.438 -2.449 4
-38.762 -9.65 -2.798 23
-36.564 -9.239 -2.773 7
-34.395 -8.834 -2.737 5
-31.42 -8.221 -2.545 12
-27.78 -7.41 -2.189 26
-28.068 -7.644 -2.554 38
-26.99 -7.507 -2.657 14
-25.587 -7.273 -2.682 19
-24.328 -7.066 -2.722 10
-23.129 -6.863 -2.759 12
-22.018 -6.674 -2.802 16
-34.971 -13.178 0.676 23
-17.507 -6.34 1.768 0
-17.304 -6.026 1.719 23
-17.481 -5.852 1.649 18
-17.706 -5.704 1.578 23
-18.441 -5.718 1.468 24
-17.616 -5.267 1.49 29
-17.737 -5.121 1.434 16
-19.989 -5.58 1.187 21
-20.082 -5.435 1.129 17
-121.873 -32.025 -8.656 56
-20.686 -5.304 0.964 17
0.0 -0.0 3.0 0
0.0 -0.0 3.0 0
0.0 -0.0 3.0 0
0.0 -0.0 3.0 0
-60.996 -14.58 -4.111 3
-38.625 -9.222 -1.699 255
-38.59 -9.24 -1.913 255
-45.953 -11.068 -3.135 5
-38.29 -9.314 -2.377 9
-38.926 -9.585 -2.759 23
-36.794 -9.2 -2.749 7
-34.593 -8.797 -2.713 3
-31.412 -8.143 -2.492 33
-27.975 -7.397 -2.18 24
-28.467 -7.689 -2.586 30
-27.13 -7.487 -2.642 13
-25.748 -7.264 -2.675 19
-24.446 -7.052 -2.711 15
-23.242 -6.852 -2.75 15
-22.122 -6.666 -2.794 17
-35.24 -13.192 0.674 36
-36.394 -13.089 0.456 4
-17.269 -5.969 1.731 26
-17.73 -5.889 1.64 17
-17.644 -5.637 1.595 16
-18.536 -5.697 1.473 16
-17.668 -5.233 1.5 26
-17.767 -5.078 1.447 1
-19.909 -5.499 1.213 25
-20.206 -5.408 1.138 37
-19.936 -5.179 1.115 3
-20.761 -5.26 0.981 14
-114.937 -28.469 -8.502 11
0.0 -0.0 3.0 0
0.0 -0.0 3.0 0
0.0 -0.0 3.0 0
0.0 -0.0 3.0 0
-38.595 -9.1 -1.637 255
-38.634 -9.137 -1.858 3
-46.323 -11.025 -3.112 5
-41.856 -10.066 -2.811 8
-38.846 -9.461 -2.684 12
-37.016 -9.16 -2.724 6
-34.821 -8.768 -2.694 4
-31.435 -8.072 -2.444 3
-28.078 -7.359 -2.153 29
-28.385 -7.603 -2.524 31
-27.278 -7.468 -2.628 12
-25.901 -7.253 -2.667 19
-24.568 -7.038 -2.699 14
-23.348 -6.838 -2.738 14
-22.23 -6.657 -2.787 12
-35.429 -13.178 0.676 36
-18.047 -6.446 1.747 2
-17.216 -5.907 1.744 25
-17.388 -5.73 1.677 16
-17.526 -5.552 1.616 4
-18.654 -5.682 1.477 2
-17.732 -5.202 1.508 23
-20.321 -5.75 1.242 23
-19.872 -5.431 1.235 23
-20.003 -5.295 1.177 1
-19.902 -5.11 1.14 18
-20.724 -5.188 1.008 14
0.0 -0.0 3.0 0
0.0 -0.0 3.0 0
0.0 -0.0 3.0 0
0.0 -0.0 3.0 0
0.0 -0.0 3.0 0
-38.573 -8.981 -1.576 255
-50.703 -11.845 -3.298 16
-46.701 -10.982 -3.088 5
-42.203 -10.032 -2.792 9
-39.521 -9.519 -2.72 16
-37.308 -9.134 -2.708 11
-35.033 -8.733 -2.671 5
-32.914 -8.373 -2.647 4
-28.071 -7.292 -2.106 8
-28.473 -7.563 -2.495 24
-27.433 -7.451 -2.615 13
-26.062 -7.245 -2.661 13
-24.682 -7.022 -2.687 14
-23.46 -6.827 -2.728 13
-22.349 -6.652 -2.783 12
-35.634 -13.169 0.678 41
-36.784 -13.048 0.464 8
-17.218 -5.864 1.754 22
-17.372 -5.68 1.689 21
-18.541 -5.824 1.548 16
-19.601 -5.918 1.414 22
-17.67 -5.135 1.528 19
-19.742 -5.531 1.309 24
-19.915 -5.385 1.25 21
-20.979 -5.492 1.109 14
-19.868 -5.042 1.165 28
0.0 -0.0 3.0 0
0.0 -0.0 3.0 0
0.0 -0.0 3.0 0
0.0 -0.0 3.0 0
-71.387 -16.516 -4.701 4
-63.114 -14.516 -4.08 3
-38.6 -8.873 -1.521 211
-51.108 -11.791 -3.27 11
-47.052 -10.931 -3.059 19
-42.527 -9.991 -2.768 9
-39.819 -9.485 -2.699 12
-37.485 -9.081 -2.674 19
-35.234 -8.695 -2.647 5
-31.096 -7.835 -2.285 5
-28.032 -7.217 -2.053 22
-28.636 -7.543 -2.48 17
-27.58 -7.433 -2.601 14
-26.211 -7.233 -2.651 13
-24.807 -7.009 -2.676 14
-23.573 -6.815 -2.719 14
-22.46 -6.645 -2.776 12
-35.666 -13.096 0.691 45
-39.799 -14.02 0.275 29
-17.213 -5.819 1.763 3
-17.409 -5.647 1.696 24
-18.574 -5.786 1.557 14
-19.49 -5.831 1.438 23
-17.696 -5.094 1.539 16
-19.601 -5.435 1.338 25
-19.904 -5.324 1.27 18
-20.969 -5.427 1.131 3
-19.915 -4.994 1.182 23
-114.969 -28.087 -7.782 14
0.0 -0.0 3.0 0
-101.707 -23.808 -7.106 28
0.0 -0.0 3.0 0
0.0 -0.0 3.0 0
-63.835 -14.491 -4.068 4
-38.654 -8.771 -1.469 3
-51.656 -11.769 -3.257 4
-47.43 -10.885 -3.034 24
-42.866 -9.954 -2.747 12
-40.052 -9.433 -2.668 12
-37.699 -9.035 -2.646 10
-35.466 -8.664 -2.627 5
-31.006 -7.738 -2.219 33
-28.223 -7.201 -2.042 22
-28.724 -7.502 -2.451 11
-27.72 -7.412 -2.585 14
-26.357 -7.22 -2.641 14
-24.936 -6.997 -2.666 14
-23.693 -6.806 -2.711 14
-22.582 -6.641 -2.773 12
-35.96 -13.119 0.687 32
-39.996 -13.992 0.28 30
-40.605 -13.627 0.104 25
-17.361 -5.587 1.71 24
-18.642 -5.758 1.564 20
-19.399 -5.753 1.459 25
-17.717 -5.051 1.552 14
-19.674 -5.401 1.349 26
-19.815 -5.244 1.296 2
-20.973 -5.367 1.152 8
-19.954 -4.945 1.2 25
0.0 -0.0 3.0 0
0.0 -0.0 3.0 0
-102.695 -23.726 -7.071 14
0.0 -0.0 3.0 0
0.0 -0.0 3.0 0
-64.596 -14.471 -4.058 3
-57.779 -12.941 -3.594 4
-52.096 -11.718 -3.231 7
-47.839 -10.844 -3.011 25
-43.228 -9.919 -2.727 13
-40.311 -9.387 -2.64 11
-37.995 -9.009 -2.629 7
-35.682 -8.629 -2.604 4
-30.896 -7.637 -2.151 30
-28.169 -7.122 -1.987 27
-28.853 -7.473 -2.43 12
-27.855 -7.39 -2.569 14
-26.484 -7.201 -2.626 14
-25.058 -6.983 -2.655 12
-23.82 -6.799 -2.705 15
-22.667 -6.626 -2.76 24
-36.149 -13.104 0.689 30
-40.196 -13.967 0.285 26
-40.822 -13.599 0.109 28
-17.432 -5.566 1.715 24
-18.638 -5.708 1.577 31
-19.295 -5.67 1.481 2
0.0 -0.0 3.0 0
-19.7 -5.352 1.364 23
-19.85 -5.197 1.312 2
-19.838 -5.018 1.272 0
-19.977 -4.892 1.22 17
0.0 -0.0 3.0 0
0.0 -0.0 3.0 0
-97.649 -22.264 -6.451 32
0.0 -0.0 3.0 0
0.0 -0.0 3.0 0
0.0 -0.0 3.0 0
-58.394 -12.906 -3.576 4
-52.622 -11.684 -3.213 9
-48.241 -10.8 -2.986 24
-43.633 -9.892 -2.711 10
-40.562 -9.339 -2.611 11
-38.26 -8.975 -2.608 7
-35.887 -8.59 -2.579 5
-30.797 -7.54 -2.086 31
-28.294 -7.09 -1.964 25
-27.755 -7.128 -2.179 4
-28.01 -7.373 -2.556 14
-26.622 -7.186 -2.614 13
-25.183 -6.969 -2.644 12
-23.944 -6.79 -2.698 13
-22.786 -6.62 -2.755 16
-36.131 -13.014 0.705 22
-18.132 -6.257 1.784 19
-40.894 -13.524 0.125 52
-17.438 -5.524 1.725 19
-18.675 -5.672 1.586 26
-20.47 -5.962 1.403 19
-18.463 -5.163 1.519 0
-19.773 -5.317 1.374 21
0.0 -0.0 3.0 0
0.0 -0.0 3.0 0
-19.965 -4.829 1.242 18
0.0 -0.0 3.0 0
-123.238 -28.28 -8.426 43
-102.492 -23.057 -6.787 12
0.0 -0.0 3.0 0
0.0 -0.0 3.0 0
0.0 -0.0 3.0 0
-59.045 -12.876 -3.561 4
-53.167 -11.652 -3.196 11
-48.65 -10.755 -2.962 27
-44.019 -9.861 -2.693 12
-40.841 -9.295 -2.585 12
-38.532 -8.94 -2.586 9
-36.061 -8.544 -2.548 12
-30.794 -7.466 -2.036 24
-28.526 -7.084 -1.96 24
-27.647 -7.04 -2.115 21
-28.157 -7.353 -2.541 16
-26.759 -7.17 -2.601 13
-25.327 -6.962 -2.637 12
-24.075 -6.784 -2.692 13
-22.878 -6.607 -2.744 12
-36.125 -12.928 0.72 23
-18.131 -6.214 1.792 24
-40.845 -13.408 0.15 47
-18.208 -5.723 1.679 13
-18.734 -5.641 1.593 31
-20.482 -5.91 1.416 20
-20.898 -5.787 1.341 19
-20.023 -5.329 1.371 23
0.0 -0.0 3.0 0
0.0 -0.0 3.0 0
-20.015 -4.783 1.259 10
-122.95 -28.563 -7.964 45
-123.404 -27.947 -8.291 26
-102.343 -22.714 -6.641 18
0.0 -0.0 3.0 0
0.0 -0.0 3.0 0
0.0 -0.0 3.0 0
-59.65 -12.834 -3.539 3
-53.681 -11.611 -3.174 11
-49.075 -10.712 -2.938 25
-44.328 -9.809 -2.663 15
-41.143 -9.256 -2.561 11
-38.808 -8.906 -2.565 21
-36.308 -8.514 -2.529 6
-34.141 -8.198 -2.53 3
-28.571 -7.03 -1.923 31
-27.794 -7.018 -2.099 15
-28.315 -7.336 -2.528 12
-26.897 -7.154 -2.589 14
-25.459 -6.95 -2.628 15
-24.183 -6.771 -2.681 15
-22.989 -6.6 -2.737 16
-36.294 -12.906 0.724 25
-18.137 -6.174 1.8 17
-38.447 -12.528 0.337 8
-18.18 -5.669 1.691 20
-18.771 -5.605 1.603 21
-20.497 -5.861 1.43 14
-18.506 -5.075 1.545 9
-20.1 -5.293 1.382 24
-122.39 -30.997 -7.072 12
0.0 -0.0 3.0 0
0.0 -0.0 3.0 0
-122.044 -27.989 -7.744 18
0.0 -0.0 3.0 0
-102.256 -22.385 -6.502 28
-93.586 -20.158 -5.975 10
0.0 -0.0 3.0 0
0.0 -0.0 3.0 0
-60.402 -12.819 -3.532 3
-54.218 -11.572 -3.153 11
-49.504 -10.667 -2.913 26
-44.71 -9.772 -2.642 11
-41.41 -9.207 -2.532 10
-39.166 -8.889 -2.554 9
-36.585 -8.49 -2.513 5
-34.343 -8.167 -2.509 3
-28.734 -7.007 -1.906 24
-27.803 -6.961 -2.057 35
-28.47 -7.318 -2.514 12
-27.046 -7.141 -2.579 13
-25.588 -6.937 -2.618 15
-24.311 -6.763 -2.675 12
-23.103 -6.593 -2.731 12
-36.486 -12.893 0.727 22
-18.21 -6.156 1.803 2
-38.638 -12.498 0.343 11
-18.166 -5.62 1.702 20
-18.881 -5.59 1.606 13
-19.978 -5.66 1.483 26
-18.504 -5.025 1.559 1
-20.083 -5.234 1.4 22
0.0 -0.0 3.0 0
0.0 -0.0 3.0 0
0.0 -0.0 3.0 0
0.0 -0.0 3.0 0
0.0 -0.0 3.0 0
-102.506 -22.131 -6.394 20
-95.217 -20.222 -6.003 9
0.0 -0.0 3.0 0
0.0 -0.0 3.0 0
0.0 -0.0 3.0 0
-54.904 -11.561 -3.147 8
-49.948 -10.623 -2.889 26
-45.092 -9.734 -2.62 12
-41.711 -9.165 -2.507 10
-39.512 -8.868 -2.542 10
-36.825 -8.456 -2.492 16
-34.584 -8.144 -2.493 5
-27.942 -6.752 -1.728 6
-27.827 -6.908 -2.019 29
-28.605 -7.294 -2.497 10
-27.195 -7.127 -2.569 14
-25.72 -6.925 -2.608 11
-24.453 -6.759 -2.671 13
-23.237 -6.592 -2.73 12
-36.663 -12.873 0.73 25
-37.654 -12.643 0.542 40
-17.307 -5.557 1.819 10
-18.141 -5.568 1.715 16
-18.86 -5.537 1.62 0
-20.016 -5.62 1.494 24
0.0 -0.0 3.0 0
-20.09 -5.181 1.416 16
0.0 -0.0 3.0 0
0.0 -0.0 3.0 0
0.0 -0.0 3.0 0
0.0 -0.0 3.0 0
0.0 -0.0 3.0 0
-103.196 -21.969 -6.325 14
0.0 -0.0 3.0 0
0.0 -0.0 3.0 0
0.0 -0.0 3.0 0
-61.847 -12.764 -3.504 3
-55.361 -11.499 -3.114 11
-50.385 -10.577 -2.863 23
-46.519 -9.917 -2.726 6
-42.001 -9.12 -2.48 10
-39.792 -8.832 -2.519 15
-37.025 -8.413 -2.464 23
-34.763 -8.106 -2.468 5
-27.901 -6.68 -1.678 4
-28.02 -6.897 -2.011 4
-28.725 -7.268 -2.477 9
-27.341 -7.113 -2.557 12
-25.86 -6.916 -2.6 11
-24.58 -6.751 -2.665 13
-23.347 -6.584 -2.723 12
-36.859 -12.86 0.732 19
-37.848 -12.621 0.547 38
-17.335 -5.525 1.826 5
-18.147 -5.526 1.724 19
-20.731 -6.034 1.496 23
-19.938 -5.546 1.514 18
0.0 -0.0 3.0 0
-20.058 -5.119 1.435 28
0.0 -0.0 3.0 0
0.0 -0.0 3.0 0
0.0 -0.0 3.0 0
0.0 -0.0 3.0 0
0.0 -0.0 3.0 0
0.0 -0.0 3.0 0
-99.208 -20.472 -6.115 13
0.0 -0.0 3.0 0
0.0 -0.0 3.0 0
-62.491 -12.715 -3.479 3
-56.055 -11.484 -3.106 4
-50.865 -10.537 -2.84 5
-46.871 -9.867 -2.697 6
-42.291 -9.073 -2.452 11
-40.045 -8.788 -2.491 18
-37.26 -8.378 -2.441 22
-29.443 -6.798 -1.585 14
-29.092 -6.902 -1.833 2
-28.109 -6.86 -1.984 2
-28.57 -7.172 -2.404 2
-27.478 -7.097 -2.544 13
-26.015 -6.91 -2.596 11
-24.699 -6.741 -2.656 14
-23.458 -6.577 -2.717 20
-37.047 -12.844 0.735 16
-38.041 -12.6 0.551 31
-18.336 -5.802 1.767 23
-18.14 -5.48 1.735 20
-20.78 -5.997 1.505 11
-19.902 -5.485 1.53 21
0.0 -0.0 3.0 0
-20.057 -5.064 1.452 21
0.0 -0.0 3.0 0
0.0 -0.0 3.0 0
0.0 -0.0 3.0 0
-123.555 -26.874 -7.316 23
-123.925 -26.209 -7.589 29
0.0 -0.0 3.0 0
0.0 -0.0 3.0 0
-71.35 -14.36 -3.696 27
0.0 -0.0 3.0 0
-63.183 -12.673 -3.457 4
-56.648 -11.445 -3.085 4
-51.286 -10.482 -2.81 11
-47.247 -9.82 -2.669 6
-42.616 -9.033 -2.428 10
-40.279 -8.74 -2.461 18
-37.472 -8.337 -2.414 16
-29.402 -6.722 -1.534 29
-29.29 -6.885 -1.821 30
0.0 -0.0 3.0 0
-28.781 -7.167 -2.401 7
-27.623 -7.081 -2.532 13
-26.188 -6.909 -2.595 11
-24.826 -6.733 -2.65 11
-23.572 -6.57 -2.711 13
-37.242 -12.832 0.737 18
-38.12 -12.541 0.562 17
-18.399 -5.779 1.772 11
-43.156 -12.935 0.014 24
-43.776 -12.526 -0.123 21
-19.95 -5.448 1.54 6
0.0 -0.0 3.0 0
-18.662 -4.661 1.575 15
0.0 -0.0 3.0 0
0.0 -0.0 3.0 0
0.0 -0.0 3.0 0
-123.644 -26.53 -7.184 28
0.0 -0.0 3.0 0
0.0 -0.0 3.0 0
-101.656 -20.367 -6.068 19
-71.251 -14.127 -3.587 9
0.0 -0.0 3.0 0
-63.937 -12.638 -3.44 3
-57.288 -11.412 -3.068 4
-51.801 -10.444 -2.789 17
-47.661 -9.778 -2.646 6
-42.968 -8.998 -2.407 10
-40.493 -8.686 -2.428 19
-37.75 -8.309 -2.396 7
-29.454 -6.667 -1.497 15
-29.41 -6.85 -1.796 28
0.0 -0.0 3.0 0
-28.805 -7.117 -2.363 19
-27.775 -7.069 -2.523 12
-26.347 -6.903 -2.59 16
-24.964 -6.728 -2.645 16
-23.686 -6.563 -2.705 12
-37.415 -12.811 0.741 19
-38.04 -12.43 0.584 22
-18.373 -5.729 1.782 16
-43.369 -12.897 0.023 21
-44.029 -12.49 -0.114 22
-44.742 -12.107 -0.244 27
0.0 -0.0 3.0 0
-18.74 -4.631 1.584 8
0.0 -0.0 3.0 0
0.0 -0.0 3.0 0
0.0 -0.0 3.0 0
0.0 -0.0 3.0 0
-116.804 -24.009 -6.7 12
0.0 -0.0 3.0 0
-101.741 -20.079 -5.94 15
0.0 -0.0 3.0 0
-70.221 -13.646 -3.656 14
0.0 -0.0 3.0 0
-57.952 -11.38 -3.051 3
-52.289 -10.399 -2.764 20
-48.056 -9.731 -2.618 6
-43.286 -8.953 -2.38 10
-40.722 -8.635 -2.396 16
-29.432 -6.409 -1.162 21
-35.61 -7.981 -2.384 21
-29.557 -6.821 -1.776 29
0.0 -0.0 3.0 0
-28.871 -7.077 -2.333 7
-27.924 -7.055 -2.512 13
-26.49 -6.894 -2.583 19
-25.094 -6.721 -2.639 16
-23.808 -6.559 -2.701 11
-37.614 -12.799 0.743 18
-38.228 -12.408 0.588 23
-18.404 -5.697 1.789 14
-40.542 -11.961 0.239 6
-44.262 -12.45 -0.104 22
-44.968 -12.056 -0.23 25
0.0 -0.0 3.0 0
0.0 -0.0 3.0 0
0.0 -0.0 3.0 0
0.0 -0.0 3.0 0
-118.162 -25.493 -6.279 13
0.0 -0.0 3.0 0
0.0 -0.0 3.0 0
0.0 -0.0 3.0 0
-101.848 -19.796 -5.814 12
0.0 -0.0 3.0 0
-70.222 -13.439 -3.555 30
0.0 -0.0 3.0 0
-58.534 -11.329 -3.024 4
-52.773 -10.351 -2.738 19
-48.451 -9.683 -2.591 5
-43.599 -8.907 -2.352 11
-40.99 -8.593 -2.369 11
-29.417 -6.338 -1.116 29
-35.792 -7.942 -2.357 15
-29.681 -6.787 -1.752 27
0.0 -0.0 3.0 0
-29.441 -7.16 -2.395 10
-28.069 -7.04 -2.5 12
-26.637 -6.886 -2.576 18
-25.217 -6.712 -2.632 14
-23.921 -6.552 -2.695 11
-37.809 -12.787 0.745 19
-38.425 -12.388 0.592 21
-39.477 -12.132 0.421 37
-40.707 -11.915 0.249 8
-44.514 -12.414 -0.095 24
-45.206 -12.008 -0.218 25
0.0 -0.0 3.0 0
0.0 -0.0 3.0 0
0.0 -0.0 3.0 0
0.0 -0.0 3.0 0
0.0 -0.0 3.0 0
0.0 -0.0 3.0 0
-116.569 -23.271 -6.402 17
0.0 -0.0 3.0 0
-102.119 -19.543 -5.701 13
-71.7 -13.576 -3.33 10
-70.335 -13.255 -3.465 14
0.0 -0.0 3.0 0
-59.171 -11.286 -3.001 3
-53.32 -10.313 -2.716 19
-48.873 -9.639 -2.565 6
-43.951 -8.868 -2.328 10
-41.259 -8.548 -2.341 9
-29.471 -6.28 -1.079 11
-36.025 -7.914 -2.338 6
-29.813 -6.754 -1.729 30
0.0 -0.0 3.0 0
-29.629 -7.149 -2.387 21
-28.228 -7.028 -2.491 12
-26.799 -6.882 -2.573 17
-25.355 -6.707 -2.628 16
-24.043 -6.547 -2.691 10
-38.015 -12.777 0.747 20
-38.624 -12.37 0.596 22
-39.682 -12.107 0.426 30
-40.998 -11.905 0.251 32
-44.743 -12.371 -0.084 24
-45.447 -11.961 -0.205 25
0.0 -0.0 3.0 0
0.0 -0.0 3.0 0
0.0 -0.0 3.0 0
0.0 -0.0 3.0 0
-118.188 -24.824 -6.035 19
-117.712 -23.883 -6.168 14
-116.746 -22.962 -6.277 11
-119.76 -22.987 -6.758 15
-102.425 -19.296 -5.591 19
0.0 -0.0 3.0 0
-70.416 -13.063 -3.371 19
0.0 -0.0 3.0 0
-59.816 -11.241 -2.977 2
-53.871 -10.272 -2.694 19
-49.303 -9.594 -2.539 7
-44.346 -8.835 -2.309 8
-29.426 -6.025 -0.765 24
-38.793 -8.177 -2.31 26
-36.277 -7.89 -2.322 4
-29.96 -6.724 -1.708 29
-28.793 -6.676 -1.85 0
-29.787 -7.131 -2.373 17
-28.369 -7.012 -2.479 12
-26.965 -6.878 -2.57 11
-25.497 -6.703 -2.624 13
-24.16 -6.542 -2.687 9
-38.198 -12.76 0.75 19
-38.832 -12.354 0.599 18
-39.868 -12.076 0.433 24
-44.284 -12.759 0.054 24
-44.972 -12.329 -0.074 23
-45.569 -11.881 -0.184 52
-46.328 -11.5 -0.298 4
0.0 -0.0 3.0 0
0.0 -0.0 3.0 0
0.0 -0.0 3.0 0
0.0 -0.0 3.0 0
0.0 -0.0 3.0 0
0.0 -0.0 3.0 0
0.0 -0.0 3.0 0
-102.631 -19.029 -5.472 19
0.0 -0.0 3.0 0
-70.712 -12.911 -3.297 16
-67.781 -12.42 -3.329 5
-60.446 -11.19 -2.95 3
-54.406 -10.226 -2.669 18
-49.744 -9.55 -2.513 6
-44.788 -8.811 -2.294 7
-29.422 -5.954 -0.72 28
-39.005 -8.133 -2.281 12
-36.548 -7.869 -2.307 6
-30.153 -6.705 -1.695 28
-29.731 -6.835 -1.966 28
-29.936 -7.11 -2.358 23
-28.533 -7.001 -2.47 12
-27.112 -6.869 -2.563 12
-25.63 -6.696 -2.619 13
-24.293 -6.54 -2.685 8
-38.389 -12.745 0.753 16
-39.039 -12.338 0.602 17
-40.092 -12.056 0.437 24
-41.541 -11.876 0.258 6
-45.208 -12.287 -0.064 22
-45.524 -11.759 -0.151 46
-46.663 -11.467 -0.288 21
0.0 -0.0 3.0 0
0.0 -0.0 3.0 0
0.0 -0.0 3.0 0
0.0 -0.0 3.0 0
0.0 -0.0 3.0 0
0.0 -0.0 3.0 0
-121.383 -22.578 -6.584 20
-103.081 -18.806 -5.373 22
-94.489 -17.049 -4.95 9
0.0 -0.0 3.0 0
0.0 -0.0 3.0 0
-61.162 -11.151 -2.929 5
-54.902 -10.172 -2.638 7
-50.178 -9.503 -2.486 6
-29.422 -5.715 -0.434 5
-29.487 -5.897 -0.685 7
-39.328 -8.111 -2.268 5
-36.788 -7.841 -2.289 17
-30.38 -6.693 -1.687 10
-29.761 -6.784 -1.929 31
-30.089 -7.091 -2.343 11
-28.719 -6.997 -2.466 12
-27.262 -6.862 -2.556 12
-25.76 -6.689 -2.613 13
-24.41 -6.535 -2.681 6
-38.602 -12.739 0.754 22
-39.268 -12.329 0.604 19
-40.144 -11.986 0.452 17
-44.735 -12.689 0.07 27
-45.451 -12.249 -0.054 23
-46.148 -11.81 -0.164 20
-46.906 -11.41 -0.272 25
0.0 -0.0 3.0 0
0.0 -0.0 3.0 0
0.0 -0.0 3.0 0
-116.924 -23.568 -5.578 12
-117.461 -22.815 -5.758 12
-117.606 -22.095 -5.927 9
-123.863 -22.673 -6.624 14
-103.804 -18.63 -5.294 17
-96.954 -17.208 -5.024 13
0.0 -0.0 3.0 0
0.0 -0.0 3.0 0
-61.643 -11.067 -2.884 5
-55.609 -10.152 -2.627 4
-50.624 -9.455 -2.459 5
-29.476 -5.651 -0.396 6
-42.342 -8.366 -2.228 14
-39.641 -8.086 -2.251 5
-37.005 -7.807 -2.266 20
-34.701 -7.574 -2.304 4
-29.888 -6.754 -1.907 19
-30.377 -7.103 -2.352 18
-28.893 -6.989 -2.46 12
-27.397 -6.85 -2.547 12
-25.905 -6.686 -2.61 13
-1.218 -0.324 2.718 0
-38.789 -12.724 0.756 18
-39.445 -12.304 0.608 20
-40.107 -11.889 0.473 21
-41.011 -11.542 0.335 19
-45.579 -12.179 -0.037 51
-46.42 -11.77 -0.154 23
-47.167 -11.356 -0.256 24
0.0 -0.0 3.0 0
0.0 -0.0 3.0 0
0.0 -0.0 3.0 0
0.0 -0.0 3.0 0
0.0 -0.0 3.0 0
-116.512 -21.55 -5.707 12
0.0 -0.0 3.0 0
-104.495 -18.444 -5.212 15
-98.655 -17.218 -5.029 23
0.0 -0.0 3.0 0
0.0 -0.0 3.0 0
-62.433 -11.035 -2.867 3
-56.192 -10.107 -2.603 3
-51.082 -9.408 -2.432 5
-29.466 -5.576 -0.351 1
-42.648 -8.327 -2.203 13
-39.914 -8.051 -2.229 5
-37.229 -7.775 -2.244 19
-34.939 -7.555 -2.29 8
-30.099 -6.744 -1.9 20
-30.691 -7.12 -2.366 12
-29.064 -6.98 -2.453 13
-27.551 -6.843 -2.541 12
-26.069 -6.687 -2.611 12
-1.212 -0.321 2.721 1
-38.998 -12.715 0.758 15
-39.651 -12.287 0.612 20
-40.322 -11.868 0.477 22
-41.409 -11.564 0.33 30
-45.537 -12.064 -0.008 39
-46.656 -11.719 -0.14 23
-47.416 -11.301 -0.241 25
0.0 -0.0 3.0 0
0.0 -0.0 3.0 0
0.0 -0.0 3.0 0
-116.639 -22.858 -5.32 13
0.0 -0.0 3.0 0
0.0 -0.0 3.0 0
0.0 -0.0 3.0 0
0.0 -0.0 3.0 0
0.0 -0.0 3.0 0
0.0 -0.0 3.0 0
0.0 -0.0 3.0 0
0.0 -0.0 3.0 0
-56.739 -10.053 -2.573 3
-51.574 -9.367 -2.408 12
-45.969 -8.587 -2.16 11
-29.323 -5.656 -0.534 2
-40.226 -8.025 -2.211 5
-37.438 -7.739 -2.22 9
-35.13 -7.526 -2.27 19
-30.113 -6.69 -1.861 10
-31.01 -7.138 -2.379 11
-29.235 -6.971 -2.446 12
-27.697 -6.835 -2.534 12
-26.244 -6.692 -2.615 11
-1.22 -0.321 2.721 2
-39.203 -12.707 0.759 12
-39.861 -12.273 0.614 23
-40.526 -11.844 0.482 23
-41.622 -11.534 0.337 31
-43.012 -11.298 0.183 7
-46.904 -11.672 -0.128 23
-47.666 -11.245 -0.224 22
0.0 -0.0 3.0 0
0.0 -0.0 3.0 0
0.0 -0.0 3.0 0
-116.237 -22.456 -5.173 15
0.0 -0.0 3.0 0
0.0 -0.0 3.0 0
-118.371 -20.62 -5.753 14
0.0 -0.0 3.0 0
0.0 -0.0 3.0 0
0.0 -0.0 3.0 0
0.0 -0.0 3.0 0
-63.886 -10.937 -2.816 3
-57.338 -10.006 -2.547 3
-29.473 -5.277 -0.047 7
-45.985 -8.477 -2.094 34
-29.372 -5.597 -0.497 255
-40.616 -8.012 -2.203 7
-37.732 -7.721 -2.208 5
-35.341 -7.501 -2.253 21
-33.215 -7.316 -2.315 23
-31.359 -7.162 -2.397 15
-29.409 -6.963 -2.44 12
-27.84 -6.825 -2.527 12
-26.442 -6.702 -2.624 12
-1.213 -0.318 2.724 3
0.0 -0.0 3.0 0
-40.075 -12.258 0.617 20
-40.756 -11.827 0.486 22
-41.846 -11.506 0.344 30
-43.26 -11.268 0.191 9
-47.16 -11.627 -0.115 22
-47.922 -11.191 -0.209 25
0.0 -0.0 3.0 0
0.0 -0.0 3.0 0
0.0 -0.0 3.0 0
-116.202 -22.128 -5.054 11
-117.034 -21.394 -5.212 13
0.0 -0.0 3.0 0
0.0 -0.0 3.0 0
-123.502 -20.702 -6.217 15
-104.26 -17.274 -5.055 10
0.0 -0.0 3.0 0
0.0 -0.0 3.0 0
0.0 -0.0 3.0 0
-57.924 -9.954 -2.518 4
-45.638 -8.054 -1.65 6
-47.569 -8.653 -2.199 7
-29.35 -5.525 -0.452 255
-41.044 -8.007 -2.2 10
-38.033 -7.703 -2.196 5
-35.548 -7.475 -2.234 21
-33.396 -7.293 -2.299 47
-31.562 -7.153 -2.39 8
-29.607 -6.96 -2.438 13
-27.993 -6.818 -2.521 12
-26.606 -6.704 -2.625 11
-1.21 -0.315 2.726 5
0.0 -0.0 3.0 0
-40.3 -12.249 0.619 17
-40.963 -11.804 0.491 15
-42.07 -11.478 0.35 29
-45.403 -11.726 0.076 39
-47.416 -11.581 -0.103 22
-48.187 -11.137 -0.193 24
0.0 -0.0 3.0 0
0.0 -0.0 3.0 0
0.0 -0.0 3.0 0
0.0 -0.0 3.0 0
-116.966 -21.05 -5.08 11
-116.509 -20.195 -5.159 12
0.0 -0.0 3.0 0
-123.706 -20.371 -6.07 17
0.0 -0.0 3.0 0
0.0 -0.0 3.0 0
0.0 -0.0 3.0 0
0.0 -0.0 3.0 0
0.0 -0.0 3.0 0
-45.75 -7.958 -1.595 28
-47.987 -8.613 -2.175 8
-29.347 -5.456 -0.41 255
-41.348 -7.976 -2.18 11
-38.277 -7.673 -2.176 18
-35.731 -7.443 -2.212 11
-33.597 -7.275 -2.286 46
-31.819 -7.156 -2.392 7
-29.789 -6.954 -2.433 12
-28.166 -6.816 -2.52 12
-26.731 -6.696 -2.618 5
-1.211 -0.314 2.727 5
0.0 -0.0 3.0 0
-40.499 -12.231 0.623 16
-41.182 -11.784 0.495 16
-42.297 -11.452 0.356 28
-43.835 -11.226 0.201 6
-47.667 -11.535 -0.091 22
-48.443 -11.082 -0.178 23
-62.102 -13.438 -1.108 12
0.0 -0.0 3.0 0
0.0 -0.0 3.0 0
-116.305 -21.508 -4.828 12
0.0 -0.0 3.0 0
-116.7 -19.891 -5.037 15
0.0 -0.0 3.0 0
-123.984 -20.052 -5.928 12
0.0 -0.0 3.0 0
-89.627 -14.276 -3.963 12
0.0 -0.0 3.0 0
0.0 -0.0 3.0 0
-29.467 -4.907 0.28 7
-45.839 -7.857 -1.536 31
-48.39 -8.569 -2.149 8
-29.309 -5.383 -0.363 30
-29.152 -5.56 -0.611 6
-38.512 -7.641 -2.154 22
-35.987 -7.427 -2.2 5
-33.806 -7.259 -2.274 31
-32.048 -7.152 -2.389 14
-29.963 -6.945 -2.426 11
-28.319 -6.81 -2.514 11
-4.873 -1.213 1.982 2
-1.211 -0.312 2.728 8
0.0 -0.0 3.0 0
-40.697 -12.213 0.626 20
-41.412 -11.768 0.499 19
-42.317 -11.369 0.375 14
-45.326 -11.509 0.13 47
-47.934 -11.491 -0.079 20
-48.703 -11.027 -0.162 23
-52.104 -11.147 -0.408 14
0.0 -0.0 3.0 0
0.0 -0.0 3.0 0
0.0 -0.0 3.0 0
0.0 -0.0 3.0 0
-116.52 -19.526 -4.889 13
-118.599 -19.269 -5.179 15
0.0 -0.0 3.0 0
-107.537 -16.87 -4.867 19
-91.493 -14.309 -3.979 7
0.0 -0.0 3.0 0
0.0 -0.0 3.0 0
0.0 -0.0 3.0 0
-53.975 -9.116 -2.263 5
-48.813 -8.526 -2.123 7
-29.282 -5.311 -0.318 14
-29.152 -5.497 -0.57 28
-38.759 -7.612 -2.134 20
-36.24 -7.41 -2.188 5
-33.994 -7.238 -2.259 11
-32.205 -7.131 -2.374 13
-30.148 -6.939 -2.421 13
-28.477 -6.804 -2.509 13
-4.887 -1.21 1.985 5
-1.208 -0.31 2.731 11
-40.71 -12.817 0.74 29
-40.91 -12.2 0.629 14
-41.63 -11.749 0.503 27
-42.324 -11.286 0.395 17
-43.379 -10.922 0.277 12
-48.181 -11.444 -0.066 22
-48.971 -10.974 -0.147 22
-49.73 -10.519 -0.216 2
0.0 -0.0 3.0 0
0.0 -0.0 3.0 0
0.0 -0.0 3.0 0
0.0 -0.0 3.0 0
0.0 -0.0 3.0 0
0.0 -0.0 3.0 0
0.0 -0.0 3.0 0
-107.169 -16.498 -4.693 255
0.0 -0.0 3.0 0
-66.465 -10.285 -2.241 32
0.0 -0.0 3.0 0
0.0 -0.0 3.0 0
-54.488 -9.066 -2.234 5
-49.294 -8.493 -2.103 8
-44.866 -8.036 -2.022 13
-29.18 -5.44 -0.533 255
-39.002 -7.582 -2.114 8
-36.524 -7.399 -2.181 10
-34.241 -7.229 -2.252 6
-32.384 -7.117 -2.363 11
-30.357 -6.939 -2.421 14
-28.584 -6.786 -2.496 10
-4.909 -1.208 1.986 5
-1.201 -0.307 2.734 13
-40.732 -12.751 0.752 28
-41.134 -12.191 0.63 13
-41.84 -11.727 0.507 18
-42.547 -11.259 0.401 22
-43.712 -10.914 0.279 26
-48.447 -11.4 -0.055 21
-49.242 -10.922 -0.132 25
-50.041 -10.465 -0.199 19
0.0 -0.0 3.0 0
0.0 -0.0 3.0 0
0.0 -0.0 3.0 0
0.0 -0.0 3.0 0
0.0 -0.0 3.0 0
0.0 -0.0 3.0 0
-125.423 -19.179 -5.539 21
-107.368 -16.214 -4.561 255
0.0 -0.0 3.0 0
-66.264 -10.068 -2.13 35
-29.475 -4.561 0.575 13
-61.0 -9.679 -2.365 3
-55.039 -9.02 -2.208 5
-49.732 -8.451 -2.078 11
-45.215 -7.997 -1.997 13
-29.16 -5.375 -0.491 255
-39.315 -7.564 -2.102 5
-36.722 -7.37 -2.16 20
-34.48 -7.219 -2.245 6
-32.56 -7.101 -2.351 13
-30.534 -6.931 -2.415 12
-28.729 -6.778 -2.488 1
-4.934 -1.208 1.987 6
-1.206 -0.306 2.734 14
0.0 -0.0 3.0 0
0.0 -0.0 3.0 0
-42.081 -11.714 0.51 25
-42.773 -11.234 0.407 15
-43.959 -10.886 0.286 27
-45.439 -10.594 0.161 4
-49.513 -10.87 -0.117 22
-50.243 -10.388 -0.176 43
0.0 -0.0 3.0 0
-124.422 -22.892 -4.882 14
-116.789 -20.331 -4.4 13
0.0 -0.0 3.0 0
-117.667 -18.707 -4.558 12
-118.992 -18.293 -4.765 11
-125.816 -18.869 -5.401 25
-107.487 -15.917 -4.422 249
-97.457 -14.396 -4.021 17
-66.041 -9.848 -2.018 36
0.0 -0.0 3.0 0
-29.211 -4.558 0.473 0
-55.603 -8.974 -2.181 5
-50.131 -8.4 -2.047 10
-45.607 -7.966 -1.978 13
-29.14 -5.31 -0.448 255
-39.577 -7.536 -2.083 19
-36.928 -7.343 -2.142 19
-34.738 -7.212 -2.24 15
-32.739 -7.086 -2.34 11
-30.731 -6.928 -2.413 12
-5.235 -1.228 2.006 3
-4.96 -1.207 1.987 6
-1.206 -0.305 2.735 15
0.0 -0.0 3.0 0
0.0 -0.0 3.0 0
-42.287 -11.692 0.515 16
-43.019 -11.215 0.411 16
-44.198 -10.854 0.294 26
-45.637 -10.542 0.175 9
-49.796 -10.819 -0.102 20
-50.425 -10.306 -0.151 18
0.0 -0.0 3.0 0
-124.108 -22.514 -4.752 14
0.0 -0.0 3.0 0
0.0 -0.0 3.0 0
0.0 -0.0 3.0 0
0.0 -0.0 3.0 0
0.0 -0.0 3.0 0
-113.229 -16.437 -4.665 64
-66.403 -9.618 -1.691 30
-65.89 -9.641 -1.912 10
-65.278 -9.745 -2.182 5
-29.159 -4.475 0.52 6
-56.197 -8.932 -2.157 6
-50.644 -8.368 -2.028 7
-46.01 -7.935 -1.958 12
-29.124 -5.247 -0.408 255
-39.824 -7.505 -2.062 7
-37.157 -7.32 -2.126 18
-34.931 -7.192 -2.225 46
-32.949 -7.078 -2.334 12
-30.943 -6.929 -2.413 13
-5.264 -1.227 2.006 4
-4.981 -1.205 1.989 7
-1.203 -0.302 2.737 16
0.0 -0.0 3.0 0
0.0 -0.0 3.0 0
-42.524 -11.679 0.518 17
-43.237 -11.187 0.417 20
-44.41 -10.816 0.303 21
-49.233 -11.268 -0.019 21
-50.051 -10.764 -0.086 19
-50.881 -10.282 -0.143 23
0.0 -0.0 3.0 0
-123.816 -22.146 -4.625 14
0.0 -0.0 3.0 0
0.0 -0.0 3.0 0
-118.03 -18.094 -4.31 13
-118.523 -17.533 -4.442 16
0.0 -0.0 3.0 0
-113.325 -16.12 -4.517 64
-66.385 -9.424 -1.596 5
-29.468 -4.229 0.845 24
-65.018 -9.53 -2.067 25
-29.075 -4.387 0.568 6
-56.706 -8.873 -2.123 6
-51.207 -8.343 -2.013 6
-46.386 -7.898 -1.935 11
-29.142 -5.191 -0.371 182
-40.172 -7.493 -2.054 6
-37.377 -7.296 -2.109 8
-35.123 -7.171 -2.21 34
-33.116 -7.061 -2.321 9
-31.132 -6.924 -2.41 9
-5.294 -1.226 2.008 5
-5.022 -1.208 1.986 8
-1.208 -0.302 2.738 20
0.0 -0.0 3.0 0
-42.594 -12.318 0.606 7
-42.733 -11.658 0.522 14
-43.494 -11.171 0.421 17
-44.657 -10.787 0.311 20
-49.51 -11.228 -0.008 22
-50.208 -10.687 -0.064 32
-51.164 -10.22 -0.124 24
0.0 -0.0 3.0 0
-123.912 -21.849 -4.523 16
0.0 -0.0 3.0 0
-118.344 -18.661 -4.163 10
-118.04 -17.761 -4.176 16
0.0 -0.0 3.0 0
-124.217 -17.54 -4.809 13
-113.439 -15.806 -4.37 59
0.0 -0.0 3.0 0
-65.386 -9.2 -1.688 31
-64.821 -9.326 -1.959 33
0.0 -0.0 3.0 0
-57.273 -8.822 -2.094 3
-51.732 -8.309 -1.993 8
-46.794 -7.866 -1.915 9
-29.164 -5.135 -0.334 7
-40.504 -7.478 -2.044 18
-37.664 -7.284 -2.101 4
-35.346 -7.158 -2.2 25
-33.272 -7.042 -2.306 8
-5.639 -1.246 2.027 0
-5.32 -1.224 2.009 5
-5.044 -1.207 1.987 7
-1.212 -0.301 2.738 23
0.0 -0.0 3.0 0
-42.606 -12.249 0.619 53
-42.969 -11.645 0.525 13
-43.716 -11.146 0.427 18
-44.601 -10.686 0.336 14
-49.767 -11.184 0.003 21
-50.177 -10.572 -0.031 35
-51.443 -10.158 -0.106 21
0.0 -0.0 3.0 0
-123.621 -21.486 -4.398 23
0.0 -0.0 3.0 0
0.0 -0.0 3.0 0
0.0 -0.0 3.0 0
0.0 -0.0 3.0 0
0.0 -0.0 3.0 0
-113.608 -15.499 -4.227 51
-29.479 -4.015 1.042 1
-65.184 -8.989 -1.58 34
-64.607 -9.122 -1.851 32
0.0 -0.0 3.0 0
-57.915 -8.781 -2.07 3
-52.146 -8.256 -1.961 25
-47.197 -7.833 -1.894 8
-43.771 -7.619 -1.948 9
-40.758 -7.448 -2.024 29
-37.92 -7.267 -2.089 4
-35.529 -7.136 -2.184 12
-33.45 -7.027 -2.295 7
-5.672 -1.245 2.027 5
-5.357 -1.226 2.007 5
-1.452 -0.345 2.71 0
-1.205 -0.298 2.741 25
0.0 -0.0 3.0 0
0.0 -0.0 3.0 0
-43.201 -11.632 0.527 15
-43.976 -11.131 0.43 19
-44.73 -10.629 0.35 14
-45.877 -10.215 0.263 6
-50.13 -10.453 0.003 32
-51.733 -10.098 -0.087 22
0.0 -0.0 3.0 0
-123.363 -21.134 -4.277 32
0.0 -0.0 3.0 0
0.0 -0.0 3.0 0
0.0 -0.0 3.0 0
-121.592 -16.935 -4.189 10
-124.057 -16.794 -4.477 19
-113.816 -15.195 -4.086 255
-29.493 -3.933 1.082 5
-64.973 -8.78 -1.473 34
-64.408 -8.922 -1.744 39
-63.98 -9.161 -2.078 3
-58.553 -8.736 -2.044 3
-50.994 -7.958 -1.782 7
-47.6 -7.798 -1.873 9
-44.125 -7.593 -1.931 9
-41.011 -7.418 -2.003 27
-38.183 -7.251 -2.077 5
-35.783 -7.129 -2.179 5
-33.64 -7.016 -2.287 7
-5.702 -1.243 2.029 5
-5.394 -1.227 2.006 8
-1.429 -0.338 2.716 0
-1.206 -0.297 2.742 26
-42.633 -12.846 0.735 2
0.0 -0.0 3.0 0
0.0 -0.0 3.0 0
-44.206 -11.109 0.435 16
-44.968 -10.6 0.357 15
-46.221 -10.199 0.267 28
-50.086 -10.339 0.035 33
-51.996 -10.034 -0.068 21
0.0 -0.0 3.0 0
-125.117 -21.125 -4.274 12
0.0 -0.0 3.0 0
-127.752 -19.103 -4.333 13
-120.297 -17.086 -3.903 12
0.0 -0.0 3.0 0
0.0 -0.0 3.0 0
0.0 -0.0 3.0 0
0.0 -0.0 3.0 0
-64.758 -8.57 -1.367 36
-64.469 -8.758 -1.657 33
-63.709 -8.96 -1.967 5
-59.188 -8.689 -2.017 3
-51.06 -7.854 -1.719 57
-48.015 -7.765 -1.852 3
-44.463 -7.563 -1.912 9
-41.273 -7.389 -1.984 9
-38.431 -7.231 -2.063 4
-36.029 -7.119 -2.172 4
-33.849 -7.008 -2.281 2
-5.731 -1.241 2.03 5
-5.431 -1.228 2.006 5
-1.315 -0.309 2.74 0
-1.206 -0.296 2.743 26
-42.641 -12.782 0.746 59
0.0 -0.0 3.0 0
0.0 -0.0 3.0 0
-44.458 -11.092 0.439 15
-45.21 -10.571 0.364 19
-46.48 -10.163 0.277 27
-50.066 -10.23 0.067 30
-52.333 -9.983 -0.052 21
0.0 -0.0 3.0 0
0.0 -0.0 3.0 0
0.0 -0.0 3.0 0
-128.164 -18.819 -4.224 15
0.0 -0.0 3.0 0
0.0 -0.0 3.0 0
0.0 -0.0 3.0 0
-29.477 -3.764 1.245 14
0.0 -0.0 3.0 0
-64.561 -8.365 -1.262 34
-64.083 -8.535 -1.538 26
-63.548 -8.777 -1.865 5
-52.148 -7.531 -1.348 30
-53.549 -8.117 -1.877 12
-47.753 -7.623 -1.763 25
-44.793 -7.532 -1.891 9
-41.635 -7.378 -1.977 5
-38.733 -7.223 -2.057 5
-36.275 -7.11 -2.166 7
-6.163 -1.267 2.045 1
-5.765 -1.24 2.031 5
-1.829 -0.411 2.667 0
-1.297 -0.304 2.745 0
-1.203 -0.293 2.746 26
-42.67 -12.725 0.756 7
0.0 -0.0 3.0 0
-44.514 -11.757 0.501 9
-44.694 -11.072 0.444 14
-45.474 -10.548 0.37 16
-46.73 -10.127 0.286 28
-48.283 -9.765 0.2 7
-52.599 -9.919 -0.032 22
-53.412 -9.384 -0.049 9
0.0 -0.0 3.0 0
0.0 -0.0 3.0 0
-128.592 -18.538 -4.116 17
0.0 -0.0 3.0 0
0.0 -0.0 3.0 0
0.0 -0.0 3.0 0
-29.494 -3.681 1.284 2
0.0 -0.0 3.0 0
-64.375 -8.163 -1.159 36
-64.036 -8.359 -1.444 15
-63.311 -8.586 -1.759 32
-50.951 -7.238 -1.179 11
-53.782 -8.033 -1.827 7
-47.975 -7.559 -1.724 26
-45.142 -7.504 -1.873 9
-41.979 -7.364 -1.967 6
-39.0 -7.207 -2.046 17
-36.477 -7.093 -2.153 19
-6.189 -1.263 2.048 5
-5.829 -1.247 2.026 9
-1.861 -0.416 2.663 0
0.0 -0.0 3.0 0
-1.203 -0.292 2.746 26
0.0 -0.0 3.0 0
0.0 -0.0 3.0 0
-44.509 -11.683 0.517 36
-44.95 -11.058 0.447 17
-45.72 -10.522 0.377 16
-46.988 -10.093 0.296 25
-48.644 -9.739 0.207 6
-52.908 -9.863 -0.016 21
-53.789 -9.327 -0.031 22
0.0 -0.0 3.0 0
0.0 -0.0 3.0 0
0.0 -0.0 3.0 0
0.0 -0.0 3.0 0
-131.185 -16.768 -4.118 21
0.0 -0.0 3.0 0
-130.818 -15.946 -4.436 17
0.0 -0.0 3.0 0
-64.486 -7.998 -1.075 35
0.0 -0.0 3.0 0
-63.129 -8.403 -1.658 37
-51.028 -7.129 -1.116 9
-47.71 -7.022 -1.219 20
-49.215 -7.654 -1.783 13
-45.507 -7.478 -1.857 8
-42.345 -7.353 -1.96 6
-39.231 -7.185 -2.031 19
-36.687 -7.077 -2.142 24
-6.227 -1.262 2.049 5
-5.855 -1.244 2.028 6
0.0 -0.0 3.0 0
-1.374 -0.319 2.732 1
-1.204 -0.29 2.748 26
0.0 -0.0 3.0 0
0.0 -0.0 3.0 0
0.0 -0.0 3.0 0
-45.174 -11.036 0.452 16
-45.995 -10.503 0.381 17
-47.262 -10.062 0.304 22
-49.918 -9.894 0.163 41
-53.205 -9.806 0.002 23
-54.095 -9.258 -0.008 22
0.0 -0.0 3.0 0
0.0 -0.0 3.0 0
0.0 -0.0 3.0 0
0.0 -0.0 3.0 0
0.0 -0.0 3.0 0
-29.483 -3.563 1.413 37
0.0 -0.0 3.0 0
0.0 -0.0 3.0 0
-64.703 -7.847 -0.998 16
-65.207 -8.168 -1.343 10
-63.12 -8.245 -1.571 36
-53.606 -7.365 -1.252 35
-47.754 -6.925 -1.161 37
-49.594 -7.613 -1.757 10
-45.848 -7.448 -1.837 8
-42.727 -7.345 -1.954 5
-39.494 -7.169 -2.02 17
0.0 -0.0 3.0 0
-6.264 -1.26 2.05 4
-1.943 -0.411 2.679 0
-2.158 -0.477 2.614 0
-1.302 -0.3 2.748 1
-1.201 -0.288 2.749 26
0.0 -0.0 3.0 0
-44.538 -12.304 0.608 4
0.0 -0.0 3.0 0
-45.444 -11.026 0.455 14
-46.232 -10.475 0.388 17
-47.121 -9.944 0.336 16
-49.871 -9.787 0.194 49
-53.505 -9.748 0.02 21
-54.393 -9.189 0.014 21
0.0 -0.0 3.0 0
0.0 -0.0 3.0 0
-129.877 -17.692 -3.791 16
0.0 -0.0 3.0 0
0.0 -0.0 3.0 0
-29.499 -3.48 1.451 0
0.0 -0.0 3.0 0
0.0 -0.0 3.0 0
-65.261 -7.735 -0.941 5
-63.665 -7.808 -1.151 14
-63.158 -8.094 -1.487 12
-53.79 -7.266 -1.195 4
-47.915 -6.846 -1.113 24
-50.048 -7.583 -1.738 7
-46.181 -7.417 -1.817 8
-43.136 -7.341 -1.952 11
-39.725 -7.148 -2.005 7
-6.76 -1.284 2.067 3
-6.317 -1.263 2.049 7
-1.994 -0.418 2.673 0
-1.828 -0.402 2.674 0
-1.349 -0.309 2.74 1
-1.201 -0.287 2.75 25
0.0 -0.0 3.0 0
-44.54 -12.239 0.621 69
0.0 -0.0 3.0 0
-45.715 -11.016 0.457 4
-46.515 -10.459 0.392 18
-47.323 -9.9 0.347 19
-48.633 -9.449 0.29 5
-53.79 -9.69 0.038 22
-31.523 -5.256 1.292 10
0.0 -0.0 3.0 0
0.0 -0.0 3.0 0
-130.15 -17.388 -3.675 21
0.0 -0.0 3.0 0
0.0 -0.0 3.0 0
-119.619 -13.765 -3.129 15
-55.659 -6.301 0.062 9
0.0 -0.0 3.0 0
-100.622 -11.65 -2.936 11
-63.821 -7.661 -1.073 27
-53.661 -6.746 -0.739 3
-53.918 -7.16 -1.134 5
-54.826 -7.716 -1.636 7
-50.544 -7.558 -1.723 6
-46.541 -7.39 -1.799 8
-43.365 -7.307 -1.929 16
-40.042 -7.142 -2.001 4
-6.798 -1.281 2.069 4
-6.378 -1.265 2.046 9
0.0 -0.0 3.0 0
-1.879 -0.41 2.668 0
-1.269 -0.29 2.757 1
-1.198 -0.285 2.752 25
0.0 -0.0 3.0 0
0.0 -0.0 3.0 0
0.0 -0.0 3.0 0
-46.466 -11.122 0.432 25
-46.763 -10.435 0.398 14
-47.599 -9.872 0.355 20
-48.949 -9.417 0.3 25
-54.098 -9.635 0.054 21
-31.484 -5.181 1.317 15
-70.304 -10.697 -0.683 6
0.0 -0.0 3.0 0
0.0 -0.0 3.0 0
0.0 -0.0 3.0 0
-29.477 -3.434 1.543 181
0.0 -0.0 3.0 0
-55.689 -6.144 0.135 226
0.0 -0.0 3.0 0
0.0 -0.0 3.0 0
-64.012 -7.517 -0.997 26
-53.618 -6.609 -0.664 21
-52.792 -6.89 -0.978 27
-57.189 -7.929 -1.764 2
-50.986 -7.525 -1.702 7
-46.882 -7.36 -1.78 9
-43.645 -7.281 -1.911 15
-40.413 -7.145 -2.003 7
-6.836 -1.278 2.071 4
-2.132 -0.421 2.683 0
-3.087 -0.64 2.5 0
-2.165 -0.471 2.619 0
-1.258 -0.286 2.76 0
-1.202 -0.285 2.753 25
0.0 -0.0 3.0 0
0.0 -0.0 3.0 0
0.0 -0.0 3.0 0
-46.492 -11.055 0.448 11
-47.022 -10.415 0.403 16
-47.887 -9.847 0.362 15
-49.187 -9.37 0.313 25
-54.413 -9.582 0.071 21
-31.531 -5.121 1.336 9
0.0 -0.0 3.0 0
0.0 -0.0 3.0 0
0.0 -0.0 3.0 0
0.0 -0.0 3.0 0
0.0 -0.0 3.0 0
-120.159 -13.135 -2.848 16
-55.682 -5.982 0.211 255
-120.089 -12.934 -3.308 18
-104.403 -11.517 -2.868 19
-64.271 -7.381 -0.925 22
-53.682 -6.487 -0.596 2
-52.8 -6.773 -0.91 39
-57.724 -7.883 -1.736 4
-51.592 -7.516 -1.697 6
-47.226 -7.33 -1.76 9
-43.944 -7.26 -1.897 16
-7.432 -1.303 2.088 0
-6.885 -1.278 2.072 4
-2.168 -0.424 2.68 0
-1.966 -0.405 2.684 0
-3.129 -0.677 2.452 0
-1.247 -0.282 2.763 0
-1.203 -0.284 2.754 26
-44.562 -12.847 0.735 47
0.0 -0.0 3.0 0
0.0 -0.0 3.0 0
0.0 -0.0 3.0 0
-47.309 -10.401 0.407 14
-48.151 -9.818 0.369 17
-49.515 -9.342 0.321 23
-51.147 -8.906 0.277 6
-55.671 -8.925 0.1 21
-60.475 -8.928 -0.074 12
0.0 -0.0 3.0 0
-131.439 -16.545 -3.351 18
-29.477 -3.458 1.603 9
0.0 -0.0 3.0 0
0.0 -0.0 3.0 0
-55.623 -5.815 0.288 255
0.0 -0.0 3.0 0
-107.217 -11.536 -2.878 16
-53.688 -6.028 -0.205 2
-52.846 -6.259 -0.47 5
-52.907 -6.669 -0.85 25
-58.283 -7.84 -1.711 4
-52.171 -7.502 -1.688 5
-47.586 -7.304 -1.743 8
-44.239 -7.237 -1.881 13
-7.47 -1.298 2.091 4
-6.97 -1.284 2.067 9
0.0 -0.0 3.0 0
-2.025 -0.415 2.676 0
-3.123 -0.672 2.456 0
-1.243 -0.28 2.765 0
-1.199 -0.282 2.755 26
-44.585 -12.797 0.743 4
0.0 -0.0 3.0 0
-46.446 -11.695 0.514 15
0.0 -0.0 3.0 0
-47.556 -10.379 0.412 15
-48.442 -9.795 0.376 18
-49.635 -9.274 0.341 49
-51.457 -8.86 0.291 7
-55.978 -8.858 0.122 21
0.0 -0.0 3.0 0
0.0 -0.0 3.0 0
0.0 -0.0 3.0 0
-29.484 -3.38 1.634 255
0.0 -0.0 3.0 0
0.0 -0.0 3.0 0
-55.568 -5.649 0.366 255
0.0 -0.0 3.0 0
0.0 -0.0 3.0 0
-53.628 -5.884 -0.128 24
-52.781 -6.126 -0.396 39
0.0 -0.0 3.0 0
-58.865 -7.798 -1.686 3
-51.228 -7.271 -1.543 4
-47.977 -7.281 -1.728 8
-44.604 -7.227 -1.874 9
-7.515 -1.296 2.093 4
-2.341 -0.428 2.689 0
0.0 -0.0 3.0 0
-2.165 -0.441 2.655 1
-2.179 -0.466 2.622 1
-2.2 -0.493 2.586 2
-1.2 -0.281 2.756 27
0.0 -0.0 3.0 0
0.0 -0.0 3.0 0
-46.485 -11.64 0.526 21
0.0 -0.0 3.0 0
-47.838 -10.366 0.415 13
-48.721 -9.77 0.382 19
-50.017 -9.256 0.346 19
-54.822 -9.336 0.146 40
-56.29 -8.793 0.143 20
-57.188 -8.189 0.18 7
0.0 -0.0 3.0 0
0.0 -0.0 3.0 0
0.0 -0.0 3.0 0
0.0 -0.0 3.0 0
-119.29 -12.011 -2.348 15
-55.511 -5.483 0.443 255
0.0 -0.0 3.0 0
0.0 -0.0 3.0 0
-53.722 -5.758 -0.061 3
-52.796 -6.004 -0.328 37
0.0 -0.0 3.0 0
-51.127 -6.671 -1.008 6
-51.305 -7.188 -1.491 3
-48.348 -7.256 -1.712 8
-44.942 -7.211 -1.864 3
-7.573 -1.294 2.094 4
-2.603 -0.472 2.657 1
-3.107 -0.597 2.551 0
-2.162 -0.438 2.658 2
-2.18 -0.465 2.624 1
-2.197 -0.49 2.589 2
-1.2 -0.28 2.757 27
0.0 -0.0 3.0 0
0.0 -0.0 3.0 0
0.0 -0.0 3.0 0
0.0 -0.0 3.0 0
-48.131 -10.356 0.418 11
-49.019 -9.751 0.387 19
-49.916 -9.151 0.376 15
-54.761 -9.223 0.18 37
-56.628 -8.732 0.163 19
-57.611 -8.126 0.202 17
0.0 -0.0 3.0 0
-29.484 -3.489 1.661 9
0.0 -0.0 3.0 0
0.0 -0.0 3.0 0
0.0 -0.0 3.0 0
-55.478 -5.32 0.519 255
0.0 -0.0 3.0 0
-53.69 -5.341 0.279 2
-83.412 -8.729 -1.641 27
-52.948 -5.897 -0.269 14
0.0 -0.0 3.0 0
-51.073 -6.564 -0.944 12
-54.168 -7.491 -1.681 9
-48.762 -7.238 -1.7 8
-8.317 -1.322 2.108 2
-7.673 -1.301 2.089 7
-3.006 -0.542 2.606 9
-2.171 -0.414 2.688 0
-2.17 -0.437 2.658 1
-2.177 -0.461 2.626 1
-2.186 -0.486 2.593 2
-1.197 -0.278 2.758 25
0.0 -0.0 3.0 0
-46.465 -12.327 0.604 10
0.0 -0.0 3.0 0
0.0 -0.0 3.0 0
0.0 -0.0 3.0 0
-49.282 -9.725 0.394 15
-50.188 -9.115 0.386 19
-51.658 -8.606 0.369 2
-56.951 -8.67 0.183 20
-57.938 -8.049 0.229 20
0.0 -0.0 3.0 0
-29.494 -3.417 1.688 20
0.0 -0.0 3.0 0
0.0 -0.0 3.0 0
0.0 -0.0 3.0 0
-55.453 -5.158 0.595 70
0.0 -0.0 3.0 0
-53.632 -5.192 0.355 31
-54.759 -5.593 0.026 6
0.0 -0.0 3.0 0
0.0 -0.0 3.0 0
-51.181 -6.479 -0.893 41
-54.664 -7.463 -1.663 7
-49.145 -7.215 -1.686 7
-8.366 -1.317 2.112 4
-2.57 -0.432 2.697 1
-3.035 -0.543 2.605 5
-2.179 -0.414 2.688 1
-2.175 -0.436 2.659 1
-2.185 -0.461 2.627 1
-2.187 -0.484 2.594 1
-1.197 -0.277 2.759 20
0.0 -0.0 3.0 0
-46.46 -12.269 0.615 25
0.0 -0.0 3.0 0
-48.338 -11.072 0.444 16
0.0 -0.0 3.0 0
-49.588 -9.708 0.399 17
-50.475 -9.083 0.395 19
-51.879 -8.55 0.386 26
-57.277 -8.609 0.203 20
-58.265 -7.972 0.255 21
-80.773 -10.036 -0.653 6
0.0 -0.0 3.0 0
-120.885 -12.579 -2.082 10
0.0 -0.0 3.0 0
0.0 -0.0 3.0 0
-55.391 -4.993 0.672 8
0.0 -0.0 3.0 0
-53.721 -5.057 0.424 4
-54.836 -5.464 0.095 4
0.0 -0.0 3.0 0
-68.963 -7.953 -1.591 6
-51.34 -6.4 -0.846 19
-55.333 -7.458 -1.66 6
-49.641 -7.209 -1.682 8
-8.432 -1.315 2.113 4
-2.603 -0.434 2.696 0
-3.024 -0.538 2.609 5
-2.188 -0.412 2.689 2
-2.164 -0.431 2.663 2
-2.182 -0.458 2.629 1
-2.187 -0.482 2.596 0
-1.194 -0.275 2.761 18
0.0 -0.0 3.0 0
0.0 -0.0 3.0 0
0.0 -0.0 3.0 0
-48.396 -11.021 0.456 19
0.0 -0.0 3.0 0
-49.838 -9.681 0.406 16
-50.77 -9.054 0.404 16
-52.187 -8.509 0.399 30
-57.619 -8.551 0.222 19
0.0 -0.0 3.0 0
-29.481 -3.597 1.691 21
0.0 -0.0 3.0 0
0.0 -0.0 3.0 0
0.0 -0.0 3.0 0
0.0 -0.0 3.0 0
