# .PCD v0.7 - Point Cloud Data file format
VERSION 0.7
FIELDS x y z intensity
SIZE 4 4 4 4
TYPE F F F F
COUNT 1 1 1 1
WIDTH 2199
HEIGHT 1
VIEWPOINT 0 0 0 1 0 0 0
POINTS 2199
DATA ascii
-2.688 -0.93 2.526 0
-2.325 -0.801 2.574 0
-2.088 -0.719 2.601 3
-2.067 -0.711 2.589 6
-2.049 -0.706 2.576 10
-2.037 -0.704 2.56 11
-2.033 -0.706 2.542 10
-2.024 -0.707 2.523 8
-2.051 -0.722 2.495 7
-2.052 -0.727 2.472 9
-2.03 -0.725 2.453 9
-1.982 -0.715 2.441 8
-1.959 -0.714 2.422 8
-1.915 -0.704 2.409 10
-1.898 -0.706 2.387 13
-2.191 -1.049 2.815 13
-2.248 -1.047 2.796 14
-2.243 -1.017 2.784 11
-2.277 -1.006 2.768 8
-4.472 -1.925 2.52 2
-4.688 -1.968 2.473 0
-4.919 -2.018 2.421 0
-5.15 -2.064 2.369 0
-3.287 -1.291 2.581 1
-3.264 -1.256 2.568 1
-3.077 -1.163 2.577 6
-3.07 -1.14 2.562 11
-3.062 -1.12 2.547 1
-3.106 -1.122 2.524 0
-2.951 -1.054 2.531 0
-3.07 -1.086 2.494 1
-4.858 -1.706 2.168 2
-2.726 -0.951 2.515 0
-2.118 -0.737 2.608 1
-2.067 -0.718 2.602 4
-2.064 -0.716 2.586 8
-2.042 -0.71 2.573 10
-2.031 -0.708 2.557 11
-2.03 -0.711 2.538 9
-2.029 -0.715 2.518 7
-2.048 -0.726 2.492 8
-2.049 -0.731 2.469 8
-2.02 -0.728 2.452 9
-1.972 -0.717 2.44 9
-1.939 -0.711 2.424 8
-1.909 -0.707 2.407 10
-1.896 -0.709 2.383 19
-2.21 -1.065 2.812 10
-2.209 -1.036 2.799 13
-2.244 -1.024 2.782 12
-2.278 -1.013 2.766 10
-4.422 -1.918 2.522 0
-4.653 -1.969 2.472 0
-4.876 -2.016 2.422 0
-5.107 -2.064 2.369 0
-3.279 -1.298 2.578 2
-3.201 -1.242 2.572 1
-3.069 -1.17 2.574 13
-3.066 -1.149 2.559 8
-3.047 -1.126 2.545 0
-3.161 -1.152 2.511 1
-2.925 -1.055 2.53 0
-3.059 -1.092 2.491 1
-2.835 -1.005 2.51 0
-4.847 -1.708 2.13 3
-2.093 -0.734 2.61 2
-2.072 -0.726 2.598 5
-2.054 -0.719 2.585 9
-2.04 -0.715 2.57 11
-2.029 -0.713 2.554 11
-2.031 -0.717 2.534 8
-2.037 -0.723 2.512 6
-2.046 -0.731 2.488 8
-2.039 -0.734 2.467 9
-2.003 -0.727 2.452 9
-1.959 -0.717 2.44 9
-1.933 -0.713 2.422 9
-1.903 -0.709 2.405 11
-1.894 -0.713 2.38 36
-2.178 -1.056 2.814 16
-2.188 -1.033 2.799 14
-2.248 -1.034 2.78 12
-2.264 -1.014 2.766 5
-4.406 -1.925 2.52 0
-4.633 -1.975 2.471 0
-4.848 -2.02 2.421 1
-5.078 -2.069 2.367 0
-3.253 -1.299 2.578 3
-3.201 -1.252 2.569 1
-3.058 -1.176 2.572 23
-3.055 -1.155 2.556 3
-3.118 -1.162 2.53 0
-3.176 -1.168 2.504 1
-2.824 -1.027 2.543 0
-2.97 -1.07 2.501 0
-2.694 -0.964 2.53 0
-2.147 -0.763 2.611 0
-2.083 -0.737 2.608 3
-2.062 -0.729 2.596 8
-2.044 -0.723 2.583 10
-2.037 -0.721 2.567 11
-2.03 -0.72 2.55 10
-2.04 -0.726 2.529 7
-2.053 -0.735 2.505 7
-2.04 -0.735 2.486 8
-2.026 -0.735 2.466 9
-1.99 -0.727 2.452 9
-1.946 -0.717 2.44 8
-1.909 -0.71 2.425 9
-1.897 -0.712 2.403 12
-1.891 -0.716 2.378 18
-2.172 -1.06 2.813 18
-2.164 -1.029 2.8 13
-2.238 -1.036 2.78 11
-2.283 -1.03 2.762 8
-4.389 -1.932 2.518 0
-4.605 -1.979 2.47 1
-4.835 -2.03 2.418 1
-5.05 -2.075 2.366 1
-3.208 -1.292 2.58 1
-3.097 -1.222 2.579 1
-3.05 -1.183 2.569 26
-3.088 -1.178 2.548 1
-3.095 -1.164 2.53 0
-3.172 -1.177 2.5 2
-4.803 -1.763 2.215 0
-2.914 -1.059 2.506 0
-2.765 -0.998 2.513 0
-2.111 -0.758 2.614 2
-2.069 -0.739 2.607 4
-2.056 -0.733 2.594 9
-2.046 -0.729 2.579 10
-2.035 -0.726 2.564 11
-2.027 -0.725 2.547 10
-2.034 -0.73 2.526 6
-2.05 -0.74 2.501 8
-2.044 -0.742 2.481 8
-2.016 -0.736 2.465 9
-1.976 -0.727 2.452 9
-1.929 -0.716 2.441 8
-1.907 -0.713 2.422 9
-1.902 -0.718 2.397 20
-1.868 -0.712 2.381 17
-2.148 -1.055 2.814 22
-2.211 -1.058 2.794 15
-2.199 -1.025 2.782 10
-2.276 -1.035 2.761 6
-4.384 -1.944 2.515 1
-4.581 -1.983 2.469 0
-4.796 -2.03 2.418 0
-5.032 -2.084 2.363 0
-3.131 -1.271 2.587 0
-3.045 -1.212 2.583 1
-3.028 -1.185 2.569 10
-3.191 -1.228 2.529 1
-3.091 -1.173 2.526 0
-3.153 -1.181 2.499 1
-2.814 -1.043 2.536 0
-2.899 -1.064 2.504 0
-3.892 -1.418 2.308 0
-2.09 -0.757 2.614 2
-2.07 -0.746 2.603 5
-2.046 -0.736 2.592 10
-2.036 -0.732 2.577 10
-2.032 -0.731 2.561 11
-2.032 -0.733 2.542 9
-2.06 -0.745 2.516 6
-2.048 -0.744 2.498 9
-2.027 -0.741 2.481 8
-2.006 -0.739 2.463 9
-1.966 -0.729 2.45 9
-1.916 -0.716 2.441 9
-1.901 -0.716 2.421 9
-1.892 -0.719 2.397 35
-1.876 -0.719 2.375 10
-2.138 -1.057 2.814 25
-2.18 -1.05 2.796 14
-2.203 -1.034 2.78 10
-2.259 -1.034 2.761 8
-4.364 -1.95 2.514 1
-4.571 -1.994 2.466 0
-4.768 -2.034 2.417 0
-3.182 -1.328 2.594 1
-3.101 -1.269 2.588 0
-3.023 -1.214 2.582 1
-3.006 -1.186 2.568 6
-3.187 -1.237 2.525 1
-3.904 -1.495 2.396 2
-3.149 -1.19 2.495 1
-2.717 -1.016 2.548 0
-2.881 -1.067 2.503 0
-2.136 -0.785 2.617 1
-2.08 -0.76 2.613 3
-2.056 -0.748 2.602 7
-2.043 -0.742 2.589 11
-2.033 -0.737 2.575 11
-2.026 -0.735 2.558 10
-2.033 -0.739 2.538 8
-2.058 -0.751 2.512 7
-2.045 -0.749 2.495 8
-2.017 -0.743 2.48 8
-1.989 -0.737 2.465 9
-1.953 -0.729 2.451 9
-1.91 -0.718 2.439 9
-1.895 -0.718 2.418 13
-1.897 -0.726 2.391 16
-1.87 -0.721 2.373 18
-2.142 -1.066 2.812 21
-2.177 -1.056 2.795 14
-2.24 -1.059 2.775 11
-2.26 -1.042 2.759 3
-4.3 -1.935 2.517 0
-4.533 -1.993 2.466 0
-4.732 -2.035 2.417 0
-3.174 -1.336 2.592 1
-3.064 -1.264 2.589 1
-3.012 -1.219 2.58 1
-2.983 -1.188 2.568 5
-3.272 -1.281 2.508 1
-3.892 -1.503 2.393 2
-3.134 -1.194 2.493 1
-2.895 -1.092 2.514 0
-2.833 -1.059 2.506 0
-2.108 -0.782 2.619 2
-2.074 -0.764 2.611 4
-2.054 -0.754 2.599 8
-2.048 -0.75 2.584 11
-2.034 -0.744 2.571 10
-2.027 -0.742 2.554 10
-2.038 -0.747 2.533 7
-2.055 -0.755 2.509 8
-2.039 -0.753 2.492 9
-2.004 -0.744 2.479 8
-1.972 -0.736 2.465 9
-1.936 -0.728 2.451 9
-1.904 -0.721 2.437 10
-1.896 -0.723 2.414 21
-1.873 -0.721 2.395 13
-1.857 -0.721 2.373 26
-2.178 -1.091 2.808 22
-2.185 -1.066 2.793 15
-2.248 -1.07 2.773 9
-2.275 -1.056 2.756 2
-4.302 -1.95 2.514 0
-4.505 -1.996 2.465 1
-4.719 -2.045 2.414 1
-3.17 -1.345 2.589 1
-3.031 -1.261 2.59 1
-2.96 -1.209 2.584 1
-2.972 -1.193 2.566 3
-3.312 -1.309 2.498 1
-3.891 -1.516 2.388 2
-3.097 -1.19 2.495 1
-3.999 -1.522 2.322 0
0.0 -0.0 3.0 0
-2.105 -0.787 2.616 2
-2.06 -0.766 2.61 6
-2.044 -0.757 2.598 9
-2.034 -0.751 2.584 12
-2.031 -0.75 2.567 10
-2.032 -0.75 2.549 9
-2.057 -0.76 2.525 8
-2.052 -0.761 2.506 8
-2.025 -0.753 2.492 9
-1.99 -0.745 2.478 9
-1.962 -0.738 2.463 9
-1.926 -0.73 2.45 9
-1.894 -0.722 2.436 12
-1.89 -0.726 2.412 32
-1.878 -0.728 2.389 10
-1.854 -0.725 2.37 65
-2.133 -1.075 2.811 21
-2.189 -1.076 2.791 15
-2.202 -1.055 2.776 8
-2.261 -1.057 2.756 1
-4.285 -1.957 2.512 0
-4.495 -2.007 2.462 1
-3.208 -1.401 2.598 0
-3.159 -1.351 2.587 2
-3.001 -1.259 2.591 1
-2.927 -1.205 2.585 1
-2.972 -1.203 2.562 2
-3.3 -1.315 2.495 2
-3.871 -1.521 2.385 2
-3.126 -1.213 2.485 1
-2.729 -1.047 2.534 0
-2.106 -0.801 2.626 1
-2.08 -0.785 2.617 3
-2.061 -0.773 2.606 7
-2.041 -0.762 2.595 10
-2.031 -0.756 2.581 11
-2.036 -0.757 2.563 10
-2.04 -0.759 2.544 8
-2.058 -0.767 2.521 8
-2.046 -0.765 2.503 8
-2.012 -0.754 2.491 9
-1.973 -0.744 2.479 9
-1.945 -0.737 2.464 9
-1.917 -0.731 2.449 10
-1.891 -0.726 2.433 15
-1.891 -0.731 2.408 12
-1.875 -0.731 2.386 14
-1.852 -0.728 2.367 156
-2.134 -1.083 2.809 29
-2.218 -1.098 2.787 17
-2.224 -1.073 2.772 9
-2.265 -1.067 2.754 2
-4.269 -1.964 2.51 1
-4.457 -2.004 2.463 0
-3.186 -1.402 2.598 0
-3.158 -1.361 2.584 5
-2.975 -1.258 2.591 2
-2.89 -1.2 2.587 0
-3.034 -1.238 2.549 1
-3.314 -1.332 2.489 2
-2.942 -1.167 2.529 0
-3.004 -1.176 2.501 0
0.0 -0.0 3.0 0
-2.103 -0.807 2.624 2
-2.074 -0.79 2.615 4
-2.058 -0.779 2.603 9
-2.038 -0.768 2.592 11
-2.032 -0.763 2.577 11
-2.037 -0.764 2.559 9
-2.045 -0.767 2.539 7
-2.048 -0.769 2.519 9
-2.043 -0.77 2.5 8
-2.002 -0.756 2.49 9
-1.963 -0.746 2.478 9
-1.928 -0.736 2.465 9
-1.911 -0.734 2.447 10
-1.893 -0.731 2.429 25
-1.874 -0.73 2.409 11
-1.855 -0.728 2.39 26
-1.853 -0.733 2.363 100
-2.124 -1.084 2.809 37
-2.169 -1.08 2.79 20
-2.246 -1.091 2.768 11
-2.266 -1.075 2.752 1
-4.241 -1.965 2.51 0
-4.436 -2.01 2.461 0
-3.164 -1.403 2.598 1
-3.147 -1.367 2.582 3
-2.949 -1.257 2.591 2
-2.868 -1.2 2.587 0
-3.173 -1.306 2.525 1
-3.346 -1.356 2.48 2
-2.931 -1.172 2.526 0
-2.878 -1.137 2.518 0
-2.159 -0.843 2.625 0
-2.093 -0.81 2.622 2
-2.063 -0.793 2.613 6
-2.048 -0.782 2.602 10
-2.032 -0.772 2.589 11
-2.026 -0.768 2.575 11
-2.034 -0.769 2.556 8
-2.057 -0.778 2.532 8
-2.042 -0.773 2.517 9
-2.026 -0.769 2.501 8
-1.988 -0.757 2.489 9
-1.946 -0.745 2.479 9
-1.922 -0.739 2.463 10
-1.908 -0.738 2.444 12
-1.883 -0.733 2.428 30
-1.872 -0.733 2.406 9
-1.856 -0.732 2.385 106
-1.837 -0.731 2.365 27
-2.114 -1.086 2.809 34
-2.18 -1.093 2.788 26
-2.247 -1.099 2.766 11
-4.041 -1.93 2.554 1
-4.225 -1.972 2.508 0
-3.201 -1.461 2.608 0
-3.163 -1.413 2.595 1
-3.139 -1.374 2.58 6
-2.92 -1.254 2.592 2
-2.842 -1.199 2.587 0
-3.275 -1.359 2.505 1
-3.305 -1.351 2.481 2
-2.913 -1.175 2.525 0
-2.842 -1.131 2.52 0
-2.105 -0.829 2.631 1
-2.072 -0.808 2.623 3
-2.061 -0.798 2.611 8
-2.042 -0.786 2.599 10
-2.029 -0.778 2.587 11
-2.027 -0.774 2.571 10
-2.039 -0.778 2.551 7
-2.054 -0.783 2.529 9
-2.046 -0.781 2.512 9
-2.016 -0.772 2.499 9
-1.975 -0.757 2.489 9
-1.933 -0.745 2.479 9
-1.912 -0.741 2.462 10
-1.902 -0.741 2.442 15
-1.88 -0.737 2.424 15
-1.865 -0.736 2.404 16
-1.853 -0.736 2.382 244
-1.831 -0.733 2.363 16
-2.114 -1.093 2.807 28
-2.181 -1.1 2.786 16
-2.215 -1.09 2.768 9
-4.017 -1.932 2.554 1
-4.194 -1.971 2.508 0
-3.189 -1.467 2.607 0
-3.159 -1.422 2.592 4
-3.12 -1.377 2.579 4
-2.909 -1.26 2.591 2
-2.809 -1.195 2.589 0
-3.248 -1.359 2.505 1
-3.356 -1.383 2.469 2
-2.898 -1.178 2.524 0
-2.772 -1.113 2.527 0
-2.098 -0.834 2.629 2
-2.066 -0.813 2.621 5
-2.058 -0.804 2.608 9
-2.046 -0.794 2.595 10
-2.034 -0.786 2.582 11
-2.032 -0.783 2.566 10
-2.054 -0.79 2.544 8
-2.047 -0.787 2.527 9
-2.036 -0.784 2.51 9
-1.999 -0.771 2.499 9
-1.958 -0.757 2.49 9
-1.923 -0.747 2.477 9
-1.91 -0.745 2.459 10
-1.903 -0.746 2.438 27
-1.874 -0.739 2.423 15
-1.856 -0.737 2.403 48
-1.851 -0.74 2.379 127
-1.814 -0.731 2.365 18
-2.115 -1.1 2.806 28
-2.206 -1.12 2.782 16
-2.216 -1.098 2.767 8
-3.976 -1.926 2.555 0
-4.177 -1.978 2.507 0
-3.156 -1.462 2.608 1
-3.151 -1.43 2.59 3
-3.09 -1.375 2.58 4
-2.876 -1.255 2.592 2
-2.78 -1.192 2.589 1
-3.288 -1.388 2.495 1
-3.442 -1.431 2.451 3
-2.916 -1.196 2.517 0
-2.142 -0.868 2.632 1
-2.084 -0.836 2.628 3
-2.063 -0.819 2.618 6
-2.048 -0.807 2.606 10
-2.032 -0.796 2.594 11
-2.031 -0.792 2.579 10
-2.029 -0.788 2.563 9
-2.059 -0.799 2.539 9
-2.048 -0.794 2.523 9
-2.019 -0.783 2.511 9
-1.985 -0.772 2.499 9
-1.944 -0.758 2.489 9
-1.917 -0.75 2.475 9
-1.9 -0.746 2.458 14
-1.897 -0.75 2.435 25
-1.857 -0.738 2.424 38
-1.85 -0.739 2.402 255
-1.841 -0.741 2.378 28
-1.804 -0.731 2.364 13
-2.109 -1.104 2.805 31
-2.154 -1.1 2.786 19
-2.245 -1.12 2.762 9
-3.963 -1.933 2.554 0
-3.195 -1.524 2.62 0
-3.141 -1.466 2.607 1
-3.15 -1.44 2.587 7
-2.963 -1.328 2.594 1
-2.853 -1.255 2.592 2
-2.75 -1.189 2.591 0
-3.221 -1.37 2.501 1
-3.321 -1.392 2.466 2
-2.893 -1.197 2.516 1
-2.095 -0.856 2.637 2
-2.074 -0.839 2.627 4
-2.053 -0.822 2.617 8
-2.041 -0.811 2.604 10
-2.03 -0.801 2.592 11
-2.032 -0.799 2.575 9
-2.037 -0.798 2.558 8
-2.049 -0.801 2.537 9
-2.042 -0.798 2.52 10
-2.012 -0.787 2.508 9
-1.975 -0.773 2.498 9
-1.934 -0.76 2.488 9
-1.907 -0.752 2.474 9
-1.894 -0.749 2.456 18
-1.873 -0.745 2.439 20
-1.855 -0.742 2.42 43
-1.847 -0.743 2.398 255
-1.835 -0.743 2.376 18
-1.781 -0.726 2.369 20
-2.109 -1.111 2.804 35
-2.158 -1.11 2.784 32
-2.238 -1.125 2.761 8
-3.925 -1.928 2.555 0
-3.169 -1.522 2.621 0
-3.158 -1.485 2.602 3
-3.146 -1.449 2.585 2
-2.901 -1.31 2.6 1
-2.824 -1.253 2.593 1
-2.725 -1.187 2.591 0
-3.162 -1.356 2.506 1
-3.688 -1.558 2.402 3
-2.907 -1.212 2.51 0
-2.092 -0.862 2.634 2
-2.067 -0.843 2.625 5
-2.046 -0.827 2.615 9
-2.042 -0.819 2.601 11
-2.03 -0.808 2.588 10
-2.029 -0.804 2.573 8
-2.052 -0.811 2.55 9
-2.053 -0.81 2.533 9
-2.028 -0.799 2.52 9
-1.992 -0.785 2.509 9
-1.958 -0.773 2.498 9
-1.917 -0.758 2.489 10
-1.904 -0.756 2.471 12
-1.895 -0.755 2.451 31
-1.877 -0.752 2.433 11
-1.849 -0.744 2.418 255
-1.848 -0.749 2.394 255
-1.815 -0.74 2.379 18
-1.778 -0.729 2.366 20
-2.103 -1.114 2.803 36
-2.158 -1.118 2.783 34
-2.238 -1.132 2.759 7
-3.927 -1.943 2.551 0
-3.161 -1.53 2.619 1
-3.143 -1.489 2.601 3
-3.134 -1.455 2.583 2
-2.875 -1.309 2.6 1
-2.795 -1.249 2.594 1
-2.699 -1.186 2.592 1
-3.114 -1.346 2.51 1
-3.668 -1.563 2.4 2
-2.127 -0.894 2.639 1
-2.085 -0.867 2.632 3
-2.061 -0.848 2.623 7
-2.04 -0.831 2.612 10
-2.039 -0.824 2.598 11
-2.031 -0.816 2.584 10
-2.037 -0.814 2.567 8
-2.057 -0.819 2.546 9
-2.047 -0.814 2.53 9
-2.018 -0.802 2.518 10
-1.974 -0.785 2.51 9
-1.944 -0.773 2.498 9
-1.911 -0.762 2.486 10
-1.891 -0.756 2.47 14
-1.895 -0.761 2.447 19
-1.878 -0.758 2.429 14
-1.846 -0.748 2.415 255
-1.842 -0.751 2.392 38
-1.798 -0.737 2.381 12
-1.765 -0.729 2.367 17
-2.103 -1.122 2.802 50
-2.155 -1.123 2.782 38
-2.239 -1.14 2.758 9
-3.248 -1.618 2.627 0
-3.156 -1.537 2.617 1
-3.149 -1.502 2.598 7
-3.093 -1.446 2.585 0
-2.838 -1.302 2.602 1
-2.773 -1.249 2.594 1
-2.677 -1.185 2.592 1
-3.019 -1.316 2.521 1
-2.707 -1.163 2.554 0
-2.088 -0.885 2.642 2
-2.072 -0.867 2.632 4
-2.058 -0.853 2.62 8
-2.044 -0.839 2.609 10
-2.036 -0.83 2.595 10
-2.032 -0.823 2.581 9
-2.041 -0.822 2.563 7
-2.047 -0.822 2.544 10
-2.04 -0.817 2.528 9
-1.997 -0.8 2.52 10
-1.957 -0.783 2.511 10
-1.934 -0.775 2.497 9
-1.904 -0.765 2.484 10
-1.892 -0.762 2.467 22
-1.875 -0.758 2.449 14
-1.858 -0.755 2.431 31
-1.843 -0.753 2.412 255
-1.839 -0.755 2.389 31
-1.785 -0.737 2.382 20
-1.759 -0.73 2.365 27
-2.1 -1.127 2.801 91
-2.148 -1.127 2.781 40
-2.243 -1.15 2.756 8
-3.226 -1.618 2.627 0
-3.155 -1.548 2.614 3
-3.134 -1.505 2.597 2
0.0 -0.0 3.0 0
-2.809 -1.298 2.603 2
-2.725 -1.237 2.598 1
-2.659 -1.187 2.591 0
-2.993 -1.316 2.521 1
-3.661 -1.586 2.391 1
-2.085 -0.892 2.64 2
-2.058 -0.869 2.631 5
-2.055 -0.859 2.617 9
-2.037 -0.844 2.607 10
-2.033 -0.836 2.592 10
-2.029 -0.829 2.578 8
-2.057 -0.836 2.556 8
-2.047 -0.829 2.54 10
-2.03 -0.82 2.527 9
-1.987 -0.802 2.518 10
-1.943 -0.784 2.51 10
-1.921 -0.776 2.496 9
-1.902 -0.769 2.481 13
-1.889 -0.766 2.463 29
-1.876 -0.764 2.445 10
-1.858 -0.76 2.427 154
-1.844 -0.758 2.408 255
-1.823 -0.753 2.391 20
-1.776 -0.738 2.381 19
-1.757 -0.734 2.362 23
-2.104 -1.137 2.8 116
-2.149 -1.135 2.779 40
-2.239 -1.156 2.754 4
-3.168 -1.599 2.631 1
-3.147 -1.555 2.612 4
-3.129 -1.514 2.594 2
-4.412 -2.094 2.399 0
-2.784 -1.296 2.604 2
-2.7 -1.235 2.599 1
-2.622 -1.18 2.594 1
-2.978 -1.319 2.52 1
-2.12 -0.926 2.645 1
-2.078 -0.896 2.638 3
-2.058 -0.877 2.628 7
-2.041 -0.86 2.617 10
-2.031 -0.848 2.604 10
-2.038 -0.845 2.588 9
-2.037 -0.839 2.573 8
-2.054 -0.841 2.553 9
-2.044 -0.834 2.537 10
-2.016 -0.821 2.526 9
-1.977 -0.804 2.517 10
-1.933 -0.786 2.509 9
-1.918 -0.781 2.493 10
-1.895 -0.772 2.479 16
-1.879 -0.768 2.462 15
-1.87 -0.767 2.443 16
-1.856 -0.764 2.424 255
-1.842 -0.762 2.405 80
-1.795 -0.746 2.396 15
-1.77 -0.739 2.38 17
-1.751 -0.735 2.361 16
-2.101 -1.143 2.799 100
-2.149 -1.142 2.778 43
-2.233 -1.16 2.753 3
-3.163 -1.608 2.629 1
-3.15 -1.567 2.609 7
-3.089 -1.505 2.597 0
-4.384 -2.096 2.399 0
-2.754 -1.292 2.605 2
-2.667 -1.229 2.601 1
-2.619 -1.187 2.591 1
0.0 -0.0 3.0 0
-2.091 -0.921 2.647 2
-2.072 -0.9 2.636 5
-2.055 -0.882 2.626 8
-2.042 -0.868 2.614 10
-2.024 -0.852 2.603 10
-2.031 -0.849 2.586 9
-2.052 -0.852 2.566 9
-2.054 -0.849 2.549 9
-2.034 -0.837 2.536 10
-1.999 -0.82 2.527 10
-1.959 -0.803 2.517 10
-1.923 -0.788 2.508 10
-1.908 -0.783 2.492 11
-1.893 -0.777 2.476 27
-1.873 -0.771 2.46 10
-1.853 -0.765 2.444 31
-1.857 -0.77 2.42 255
-1.843 -0.767 2.401 207
-1.779 -0.744 2.398 18
-1.767 -0.743 2.376 25
-1.755 -0.742 2.355 11
-2.098 -1.148 2.798 71
-2.146 -1.148 2.777 43
-2.254 -1.179 2.749 2
-3.159 -1.617 2.627 3
-3.135 -1.57 2.608 1
-4.179 -2.052 2.45 0
-4.359 -2.1 2.398 0
-2.725 -1.288 2.606 2
-2.638 -1.226 2.602 1
-2.59 -1.184 2.592 1
-2.15 -0.968 2.648 1
-2.081 -0.923 2.646 3
-2.058 -0.902 2.636 7
-2.049 -0.887 2.624 8
-2.035 -0.872 2.612 10
-2.032 -0.863 2.598 10
-2.035 -0.857 2.582 8
-2.056 -0.861 2.561 9
-2.048 -0.852 2.547 9
-2.02 -0.838 2.536 10
-1.989 -0.822 2.525 9
-1.946 -0.804 2.517 10
-1.913 -0.79 2.506 10
-1.898 -0.784 2.491 12
-1.886 -0.781 2.473 20
-1.866 -0.774 2.458 10
-1.853 -0.771 2.44 106
-1.85 -0.772 2.418 77
-1.826 -0.766 2.402 41
-1.773 -0.746 2.396 19
-1.761 -0.746 2.374 21
-1.746 -0.742 2.355 6
-2.095 -1.153 2.797 74
-2.139 -1.152 2.776 25
-2.268 -1.194 2.746 2
-3.15 -1.624 2.625 4
-3.13 -1.579 2.606 1
-4.166 -2.06 2.448 1
-4.328 -2.1 2.398 0
-2.703 -1.287 2.606 2
-2.609 -1.221 2.603 1
-2.546 -1.172 2.596 3
-2.104 -0.954 2.653 2
-2.074 -0.928 2.644 4
-2.058 -0.909 2.633 7
-2.046 -0.893 2.621 9
-2.029 -0.876 2.61 10
-2.029 -0.868 2.595 9
-2.04 -0.866 2.578 6
-2.05 -0.865 2.559 10
-2.045 -0.858 2.544 9
-2.006 -0.839 2.535 10
-1.971 -0.822 2.525 10
-1.929 -0.803 2.517 10
-1.907 -0.793 2.504 10
-1.895 -0.789 2.487 19
-1.869 -0.779 2.475 13
-1.864 -0.778 2.455 21
-1.851 -0.775 2.437 241
-1.841 -0.774 2.417 23
-1.784 -0.753 2.412 29
-1.766 -0.749 2.394 17
-1.755 -0.748 2.373 15
-1.74 -0.744 2.353 4
-2.095 -1.161 2.795 96
-2.143 -1.161 2.774 15
-2.265 -1.2 2.745 0
-3.153 -1.636 2.622 7
0.0 -0.0 3.0 0
-4.145 -2.065 2.447 0
-4.318 -2.11 2.395 0
-2.674 -1.283 2.608 2
-2.602 -1.227 2.601 1
-2.535 -1.177 2.595 2
-2.09 -0.955 2.652 2
-2.064 -0.931 2.643 5
-2.052 -0.913 2.631 8
-2.039 -0.897 2.619 9
-2.033 -0.885 2.606 10
-2.03 -0.875 2.592 8
-2.062 -0.883 2.569 8
-2.043 -0.869 2.557 10
-2.027 -0.858 2.544 9
-1.996 -0.842 2.533 11
-1.961 -0.825 2.524 10
-1.926 -0.808 2.514 10
-1.904 -0.798 2.501 12
-1.896 -0.795 2.484 26
-1.873 -0.787 2.469 9
-1.85 -0.778 2.455 40
-1.848 -0.779 2.434 205
-1.827 -0.774 2.417 28
-1.782 -0.757 2.409 22
-1.764 -0.753 2.391 29
-1.756 -0.753 2.368 10
-1.737 -0.748 2.35 2
-2.096 -1.168 2.794 86
-2.147 -1.171 2.772 10
-3.171 -1.692 2.64 3
-3.159 -1.65 2.619 1
-3.959 -2.026 2.495 0
-4.104 -2.058 2.448 0
-4.287 -2.11 2.395 0
-2.66 -1.286 2.607 2
-2.569 -1.221 2.603 1
-2.302 -1.076 2.63 1
-2.076 -0.957 2.652 3
-2.057 -0.934 2.641 7
-2.042 -0.916 2.63 9
-2.036 -0.903 2.617 9
-2.03 -0.891 2.603 10
-2.027 -0.882 2.589 7
-2.059 -0.889 2.567 8
-2.047 -0.878 2.553 10
-2.013 -0.859 2.543 9
-1.975 -0.839 2.535 11
-1.944 -0.824 2.525 10
-1.908 -0.807 2.515 10
-1.898 -0.801 2.499 15
-1.897 -0.802 2.479 13
-1.867 -0.789 2.467 12
-1.851 -0.784 2.451 145
-1.842 -0.783 2.431 33
-1.81 -0.772 2.418 12
-1.768 -0.756 2.409 19
-1.761 -0.756 2.388 19
-1.753 -0.757 2.365 6
-1.728 -0.749 2.349 1
-2.096 -1.176 2.793 49
-2.151 -1.18 2.771 9
-3.156 -1.695 2.64 4
-3.154 -1.659 2.617 1
-3.96 -2.041 2.491 0
-4.094 -2.068 2.446 0
-4.276 -2.121 2.392 0
-2.631 -1.281 2.608 2
-2.554 -1.223 2.603 1
-2.28 -1.075 2.63 2
-2.073 -0.962 2.65 4
-2.058 -0.943 2.638 7
-2.035 -0.92 2.628 9
-2.037 -0.911 2.614 9
-2.037 -0.901 2.599 9
-2.042 -0.895 2.582 8
-2.052 -0.893 2.564 9
-2.041 -0.882 2.55 10
-1.996 -0.858 2.544 9
-1.965 -0.842 2.533 11
-1.93 -0.824 2.524 10
-1.909 -0.813 2.511 11
-1.895 -0.806 2.496 25
-1.88 -0.8 2.48 10
-1.857 -0.792 2.466 23
-1.845 -0.787 2.449 241
-1.832 -0.783 2.431 20
-1.783 -0.765 2.424 20
-1.766 -0.76 2.406 23
-1.755 -0.758 2.386 14
-1.74 -0.755 2.366 3
-1.711 -0.746 2.351 1
-2.093 -1.181 2.792 31
-2.165 -1.196 2.767 7
-3.168 -1.712 2.636 6
0.0 -0.0 3.0 0
-3.929 -2.039 2.492 0
-4.077 -2.074 2.444 0
-4.231 -2.113 2.394 0
-2.605 -1.278 2.609 2
-2.501 -1.207 2.608 1
-2.281 -1.083 2.627 3
-2.059 -0.963 2.65 5
-2.055 -0.948 2.636 8
-2.043 -0.931 2.624 9
-2.033 -0.916 2.611 9
-2.034 -0.908 2.596 8
-2.049 -0.905 2.578 8
-2.049 -0.899 2.562 9
-2.027 -0.883 2.55 10
-1.989 -0.862 2.542 10
-1.944 -0.839 2.535 11
-1.917 -0.825 2.524 10
-1.899 -0.815 2.51 12
-1.899 -0.815 2.491 25
-1.877 -0.805 2.477 9
-1.851 -0.794 2.464 64
-1.838 -0.79 2.447 118
-1.815 -0.782 2.432 20
-1.78 -0.769 2.421 19
-1.756 -0.761 2.405 30
-1.752 -0.762 2.383 8
-1.731 -0.756 2.366 2
-1.698 -0.745 2.353 1
-2.1 -1.193 2.79 21
-2.179 -1.211 2.765 10
-3.153 -1.716 2.635 1
-3.66 -1.951 2.55 0
-3.902 -2.039 2.492 0
-4.053 -2.077 2.443 0
-4.189 -2.108 2.396 0
-2.573 -1.271 2.611 3
-2.198 -1.068 2.653 1
-2.245 -1.074 2.63 4
-2.056 -0.969 2.647 7
-2.044 -0.951 2.635 9
-2.032 -0.934 2.623 10
-2.034 -0.923 2.608 9
-2.035 -0.915 2.593 6
-2.046 -0.912 2.575 9
-2.042 -0.903 2.56 9
-2.009 -0.882 2.551 9
-1.972 -0.862 2.542 9
-1.934 -0.841 2.534 11
-1.91 -0.828 2.522 10
-1.893 -0.819 2.508 19
-1.878 -0.812 2.493 12
-1.87 -0.808 2.475 17
-1.852 -0.8 2.46 165
-1.828 -0.791 2.446 22
-1.798 -0.78 2.433 12
-1.767 -0.768 2.421 17
-1.76 -0.768 2.4 18
-1.757 -0.769 2.377 6
-1.728 -0.759 2.363 1
-1.689 -0.745 2.352 1
-2.103 -1.202 2.788 14
-2.172 -1.215 2.764 4
-3.186 -1.746 2.629 1
-3.71 -1.991 2.54 1
-3.861 -2.031 2.494 0
-4.004 -2.067 2.446 0
-2.65 -1.343 2.615 0
-2.555 -1.272 2.611 3
-2.144 -1.05 2.659 2
-2.102 -1.013 2.651 4
-2.052 -0.975 2.645 8
-2.038 -0.955 2.633 9
-2.033 -0.941 2.62 10
-2.027 -0.928 2.606 8
-2.053 -0.931 2.586 8
-2.047 -0.919 2.571 9
-2.032 -0.906 2.558 10
-1.999 -0.885 2.549 10
-1.958 -0.862 2.542 10
-1.92 -0.842 2.533 11
-1.904 -0.832 2.52 12
-1.897 -0.827 2.503 28
-1.879 -0.817 2.489 10
-1.853 -0.807 2.476 29
-1.845 -0.803 2.458 213
-1.826 -0.796 2.443 21
-1.785 -0.779 2.434 20
-1.771 -0.775 2.416 17
-1.747 -0.767 2.401 13
-1.743 -0.768 2.378 3
-1.715 -0.758 2.364 1
-1.679 -0.745 2.352 0
-2.135 -1.228 2.783 18
-2.172 -1.223 2.762 2
0.0 -0.0 3.0 0
-3.705 -2.002 2.538 0
-3.851 -2.04 2.491 0
-3.995 -2.075 2.444 0
-2.597 -1.326 2.62 0
-2.515 -1.261 2.614 2
-2.13 -1.051 2.658 2
-2.064 -1.002 2.655 6
-2.046 -0.98 2.643 8
-2.034 -0.961 2.631 9
-2.037 -0.95 2.616 9
-2.035 -0.939 2.601 7
-2.05 -0.936 2.583 9
-2.04 -0.924 2.569 9
-2.022 -0.908 2.557 10
-1.981 -0.884 2.55 10
-1.941 -0.861 2.542 10
-1.914 -0.846 2.531 11
-1.897 -0.835 2.518 13
-1.887 -0.829 2.502 18
-1.872 -0.822 2.487 11
-1.858 -0.814 2.471 102
-1.839 -0.806 2.456 57
-1.809 -0.794 2.444 15
-1.775 -0.78 2.433 19
-1.769 -0.779 2.413 22
-1.748 -0.772 2.397 8
-1.73 -0.767 2.379 1
-1.702 -0.757 2.365 1
-1.663 -0.743 2.355 1
-2.107 -1.219 2.785 12
-2.186 -1.239 2.759 4
0.0 -0.0 3.0 0
-3.657 -1.989 2.541 0
-3.838 -2.047 2.49 0
-3.995 -2.091 2.44 0
-2.568 -1.32 2.622 0
-2.271 -1.147 2.649 2
-2.102 -1.045 2.66 3
-2.057 -1.007 2.653 7
-2.042 -0.985 2.641 9
-2.035 -0.968 2.628 9
-2.03 -0.955 2.614 8
-2.042 -0.949 2.597 7
-2.05 -0.944 2.58 9
-2.037 -0.929 2.567 9
-2.008 -0.909 2.556 10
-1.968 -0.885 2.549 10
-1.92 -0.859 2.543 10
-1.911 -0.851 2.528 12
-1.898 -0.842 2.514 22
-1.88 -0.832 2.5 13
-1.862 -0.823 2.486 23
-1.851 -0.817 2.469 190
-1.825 -0.806 2.456 18
-1.785 -0.789 2.448 16
-1.772 -0.785 2.43 17
-1.755 -0.778 2.413 17
-1.742 -0.775 2.395 4
-1.717 -0.766 2.38 1
-1.675 -0.75 2.371 1
-1.657 -0.744 2.353 1
-2.1 -1.223 2.784 3
-2.172 -1.239 2.759 5
0.0 -0.0 3.0 0
-3.665 -2.007 2.537 0
-3.822 -2.052 2.488 0
-3.957 -2.085 2.441 0
-2.546 -1.318 2.622 1
-2.218 -1.129 2.655 2
-2.071 -1.037 2.663 5
-2.046 -1.009 2.652 8
-2.036 -0.99 2.64 9
-2.032 -0.975 2.626 9
-2.034 -0.964 2.61 8
-2.05 -0.96 2.592 8
-2.051 -0.952 2.576 9
-2.019 -0.928 2.567 9
-1.99 -0.908 2.557 9
-1.957 -0.887 2.548 10
-1.92 -0.865 2.54 10
-1.901 -0.852 2.528 13
-1.891 -0.845 2.512 26
-1.874 -0.835 2.498 10
-1.856 -0.826 2.484 48
-1.848 -0.822 2.466 167
-1.812 -0.806 2.457 20
-1.775 -0.79 2.447 20
-1.769 -0.788 2.427 20
-1.756 -0.785 2.409 10
-1.732 -0.775 2.394 3
-1.694 -0.76 2.385 1
-1.665 -0.75 2.371 1
-1.64 -0.741 2.356 0
-2.135 -1.251 2.779 2
0.0 -0.0 3.0 0
-3.392 -1.906 2.595 0
-3.603 -1.986 2.541 0
-3.816 -2.063 2.486 0
-3.934 -2.087 2.441 0
-2.303 -1.201 2.656 0
-2.182 -1.119 2.658 3
-2.06 -1.039 2.662 8
-2.047 -1.017 2.65 9
-2.036 -0.997 2.637 9
-2.032 -0.982 2.623 9
-2.034 -0.972 2.607 7
-2.054 -0.969 2.589 8
-2.044 -0.955 2.575 10
-2.012 -0.933 2.565 10
-1.98 -0.91 2.556 10
-1.936 -0.885 2.549 10
-1.917 -0.87 2.537 11
-1.898 -0.857 2.525 18
-1.888 -0.85 2.509 13
-1.864 -0.838 2.497 14
-1.853 -0.831 2.481 139
-1.838 -0.823 2.465 29
-1.802 -0.807 2.456 11
-1.769 -0.793 2.445 20
-1.759 -0.789 2.426 20
-1.757 -0.79 2.405 6
-1.729 -0.779 2.392 1
-1.691 -0.764 2.381 1
-1.67 -0.757 2.365 1
-1.634 -0.743 2.354 0
-2.162 -1.275 2.775 5
0.0 -0.0 3.0 0
-3.414 -1.931 2.589 0
-3.632 -2.015 2.535 0
-3.761 -2.047 2.49 0
-3.899 -2.083 2.442 0
-2.198 -1.154 2.669 1
-2.105 -1.086 2.668 4
-2.05 -1.042 2.662 7
-2.043 -1.023 2.648 9
-2.036 -1.005 2.634 9
-2.036 -0.992 2.619 8
-2.052 -0.987 2.601 8
-2.05 -0.976 2.586 9
-2.03 -0.956 2.574 10
-1.995 -0.932 2.566 9
-1.966 -0.911 2.556 10
-1.926 -0.886 2.548 10
-1.904 -0.871 2.537 13
-1.894 -0.863 2.522 30
-1.899 -0.861 2.503 10
-1.861 -0.842 2.494 17
-1.85 -0.836 2.478 184
-1.828 -0.825 2.464 18
-1.778 -0.802 2.459 18
-1.766 -0.797 2.442 14
-1.757 -0.794 2.423 15
-1.747 -0.791 2.404 3
-1.702 -0.772 2.397 1
-1.675 -0.761 2.384 0
-1.66 -0.757 2.365 1
-1.632 -0.747 2.351 0
-3.152 -1.869 2.67 3
0.0 -0.0 3.0 0
0.0 -0.0 3.0 0
-3.609 -2.016 2.534 1
-3.755 -2.057 2.487 0
-3.872 -2.084 2.442 0
-2.145 -1.134 2.675 2
-2.073 -1.078 2.671 5
-2.05 -1.049 2.659 7
-2.04 -1.029 2.646 9
-2.029 -1.009 2.633 8
-2.032 -0.997 2.617 7
-2.052 -0.996 2.598 8
-2.05 -0.983 2.583 9
-2.016 -0.957 2.574 9
-1.981 -0.933 2.565 9
-1.952 -0.912 2.555 10
-1.92 -0.89 2.547 10
-1.897 -0.874 2.535 14
-1.895 -0.87 2.518 23
-1.917 -0.876 2.494 5
-1.847 -0.842 2.494 35
-1.847 -0.84 2.475 95
-1.825 -0.83 2.461 13
-1.771 -0.805 2.457 18
-1.756 -0.798 2.441 18
-1.75 -0.796 2.422 9
-1.744 -0.794 2.401 2
-1.696 -0.774 2.395 0
-1.665 -0.762 2.383 0
-1.647 -0.756 2.366 1
-1.615 -0.744 2.353 1
-3.151 -1.88 2.669 1
0.0 -0.0 3.0 0
0.0 -0.0 3.0 0
-3.6 -2.024 2.533 0
-3.727 -2.056 2.487 0
-2.107 -1.142 2.694 1
-2.127 -1.132 2.675 3
-2.056 -1.077 2.671 7
-2.04 -1.052 2.658 9
-2.033 -1.032 2.645 9
-2.033 -1.018 2.629 8
-2.036 -1.006 2.614 5
-2.049 -1.001 2.595 8
-2.04 -0.986 2.582 9
-2.009 -0.962 2.572 10
-1.967 -0.933 2.565 9
-1.935 -0.91 2.556 10
-1.909 -0.893 2.545 11
-1.89 -0.878 2.533 22
-1.874 -0.867 2.519 13
-1.911 -0.88 2.492 6
-1.851 -0.85 2.489 44
-1.83 -0.839 2.476 24
-1.812 -0.829 2.462 7
-1.765 -0.808 2.455 15
-1.756 -0.804 2.437 16
-1.758 -0.805 2.415 5
-1.72 -0.789 2.405 1
-1.672 -0.768 2.4 0
-1.673 -0.77 2.377 0
-1.624 -0.75 2.371 0
-1.603 -0.742 2.355 1
-3.128 -1.878 2.669 1
0.0 -0.0 3.0 0
0.0 -0.0 3.0 0
0.0 -0.0 3.0 0
-3.728 -2.071 2.484 0
-2.083 -1.136 2.696 2
-2.082 -1.117 2.68 4
-2.06 -1.086 2.668 7
-2.04 -1.059 2.656 10
-2.033 -1.04 2.642 9
-2.03 -1.025 2.627 8
-2.054 -1.023 2.607 7
-2.049 -1.009 2.593 8
-2.03 -0.989 2.58 9
-1.988 -0.959 2.573 10
-1.953 -0.933 2.565 10
-1.921 -0.911 2.556 11
-1.903 -0.896 2.543 13
-1.894 -0.887 2.529 30
-1.885 -0.878 2.513 10
-1.89 -0.877 2.494 4
-1.844 -0.853 2.487 28
-1.834 -0.846 2.471 25
-1.798 -0.829 2.462 5
-1.755 -0.808 2.455 22
-1.747 -0.805 2.436 12
-1.748 -0.806 2.415 3
-1.707 -0.788 2.406 1
-1.673 -0.774 2.395 0
-1.663 -0.77 2.376 0
-1.625 -0.755 2.366 0
-1.586 -0.739 2.358 0
0.0 -0.0 3.0 0
0.0 -0.0 3.0 0
0.0 -0.0 3.0 0
0.0 -0.0 3.0 0
-3.715 -2.078 2.482 0
-2.083 -1.144 2.693 2
-2.061 -1.113 2.681 5
-2.049 -1.088 2.667 7
-2.036 -1.065 2.654 9
-2.03 -1.046 2.64 8
-2.033 -1.034 2.624 7
-2.058 -1.033 2.604 7
-2.042 -1.013 2.591 8
-2.016 -0.989 2.58 9
-1.981 -0.963 2.571 10
-1.939 -0.933 2.565 10
-1.914 -0.915 2.554 10
-1.896 -0.9 2.542 16
-1.888 -0.89 2.527 17
-1.875 -0.88 2.512 8
-1.94 -0.907 2.477 2
-1.834 -0.855 2.486 9
-1.817 -0.845 2.472 11
-1.778 -0.826 2.464 4
-1.749 -0.811 2.453 27
-1.744 -0.809 2.434 7
-1.731 -0.803 2.416 1
-1.697 -0.789 2.405 0
-1.66 -0.772 2.396 0
-1.633 -0.761 2.384 0
-1.619 -0.757 2.365 0
-1.577 -0.739 2.357 0
0.0 -0.0 3.0 0
0.0 -0.0 3.0 0
0.0 -0.0 3.0 0
0.0 -0.0 3.0 0
-2.104 -1.184 2.705 1
-2.072 -1.146 2.693 3
-2.058 -1.119 2.679 6
-2.039 -1.09 2.667 8
-2.036 -1.073 2.651 8
-2.027 -1.052 2.638 8
-2.041 -1.046 2.619 5
-2.054 -1.038 2.601 8
-2.042 -1.021 2.588 9
-2.005 -0.991 2.579 9
-1.96 -0.96 2.573 10
-1.925 -0.934 2.564 10
-1.911 -0.92 2.551 12
-1.9 -0.909 2.537 28
-1.884 -0.895 2.524 10
-1.865 -0.882 2.511 8
-1.95 -0.919 2.47 1
-1.824 -0.856 2.486 4
-1.803 -0.845 2.472 7
-1.757 -0.822 2.466 3
-1.742 -0.814 2.451 23
-1.748 -0.817 2.428 4
-1.718 -0.803 2.417 1
-1.688 -0.79 2.405 0
-1.664 -0.78 2.391 0
-1.637 -0.768 2.378 0
-1.609 -0.757 2.365 0
-1.574 -0.742 2.355 0
0.0 -0.0 3.0 0
0.0 -0.0 3.0 0
-3.356 -1.973 2.581 0
-3.541 -2.045 2.528 0
-2.093 -1.187 2.704 2
-2.058 -1.147 2.693 4
-2.051 -1.123 2.678 7
-2.035 -1.097 2.665 8
-2.029 -1.077 2.65 9
-2.03 -1.061 2.635 7
-2.055 -1.061 2.614 7
-2.051 -1.045 2.599 8
-2.025 -1.02 2.588 9
-1.991 -0.991 2.579 9
-1.953 -0.964 2.571 10
-1.919 -0.938 2.563 10
-1.901 -0.922 2.55 13
-1.893 -0.912 2.535 26
-1.888 -0.904 2.519 6
-1.844 -0.879 2.513 12
-1.937 -0.918 2.47 1
-1.8 -0.852 2.488 2
-1.793 -0.846 2.471 6
-1.744 -0.821 2.467 3
-1.732 -0.815 2.45 16
-1.731 -0.815 2.43 2
-1.705 -0.802 2.417 0
-1.678 -0.79 2.404 0
-1.648 -0.777 2.393 0
-1.62 -0.765 2.38 0
-1.596 -0.755 2.366 0
-1.558 -0.739 2.358 0
0.0 -0.0 3.0 0
0.0 -0.0 3.0 0
0.0 -0.0 3.0 0
-3.508 -2.038 2.529 0
-2.079 -1.186 2.704 2
-2.058 -1.154 2.691 7
-2.044 -1.127 2.677 7
-2.035 -1.104 2.662 8
-2.029 -1.085 2.647 8
-2.027 -1.068 2.632 6
-2.051 -1.066 2.612 7
-2.051 -1.052 2.596 9
-2.011 -1.02 2.588 9
-1.974 -0.99 2.58 9
-1.933 -0.961 2.572 10
-1.908 -0.94 2.562 10
-1.901 -0.929 2.547 19
-1.879 -0.912 2.535 11
-1.878 -0.906 2.518 8
-1.852 -0.888 2.508 14
-1.93 -0.922 2.468 0
-1.783 -0.85 2.49 1
-1.776 -0.844 2.473 4
-1.737 -0.825 2.465 3
-1.723 -0.816 2.45 15
-1.724 -0.817 2.428 1
-1.685 -0.798 2.421 0
-1.668 -0.79 2.404 0
-1.624 -0.771 2.398 0
-1.604 -0.762 2.383 0
-1.587 -0.755 2.367 0
-1.549 -0.738 2.358 0
0.0 -0.0 3.0 0
0.0 -0.0 3.0 0
0.0 -0.0 3.0 0
-2.102 -1.229 2.716 1
-2.069 -1.188 2.704 3
-2.055 -1.159 2.689 7
-2.04 -1.133 2.675 8
-2.035 -1.112 2.66 8
-2.029 -1.092 2.645 7
-2.048 -1.086 2.626 7
-2.048 -1.072 2.61 8
-2.037 -1.053 2.596 8
-2.0 -1.022 2.587 9
-1.96 -0.99 2.58 9
-1.929 -0.966 2.57 10
-1.905 -0.945 2.559 12
-1.898 -0.934 2.544 29
-1.883 -0.921 2.531 9
-1.868 -0.908 2.517 5
-1.848 -0.894 2.505 19
-1.863 -0.897 2.482 0
-1.752 -0.841 2.495 1
-1.759 -0.842 2.474 4
-1.727 -0.825 2.464 3
-1.713 -0.817 2.449 14
-1.708 -0.814 2.43 1
-1.685 -0.803 2.416 0
-1.676 -0.799 2.398 0
-1.622 -0.774 2.395 0
-1.591 -0.761 2.384 0
-1.57 -0.752 2.369 0
-1.546 -0.742 2.355 0
0.0 -0.0 3.0 0
0.0 -0.0 3.0 0
0.0 -0.0 3.0 0
-2.092 -1.231 2.716 2
-2.065 -1.194 2.702 5
-2.048 -1.164 2.688 8
-2.04 -1.141 2.673 8
-2.032 -1.117 2.658 8
-2.029 -1.1 2.643 7
-2.055 -1.098 2.622 7
-2.048 -1.08 2.607 8
-2.026 -1.055 2.595 8
-1.976 -1.017 2.589 9
-1.943 -0.989 2.58 9
-1.915 -0.966 2.57 10
-1.898 -0.949 2.558 12
-1.895 -0.94 2.542 18
-1.883 -0.927 2.528 5
-1.854 -0.908 2.517 14
-1.849 -0.901 2.501 24
-1.783 -0.865 2.501 0
-1.742 -0.842 2.494 1
-1.746 -0.841 2.474 3
-1.714 -0.825 2.464 3
-1.703 -0.818 2.448 11
-1.698 -0.816 2.429 0
-1.682 -0.808 2.413 0
-1.652 -0.793 2.402 0
-1.619 -0.778 2.392 0
-1.592 -0.766 2.38 0
-1.551 -0.747 2.373 0
-1.54 -0.743 2.354 0
0.0 -0.0 3.0 0
0.0 -0.0 3.0 0
0.0 -0.0 3.0 0
-2.068 -1.225 2.717 2
-2.058 -1.197 2.701 6
-2.044 -1.169 2.687 8
-2.033 -1.145 2.672 8
-2.032 -1.126 2.656 7
-2.033 -1.11 2.64 5
-2.048 -1.102 2.621 8
-2.041 -1.084 2.606 8
-2.009 -1.054 2.596 8
-1.969 -1.021 2.587 9
-1.929 -0.989 2.58 9
-1.909 -0.97 2.568 11
-1.892 -0.953 2.556 23
-1.884 -0.942 2.541 10
-1.873 -0.929 2.527 6
-1.854 -0.915 2.514 15
-1.842 -0.904 2.499 24
-29.34 -14.33 -5.273 6
-1.722 -0.838 2.496 0
-1.736 -0.842 2.474 4
-1.697 -0.823 2.466 3
-1.686 -0.815 2.45 10
-1.685 -0.814 2.43 0
-1.669 -0.806 2.414 0
-1.643 -0.794 2.402 0
-1.609 -0.779 2.392 0
-1.582 -0.766 2.38 0
-1.555 -0.754 2.368 0
-1.52 -0.738 2.358 0
0.0 -0.0 3.0 0
0.0 -0.0 3.0 0
-2.114 -1.284 2.727 1
-2.067 -1.233 2.715 3
-2.055 -1.204 2.7 7
-2.03 -1.17 2.687 9
-2.029 -1.15 2.67 8
-2.032 -1.133 2.654 7
-2.06 -1.133 2.632 7
-2.047 -1.11 2.618 8
-2.03 -1.086 2.605 8
-1.998 -1.055 2.595 8
-1.955 -1.021 2.587 9
-1.925 -0.995 2.578 10
-1.898 -0.972 2.567 12
-1.892 -0.96 2.552 25
-1.888 -0.951 2.536 6
-1.856 -0.928 2.527 11
-1.858 -0.923 2.509 16
-1.828 -0.904 2.499 13
-29.188 -14.358 -5.29 4
-1.722 -0.844 2.493 0
-1.726 -0.844 2.473 4
-1.687 -0.823 2.465 3
-1.669 -0.813 2.451 9
-1.671 -0.814 2.43 0
-1.666 -0.81 2.411 0
-1.629 -0.793 2.403 0
-1.6 -0.779 2.392 0
-1.562 -0.761 2.384 0
-1.542 -0.752 2.369 0
-1.535 -0.75 2.348 0
0.0 -0.0 3.0 0
0.0 -0.0 3.0 0
-2.086 -1.275 2.729 2
-2.06 -1.236 2.715 5
-2.041 -1.204 2.7 8
-2.037 -1.181 2.684 9
-2.026 -1.156 2.668 8
-2.031 -1.141 2.651 7
-2.057 -1.139 2.63 7
-2.044 -1.116 2.616 8
-2.016 -1.086 2.605 8
-1.981 -1.054 2.595 8
-1.934 -1.018 2.589 9
-1.911 -0.995 2.578 10
-1.895 -0.977 2.565 14
-1.885 -0.963 2.551 12
-1.885 -0.956 2.534 6
-1.853 -0.933 2.525 13
-1.848 -0.924 2.509 19
-1.832 -0.912 2.495 8
-1.729 -0.857 2.505 0
-1.705 -0.842 2.494 0
-1.709 -0.841 2.474 5
-1.681 -0.825 2.464 3
-1.663 -0.815 2.45 8
-1.672 -0.819 2.427 0
-1.646 -0.806 2.415 0
-1.633 -0.8 2.397 0
-1.58 -0.773 2.396 0
-1.57 -0.769 2.377 0
-1.526 -0.749 2.371 1
-1.508 -0.741 2.355 0
0.0 -0.0 3.0 0
0.0 -0.0 3.0 0
-2.079 -1.279 2.728 2
-2.057 -1.243 2.713 6
-2.04 -1.211 2.698 9
-2.027 -1.183 2.683 9
-2.033 -1.168 2.665 7
-2.035 -1.151 2.648 6
-2.05 -1.143 2.629 8
-2.04 -1.121 2.614 8
-2.002 -1.087 2.604 8
-1.97 -1.056 2.595 8
-1.927 -1.022 2.587 10
-1.905 -0.998 2.576 12
-1.892 -0.983 2.562 25
-1.878 -0.967 2.549 9
-1.878 -0.96 2.532 5
-1.853 -0.94 2.521 13
-1.838 -0.926 2.508 17
-1.832 -0.919 2.491 4
-28.863 -14.403 -5.316 2
-1.685 -0.838 2.497 0
-1.696 -0.841 2.475 7
-1.668 -0.825 2.464 3
-1.65 -0.814 2.451 7
-1.672 -0.825 2.423 0
-1.64 -0.808 2.413 0
-1.6 -0.789 2.406 0
-1.57 -0.774 2.395 0
-1.55 -0.765 2.381 0
-1.526 -0.753 2.368 0
-1.499 -0.741 2.356 0
0.0 -0.0 3.0 0
-2.104 -1.326 2.742 1
-2.065 -1.278 2.728 3
-2.046 -1.244 2.713 7
-2.037 -1.217 2.697 9
-2.037 -1.197 2.679 9
-2.032 -1.175 2.663 7
-2.055 -1.171 2.642 7
-2.046 -1.149 2.627 8
-2.023 -1.12 2.614 8
-1.992 -1.089 2.604 8
-1.953 -1.054 2.595 9
-1.913 -1.022 2.587 10
-1.898 -1.002 2.575 12
-1.892 -0.99 2.559 17
-1.885 -0.978 2.544 5
-1.861 -0.958 2.533 13
-1.85 -0.945 2.519 13
-1.831 -0.93 2.506 11
-1.826 -0.922 2.489 3
-28.715 -14.432 -5.333 1
-1.682 -0.842 2.494 0
-1.682 -0.84 2.475 7
-1.654 -0.824 2.465 3
-1.633 -0.812 2.452 4
-1.645 -0.817 2.428 0
-1.627 -0.807 2.414 0
-1.6 -0.794 2.401 0
-1.554 -0.771 2.398 0
-1.544 -0.766 2.379 0
-1.517 -0.753 2.368 0
-1.503 -0.747 2.35 0
0.0 -0.0 3.0 0
-2.076 -1.317 2.744 2
-2.072 -1.29 2.726 4
-2.046 -1.252 2.711 8
-2.033 -1.223 2.695 9
-2.026 -1.198 2.679 8
-2.029 -1.182 2.661 6
-2.051 -1.176 2.64 8
-2.046 -1.157 2.624 9
-2.009 -1.12 2.614 9
-1.971 -1.085 2.605 8
-1.939 -1.055 2.595 9
-1.91 -1.027 2.585 10
-1.894 -1.008 2.572 18
-1.888 -0.995 2.557 10
-1.868 -0.976 2.545 6
-1.85 -0.96 2.532 13
-1.843 -0.949 2.517 17
-1.835 -0.938 2.501 4
-1.812 -0.922 2.489 1
-28.535 -14.444 -5.339 0
-1.686 -0.85 2.489 0
-1.669 -0.838 2.476 8
-1.644 -0.824 2.465 4
-1.623 -0.813 2.452 4
-1.646 -0.823 2.424 0
-1.637 -0.817 2.406 0
-1.598 -0.798 2.399 0
-1.551 -0.774 2.395 0
-1.535 -0.766 2.379 0
-1.508 -0.753 2.368 0
-1.49 -0.746 2.352 0
0.0 -0.0 3.0 0
-2.079 -1.327 2.742 2
-2.055 -1.287 2.726 5
-2.039 -1.255 2.71 8
-2.033 -1.231 2.693 9
-2.029 -1.209 2.676 8
-2.046 -1.199 2.656 6
-2.041 -1.179 2.64 8
-2.039 -1.161 2.623 9
-1.995 -1.121 2.614 8
-1.957 -1.085 2.605 9
-1.929 -1.057 2.594 9
-1.9 -1.029 2.584 12
-1.894 -1.015 2.569 23
-1.881 -0.999 2.555 7
-1.858 -0.978 2.544 11
-1.85 -0.966 2.529 11
-1.832 -0.95 2.516 12
-1.835 -0.945 2.498 3
-1.798 -0.921 2.489 0
0.0 -0.0 3.0 0
-1.642 -0.834 2.499 0
-1.656 -0.838 2.476 9
-1.635 -0.826 2.464 4
-1.61 -0.811 2.453 4
-1.619 -0.815 2.43 0
-1.6 -0.804 2.416 0
-1.578 -0.793 2.402 0
-1.538 -0.773 2.396 0
-1.532 -0.77 2.377 0
-1.495 -0.752 2.369 0
-1.464 -0.737 2.36 0
-2.089 -1.366 2.759 1
-2.072 -1.331 2.741 3
-2.047 -1.291 2.726 6
-2.035 -1.262 2.709 8
-2.026 -1.234 2.692 9
-2.029 -1.216 2.674 8
-2.052 -1.211 2.653 7
-2.051 -1.192 2.636 8
-2.021 -1.159 2.623 8
-1.981 -1.12 2.614 9
-1.943 -1.085 2.605 8
-1.918 -1.058 2.594 9
-1.893 -1.033 2.583 12
-1.887 -1.019 2.568 12
-1.874 -1.003 2.554 5
-1.858 -0.984 2.541 12
-1.85 -0.973 2.525 14
-1.829 -0.955 2.514 6
-1.821 -0.945 2.498 2
-1.788 -0.923 2.489 0
-28.201 -14.479 -5.359 1
-1.649 -0.843 2.493 0
-1.642 -0.837 2.477 9
-1.628 -0.828 2.462 4
-1.59 -0.807 2.456 3
-1.613 -0.817 2.428 0
-1.587 -0.803 2.417 0
-1.571 -0.795 2.401 0
-1.532 -0.774 2.395 0
-1.512 -0.765 2.381 0
-1.485 -0.752 2.369 0
-1.485 -0.751 2.347 0
-2.076 -1.366 2.759 2
-2.058 -1.329 2.742 5
-2.047 -1.299 2.724 6
-2.035 -1.269 2.707 8
-2.032 -1.247 2.689 8
-2.029 -1.224 2.672 7
-2.052 -1.219 2.65 7
-2.04 -1.195 2.635 8
-2.011 -1.161 2.623 9
-1.967 -1.12 2.614 8
-1.932 -1.087 2.604 9
-1.911 -1.062 2.592 10
-1.896 -1.042 2.579 24
-1.884 -1.024 2.565 9
-1.871 -1.008 2.551 5
-1.854 -0.99 2.539 11
-1.84 -0.975 2.525 15
-1.833 -0.964 2.509 4
-1.821 -0.952 2.494 1
-1.771 -0.92 2.49 0
-1.635 -0.845 2.512 0
-1.646 -0.847 2.491 0
-1.632 -0.838 2.477 10
-1.615 -0.827 2.463 4
-1.584 -0.809 2.455 3
-1.589 -0.81 2.433 1
-1.581 -0.805 2.415 0
-1.572 -0.8 2.397 0
-1.526 -0.776 2.394 0
-1.519 -0.773 2.374 0
-1.489 -0.758 2.364 0
-1.482 -0.755 2.344 0
-2.072 -1.371 2.758 3
-2.051 -1.333 2.741 5
-2.04 -1.303 2.723 8
-2.034 -1.277 2.705 8
-2.028 -1.252 2.688 8
-2.042 -1.241 2.668 8
-2.044 -1.223 2.649 8
-2.026 -1.194 2.635 8
-1.99 -1.156 2.624 9
-1.946 -1.116 2.616 8
-1.919 -1.087 2.604 9
-1.901 -1.064 2.592 11
-1.896 -1.05 2.576 17
-1.88 -1.03 2.563 5
-1.857 -1.007 2.552 13
-1.844 -0.992 2.538 10
-1.83 -0.977 2.524 10
-1.826 -0.967 2.507 3
-1.814 -0.955 2.492 0
-1.761 -0.922 2.489 0
-1.649 -0.859 2.504 0
-1.619 -0.839 2.496 0
-1.623 -0.838 2.476 13
-1.605 -0.827 2.463 4
-1.574 -0.809 2.454 4
-1.573 -0.807 2.435 3
-1.575 -0.807 2.414 0
-1.542 -0.79 2.405 0
-1.513 -0.774 2.395 0
-1.49 -0.763 2.383 0
-1.477 -0.756 2.366 0
-1.446 -0.741 2.356 0
-2.061 -1.373 2.758 4
-2.047 -1.339 2.74 6
-2.039 -1.31 2.721 8
-2.031 -1.283 2.704 8
-2.031 -1.262 2.685 8
-2.055 -1.256 2.663 8
-2.044 -1.231 2.647 8
-2.009 -1.192 2.636 8
-1.972 -1.154 2.625 9
-1.939 -1.119 2.615 9
-1.908 -1.089 2.604 10
-1.897 -1.069 2.589 14
-1.886 -1.051 2.575 9
-1.877 -1.035 2.561 5
-1.857 -1.015 2.548 13
-1.844 -0.999 2.534 13
-1.833 -0.985 2.52 4
-1.819 -0.97 2.506 1
-1.807 -0.958 2.491 0
-1.758 -0.926 2.487 0
-1.612 -0.845 2.512 0
-1.609 -0.84 2.495 0
-1.609 -0.837 2.477 15
-1.595 -0.828 2.462 4
-1.564 -0.81 2.454 4
-1.556 -0.804 2.437 4
-1.558 -0.804 2.416 0
-1.526 -0.787 2.407 0
-1.5 -0.773 2.396 0
-1.494 -0.77 2.377 0
-1.467 -0.756 2.366 0
-1.437 -0.741 2.356 0
-2.057 -1.378 2.757 6
-2.04 -1.343 2.739 6
-2.036 -1.316 2.72 8
-2.03 -1.291 2.702 8
-2.031 -1.27 2.683 7
-2.044 -1.258 2.663 9
-2.04 -1.237 2.645 8
-1.995 -1.191 2.636 9
-1.959 -1.155 2.625 9
-1.925 -1.119 2.615 9
-1.905 -1.094 2.602 11
-1.897 -1.077 2.587 21
-1.879 -1.054 2.574 7
-1.856 -1.031 2.562 12
-1.857 -1.022 2.545 11
-1.837 -1.002 2.533 12
-1.83 -0.99 2.517 3
-1.816 -0.975 2.503 0
-1.797 -0.959 2.49 0
-1.744 -0.926 2.487 0
-1.615 -0.853 2.508 0
-1.616 -0.849 2.49 0
-1.599 -0.838 2.476 16
-1.582 -0.827 2.463 4
-1.558 -0.812 2.452 4
-1.54 -0.801 2.439 6
-1.559 -0.809 2.412 0
-1.53 -0.793 2.402 0
-1.487 -0.77 2.398 0
-1.481 -0.768 2.378 0
-1.448 -0.75 2.37 0
-1.431 -0.742 2.355 0
-2.053 -1.384 2.756 6
-2.043 -1.352 2.737 7
-2.028 -1.32 2.719 8
-2.023 -1.294 2.701 8
-2.047 -1.289 2.679 8
-2.044 -1.266 2.661 9
-2.023 -1.234 2.646 8
-1.984 -1.194 2.635 9
-1.945 -1.154 2.625 8
-1.918 -1.123 2.613 9
-1.897 -1.097 2.601 11
-1.89 -1.08 2.586 12
-1.875 -1.06 2.572 4
-1.856 -1.038 2.559 14
-1.847 -1.024 2.544 12
-1.834 -1.007 2.53 5
-1.816 -0.99 2.517 2
-1.805 -0.977 2.502 0
-1.784 -0.958 2.49 0
-1.765 -0.943 2.477 0
-1.599 -0.85 2.509 0
-27.361 -14.488 -5.705 13
-1.596 -0.842 2.474 17
-1.572 -0.827 2.463 4
-1.545 -0.81 2.454 4
-1.534 -0.803 2.438 6
-1.552 -0.812 2.41 0
-1.513 -0.79 2.405 0
-1.478 -0.771 2.398 0
-1.465 -0.764 2.382 0
-1.442 -0.751 2.37 0
-1.422 -0.741 2.356 0
-2.04 -1.383 2.756 7
-2.032 -1.353 2.737 7
-2.031 -1.33 2.717 8
-2.029 -1.307 2.698 6
-2.05 -1.298 2.676 8
-2.04 -1.273 2.659 9
-2.005 -1.232 2.647 8
-1.974 -1.195 2.635 8
-1.934 -1.155 2.625 9
-1.904 -1.123 2.613 10
-1.897 -1.104 2.598 18
-1.883 -1.083 2.584 10
-1.871 -1.065 2.57 5
-1.853 -1.043 2.557 11
-1.84 -1.026 2.543 16
-1.827 -1.011 2.529 3
-1.819 -0.999 2.513 1
0.0 -0.0 3.0 0
0.0 -0.0 3.0 0
-1.72 -0.926 2.487 0
-1.596 -0.855 2.507 0
-1.603 -0.854 2.487 0
-1.587 -0.843 2.474 16
-1.566 -0.829 2.462 4
-1.539 -0.812 2.452 4
-1.514 -0.798 2.442 7
-1.539 -0.809 2.412 0
-1.514 -0.796 2.401 0
-1.488 -0.781 2.39 0
-1.469 -0.771 2.376 0
-1.426 -0.748 2.372 0
-1.406 -0.737 2.359 0
-2.039 -1.39 2.755 7
-2.035 -1.364 2.735 7
-2.03 -1.338 2.716 7
-2.032 -1.316 2.696 6
-2.042 -1.303 2.675 9
-2.036 -1.278 2.658 9
-1.991 -1.232 2.647 8
-1.953 -1.19 2.636 8
-1.92 -1.155 2.625 9
-1.901 -1.128 2.611 11
-1.897 -1.113 2.595 16
-1.883 -1.091 2.581 4
-1.858 -1.065 2.57 13
-1.846 -1.047 2.556 10
-1.829 -1.028 2.542 10
-1.826 -1.018 2.525 3
-1.83 -1.012 2.507 0
0.0 -0.0 3.0 0
0.0 -0.0 3.0 0
-1.717 -0.931 2.484 0
-1.589 -0.857 2.505 0
-27.104 -14.55 -5.742 14
-1.577 -0.843 2.473 15
-1.553 -0.828 2.463 4
-1.529 -0.812 2.452 4
-1.514 -0.803 2.438 8
-1.533 -0.811 2.41 0
-1.494 -0.79 2.405 1
-1.469 -0.775 2.394 0
-1.443 -0.761 2.384 0
-1.43 -0.754 2.367 0
-1.39 -0.733 2.363 0
-2.032 -1.394 2.754 8
-2.028 -1.367 2.734 7
-2.03 -1.346 2.714 6
-2.048 -1.335 2.692 8
-2.042 -1.31 2.673 9
-2.022 -1.277 2.658 9
-1.977 -1.232 2.647 8
-1.942 -1.192 2.636 8
-1.913 -1.158 2.624 9
-1.897 -1.134 2.61 11
-1.88 -1.11 2.596 12
-1.876 -1.094 2.58 4
-1.854 -1.071 2.567 12
-1.842 -1.053 2.553 14
-1.829 -1.036 2.539 3
-1.806 -1.013 2.528 1
-1.789 -0.996 2.514 0
-1.761 -0.973 2.504 0
0.0 -0.0 3.0 0
-1.666 -0.91 2.496 0
-1.573 -0.853 2.507 0
-26.953 -14.568 -5.753 12
-1.564 -0.841 2.474 14
-1.55 -0.832 2.46 4
-1.519 -0.813 2.452 4
-1.505 -0.804 2.437 9
-1.53 -0.815 2.408 0
-1.491 -0.794 2.402 0
-1.459 -0.776 2.394 0
-1.43 -0.76 2.385 0
-1.417 -0.752 2.369 0
-1.391 -0.738 2.358 0
-2.025 -1.397 2.754 7
-2.027 -1.375 2.733 7
-2.029 -1.353 2.712 6
-2.047 -1.344 2.69 8
-2.041 -1.318 2.671 9
-1.998 -1.27 2.66 9
-1.97 -1.235 2.646 8
-1.925 -1.189 2.636 9
-1.903 -1.16 2.623 10
-1.89 -1.137 2.608 19
-1.883 -1.119 2.593 7
-1.865 -1.096 2.579 11
-1.854 -1.078 2.564 9
-1.838 -1.058 2.551 13
-1.826 -1.041 2.536 3
-1.792 -1.012 2.528 0
-1.809 -1.014 2.505 0
-1.754 -0.976 2.503 0
0.0 -0.0 3.0 0
-1.7 -0.934 2.482 0
-1.593 -0.871 2.497 0
-26.823 -14.597 -5.771 12
-1.557 -0.844 2.473 13
-1.537 -0.83 2.461 4
-1.506 -0.811 2.453 4
-1.495 -0.803 2.438 11
-1.517 -0.814 2.409 0
-1.485 -0.795 2.401 0
-1.453 -0.777 2.393 0
-1.414 -0.755 2.388 0
-1.408 -0.752 2.369 0
-1.382 -0.737 2.359 0
-2.024 -1.405 2.752 8
-2.026 -1.383 2.731 6
-2.042 -1.37 2.709 5
-2.046 -1.351 2.688 8
-2.034 -1.322 2.67 10
-1.987 -1.272 2.659 10
-1.946 -1.228 2.648 9
-1.918 -1.193 2.635 9
-1.902 -1.167 2.621 10
-1.889 -1.145 2.606 12
-1.876 -1.123 2.591 4
-1.855 -1.097 2.579 14
-1.847 -1.081 2.563 11
-1.831 -1.061 2.55 5
-1.826 -1.047 2.534 2
-1.789 -1.018 2.525 0
-1.792 -1.012 2.507 0
0.0 -0.0 3.0 0
-1.692 -0.941 2.499 0
-1.724 -0.954 2.471 0
-1.563 -0.86 2.503 0
-26.696 -14.627 -5.789 11
-1.544 -0.843 2.473 11
-1.527 -0.83 2.461 4
-1.5 -0.813 2.452 4
-1.492 -0.807 2.435 12
-1.501 -0.81 2.412 0
-1.466 -0.79 2.405 0
-1.434 -0.772 2.397 0
-1.415 -0.76 2.385 0
-1.402 -0.753 2.368 0
-1.366 -0.733 2.363 1
-2.026 -1.415 2.75 8
-2.032 -1.396 2.729 6
-2.054 -1.387 2.705 6
-2.039 -1.354 2.687 8
-2.017 -1.319 2.671 10
-1.973 -1.271 2.659 9
-1.936 -1.229 2.648 9
-1.908 -1.194 2.635 9
-1.892 -1.169 2.62 12
-1.882 -1.148 2.605 9
-1.865 -1.124 2.591 5
-1.855 -1.104 2.576 10
-1.833 -1.081 2.563 15
-1.828 -1.066 2.547 3
-1.819 -1.051 2.532 0
-1.785 -1.023 2.523 0
-1.738 -0.987 2.518 0
0.0 -0.0 3.0 0
0.0 -0.0 3.0 0
-1.673 -0.932 2.483 0
-1.547 -0.857 2.505 0
-26.579 -14.662 -5.81 11
-1.531 -0.841 2.475 9
-1.521 -0.833 2.459 4
-1.49 -0.813 2.452 4
-1.486 -0.809 2.433 13
-1.491 -0.81 2.411 0
-1.466 -0.795 2.401 0
-1.431 -0.775 2.395 0
-1.415 -0.765 2.38 0
-1.379 -0.745 2.375 1
-1.34 -0.723 2.371 3
-2.022 -1.42 2.75 7
-2.028 -1.401 2.728 6
-2.053 -1.395 2.703 8
-2.041 -1.365 2.685 9
-1.996 -1.314 2.672 10
-1.956 -1.269 2.66 9
-1.919 -1.226 2.648 9
-1.904 -1.2 2.633 11
-1.895 -1.178 2.617 16
-1.885 -1.158 2.601 5
-1.855 -1.125 2.59 15
-1.851 -1.11 2.574 8
-1.833 -1.088 2.56 9
-1.834 -1.077 2.543 3
-1.815 -1.057 2.53 0
0.0 -0.0 3.0 0
0.0 -0.0 3.0 0
0.0 -0.0 3.0 0
0.0 -0.0 3.0 0
-1.663 -0.933 2.483 0
-1.547 -0.863 2.502 0
-26.355 -14.637 -5.795 10
-1.528 -0.845 2.472 8
-1.514 -0.835 2.458 4
-1.481 -0.813 2.451 4
-1.476 -0.809 2.434 12
-1.468 -0.803 2.417 0
-1.443 -0.788 2.406 0
-1.421 -0.774 2.395 0
-1.396 -0.759 2.385 0
-1.377 -0.749 2.372 1
-1.325 -0.719 2.375 7
-2.025 -1.431 2.748 7
-2.037 -1.416 2.725 6
-2.046 -1.398 2.703 9
-2.027 -1.364 2.685 9
-1.985 -1.316 2.672 10
-1.942 -1.267 2.66 9
-1.918 -1.234 2.646 9
-1.897 -1.204 2.632 11
-1.888 -1.182 2.616 10
-1.875 -1.159 2.601 4
-1.858 -1.135 2.587 13
-1.844 -1.114 2.573 13
-1.829 -1.093 2.559 3
-1.824 -1.079 2.542 1
-1.801 -1.056 2.53 0
-1.741 -1.011 2.528 0
0.0 -0.0 3.0 0
0.0 -0.0 3.0 0
0.0 -0.0 3.0 0
0.0 -0.0 3.0 0
-1.54 -0.865 2.501 0
-1.491 -0.834 2.499 0
-1.521 -0.847 2.471 7
-1.501 -0.833 2.459 4
-1.471 -0.813 2.451 4
-1.463 -0.807 2.435 11
-1.469 -0.808 2.413 0
-1.437 -0.789 2.405 0
-1.405 -0.77 2.398 0
-1.39 -0.76 2.384 0
-1.351 -0.739 2.38 2
-1.325 -0.724 2.37 3
-2.024 -1.438 2.746 7
-2.053 -1.435 2.721 7
-2.048 -1.409 2.7 9
-2.014 -1.363 2.685 9
-1.968 -1.312 2.673 10
-1.925 -1.264 2.661 10
-1.908 -1.236 2.646 10
-1.896 -1.211 2.63 15
-1.887 -1.19 2.613 7
-1.858 -1.156 2.602 10
-1.857 -1.142 2.584 8
-1.84 -1.119 2.57 12
-1.829 -1.1 2.556 3
-1.793 -1.068 2.547 0
-1.777 -1.049 2.533 0
0.0 -0.0 3.0 0
0.0 -0.0 3.0 0
0.0 -0.0 3.0 0
0.0 -0.0 3.0 0
-1.667 -0.948 2.474 0
-1.531 -0.866 2.5 0
-26.209 -14.754 -5.865 10
-1.515 -0.849 2.47 4
-1.495 -0.834 2.458 4
-1.461 -0.813 2.452 4
-1.454 -0.807 2.435 9
-1.453 -0.804 2.416 0
-1.441 -0.796 2.4 0
-1.396 -0.77 2.398 0
-1.377 -0.758 2.386 0
-1.342 -0.738 2.381 5
-1.316 -0.724 2.371 5
-2.026 -1.449 2.744 6
-2.045 -1.439 2.72 7
-2.041 -1.412 2.7 9
-1.993 -1.358 2.686 9
-1.958 -1.313 2.673 9
-1.918 -1.268 2.66 10
-1.904 -1.241 2.644 11
-1.892 -1.217 2.628 12
-1.88 -1.193 2.612 3
-1.857 -1.163 2.599 14
-1.847 -1.144 2.584 10
-1.83 -1.12 2.57 5
-1.828 -1.107 2.553 2
-1.813 -1.088 2.538 0
0.0 -0.0 3.0 0
-1.747 -1.03 2.52 0
0.0 -0.0 3.0 0
0.0 -0.0 3.0 0
-1.658 -0.955 2.492 0
0.0 -0.0 3.0 0
-1.524 -0.867 2.499 0
-1.485 -0.842 2.494 0
-1.495 -0.843 2.473 3
-1.489 -0.837 2.457 4
-1.458 -0.817 2.449 4
-1.448 -0.808 2.434 8
-1.436 -0.8 2.419 0
-1.438 -0.799 2.398 0
-1.383 -0.768 2.4 0
-1.362 -0.754 2.389 1
-1.329 -0.735 2.383 4
-1.314 -0.726 2.369 9
-2.032 -1.462 2.742 6
-2.041 -1.445 2.719 8
-2.024 -1.409 2.7 9
-1.982 -1.359 2.686 9
-1.937 -1.308 2.674 10
-1.907 -1.269 2.66 10
-1.896 -1.244 2.643 11
-1.885 -1.219 2.627 9
-1.873 -1.196 2.611 4
-1.853 -1.169 2.598 10
-1.84 -1.147 2.583 15
-1.836 -1.131 2.566 3
-1.818 -1.108 2.552 0
-1.776 -1.073 2.545 0
0.0 -0.0 3.0 0
-1.71 -1.014 2.527 0
0.0 -0.0 3.0 0
0.0 -0.0 3.0 0
-1.678 -0.973 2.483 0
-1.603 -0.924 2.488 0
-1.501 -0.86 2.503 0
-1.465 -0.836 2.498 0
-1.482 -0.842 2.474 2
-1.472 -0.833 2.459 4
-1.449 -0.817 2.449 4
-1.435 -0.806 2.435 7
-1.414 -0.792 2.424 0
-1.402 -0.784 2.409 0
-1.381 -0.771 2.398 0
-1.342 -0.748 2.394 3
-1.32 -0.735 2.384 4
-1.301 -0.723 2.371 6
-2.05 -1.483 2.738 7
-2.046 -1.457 2.717 8
-2.01 -1.408 2.701 9
-1.962 -1.354 2.688 9
-1.927 -1.309 2.674 10
-1.903 -1.275 2.658 11
-1.899 -1.254 2.64 17
-1.884 -1.228 2.625 7
-1.856 -1.194 2.612 13
-1.853 -1.176 2.595 8
-1.839 -1.154 2.58 10
-1.822 -1.131 2.566 3
-1.801 -1.106 2.553 0
0.0 -0.0 3.0 0
-1.75 -1.054 2.531 0
0.0 -0.0 3.0 0
0.0 -0.0 3.0 0
0.0 -0.0 3.0 0
0.0 -0.0 3.0 0
0.0 -0.0 3.0 0
-1.501 -0.866 2.5 0
-1.472 -0.846 2.492 0
-1.466 -0.838 2.477 1
-1.463 -0.833 2.459 4
-1.433 -0.813 2.452 4
-1.428 -0.808 2.434 6
-1.431 -0.807 2.414 0
-1.403 -0.79 2.405 0
-1.365 -0.767 2.401 1
-1.327 -0.744 2.397 5
-1.321 -0.74 2.379 6
-1.295 -0.724 2.37 6
-2.046 -1.489 2.737 8
-2.036 -1.459 2.716 9
-1.996 -1.406 2.701 9
-1.951 -1.355 2.687 9
-1.916 -1.31 2.673 10
-1.893 -1.275 2.658 13
-1.892 -1.257 2.64 11
-1.881 -1.232 2.623 3
