# .PCD v0.7 - Point Cloud Data file format
VERSION 0.7
FIELDS x y z intensity
SIZE 4 4 4 4
TYPE F F F F
COUNT 1 1 1 1
WIDTH 2067
HEIGHT 1
VIEWPOINT 0 0 0 1 0 0 0
POINTS 2067
DATA ascii
14.335 -8.821 -3.891 12
13.819 -8.476 -3.863 16
13.185 -8.065 -3.767 11
12.622 -7.698 -3.692 12
11.876 -9.443 1.335 17
10.539 -8.257 1.395 15
9.47 -7.311 1.446 22
9.604 -7.311 1.312 30
9.387 -7.047 1.243 23
9.774 -7.238 1.06 8
10.754 -7.864 0.745 22
10.822 -7.814 0.611 19
10.805 -7.709 0.495 1
34.986 -24.67 -5.495 5
32.501 -22.669 -5.251 5
9.476 -6.539 0.49 27
10.163 -6.944 0.194 29
9.579 -6.481 0.249 24
9.573 -6.42 0.141 37
8.957 -5.954 0.223 22
10.155 -6.698 -0.267 35
11.751 -7.69 -0.918 16
11.798 -7.666 -1.076 20
20.218 -13.051 -4.234 5
19.402 -12.445 -4.185 6
18.634 -11.887 -4.142 7
17.914 -11.365 -4.102 7
17.253 -10.894 -4.075 9
16.627 -10.449 -4.048 23
16.08 -10.064 -4.047 19
15.507 -9.666 -4.023 12
14.846 -9.222 -3.949 11
14.268 -8.833 -3.901 12
10.702 -6.603 -2.347 24
10.747 -6.612 -2.548 25
10.718 -6.575 -2.715 18
10.539 -8.429 1.514 0
10.558 -8.321 1.383 19
9.445 -7.335 1.441 19
9.865 -7.555 1.256 28
9.321 -7.04 1.245 33
10.869 -8.1 0.83 10
10.742 -7.904 0.733 23
10.768 -7.824 0.608 20
10.764 -7.729 0.489 0
34.71 -24.635 -5.482 5
32.246 -22.639 -5.24 4
9.525 -6.616 0.46 26
9.429 -6.485 0.38 0
9.586 -6.528 0.229 7
9.503 -6.415 0.144 34
9.107 -6.094 0.158 66
10.138 -6.73 -0.283 35
21.9 -14.427 -4.351 30
11.755 -7.688 -1.088 28
20.103 -13.062 -4.24 6
19.296 -12.458 -4.192 6
18.534 -11.899 -4.15 6
17.819 -11.377 -4.109 6
17.169 -10.91 -4.085 7
16.544 -10.462 -4.057 22
15.995 -10.074 -4.054 19
15.449 -9.69 -4.04 16
14.786 -9.241 -3.964 11
14.21 -8.849 -3.914 12
10.655 -6.613 -2.355 28
10.703 -6.624 -2.558 15
10.675 -6.586 -2.725 32
10.39 -8.359 1.526 1
10.481 -8.309 1.385 21
9.445 -7.379 1.432 24
9.729 -7.497 1.269 29
9.312 -7.077 1.235 26
10.983 -8.235 0.793 31
10.422 -7.717 0.787 30
10.731 -7.847 0.601 33
36.349 -26.268 -5.535 15
34.444 -24.603 -5.472 5
32.011 -22.62 -5.233 5
9.513 -6.65 0.447 24
9.478 -6.561 0.349 68
9.807 -6.723 0.146 27
9.436 -6.411 0.146 29
9.095 -6.127 0.143 63
10.153 -6.785 -0.309 30
21.769 -14.435 -4.355 31
11.734 -7.724 -1.107 23
11.818 -7.728 -1.284 6
19.197 -12.475 -4.202 6
18.433 -11.911 -4.157 6
17.726 -11.39 -4.117 6
17.081 -10.923 -4.093 7
16.461 -10.476 -4.066 12
15.929 -10.095 -4.069 11
15.375 -9.703 -4.05 16
14.721 -9.256 -3.975 11
14.155 -8.868 -3.929 14
10.618 -6.629 -2.368 28
10.672 -6.644 -2.575 30
10.632 -6.598 -2.735 29
10.394 -8.41 1.517 19
10.481 -8.359 1.375 14
9.56 -7.515 1.403 21
9.688 -7.511 1.266 29
9.255 -7.077 1.235 21
10.522 -7.94 0.873 0
10.098 -7.524 0.842 66
10.769 -7.925 0.577 5
36.051 -26.22 -5.519 7
34.172 -24.567 -5.459 4
31.77 -22.595 -5.224 5
10.266 -7.224 0.227 27
9.315 -6.491 0.378 36
9.832 -6.785 0.12 28
9.408 -6.434 0.135 35
9.641 -6.536 -0.048 21
10.116 -6.805 -0.319 31
21.641 -14.445 -4.36 31
11.735 -7.776 -1.134 17
11.768 -7.746 -1.294 21
19.085 -12.482 -4.207 6
18.329 -11.92 -4.162 6
17.637 -11.406 -4.127 7
16.994 -10.936 -4.102 7
16.385 -10.493 -4.077 10
15.845 -10.104 -4.075 10
15.305 -9.718 -4.06 14
14.658 -9.274 -3.988 12
14.085 -8.878 -3.936 11
10.59 -6.651 -2.386 26
10.657 -6.673 -2.599 29
10.668 -6.659 -2.788 36
10.27 -8.359 1.526 25
9.496 -7.618 1.519 1
9.581 -7.576 1.39 26
9.418 -7.346 1.304 35
9.186 -7.068 1.238 25
10.45 -7.934 0.874 27
10.686 -8.012 0.703 17
36.452 -26.994 -5.253 7
35.712 -26.14 -5.493 6
33.901 -24.528 -5.446 5
31.521 -22.563 -5.212 5
9.299 -6.586 0.472 5
9.347 -6.556 0.351 72
9.809 -6.813 0.108 25
9.373 -6.452 0.127 27
9.66 -6.592 -0.074 5
10.096 -6.836 -0.334 31
21.507 -14.449 -4.362 19
11.784 -7.859 -1.179 1
11.718 -7.763 -1.303 23
11.869 -7.812 -1.511 0
18.232 -11.934 -4.17 6
17.542 -11.417 -4.134 7
16.912 -10.953 -4.113 7
16.302 -10.505 -4.086 9
15.76 -10.113 -4.081 10
15.234 -9.734 -4.072 14
14.592 -9.288 -3.999 12
14.027 -8.894 -3.949 12
10.574 -6.681 -2.41 26
10.666 -6.718 -2.637 55
10.646 -6.684 -2.81 32
10.292 -8.426 1.514 23
9.498 -7.665 1.51 0
9.614 -7.648 1.374 24
9.234 -7.246 1.327 28
9.186 -7.112 1.227 30
9.572 -7.313 1.041 35
10.858 -8.193 0.651 21
10.2 -7.602 0.676 26
35.457 -26.118 -5.486 5
33.627 -24.487 -5.432 5
31.281 -22.536 -5.202 5
9.261 -6.601 0.466 28
9.319 -6.578 0.342 53
9.776 -6.834 0.099 18
9.471 -6.563 0.078 29
9.659 -6.635 -0.094 6
10.129 -6.903 -0.367 0
21.396 -14.468 -4.372 5
20.5 -13.761 -4.317 4
11.667 -7.781 -1.313 17
11.805 -7.821 -1.516 22
18.135 -11.946 -4.178 6
17.453 -11.431 -4.143 7
16.822 -10.964 -4.12 7
16.22 -10.518 -4.094 7
15.679 -10.123 -4.088 10
15.167 -9.75 -4.084 10
14.536 -9.309 -4.015 14
13.962 -8.907 -3.959 13
10.627 -6.754 -2.469 21
10.659 -6.753 -2.667 44
10.627 -6.71 -2.833 30
10.228 -8.422 1.515 16
10.234 -8.308 1.385 8
9.6 -7.683 1.367 27
9.193 -7.258 1.324 24
9.221 -7.182 1.209 7
9.461 -7.273 1.051 29
10.465 -7.945 0.722 6
10.164 -7.622 0.67 34
35.249 -26.131 -5.49 5
33.373 -24.458 -5.422 4
31.044 -22.51 -5.193 5
9.106 -6.533 0.492 25
9.338 -6.635 0.319 41
9.902 -6.968 0.042 9
9.522 -6.641 0.043 29
9.591 -6.631 -0.092 4
11.584 -7.946 -0.875 2
11.624 -7.912 -1.031 10
11.681 -7.892 -1.196 11
11.662 -7.827 -1.339 20
11.765 -7.845 -1.529 20
11.935 -7.912 -1.754 1
17.36 -11.443 -4.151 7
16.738 -10.978 -4.129 7
16.143 -10.534 -4.105 7
15.595 -10.132 -4.094 10
15.09 -9.76 -4.091 12
14.47 -9.323 -4.025 10
13.901 -8.921 -3.97 18
10.611 -6.784 -2.494 0
10.637 -6.778 -2.687 37
10.605 -6.734 -2.854 28
10.154 -8.411 1.517 33
10.415 -8.506 1.347 4
9.651 -7.771 1.348 20
9.202 -7.309 1.313 24
9.121 -7.148 1.218 10
9.407 -7.277 1.05 28
10.152 -7.757 0.776 0
10.133 -7.647 0.662 4
35.032 -26.135 -5.492 4
33.1 -24.414 -5.406 5
30.821 -22.492 -5.187 5
9.293 -6.71 0.424 5
9.293 -6.645 0.315 50
25.761 -18.246 -4.745 6
9.613 -6.749 -0.005 23
9.562 -6.655 -0.103 17
11.534 -7.964 -0.884 21
11.587 -7.938 -1.044 27
11.653 -7.924 -1.213 16
11.678 -7.889 -1.373 31
11.74 -7.879 -1.549 21
11.834 -7.896 -1.744 22
17.275 -11.46 -4.161 7
16.647 -10.987 -4.135 7
16.061 -10.546 -4.113 9
15.51 -10.14 -4.1 11
15.014 -9.771 -4.099 17
14.407 -9.339 -4.037 12
13.846 -8.939 -3.984 18
13.196 -8.486 -3.872 14
10.617 -6.805 -2.71 34
10.586 -6.761 -2.877 29
9.671 -8.058 1.579 15
10.586 -8.697 1.31 10
9.896 -8.015 1.296 19
9.152 -7.314 1.312 24
9.26 -7.301 1.18 21
9.4 -7.316 1.04 30
10.168 -7.817 0.758 0
10.086 -7.66 0.658 16
34.847 -26.162 -5.501 5
32.844 -24.379 -5.395 4
30.589 -22.467 -5.177 5
9.28 -6.744 0.411 27
10.032 -7.22 0.083 13
25.588 -18.241 -4.743 5
9.609 -6.789 -0.023 18
9.501 -6.655 -0.103 33
11.512 -8.001 -0.902 21
11.565 -7.975 -1.063 14
11.653 -7.976 -1.241 1
11.697 -7.953 -1.408 1
11.727 -7.921 -1.573 20
11.799 -7.923 -1.76 20
17.183 -11.471 -4.168 7
16.563 -11.001 -4.144 7
15.978 -10.557 -4.121 7
15.429 -10.149 -4.107 20
14.943 -9.784 -4.108 19
14.332 -9.347 -4.043 11
13.788 -8.955 -3.997 13
13.115 -8.484 -3.871 11
10.659 -6.873 -2.767 26
10.576 -6.794 -2.906 30
9.678 -8.11 1.57 10
10.355 -8.557 1.337 31
10.29 -8.385 1.218 27
9.583 -7.704 1.221 37
9.209 -7.307 1.178 23
9.356 -7.326 1.037 29
9.389 -7.263 0.917 23
10.093 -7.714 0.642 6
34.655 -26.184 -5.508 4
32.582 -24.34 -5.381 5
30.361 -22.442 -5.168 5
10.233 -7.485 0.127 20
10.345 -7.494 -0.028 28
11.165 -8.011 -0.401 14
9.548 -6.79 -0.023 25
9.468 -6.676 -0.113 11
11.509 -8.05 -0.926 2
20.884 -14.494 -4.385 5
20.029 -13.798 -4.336 5
19.22 -13.152 -4.29 6
11.739 -7.98 -1.607 15
11.77 -7.954 -1.779 26
11.883 -7.984 -1.989 18
16.479 -11.014 -4.153 7
15.905 -10.574 -4.133 9
15.351 -10.161 -4.115 21
14.873 -9.798 -4.119 16
14.273 -9.365 -4.057 13
13.73 -8.971 -4.009 14
13.027 -8.478 -3.865 11
10.737 -6.963 -2.843 24
10.565 -6.826 -2.934 25
9.603 -8.094 1.573 11
9.948 -8.27 1.392 28
9.945 -8.153 1.267 33
9.359 -7.571 1.252 30
9.181 -7.328 1.173 27
9.329 -7.352 1.03 26
9.276 -7.221 0.929 2
10.09 -7.76 0.628 0
34.448 -26.193 -5.511 4
32.336 -24.31 -5.371 4
10.854 -8.075 0.061 0
10.343 -7.614 0.077 16
10.401 -7.584 -0.064 20
11.125 -8.034 -0.41 18
9.502 -6.802 -0.029 27
22.771 -16.159 -4.535 6
21.725 -15.295 -4.46 5
20.758 -14.499 -4.388 5
19.921 -13.811 -4.344 5
19.114 -13.164 -4.297 6
11.739 -8.031 -1.637 0
11.754 -7.994 -1.803 26
11.826 -7.995 -1.996 23
16.398 -11.029 -4.162 7
15.822 -10.586 -4.14 9
15.277 -10.174 -4.124 19
14.809 -9.816 -4.132 17
14.22 -9.387 -4.073 11
13.663 -8.981 -4.017 18
12.95 -8.477 -3.865 9
10.747 -7.011 -2.883 4
10.597 -6.886 -2.986 33
9.627 -8.163 1.561 26
9.781 -8.178 1.41 11
9.523 -7.853 1.331 34
9.376 -7.63 1.239 21
9.133 -7.335 1.171 26
9.331 -7.398 1.018 18
9.287 -7.275 0.914 21
10.177 -7.876 0.592 11
10.599 -8.11 0.365 0
10.719 -8.11 0.208 0
10.799 -8.086 0.057 20
10.449 -7.742 0.028 27
10.558 -7.747 -0.13 53
11.11 -8.076 -0.428 0
9.507 -6.85 -0.05 24
22.627 -16.16 -4.536 7
21.593 -15.3 -4.462 5
20.638 -14.509 -4.393 5
19.802 -13.818 -4.347 5
19.004 -13.172 -4.301 6
18.257 -12.57 -4.258 6
11.765 -8.053 -1.839 13
11.806 -8.032 -2.019 21
11.903 -8.056 -2.232 19
15.74 -10.597 -4.148 9
15.199 -10.184 -4.131 13
14.707 -9.808 -4.126 19
14.148 -9.396 -4.08 14
13.592 -8.988 -4.022 14
12.869 -8.474 -3.862 10
12.325 -8.087 -3.786 15
10.592 -6.923 -3.018 28
9.597 -8.185 1.557 23
9.799 -8.242 1.398 21
9.365 -7.769 1.349 26
9.307 -7.619 1.241 27
9.098 -7.352 1.167 1
9.296 -7.416 1.013 23
9.221 -7.268 0.916 39
10.155 -7.908 0.582 27
10.511 -8.094 0.37 25
10.655 -8.113 0.207 22
10.745 -8.095 0.054 21
10.798 -8.052 -0.091 12
26.3 -19.424 -4.848 5
24.905 -18.219 -4.733 6
9.502 -6.891 -0.068 21
22.489 -16.166 -4.538 7
21.458 -15.303 -4.464 5
20.521 -14.52 -4.398 5
19.688 -13.826 -4.352 5
18.897 -13.183 -4.307 6
18.156 -12.581 -4.264 6
17.464 -12.029 -4.228 6
11.755 -8.048 -2.029 27
11.834 -8.059 -2.234 24
15.658 -10.607 -4.154 9
15.121 -10.195 -4.139 12
14.615 -9.806 -4.125 17
14.082 -9.408 -4.09 27
13.507 -8.985 -4.02 22
12.801 -8.48 -3.867 9
12.261 -8.092 -3.79 15
10.723 -7.049 -3.127 31
9.591 -8.228 1.549 21
9.702 -8.209 1.404 27
9.272 -7.738 1.355 27
9.296 -7.656 1.232 23
9.235 -7.508 1.128 0
9.897 -7.944 0.871 29
9.164 -7.267 0.916 26
10.102 -7.916 0.58 22
10.088 -7.816 0.46 31
10.622 -8.139 0.197 26
10.727 -8.134 0.04 4
27.678 -20.772 -4.973 6
26.119 -19.414 -4.844 5
24.731 -18.207 -4.729 6
9.444 -6.893 -0.069 28
22.345 -16.167 -4.539 7
21.323 -15.305 -4.465 5
20.401 -14.528 -4.403 5
19.573 -13.835 -4.356 5
18.794 -13.194 -4.314 6
18.051 -12.589 -4.268 6
17.368 -12.039 -4.234 6
11.794 -8.127 -2.078 19
11.823 -8.102 -2.262 34
11.889 -8.104 -2.466 15
15.056 -10.213 -4.151 18
14.548 -9.821 -4.136 15
14.01 -9.417 -4.096 20
13.434 -8.99 -4.024 23
12.711 -8.47 -3.859 13
12.191 -8.092 -3.79 24
10.708 -7.08 -3.155 10
9.594 -8.279 1.54 0
9.744 -8.293 1.388 18
9.258 -7.772 1.348 21
9.281 -7.691 1.224 28
0.0 -0.0 3.0 0
9.869 -7.97 0.864 20
9.168 -7.316 0.902 35
10.079 -7.948 0.57 16
10.038 -7.827 0.457 23
9.888 -7.625 0.375 4
29.256 -22.326 -5.126 5
27.481 -20.756 -4.967 5
25.944 -19.409 -4.842 6
24.578 -18.212 -4.73 6
9.408 -6.911 -0.077 17
22.202 -16.167 -4.539 7
21.198 -15.313 -4.469 6
20.284 -14.538 -4.407 5
19.468 -13.849 -4.363 5
18.688 -13.204 -4.319 5
17.95 -12.597 -4.273 6
17.274 -12.05 -4.24 6
11.805 -8.185 -2.115 3
11.793 -8.133 -2.282 26
11.841 -8.122 -2.478 17
14.972 -10.219 -4.155 22
14.478 -9.833 -4.144 16
11.145 -7.536 -2.679 2
13.351 -8.988 -4.022 16
12.625 -8.462 -3.852 15
12.146 -8.11 -3.805 17
11.747 -7.812 -3.79 12
9.951 -8.637 1.477 27
9.683 -8.29 1.389 24
9.298 -7.852 1.331 20
9.343 -7.789 1.202 48
9.982 -8.214 0.952 18
9.844 -7.999 0.857 23
9.79 -7.86 0.746 27
10.038 -7.965 0.565 0
9.941 -7.8 0.465 25
9.848 -7.642 0.369 29
29.036 -22.3 -5.117 5
27.287 -20.741 -4.962 5
25.767 -19.4 -4.838 5
24.41 -18.204 -4.727 6
9.418 -6.963 -0.1 23
22.065 -16.17 -4.54 7
21.072 -15.321 -4.473 5
20.167 -14.548 -4.412 6
19.35 -13.854 -4.366 5
18.572 -13.206 -4.32 6
17.861 -12.616 -4.284 6
17.187 -12.065 -4.25 6
16.569 -11.561 -4.224 7
11.809 -8.195 -2.322 18
11.808 -8.149 -2.496 27
11.896 -8.17 -2.72 16
14.408 -9.846 -4.154 16
11.062 -7.526 -2.671 2
13.26 -8.98 -4.016 17
12.557 -8.467 -3.856 14
12.091 -8.12 -3.814 22
11.69 -7.819 -3.797 14
9.968 -8.701 1.466 27
9.718 -8.37 1.373 18
9.259 -7.866 1.328 20
9.174 -7.694 1.224 23
9.564 -7.918 1.026 1
9.877 -8.075 0.836 10
9.771 -7.894 0.736 25
9.737 -7.774 0.623 0
9.86 -7.786 0.47 17
9.835 -7.681 0.355 28
28.832 -22.284 -5.111 5
27.094 -20.726 -4.956 5
25.59 -19.39 -4.834 5
24.258 -18.207 -4.728 6
9.416 -7.006 -0.119 16
21.925 -16.171 -4.541 7
20.935 -15.32 -4.472 5
20.042 -14.55 -4.414 5
19.242 -13.865 -4.372 5
18.475 -13.222 -4.329 5
17.76 -12.623 -4.288 6
17.097 -12.079 -4.258 6
16.474 -11.567 -4.228 7
11.81 -8.247 -2.356 0
11.793 -8.19 -2.524 21
11.832 -8.176 -2.725 31
11.171 -7.68 -2.58 2
10.98 -7.514 -2.663 2
11.19 -7.623 -2.956 0
12.447 -8.442 -3.836 54
12.024 -8.123 -3.816 21
11.64 -7.83 -3.806 17
9.876 -8.673 1.471 24
9.774 -8.468 1.354 11
9.305 -7.952 1.31 30
9.081 -7.661 1.231 20
9.469 -7.888 1.033 0
9.992 -8.219 0.798 12
9.749 -7.925 0.728 28
9.702 -7.795 0.617 28
9.829 -7.81 0.462 22
9.785 -7.69 0.352 27
28.617 -22.258 -5.101 6
26.91 -20.717 -4.952 6
25.419 -19.384 -4.832 5
24.091 -18.197 -4.724 6
22.871 -17.125 -4.625 6
21.788 -16.174 -4.542 7
20.807 -15.324 -4.474 5
19.922 -14.556 -4.417 5
19.131 -13.872 -4.376 5
18.366 -13.228 -4.332 6
17.665 -12.636 -4.296 6
17.011 -12.093 -4.266 6
16.392 -11.582 -4.237 6
15.818 -11.115 -4.218 8
11.788 -8.237 -2.556 17
11.808 -8.21 -2.749 43
11.13 -7.699 -2.594 5
10.897 -7.503 -2.654 2
11.107 -7.612 -2.947 2
12.409 -8.466 -3.856 34
11.97 -8.133 -3.824 20
11.574 -7.831 -3.807 22
9.842 -8.692 1.467 23
9.86 -8.592 1.33 24
9.347 -8.036 1.292 46
9.063 -7.694 1.224 29
10.465 -8.77 0.813 8
9.784 -8.097 0.83 25
9.791 -8.009 0.704 19
9.647 -7.798 0.616 25
9.779 -7.819 0.459 24
9.797 -7.748 0.332 7
28.408 -22.235 -5.093 6
26.724 -20.705 -4.948 5
25.227 -19.361 -4.822 6
23.939 -18.199 -4.725 6
22.722 -17.124 -4.624 6
21.655 -16.179 -4.544 7
20.686 -15.332 -4.478 5
19.812 -14.568 -4.423 5
19.023 -13.883 -4.382 5
18.264 -13.238 -4.338 5
17.567 -12.646 -4.301 6
16.921 -12.106 -4.274 6
16.307 -11.594 -4.245 7
15.735 -11.125 -4.225 6
11.797 -8.294 -2.594 2
11.775 -8.237 -2.767 32
11.068 -7.703 -2.597 4
10.824 -7.498 -2.65 4
11.024 -7.601 -2.938 2
12.326 -8.459 -3.85 37
11.912 -8.142 -3.832 24
11.533 -7.847 -3.822 15
9.861 -8.76 1.455 24
9.691 -8.495 1.349 24
9.577 -8.283 1.239 28
9.031 -7.712 1.219 32
10.429 -8.793 0.808 4
9.734 -8.106 0.828 23
35.586 -29.289 -5.399 28
9.619 -7.824 0.608 28
9.738 -7.836 0.454 27
30.129 -23.977 -5.256 4
28.208 -22.22 -5.087 5
26.526 -20.682 -4.939 6
25.06 -19.356 -4.82 6
23.779 -18.193 -4.723 6
22.583 -17.128 -4.626 6
21.522 -16.182 -4.546 7
20.543 -15.324 -4.474 5
19.696 -14.576 -4.427 6
18.909 -13.888 -4.384 5
18.161 -13.247 -4.343 6
17.476 -12.66 -4.309 6
16.825 -12.113 -4.278 6
16.225 -11.609 -4.254 7
15.657 -11.139 -4.234 6
15.12 -10.696 -4.214 9
11.775 -8.287 -2.803 19
11.012 -7.711 -2.602 4
10.747 -7.49 -2.644 6
10.936 -7.585 -2.926 2
11.178 -7.717 -3.249 2
11.849 -8.145 -3.835 27
11.479 -7.856 -3.829 12
9.791 -8.749 1.457 20
9.543 -8.415 1.364 26
9.606 -8.358 1.224 26
9.106 -7.823 1.194 27
10.139 -8.601 0.855 6
9.684 -8.114 0.826 30
35.299 -29.233 -5.383 22
9.621 -7.875 0.592 24
9.795 -7.931 0.423 1
29.912 -23.955 -5.248 4
28.0 -22.195 -5.078 5
26.331 -20.661 -4.931 5
24.894 -19.35 -4.818 6
23.622 -18.188 -4.721 6
22.441 -17.13 -4.627 6
21.395 -16.19 -4.55 7
20.428 -15.336 -4.48 5
19.577 -14.581 -4.429 5
18.805 -13.9 -4.391 5
18.055 -13.254 -4.347 6
17.375 -12.667 -4.313 6
16.735 -12.124 -4.285 6
16.14 -11.62 -4.261 6
15.574 -11.149 -4.24 8
15.038 -10.704 -4.22 10
11.783 -8.344 -2.843 5
10.957 -7.718 -2.608 4
10.677 -7.486 -2.641 5
10.853 -7.572 -2.916 2
11.093 -7.703 -3.238 2
11.773 -8.141 -3.831 28
11.423 -7.863 -3.835 12
9.765 -8.777 1.452 18
9.619 -8.532 1.342 23
9.5 -8.315 1.233 22
9.112 -7.876 1.182 31
9.911 -8.459 0.891 15
9.698 -8.176 0.809 13
10.095 -8.412 0.588 4
9.608 -7.914 0.581 13
31.866 -25.962 -5.436 11
29.688 -23.925 -5.238 4
27.801 -22.178 -5.072 5
26.152 -20.651 -4.927 5
24.715 -19.333 -4.811 6
23.471 -18.187 -4.72 7
22.294 -17.126 -4.625 6
21.253 -16.186 -4.548 7
20.307 -15.342 -4.483 5
19.465 -14.589 -4.434 5
18.694 -13.906 -4.394 5
17.959 -13.267 -4.354 5
17.284 -12.68 -4.321 6
16.652 -12.14 -4.294 6
16.055 -11.631 -4.268 6
15.49 -11.159 -4.246 6
14.968 -10.72 -4.231 9
14.457 -10.3 -4.212 10
10.895 -7.721 -2.61 4
10.595 -7.473 -2.631 4
10.774 -7.562 -2.908 2
11.007 -7.689 -3.226 2
11.695 -8.134 -3.825 10
11.378 -7.877 -3.847 17
9.727 -8.793 1.45 19
9.54 -8.512 1.345 19
9.365 -8.245 1.247 23
9.115 -7.925 1.17 28
9.819 -8.431 0.898 18
9.621 -8.161 0.813 24
34.847 -29.217 -5.378 26
9.585 -7.944 0.571 28
31.636 -25.936 -5.427 12
29.454 -23.886 -5.225 5
27.588 -22.147 -5.061 6
25.97 -20.637 -4.922 6
24.546 -19.323 -4.807 6
23.305 -18.174 -4.715 6
22.143 -17.119 -4.622 6
21.126 -16.192 -4.55 7
20.189 -15.351 -4.487 5
19.355 -14.6 -4.439 6
18.59 -13.917 -4.4 5
17.851 -13.271 -4.356 5
17.186 -12.689 -4.326 6
16.562 -12.151 -4.301 6
15.976 -11.647 -4.278 6
15.41 -11.17 -4.254 6
14.883 -10.725 -4.234 9
14.382 -10.31 -4.219 9
10.845 -7.733 -2.618 3
10.519 -7.465 -2.625 4
10.695 -7.551 -2.9 2
10.922 -7.674 -3.214 2
11.165 -7.81 -3.554 4
11.321 -7.884 -3.853 13
9.989 -9.084 1.398 14
9.338 -8.38 1.371 19
9.227 -8.173 1.263 19
9.12 -7.978 1.158 30
9.942 -8.589 0.858 18
9.568 -8.166 0.812 30
9.789 -8.258 0.632 22
9.738 -8.12 0.517 17
9.769 -8.059 0.381 16
29.239 -23.861 -5.216 4
27.387 -22.124 -5.053 6
25.791 -20.626 -4.918 6
24.38 -19.315 -4.804 6
23.158 -18.175 -4.715 7
21.993 -17.111 -4.618 7
20.997 -16.196 -4.552 7
20.065 -15.354 -4.489 5
19.234 -14.601 -4.439 5
18.486 -13.926 -4.405 5
17.755 -13.283 -4.363 5
17.095 -12.701 -4.333 6
16.479 -12.165 -4.31 6
15.886 -11.654 -4.282 6
15.33 -11.18 -4.261 6
14.814 -10.741 -4.245 9
11.156 -8.047 -2.634 4
10.786 -7.738 -2.622 4
10.459 -7.466 -2.626 5
10.622 -7.545 -2.895 2
10.839 -7.661 -3.204 2
11.076 -7.794 -3.54 3
11.18 -7.83 -3.807 13
9.672 -8.846 1.44 26
9.28 -8.378 1.372 21
9.199 -8.197 1.258 30
9.342 -8.221 1.102 30
9.782 -8.502 0.88 25
9.573 -8.22 0.798 17
9.709 -8.241 0.637 28
9.678 -8.121 0.517 30
9.707 -8.057 0.382 22
29.022 -23.833 -5.206 5
27.192 -22.106 -5.046 6
25.61 -20.61 -4.911 6
24.218 -19.308 -4.801 6
23.004 -18.169 -4.712 6
21.84 -17.1 -4.614 12
20.865 -16.197 -4.553 7
19.944 -15.359 -4.491 5
19.128 -14.613 -4.446 6
18.375 -13.931 -4.407 5
17.658 -13.295 -4.37 5
17.001 -12.711 -4.339 6
16.386 -12.174 -4.315 6
15.804 -11.666 -4.29 6
15.253 -11.194 -4.27 6
14.738 -10.752 -4.253 9
11.102 -8.057 -2.641 5
10.728 -7.743 -2.625 3
10.401 -7.47 -2.629 5
10.54 -7.531 -2.884 2
10.757 -7.648 -3.194 2
10.994 -7.781 -3.529 3
11.103 -7.821 -3.799 11
9.579 -8.812 1.446 17
9.284 -8.431 1.361 22
9.174 -8.224 1.252 19
9.275 -8.212 1.104 27
9.758 -8.532 0.873 19
9.583 -8.278 0.782 16
9.697 -8.283 0.625 30
9.64 -8.139 0.512 29
9.656 -8.066 0.379 32
28.802 -23.801 -5.195 5
26.992 -22.082 -5.037 6
25.432 -20.597 -4.906 6
24.062 -19.306 -4.8 6
22.852 -18.164 -4.71 6
21.705 -17.103 -4.615 23
20.742 -16.204 -4.556 7
19.833 -15.37 -4.497 5
19.018 -14.622 -4.45 5
18.271 -13.941 -4.412 5
17.553 -13.3 -4.372 5
16.91 -12.722 -4.345 5
16.3 -12.185 -4.322 6
15.725 -11.68 -4.298 6
15.176 -11.206 -4.277 6
14.653 -10.756 -4.255 9
11.045 -8.065 -2.647 4
10.675 -7.751 -2.632 3
10.355 -7.482 -2.638 5
10.465 -7.522 -2.877 3
10.673 -7.633 -3.181 2
10.909 -7.766 -3.516 3
11.033 -7.817 -3.795 9
9.521 -8.81 1.447 25
8.984 -8.206 1.405 15
9.129 -8.231 1.25 30
9.256 -8.244 1.097 30
9.779 -8.603 0.855 26
9.485 -8.244 0.791 24
9.641 -8.285 0.624 24
9.644 -8.193 0.495 31
9.663 -8.122 0.361 28
28.592 -23.775 -5.186 5
26.802 -22.064 -5.031 6
25.249 -20.577 -4.899 5
23.897 -19.295 -4.796 6
22.705 -18.162 -4.709 6
21.571 -17.106 -4.616 33
20.607 -16.201 -4.555 7
19.71 -15.372 -4.497 5
18.9 -14.623 -4.451 5
18.164 -13.947 -4.416 5
17.458 -13.311 -4.378 6
16.816 -12.732 -4.351 6
16.21 -12.195 -4.327 6
15.641 -11.69 -4.305 6
15.105 -11.223 -4.288 6
14.587 -10.774 -4.267 9
10.989 -8.072 -2.652 4
10.616 -7.756 -2.635 3
10.304 -7.489 -2.644 5
10.395 -7.516 -2.873 2
10.603 -7.627 -3.176 2
10.818 -7.746 -3.5 3
10.977 -7.822 -3.799 9
9.498 -8.839 1.441 30
8.881 -8.16 1.414 17
9.063 -8.22 1.253 29
9.301 -8.334 1.076 28
9.738 -8.619 0.851 24
9.427 -8.244 0.791 27
9.368 -8.099 0.678 26
9.624 -8.227 0.485 22
9.607 -8.125 0.36 33
28.379 -23.746 -5.176 5
26.623 -22.055 -5.027 6
25.065 -20.558 -4.891 6
23.738 -19.289 -4.793 6
22.559 -18.159 -4.708 6
21.442 -17.112 -4.619 36
20.485 -16.207 -4.557 7
19.596 -15.381 -4.502 5
18.792 -14.632 -4.455 5
18.064 -13.958 -4.421 5
17.359 -13.319 -4.383 6
16.728 -12.745 -4.358 6
16.127 -12.208 -4.336 6
15.553 -11.697 -4.309 6
15.019 -11.228 -4.292 6
14.505 -10.779 -4.271 9
10.929 -8.078 -2.656 3
10.57 -7.768 -2.644 4
10.249 -7.494 -2.647 4
10.317 -7.504 -2.863 3
10.53 -7.62 -3.17 2
10.742 -7.737 -3.492 3
10.929 -7.833 -3.809 8
9.506 -8.9 1.431 20
8.935 -8.258 1.395 27
9.044 -8.253 1.246 23
9.278 -8.363 1.069 8
9.575 -8.526 0.874 24
9.333 -8.211 0.8 25
9.259 -8.055 0.69 28
9.796 -8.426 0.424 32
9.72 -8.273 0.312 23
28.172 -23.721 -5.168 5
26.433 -22.036 -5.02 6
24.856 -20.515 -4.875 10
23.574 -19.276 -4.788 6
22.413 -18.157 -4.707 6
21.305 -17.111 -4.618 38
20.356 -16.208 -4.558 8
19.479 -15.386 -4.504 5
18.683 -14.64 -4.459 5
17.96 -13.965 -4.425 5
17.263 -13.329 -4.388 5
16.634 -12.753 -4.363 5
16.035 -12.214 -4.339 6
15.475 -11.711 -4.318 6
14.942 -11.24 -4.299 8
14.436 -10.794 -4.281 9
10.869 -8.083 -2.659 3
10.52 -7.779 -2.652 4
10.2 -7.503 -2.654 4
10.247 -7.498 -2.858 2
10.451 -7.608 -3.161 3
10.663 -7.724 -3.482 3
10.876 -7.84 -3.815 9
9.514 -8.959 1.42 17
8.849 -8.227 1.401 14
9.019 -8.278 1.24 23
9.27 -8.406 1.059 2
9.546 -8.551 0.868 25
9.304 -8.236 0.793 27
9.222 -8.072 0.686 27
9.636 -8.34 0.45 2
9.682 -8.291 0.306 9
27.963 -23.693 -5.158 5
26.232 -22.005 -5.009 6
24.694 -20.51 -4.873 25
23.404 -19.258 -4.781 6
22.264 -18.15 -4.704 6
21.172 -17.111 -4.618 40
20.234 -16.213 -4.56 7
19.365 -15.394 -4.508 6
18.577 -14.65 -4.464 5
17.851 -13.968 -4.427 5
17.168 -13.339 -4.394 5
16.538 -12.758 -4.366 6
15.958 -12.232 -4.35 6
15.393 -11.722 -4.324 7
14.865 -11.252 -4.307 8
14.357 -10.801 -4.286 9
10.81 -8.087 -2.663 3
10.464 -7.785 -2.656 4
10.149 -7.511 -2.66 4
10.169 -7.486 -2.848 2
10.373 -7.595 -3.151 2
10.584 -7.712 -3.472 3
10.809 -7.836 -3.812 18
9.462 -8.962 1.42 1
8.813 -8.242 1.398 25
9.011 -8.321 1.231 29
9.28 -8.465 1.046 29
9.604 -8.656 0.842 10
9.284 -8.269 0.784 28
9.158 -8.065 0.687 24
30.95 -26.953 -5.24 37
29.696 -25.588 -5.314 5
27.746 -23.656 -5.145 4
26.043 -21.984 -5.001 5
24.527 -20.499 -4.869 33
23.264 -19.264 -4.783 6
22.121 -18.149 -4.704 6
21.047 -17.118 -4.622 37
20.115 -16.22 -4.564 8
19.248 -15.398 -4.51 5
18.463 -14.651 -4.465 5
17.747 -13.975 -4.431 5
17.072 -13.349 -4.4 6
16.453 -12.773 -4.375 6
15.872 -12.242 -4.356 6
15.315 -11.735 -4.333 6
14.779 -11.256 -4.31 8
14.288 -10.816 -4.295 9
10.756 -8.097 -2.669 3
10.412 -7.792 -2.662 4
10.097 -7.518 -2.665 4
10.1 -7.479 -2.843 2
10.295 -7.583 -3.14 2
10.506 -7.7 -3.461 3
10.739 -7.83 -3.807 8
8.993 -8.567 1.489 7
8.947 -8.417 1.364 20
8.986 -8.347 1.226 28
0.0 -0.0 3.0 0
9.691 -8.787 0.809 16
9.27 -8.306 0.774 20
9.214 -8.165 0.659 21
30.766 -26.958 -5.242 18
29.471 -25.552 -5.302 5
27.544 -23.631 -5.137 5
25.86 -21.967 -4.995 6
24.363 -20.491 -4.866 35
23.107 -19.256 -4.78 7
21.979 -18.146 -4.702 6
20.922 -17.126 -4.625 33
19.99 -16.221 -4.564 8
19.132 -15.402 -4.512 5
18.355 -14.657 -4.468 5
17.653 -13.989 -4.438 5
16.977 -13.358 -4.405 6
16.356 -12.778 -4.377 6
15.786 -12.252 -4.362 6
15.228 -11.74 -4.336 6
14.708 -11.272 -4.32 8
14.219 -10.829 -4.304 9
10.709 -8.11 -2.679 4
10.356 -7.798 -2.666 3
10.043 -7.522 -2.668 4
10.02 -7.464 -2.831 2
10.22 -7.572 -3.132 2
10.425 -7.686 -3.449 3
10.651 -7.812 -3.791 12
8.95 -8.577 1.488 7
8.898 -8.42 1.363 26
8.995 -8.405 1.213 19
0.0 -0.0 3.0 0
9.67 -8.821 0.801 16
9.603 -8.658 0.68 27
9.297 -8.288 0.623 26
30.562 -26.945 -5.238 20
29.249 -25.518 -5.291 6
27.333 -23.596 -5.125 5
25.672 -21.944 -4.987 6
24.203 -20.484 -4.863 33
22.953 -19.248 -4.777 6
21.84 -18.145 -4.702 6
20.801 -17.134 -4.628 23
19.862 -16.22 -4.564 7
19.022 -15.41 -4.516 5
18.247 -14.664 -4.471 5
17.547 -13.992 -4.44 5
16.882 -13.367 -4.409 5
16.272 -12.792 -4.385 6
15.703 -12.264 -4.369 6
15.146 -11.75 -4.342 6
14.629 -11.28 -4.325 6
14.138 -10.834 -4.307 9
10.652 -8.116 -2.683 4
10.301 -7.803 -2.67 4
9.997 -7.533 -2.677 4
9.954 -7.459 -2.828 2
10.145 -7.56 -3.122 2
10.344 -7.67 -3.436 3
10.573 -7.799 -3.779 9
8.89 -8.569 1.489 22
8.847 -8.422 1.363 22
8.958 -8.421 1.21 23
0.0 -0.0 3.0 0
9.613 -8.823 0.8 28
9.52 -8.636 0.686 20
9.244 -8.293 0.622 30
30.319 -26.896 -5.223 18
29.011 -25.467 -5.275 5
27.144 -23.579 -5.119 5
25.484 -21.92 -4.978 6
24.054 -20.486 -4.864 28
22.793 -19.234 -4.771 6
21.695 -18.139 -4.7 6
20.68 -17.142 -4.632 10
19.744 -16.226 -4.566 7
18.905 -15.412 -4.517 5
18.144 -14.674 -4.477 5
17.447 -14.001 -4.444 5
16.787 -13.375 -4.414 5
16.181 -12.801 -4.39 6
15.618 -12.273 -4.375 5
15.065 -11.76 -4.349 6
14.555 -11.293 -4.334 6
14.065 -10.845 -4.315 9
10.607 -8.132 -2.694 4
10.257 -7.817 -2.68 4
9.94 -7.535 -2.678 4
9.88 -7.447 -2.818 2
10.067 -7.547 -3.112 2
10.277 -7.666 -3.433 3
10.494 -7.786 -3.768 6
8.873 -8.604 1.483 28
8.802 -8.428 1.362 26
9.062 -8.569 1.179 18
0.0 -0.0 3.0 0
9.617 -8.88 0.786 23
9.531 -8.698 0.669 31
9.218 -8.32 0.614 27
30.113 -26.879 -5.218 19
28.79 -25.43 -5.263 5
26.94 -23.548 -5.108 5
25.302 -21.9 -4.971 6
23.918 -20.499 -4.869 13
22.645 -19.23 -4.769 6
21.562 -18.142 -4.701 6
20.541 -17.135 -4.629 7
19.626 -16.23 -4.568 7
18.792 -15.418 -4.52 6
18.043 -14.684 -4.482 5
17.344 -14.006 -4.447 5
16.691 -13.383 -4.418 6
16.088 -12.807 -4.394 6
15.532 -12.283 -4.38 6
14.99 -11.774 -4.357 6
14.475 -11.3 -4.338 8
13.993 -10.855 -4.322 9
10.548 -8.136 -2.697 4
10.205 -7.824 -2.685 4
9.897 -7.547 -2.687 4
9.811 -7.44 -2.813 1
9.996 -7.537 -3.104 2
10.196 -7.65 -3.419 3
10.416 -7.773 -3.757 5
8.862 -8.643 1.476 18
8.762 -8.44 1.359 12
9.021 -8.582 1.176 30
0.0 -0.0 3.0 0
9.546 -8.868 0.789 25
9.501 -8.723 0.663 32
9.412 -8.547 0.549 72
29.915 -26.868 -5.214 20
28.579 -25.401 -5.253 6
26.739 -23.518 -5.098 4
25.127 -21.885 -4.965 6
23.755 -20.488 -4.864 6
22.498 -19.225 -4.767 6
21.418 -18.134 -4.697 6
20.405 -17.129 -4.626 7
19.507 -16.235 -4.57 7
18.688 -15.429 -4.525 6
17.932 -14.686 -4.483 5
17.244 -14.013 -4.451 5
16.594 -13.389 -4.422 6
16.001 -12.818 -4.4 5
15.452 -12.295 -4.388 6
14.906 -11.781 -4.361 6
14.402 -11.312 -4.346 8
13.918 -10.863 -4.327 9
10.5 -8.148 -2.706 4
10.155 -7.834 -2.692 4
9.848 -7.555 -2.693 4
9.737 -7.428 -2.803 2
9.924 -7.528 -3.096 2
10.122 -7.638 -3.409 3
10.341 -7.762 -3.747 4
8.766 -8.599 1.484 20
8.751 -8.479 1.352 23
9.007 -8.619 1.168 26
0.0 -0.0 3.0 0
9.548 -8.922 0.775 24
9.519 -8.794 0.644 27
9.141 -8.352 0.605 6
29.721 -26.858 -5.211 18
28.359 -25.362 -5.241 5
26.551 -23.499 -5.091 5
24.949 -21.866 -4.959 6
23.572 -20.457 -4.853 5
22.348 -19.217 -4.764 6
21.279 -18.131 -4.696 6
20.279 -17.131 -4.627 6
19.392 -16.241 -4.573 7
18.576 -15.433 -4.527 5
17.833 -14.697 -4.488 5
17.153 -14.028 -4.459 5
16.505 -13.401 -4.428 5
15.917 -12.83 -4.407 6
15.367 -12.304 -4.393 6
14.831 -11.795 -4.37 6
14.322 -11.319 -4.351 8
13.852 -10.879 -4.338 8
10.444 -8.154 -2.71 4
10.106 -7.843 -2.698 4
9.803 -7.565 -2.701 4
9.692 -7.437 -2.811 4
9.85 -7.516 -3.086 2
10.05 -7.629 -3.401 2
10.263 -7.748 -3.735 4
8.74 -8.623 1.479 26
8.76 -8.538 1.34 0
8.983 -8.648 1.162 27
9.545 -9.081 0.904 10
9.454 -8.889 0.784 22
9.63 -8.951 0.602 28
9.803 -9.012 0.416 21
29.49 -26.814 -5.198 11
28.14 -25.323 -5.228 6
26.36 -23.476 -5.083 5
24.771 -21.846 -4.951 5
23.401 -20.436 -4.845 5
22.198 -19.209 -4.761 7
21.147 -18.132 -4.697 6
20.158 -17.136 -4.63 6
19.274 -16.244 -4.575 7
18.463 -15.436 -4.529 5
17.729 -14.703 -4.492 5
17.054 -14.033 -4.462 5
16.41 -13.407 -4.432 5
15.824 -12.835 -4.41 6
15.284 -12.314 -4.399 6
14.744 -11.799 -4.373 6
14.252 -11.333 -4.36 8
13.78 -10.888 -4.344 9
10.391 -8.162 -2.715 4
10.056 -7.852 -2.705 4
9.754 -7.573 -2.707 4
9.689 -7.48 -2.844 4
9.781 -7.508 -3.08 2
9.972 -7.615 -3.389 3
10.185 -7.734 -3.723 4
8.712 -8.646 1.475 16
34.33 -33.658 -3.542 14
9.031 -8.746 1.141 1
9.636 -9.223 0.871 20
9.455 -8.943 0.77 22
9.415 -8.804 0.641 25
9.754 -9.021 0.413 19
29.233 -26.745 -5.177 8
27.939 -25.298 -5.22 5
26.173 -23.455 -5.076 4
24.6 -21.831 -4.946 6
23.251 -20.433 -4.843 5
22.054 -19.204 -4.759 7
21.007 -18.125 -4.694 6
20.029 -17.135 -4.629 7
19.157 -16.246 -4.576 8
18.353 -15.442 -4.531 5
17.624 -14.709 -4.495 5
16.951 -14.038 -4.464 5
16.327 -13.423 -4.441 4
15.74 -12.846 -4.417 6
15.199 -12.322 -4.404 6
14.672 -11.814 -4.382 6
14.175 -11.343 -4.366 8
13.705 -10.895 -4.349 8
10.343 -8.174 -2.724 4
10.013 -7.865 -2.714 4
9.708 -7.583 -2.714 4
9.692 -7.527 -2.881 4
9.716 -7.502 -3.075 2
9.904 -7.606 -3.382 3
10.116 -7.726 -3.716 3
8.764 -8.75 1.457 18
51.724 -51.011 -6.916 11
47.531 -46.305 -6.842 15
9.648 -9.29 0.855 20
9.367 -8.914 0.778 27
9.442 -8.883 0.62 28
9.714 -9.04 0.408 33
28.985 -26.681 -5.157 7
27.726 -25.261 -5.208 5
25.988 -23.435 -5.069 4
24.417 -21.804 -4.936 6
23.096 -20.424 -4.84 5
21.908 -19.198 -4.756 7
20.875 -18.125 -4.694 6
19.906 -17.136 -4.63 7
19.036 -16.246 -4.576 7
18.244 -15.446 -4.534 6
17.52 -14.714 -4.497 5
16.855 -14.045 -4.468 6
16.23 -13.427 -4.443 5
15.653 -12.856 -4.422 6
15.111 -12.327 -4.407 6
14.597 -11.827 -4.39 6
14.102 -11.353 -4.373 8
13.63 -10.903 -4.354 9
10.29 -8.182 -2.729 4
9.96 -7.872 -2.719 4
9.686 -7.611 -2.735 5
9.695 -7.574 -2.918 4
9.702 -7.535 -3.102 4
9.832 -7.595 -3.373 3
10.033 -7.707 -3.7 4
9.315 -9.354 1.351 14
33.795 -33.526 -3.517 17
47.209 -46.266 -6.834 26
9.579 -9.279 0.858 23
9.396 -8.996 0.757 20
9.734 -9.213 0.531 22
9.665 -9.05 0.405 30
28.793 -26.668 -5.153 7
27.52 -25.23 -5.198 6
25.796 -23.406 -5.059 4
24.243 -21.785 -4.929 6
22.94 -20.414 -4.836 5
21.762 -19.19 -4.753 7
20.735 -18.117 -4.69 7
19.781 -17.135 -4.629 7
18.919 -16.248 -4.577 7
18.141 -15.456 -4.538 6
17.413 -14.716 -4.498 5
16.75 -14.046 -4.468 5
16.138 -13.435 -4.447 5
15.569 -12.866 -4.428 6
15.034 -12.341 -4.415 6
14.516 -11.834 -4.395 6
14.02 -11.357 -4.375 8
13.561 -10.914 -4.361 8
10.239 -8.191 -2.736 4
9.914 -7.882 -2.727 4
9.691 -7.661 -2.773 6
9.686 -7.612 -2.947 4
9.704 -7.582 -3.139 4
9.761 -7.585 -3.364 3
9.967 -7.701 -3.694 4
9.262 -9.356 1.35 12
33.293 -33.224 -3.458 26
46.953 -46.29 -6.839 17
9.469 -9.228 0.87 22
9.348 -9.004 0.755 16
9.724 -9.261 0.518 22
9.67 -9.111 0.388 25
28.624 -26.675 -5.155 7
27.32 -25.201 -5.188 5
25.612 -23.384 -5.052 4
24.079 -21.772 -4.925 6
22.782 -20.401 -4.831 5
21.625 -19.188 -4.753 7
20.615 -18.126 -4.694 6
19.658 -17.137 -4.63 7
18.804 -16.252 -4.578 7
18.029 -15.458 -4.539 5
17.312 -14.723 -4.502 6
16.662 -14.06 -4.476 5
16.047 -13.443 -4.452 5
15.479 -12.873 -4.432 6
14.958 -12.355 -4.423 6
14.433 -11.839 -4.398 6
13.952 -11.372 -4.385 7
13.498 -10.93 -4.372 9
10.18 -8.194 -2.737 4
9.859 -7.886 -2.73 4
9.691 -7.707 -2.808 4
9.691 -7.661 -2.986 4
9.709 -7.63 -3.179 4
9.707 -7.587 -3.366 4
9.885 -7.682 -3.678 3
9.223 -9.371 1.348 0
28.033 -28.141 -2.47 15
46.576 -46.192 -6.818 20
9.336 -9.153 0.887 16
9.422 -9.13 0.724 17
9.741 -9.333 0.499 24
9.749 -9.241 0.35 0
28.452 -26.68 -5.157 5
27.112 -25.165 -5.177 6
25.403 -23.338 -5.036 12
23.909 -21.754 -4.918 6
22.622 -20.384 -4.825 5
21.482 -19.182 -4.75 7
20.475 -18.116 -4.69 6
19.532 -17.135 -4.629 7
18.69 -16.256 -4.58 7
17.92 -15.461 -4.541 5
17.214 -14.732 -4.506 5
16.56 -14.062 -4.477 5
15.952 -13.448 -4.454 5
15.392 -12.881 -4.437 6
14.87 -12.359 -4.426 6
14.355 -11.849 -4.404 6
13.879 -11.382 -4.392 8
13.417 -10.931 -4.373 8
10.13 -8.203 -2.744 4
9.815 -7.899 -2.739 4
9.693 -7.755 -2.844 4
9.693 -7.709 -3.023 4
9.699 -7.668 -3.21 4
9.712 -7.636 -3.407 4
9.816 -7.672 -3.669 3
26.945 -27.537 -1.855 27
27.452 -27.721 -2.388 25
28.101 -28.036 -2.959 4
9.313 -9.186 0.879 24
9.362 -9.128 0.724 32
9.884 -9.528 0.447 6
30.008 -28.619 -5.206 13
28.286 -26.688 -5.159 6
26.913 -25.135 -5.167 5
25.224 -23.318 -5.029 24
23.745 -21.74 -4.913 5
22.467 -20.372 -4.82 5
21.334 -19.169 -4.745 7
20.353 -18.122 -4.692 6
19.416 -17.14 -4.631 7
18.579 -16.261 -4.583 7
17.817 -15.469 -4.545 6
17.11 -14.735 -4.508 5
16.464 -14.068 -4.48 5
15.87 -13.463 -4.462 5
15.309 -12.891 -4.442 6
14.79 -12.369 -4.432 6
14.283 -11.862 -4.412 6
13.806 -11.393 -4.398 7
13.348 -10.942 -4.381 9
10.079 -8.212 -2.75 4
9.771 -7.911 -2.748 4
9.692 -7.801 -2.878 4
9.695 -7.757 -3.06 4
9.701 -7.715 -3.247 4
9.707 -7.677 -3.442 4
9.748 -7.664 -3.662 3
26.714 -27.461 -1.842 46
27.232 -27.663 -2.377 18
28.032 -28.135 -2.98 18
9.288 -9.216 0.872 22
9.365 -9.185 0.71 24
9.874 -9.577 0.434 0
29.806 -28.602 -5.201 15
28.141 -26.715 -5.168 5
26.72 -25.11 -5.159 5
25.041 -23.293 -5.02 26
23.581 -21.726 -4.907 5
22.307 -20.354 -4.813 5
21.2 -19.169 -4.745 7
20.219 -18.116 -4.69 7
19.285 -17.133 -4.628 6
18.462 -16.26 -4.582 7
17.705 -15.47 -4.545 6
17.012 -14.743 -4.512 6
16.374 -14.079 -4.486 5
15.779 -13.469 -4.466 5
15.222 -12.898 -4.447 6
14.708 -12.377 -4.437 6
14.203 -11.869 -4.417 6
13.733 -11.402 -4.405 7
13.277 -10.951 -4.386 8
10.023 -8.216 -2.753 4
9.719 -7.917 -2.752 5
9.696 -7.852 -2.917 4
9.688 -7.797 -3.092 4
9.702 -7.762 -3.285 4
9.706 -7.72 -3.478 4
9.716 -7.683 -3.679 4
26.635 -27.542 -1.856 36
27.063 -27.654 -2.375 20
27.468 -27.733 -2.895 22
9.198 -9.182 0.88 21
9.325 -9.202 0.706 24
31.829 -31.059 -5.322 13
29.656 -28.632 -5.21 13
27.967 -26.713 -5.167 5
26.522 -25.078 -5.148 5
24.857 -23.266 -5.011 30
23.421 -21.712 -4.903 5
22.168 -20.353 -4.813 5
21.058 -19.16 -4.741 7
20.092 -18.115 -4.689 6
19.169 -17.136 -4.63 7
18.352 -16.265 -4.584 7
17.603 -15.477 -4.548 6
16.906 -14.743 -4.512 5
16.281 -14.088 -4.491 5
15.685 -13.473 -4.468 5
15.139 -12.908 -4.452 6
14.632 -12.39 -4.445 6
14.128 -11.88 -4.423 6
13.657 -11.409 -4.409 7
13.211 -10.963 -4.394 8
9.973 -8.225 -2.759 4
9.687 -7.938 -2.768 5
9.686 -7.891 -2.946 6
9.689 -7.845 -3.129 4
9.703 -7.808 -3.323 4
9.709 -7.769 -3.519 4
9.716 -7.728 -3.718 4
26.525 -27.589 -1.865 25
26.838 -27.588 -2.362 20
27.094 -27.521 -2.85 34
9.15 -9.189 0.879 31
9.304 -9.237 0.697 16
31.619 -31.042 -5.318 12
28.794 -27.97 -5.02 2
27.813 -26.731 -5.172 5
26.322 -25.044 -5.137 5
24.672 -23.237 -5.001 25
23.261 -21.699 -4.898 6
22.02 -20.344 -4.809 5
20.919 -19.153 -4.738 7
19.962 -18.111 -4.688 6
19.05 -17.137 -4.63 6
18.238 -16.266 -4.585 7
17.5 -15.483 -4.552 6
16.811 -14.753 -4.517 5
16.186 -14.093 -4.493 6
15.594 -13.479 -4.471 5
15.052 -12.914 -4.456 6
14.548 -12.395 -4.448 6
14.054 -11.891 -4.43 6
13.587 -11.42 -4.416 7
13.136 -10.969 -4.398 8
9.914 -8.226 -2.76 1
9.688 -7.987 -2.803 6
9.684 -7.937 -2.981 6
9.69 -7.892 -3.166 4
9.637 -7.801 -3.317 2
9.713 -7.817 -3.559 4
9.714 -7.771 -3.755 3
26.297 -27.514 -1.851 37
26.573 -27.477 -2.341 30
26.88 -27.467 -2.838 21
9.122 -9.216 0.872 31
9.259 -9.248 0.694 26
31.266 -30.884 -5.275 10
28.808 -28.157 -5.074 4
27.67 -26.759 -5.181 7
26.13 -25.016 -5.128 5
24.5 -23.218 -4.995 25
23.092 -21.677 -4.89 6
21.855 -20.319 -4.8 7
20.784 -19.149 -4.737 7
19.837 -18.111 -4.688 6
18.929 -17.135 -4.629 7
18.125 -16.267 -4.586 7
17.395 -15.486 -4.553 5
16.708 -14.755 -4.518 5
16.096 -14.103 -4.498 5
15.514 -13.494 -4.48 5
14.972 -12.926 -4.463 6
14.469 -12.405 -4.454 6
13.974 -11.896 -4.434 6
13.511 -11.427 -4.421 7
13.073 -10.983 -4.408 8
9.858 -8.23 -2.763 0
9.689 -8.036 -2.839 4
9.696 -7.995 -3.024 4
9.691 -7.94 -3.204 4
9.312 -7.583 -3.141 3
9.705 -7.857 -3.593 4
9.711 -7.815 -3.793 4
26.166 -27.539 -1.856 33
26.369 -27.429 -2.332 37
26.708 -27.454 -2.836 36
9.124 -9.273 0.859 30
9.235 -9.281 0.686 24
30.99 -30.798 -5.252 11
28.631 -28.157 -5.074 9
27.503 -26.76 -5.181 8
25.945 -24.992 -5.12 5
24.319 -23.191 -4.985 26
22.93 -21.659 -4.883 5
21.702 -20.303 -4.794 18
20.642 -19.139 -4.732 7
19.71 -18.109 -4.687 6
18.807 -17.132 -4.628 7
18.014 -16.27 -4.587 8
17.289 -15.49 -4.555 6
16.619 -14.769 -4.525 5
16.001 -14.108 -4.501 5
15.418 -13.495 -4.48 6
14.886 -12.931 -4.466 6
14.39 -12.414 -4.459 6
13.894 -11.901 -4.437 6
13.438 -11.435 -4.426 7
13.005 -10.992 -4.414 8
12.592 -10.577 -4.406 9
9.686 -8.083 -2.873 4
9.682 -8.031 -3.052 6
9.638 -7.945 -3.207 3
9.25 -7.577 -3.136 3
9.702 -7.901 -3.63 4
9.714 -7.863 -3.835 4
26.024 -27.55 -1.858 43
26.264 -27.483 -2.342 39
26.693 -27.603 -2.867 26
9.109 -9.314 0.85 29
9.273 -9.375 0.663 22
30.765 -30.762 -5.243 16
28.352 -28.053 -5.044 17
27.355 -26.781 -5.188 7
25.74 -24.949 -5.107 5
24.15 -23.173 -4.979 25
22.774 -21.645 -4.878 6
21.567 -20.303 -4.794 25
20.516 -19.14 -4.733 8
19.584 -18.105 -4.685 7
18.698 -17.14 -4.631 7
17.907 -16.275 -4.589 7
17.184 -15.493 -4.556 5
16.522 -14.775 -4.528 5
15.908 -14.114 -4.504 5
15.344 -13.514 -4.491 5
14.805 -12.942 -4.472 6
14.308 -12.421 -4.463 6
13.828 -11.918 -4.447 6
13.371 -11.448 -4.435 7
12.933 -10.999 -4.419 8
12.522 -10.583 -4.41 8
9.686 -8.133 -2.909 4
9.688 -8.085 -3.092 6
9.399 -7.794 -3.089 5
9.191 -7.574 -3.133 4
9.344 -7.655 -3.423 3
9.708 -7.904 -3.871 3
25.944 -27.629 -1.872 29
26.179 -27.556 -2.356 40
26.438 -27.504 -2.846 39
9.239 -9.505 0.806 30
9.302 -9.461 0.641 23
30.701 -30.886 -5.276 15
28.201 -28.075 -5.051 21
27.196 -26.79 -5.191 9
25.572 -24.94 -5.104 5
23.985 -23.158 -4.974 24
22.612 -21.626 -4.871 5
21.42 -20.291 -4.789 27
20.38 -19.134 -4.731 7
19.46 -18.104 -4.685 6
18.574 -17.134 -4.629 7
17.8 -16.279 -4.591 8
17.085 -15.501 -4.56 6
16.419 -14.776 -4.529 6
15.813 -14.118 -4.507 5
15.248 -13.513 -4.49 5
14.722 -12.95 -4.477 6
14.235 -12.434 -4.471 6
13.751 -11.926 -4.452 6
13.295 -11.454 -4.438 7
12.862 -11.005 -4.423 8
12.458 -10.593 -4.417 8
9.686 -8.182 -2.944 4
9.688 -8.133 -3.129 5
9.356 -7.805 -3.098 4
9.132 -7.57 -3.13 3
9.279 -7.646 -3.416 3
9.71 -7.952 -3.912 4
25.859 -27.7 -1.884 43
26.014 -27.545 -2.354 40
26.302 -27.527 -2.851 38
9.292 -9.617 0.78 14
9.272 -9.489 0.634 18
27.991 -28.332 -4.592 19
28.064 -28.112 -5.061 17
27.037 -26.798 -5.193 9
25.374 -24.9 -5.091 5
23.816 -23.138 -4.967 24
22.451 -21.607 -4.864 6
21.274 -20.279 -4.784 29
20.243 -19.125 -4.727 8
19.336 -18.103 -4.684 6
18.464 -17.141 -4.631 7
17.685 -16.275 -4.589 7
16.986 -15.508 -4.564 6
16.322 -14.781 -4.531 6
15.724 -14.126 -4.511 5
15.166 -13.525 -4.497 6
14.639 -12.957 -4.481 6
14.154 -12.441 -4.475 7
13.679 -11.937 -4.459 7
13.228 -11.467 -4.447 7
12.799 -11.019 -4.432 8
12.394 -10.602 -4.424 8
9.683 -8.23 -2.979 5
9.69 -8.185 -3.168 4
9.307 -7.81 -3.102 4
9.065 -7.56 -3.122 2
9.211 -7.636 -3.407 3
9.387 -7.733 -3.722 2
25.698 -27.691 -1.883 33
26.001 -27.696 -2.384 35
9.398 -9.895 0.897 3
9.29 -9.673 0.767 1
9.264 -9.539 0.622 6
27.274 -27.775 -4.442 25
27.919 -28.138 -5.069 15
26.86 -26.788 -5.19 12
25.195 -24.88 -5.084 5
23.64 -23.11 -4.957 22
22.298 -21.594 -4.86 6
21.141 -20.279 -4.785 27
20.114 -19.122 -4.726 7
19.208 -18.096 -4.681 6
18.349 -17.14 -4.631 7
17.583 -16.285 -4.594 8
16.878 -15.507 -4.563 6
16.228 -14.788 -4.535 6
15.631 -14.131 -4.514 5
15.076 -13.529 -4.499 5
14.556 -12.964 -4.485 6
14.081 -12.454 -4.483 7
13.605 -11.946 -4.465 6
13.161 -11.479 -4.455 7
12.73 -11.027 -4.438 8
12.324 -10.607 -4.427 8
9.685 -8.281 -3.017 0
9.695 -8.238 -3.208 4
9.255 -7.814 -3.105 4
9.006 -7.555 -3.118 2
9.152 -7.631 -3.403 3
9.306 -7.711 -3.703 3
25.65 -27.803 -1.902 41
25.868 -27.719 -2.388 35
9.349 -9.902 0.895 27
26.319 -27.571 -3.365 40
26.634 -27.59 -3.879 23
27.104 -27.771 -4.441 33
27.59 -27.978 -5.022 36
26.676 -26.769 -5.184 12
24.995 -24.835 -5.069 5
23.478 -23.095 -4.952 22
22.151 -21.587 -4.857 6
21.018 -20.287 -4.788 20
19.982 -19.117 -4.724 7
19.084 -18.093 -4.68 7
18.235 -17.141 -4.632 6
17.477 -16.288 -4.595 7
16.774 -15.508 -4.564 6
16.131 -14.792 -4.537 5
15.539 -14.137 -4.517 5
14.991 -13.537 -4.504 5
14.476 -12.973 -4.49 6
13.994 -12.454 -4.483 7
13.528 -11.953 -4.469 6
13.082 -11.481 -4.456 7
12.662 -11.036 -4.444 7
12.27 -10.626 -4.44 7
11.893 -10.23 -4.433 9
9.686 -8.28 -3.239 4
9.201 -7.815 -3.106 4
8.947 -7.55 -3.114 4
9.091 -7.625 -3.398 3
9.242 -7.702 -3.696 3
25.491 -27.795 -1.901 29
25.766 -27.775 -2.399 37
9.335 -9.946 0.886 1
26.172 -27.582 -3.368 32
26.493 -27.612 -3.884 35
26.928 -27.76 -4.438 21
27.385 -27.941 -5.012 20
26.499 -26.756 -5.18 12
24.821 -24.815 -5.063 5
23.308 -23.071 -4.944 17
22.002 -21.575 -4.853 5
20.886 -20.287 -4.787 9
19.851 -19.11 -4.721 8
18.967 -18.094 -4.681 6
18.123 -17.143 -4.633 7
17.367 -16.288 -4.595 8
16.675 -15.514 -4.567 6
16.04 -14.801 -4.541 6
15.45 -14.144 -4.521 5
14.898 -13.538 -4.504 5
14.393 -12.98 -4.494 6
13.924 -12.468 -4.492 6
13.451 -11.959 -4.473 6
13.013 -11.491 -4.463 7
12.594 -11.044 -4.449 7
12.195 -10.626 -4.44 8
11.833 -10.241 -4.44 9
9.706 -8.348 -3.291 3
9.161 -7.827 -3.115 4
8.892 -7.548 -3.112 4
9.029 -7.618 -3.392 3
9.177 -7.694 -3.688 3
25.472 -27.939 -1.926 36
25.649 -27.814 -2.407 39
25.799 -27.657 -2.879 37
26.027 -27.596 -3.371 23
26.336 -27.615 -3.885 20
26.72 -27.716 -4.426 20
27.138 -27.86 -4.989 20
26.32 -26.74 -5.175 11
24.632 -24.781 -5.052 5
23.141 -23.049 -4.937 15
21.842 -21.552 -4.844 6
20.73 -20.261 -4.777 5
19.72 -19.104 -4.718 8
18.842 -18.088 -4.678 6
18.011 -17.145 -4.633 7
17.264 -16.293 -4.597 7
16.574 -15.517 -4.568 5
15.938 -14.8 -4.541 5
15.364 -14.154 -4.526 6
14.822 -13.553 -4.513 5
14.31 -12.986 -4.498 6
13.84 -12.471 -4.493 8
13.383 -11.972 -4.481 6
12.943 -11.5 -4.468 7
12.528 -11.054 -4.456 8
12.136 -10.639 -4.45 8
11.773 -10.251 -4.448 9
10.087 -8.728 -3.577 4
9.109 -7.83 -3.117 4
8.844 -7.553 -3.116 4
8.965 -7.609 -3.384 3
9.118 -7.689 -3.684 3
25.389 -28.013 -1.94 36
25.511 -27.831 -2.41 37
25.656 -27.668 -2.881 36
25.901 -27.629 -3.379 26
26.174 -27.612 -3.885 23
26.519 -27.675 -4.416 24
26.929 -27.816 -4.976 20
26.113 -26.694 -5.161 10
24.464 -24.764 -5.046 5
22.972 -23.024 -4.928 12
21.691 -21.537 -4.839 6
20.587 -20.249 -4.773 5
19.595 -19.102 -4.718 7
18.725 -18.09 -4.679 6
17.891 -17.139 -4.631 6
17.157 -16.295 -4.598 7
16.473 -15.519 -4.569 6
15.842 -14.803 -4.543 5
15.275 -14.161 -4.529 5
14.735 -13.558 -4.516 5
14.236 -13.0 -4.505 6
13.761 -12.478 -4.498 7
13.306 -11.977 -4.484 6
12.873 -11.509 -4.474 7
12.46 -11.062 -4.461 8
12.075 -10.65 -4.457 8
11.71 -10.258 -4.453 9
9.957 -8.668 -3.531 22
9.058 -7.833 -3.12 4
8.796 -7.557 -3.119 4
8.909 -7.607 -3.383 3
9.051 -7.677 -3.674 3
25.307 -28.09 -1.953 43
25.478 -27.961 -2.435 40
25.673 -27.853 -2.92 34
25.81 -27.698 -3.395 34
26.098 -27.7 -3.906 27
26.35 -27.668 -4.414 21
26.707 -27.757 -4.959 32
25.923 -26.665 -5.152 10
24.285 -24.736 -5.037 5
22.814 -23.008 -4.922 12
21.545 -21.527 -4.835 5
20.456 -20.246 -4.772 5
19.461 -19.091 -4.713 8
18.605 -18.087 -4.677 6
17.786 -17.145 -4.633 7
17.051 -16.296 -4.599 7
16.374 -15.524 -4.572 6
15.751 -14.811 -4.547 5
15.186 -14.167 -4.533 5
14.651 -13.566 -4.52 5
14.148 -13.001 -4.506 6
13.683 -12.484 -4.501 7
13.238 -11.99 -4.492 6
12.801 -11.516 -4.478 7
12.392 -11.069 -4.466 8
12.005 -10.654 -4.46 8
11.652 -10.271 -4.462 10
9.862 -8.637 -3.509 27
9.012 -7.84 -3.125 4
8.751 -7.563 -3.125 4
8.842 -7.594 -3.372 3
8.995 -7.674 -3.671 3
25.218 -28.157 -1.965 44
25.396 -28.038 -2.45 39
25.579 -27.92 -2.934 37
25.727 -27.777 -3.413 36
26.006 -27.772 -3.924 26
26.268 -27.751 -4.436 30
26.52 -27.733 -4.952 23
25.715 -26.614 -5.137 10
24.101 -24.701 -5.026 5
22.662 -22.997 -4.919 22
21.4 -21.516 -4.831 6
20.314 -20.232 -4.766 5
19.334 -19.085 -4.711 7
18.491 -18.089 -4.678 6
17.677 -17.148 -4.635 7
16.942 -16.295 -4.598 8
16.276 -15.528 -4.574 5
15.652 -14.811 -4.547 5
15.095 -14.17 -4.534 5
14.567 -13.573 -4.523 5
14.076 -13.016 -4.515 6
13.611 -12.496 -4.508 8
13.161 -11.995 -4.495 6
12.737 -11.529 -4.487 7
12.331 -11.084 -4.476 8
11.949 -10.669 -4.471 7
11.592 -10.28 -4.469 9
9.835 -8.665 -3.53 24
8.971 -7.852 -3.135 5
8.709 -7.572 -3.131 3
8.786 -7.591 -3.37 3
8.931 -7.665 -3.663 3
25.139 -28.236 -1.979 36
25.308 -28.109 -2.464 40
25.443 -27.94 -2.939 34
25.619 -27.83 -3.425 31
25.889 -27.817 -3.936 32
26.131 -27.777 -4.443 31
26.335 -27.709 -4.945 33
25.534 -26.592 -5.13 13
23.912 -24.661 -5.013 4
22.51 -22.986 -4.915 24
21.252 -21.501 -4.826 5
20.181 -20.226 -4.764 5
19.212 -19.084 -4.71 8
18.37 -18.084 -4.676 6
17.569 -17.15 -4.636 7
16.842 -16.3 -4.601 7
16.178 -15.532 -4.575 6
15.57 -14.826 -4.554 5
15.003 -14.173 -4.536 5
14.483 -13.579 -4.527 5
13.991 -13.018 -4.516 6
13.535 -12.504 -4.513 9
13.087 -12.002 -4.5 6
12.664 -11.535 -4.491 7
12.261 -11.088 -4.479 8
11.883 -10.675 -4.475 8
11.532 -10.289 -4.476 9
9.786 -8.675 -3.537 21
8.923 -7.857 -3.138 4
8.664 -7.578 -3.136 4
8.728 -7.586 -3.365 3
8.867 -7.655 -3.654 3
24.993 -28.241 -1.98 42
25.199 -28.156 -2.473 45
25.394 -28.054 -2.963 40
25.573 -27.948 -3.452 36
25.727 -27.812 -3.934 35
25.928 -27.731 -4.43 44
26.146 -27.682 -4.938 23
25.354 -26.568 -5.123 13
23.74 -24.636 -5.005 5
22.356 -22.972 -4.91 23
21.107 -21.488 -4.821 5
20.051 -20.221 -4.762 5
19.085 -19.077 -4.708 8
18.253 -18.083 -4.676 7
17.453 -17.145 -4.633 6
16.739 -16.303 -4.602 7
16.083 -15.538 -4.579 6
15.474 -14.828 -4.555 6
14.918 -14.181 -4.54 5
14.401 -13.588 -4.532 5
13.909 -13.023 -4.519 6
13.46 -12.512 -4.518 11
13.019 -12.014 -4.507 6
12.6 -11.548 -4.499 7
12.198 -11.099 -4.487 8
11.819 -10.683 -4.48 8
11.472 -10.298 -4.482 9
9.74 -8.686 -3.546 24
8.88 -7.866 -3.146 4
8.614 -7.58 -3.138 4
8.67 -7.58 -3.361 3
8.803 -7.645 -3.646 3
24.922 -28.328 -1.995 51
25.15 -28.271 -2.495 38
25.306 -28.126 -2.978 40
25.452 -27.985 -3.461 37
25.661 -27.911 -3.959 37
25.875 -27.844 -4.461 34
25.935 -27.627 -4.922 20
25.174 -26.543 -5.115 9
23.573 -24.615 -4.998 5
22.215 -22.97 -4.909 13
20.966 -21.478 -4.817 5
19.918 -20.214 -4.76 5
18.958 -19.07 -4.705 8
18.137 -18.082 -4.675 6
17.345 -17.146 -4.634 7
16.636 -16.305 -4.603 7
15.985 -15.541 -4.58 6
15.381 -14.832 -4.557 6
14.829 -14.185 -4.542 5
14.312 -13.589 -4.533 6
13.835 -13.035 -4.526 5
13.379 -12.516 -4.52 13
12.945 -12.021 -4.511 6
12.528 -11.553 -4.502 7
12.135 -11.111 -4.494 8
11.76 -10.695 -4.489 8
11.409 -10.304 -4.487 9
9.712 -8.715 -3.567 25
8.831 -7.871 -3.149 4
8.569 -7.585 -3.143 4
8.612 -7.574 -3.356 3
8.747 -7.641 -3.642 3
24.939 -28.518 -2.028 34
25.038 -28.315 -2.504 40
25.23 -28.212 -2.997 39
25.362 -28.057 -3.478 37
25.574 -27.986 -3.978 37
25.781 -27.915 -4.48 35
25.795 -27.649 -4.928 21
24.981 -26.504 -5.103 8
23.401 -24.588 -4.989 5
22.064 -22.958 -4.905 7
20.816 -21.459 -4.81 5
19.788 -20.208 -4.757 5
18.837 -19.067 -4.704 8
18.019 -18.077 -4.673 7
17.232 -17.142 -4.632 7
16.534 -16.307 -4.604 7
15.885 -15.541 -4.58 6
15.296 -14.843 -4.563 5
14.746 -14.196 -4.548 5
14.234 -13.599 -4.538 5
13.758 -13.044 -4.531 6
13.307 -12.526 -4.526 21
12.877 -12.032 -4.518 7
12.459 -11.56 -4.507 6
12.065 -11.114 -4.497 8
11.696 -10.703 -4.494 8
11.349 -10.313 -4.493 9
9.631 -8.695 -3.552 24
8.791 -7.882 -3.158 4
8.524 -7.59 -3.147 4
8.554 -7.568 -3.351 3
8.689 -7.636 -3.638 3
24.775 -28.5 -2.025 43
24.992 -28.432 -2.527 37
25.156 -28.3 -3.015 37
25.309 -28.17 -3.503 35
25.484 -28.059 -3.996 37
25.677 -27.973 -4.495 38
25.614 -27.625 -4.921 20
24.794 -26.469 -5.092 7
23.244 -24.576 -4.985 4
21.892 -22.921 -4.892 5
20.672 -21.445 -4.805 5
19.648 -20.192 -4.751 5
18.71 -19.06 -4.701 8
17.909 -18.08 -4.674 7
17.124 -17.143 -4.633 7
16.431 -16.309 -4.605 7
15.784 -15.541 -4.58 6
15.201 -14.844 -4.563 5
14.664 -14.205 -4.553 5
14.153 -13.607 -4.542 5
13.682 -13.053 -4.536 6
13.232 -12.533 -4.531 28
12.798 -12.032 -4.519 6
12.395 -11.572 -4.515 6
11.999 -11.123 -4.503 7
11.637 -10.715 -4.502 8
11.287 -10.319 -4.497 9
9.532 -8.658 -3.524 24
8.745 -7.888 -3.163 4
8.479 -7.596 -3.151 4
8.496 -7.562 -3.345 3
8.625 -7.625 -3.628 3
24.726 -28.614 -2.045 34
24.952 -28.559 -2.551 37
25.07 -28.374 -3.031 39
25.227 -28.25 -3.522 36
25.39 -28.128 -4.013 38
25.567 -28.026 -4.51 36
25.43 -27.597 -4.913 24
24.616 -26.442 -5.084 6
23.078 -24.553 -4.978 5
21.726 -22.89 -4.882 5
20.529 -21.43 -4.8 5
19.516 -20.183 -4.747 4
18.581 -19.047 -4.696 8
17.796 -18.079 -4.674 7
17.011 -17.137 -4.63 6
