# .PCD v0.7 - Point Cloud Data file format
VERSION 0.7
FIELDS x y z intensity
SIZE 4 4 4 4
TYPE F F F F
COUNT 1 1 1 1
WIDTH 2322
HEIGHT 1
VIEWPOINT 0 0 0 1 0 0 0
POINTS 2322
DATA ascii
-1.275 -0.762 2.405 4
-1.267 -0.754 2.389 2
-1.217 -0.723 2.394 1
-1.199 -0.71 2.383 9
-1.926 -1.488 2.738 8
-1.904 -1.448 2.719 10
-1.896 -1.42 2.698 14
-1.878 -1.387 2.68 5
-1.933 -1.407 2.649 2
-1.836 -1.318 2.647 3
-1.835 -1.301 2.627 11
-1.805 -1.262 2.614 1
-1.799 -1.243 2.596 0
-1.884 -1.287 2.557 0
-1.848 -1.248 2.546 0
-1.734 -1.158 2.556 0
0.0 -0.0 3.0 0
0.0 -0.0 3.0 0
0.0 -0.0 3.0 0
0.0 -0.0 3.0 0
0.0 -0.0 3.0 0
-1.562 -0.989 2.496 0
-1.522 -0.957 2.491 0
-1.481 -0.925 2.487 0
-1.417 -0.88 2.492 0
-24.325 -15.021 -6.026 6
-1.348 -0.828 2.483 0
-1.361 -0.832 2.46 12
-1.344 -0.818 2.448 6
-1.324 -0.803 2.438 6
-1.311 -0.792 2.425 8
-1.303 -0.785 2.409 5
-1.269 -0.762 2.405 3
-1.242 -0.744 2.398 3
-1.224 -0.731 2.386 1
-1.212 -0.722 2.372 3
-1.913 -1.485 2.738 9
-1.899 -1.453 2.717 10
-1.895 -1.428 2.696 10
-1.877 -1.394 2.678 3
-1.941 -1.422 2.645 1
-1.832 -1.323 2.645 4
-1.831 -1.306 2.625 3
-1.817 -1.279 2.609 0
-1.789 -1.244 2.596 0
-1.877 -1.29 2.556 0
0.0 -0.0 3.0 0
-1.808 -1.216 2.533 0
0.0 -0.0 3.0 0
0.0 -0.0 3.0 0
0.0 -0.0 3.0 0
-1.598 -1.035 2.517 0
0.0 -0.0 3.0 0
-1.542 -0.983 2.499 0
0.0 -0.0 3.0 0
-1.491 -0.937 2.48 0
-1.405 -0.878 2.493 0
-24.173 -15.025 -6.028 7
-1.345 -0.831 2.481 0
-1.354 -0.834 2.459 15
-1.341 -0.822 2.446 6
-1.318 -0.805 2.437 6
-1.305 -0.793 2.424 8
-1.29 -0.782 2.41 5
-1.263 -0.763 2.404 2
-1.22 -0.735 2.405 2
-1.205 -0.724 2.392 3
-1.212 -0.727 2.368 13
-1.915 -1.496 2.736 9
-1.898 -1.461 2.716 11
-1.881 -1.426 2.697 8
-1.863 -1.392 2.679 8
-1.934 -1.425 2.645 1
-1.828 -1.329 2.644 4
-1.827 -1.311 2.624 2
-1.797 -1.273 2.611 0
-1.846 -1.292 2.58 0
-2.002 -1.384 2.523 0
-1.86 -1.272 2.537 0
0.0 -0.0 3.0 0
0.0 -0.0 3.0 0
-1.619 -1.074 2.544 0
0.0 -0.0 3.0 0
-1.53 -0.997 2.535 0
0.0 -0.0 3.0 0
0.0 -0.0 3.0 0
0.0 -0.0 3.0 0
-1.481 -0.937 2.48 0
-1.414 -0.89 2.486 0
-1.351 -0.845 2.492 0
-1.345 -0.837 2.477 0
-1.345 -0.833 2.459 17
-1.326 -0.817 2.449 6
-1.312 -0.806 2.436 6
-1.305 -0.798 2.42 6
-1.278 -0.779 2.413 4
-1.248 -0.759 2.407 2
-1.218 -0.738 2.402 1
-1.203 -0.727 2.39 4
-1.209 -0.729 2.366 28
-1.895 -1.489 2.737 10
-1.888 -1.461 2.716 15
-1.877 -1.431 2.696 4
-1.859 -1.398 2.677 14
-1.916 -1.421 2.646 1
-1.814 -1.327 2.644 2
-1.81 -1.307 2.625 1
-1.77 -1.262 2.614 0
0.0 -0.0 3.0 0
-2.068 -1.44 2.504 0
-1.804 -1.242 2.548 0
0.0 -0.0 3.0 0
0.0 -0.0 3.0 0
0.0 -0.0 3.0 0
0.0 -0.0 3.0 0
-1.552 -1.018 2.525 0
0.0 -0.0 3.0 0
-1.506 -0.973 2.504 0
0.0 -0.0 3.0 0
-1.461 -0.931 2.484 0
-1.408 -0.891 2.485 0
-1.347 -0.848 2.49 0
-1.326 -0.83 2.481 0
-1.342 -0.837 2.457 19
-1.319 -0.819 2.448 6
-1.309 -0.809 2.433 6
-1.295 -0.798 2.42 6
-1.266 -0.777 2.415 2
-1.217 -0.744 2.419 6
-1.215 -0.741 2.4 1
-1.216 -0.739 2.38 5
-1.21 -0.734 2.362 56
-1.894 -1.497 2.736 10
-1.893 -1.474 2.714 9
-1.882 -1.444 2.693 3
-1.855 -1.403 2.676 12
-1.89 -1.41 2.648 0
-1.788 -1.316 2.647 1
-1.809 -1.315 2.623 0
-1.798 -1.29 2.606 0
0.0 -0.0 3.0 0
-2.131 -1.492 2.486 0
-1.761 -1.221 2.556 0
-1.696 -1.163 2.554 0
0.0 -0.0 3.0 0
0.0 -0.0 3.0 0
0.0 -0.0 3.0 0
-1.523 -1.006 2.531 0
-1.529 -1.002 2.511 0
0.0 -0.0 3.0 0
-1.511 -0.975 2.482 0
-1.435 -0.92 2.49 0
-1.405 -0.895 2.483 0
-1.348 -0.854 2.487 0
-1.323 -0.833 2.479 0
-1.336 -0.838 2.456 20
-1.313 -0.82 2.447 6
-1.297 -0.806 2.435 5
-1.286 -0.797 2.421 4
-1.259 -0.778 2.414 2
-1.22 -0.751 2.413 1
-1.206 -0.74 2.401 5
-1.21 -0.74 2.379 17
-1.201 -0.732 2.363 88
-1.892 -1.504 2.735 10
-1.879 -1.472 2.714 6
-1.856 -1.433 2.695 11
-1.847 -1.406 2.675 8
-1.778 -1.335 2.667 0
-1.771 -1.312 2.648 1
0.0 -0.0 3.0 0
-1.778 -1.284 2.608 0
-1.821 -1.299 2.578 0
-2.152 -1.517 2.478 1
0.0 -0.0 3.0 0
0.0 -0.0 3.0 0
0.0 -0.0 3.0 0
0.0 -0.0 3.0 0
0.0 -0.0 3.0 0
-1.513 -1.006 2.531 0
-1.532 -1.011 2.507 0
-1.502 -0.984 2.499 0
0.0 -0.0 3.0 0
-1.448 -0.935 2.482 0
-1.398 -0.897 2.482 0
-1.328 -0.847 2.491 0
-1.307 -0.829 2.482 0
-1.323 -0.835 2.458 19
-1.307 -0.821 2.446 6
-1.294 -0.81 2.433 4
-1.277 -0.796 2.421 3
-1.231 -0.765 2.424 6
-1.214 -0.751 2.413 1
-1.216 -0.75 2.393 5
-1.21 -0.745 2.375 28
-1.201 -0.737 2.359 80
-1.891 -1.512 2.733 13
-1.878 -1.48 2.712 3
-1.858 -1.443 2.693 13
-1.843 -1.411 2.674 11
-1.755 -1.326 2.669 0
-1.745 -1.301 2.651 2
0.0 -0.0 3.0 0
-1.8 -1.308 2.6 0
-1.81 -1.299 2.578 0
-2.14 -1.519 2.477 1
0.0 -0.0 3.0 0
0.0 -0.0 3.0 0
0.0 -0.0 3.0 0
-1.624 -1.106 2.531 0
-1.544 -1.043 2.536 0
0.0 -0.0 3.0 0
-1.499 -0.995 2.515 0
-1.457 -0.959 2.511 0
-1.45 -0.948 2.496 0
-1.41 -0.916 2.492 0
-1.392 -0.898 2.481 0
-23.589 -15.145 -6.1 3
-1.301 -0.83 2.481 0
-1.32 -0.839 2.455 18
-1.301 -0.823 2.445 5
-1.281 -0.807 2.435 5
-1.271 -0.797 2.421 2
-1.225 -0.766 2.423 1
-1.199 -0.747 2.417 4
-1.21 -0.75 2.392 13
-1.207 -0.747 2.373 42
-1.195 -0.738 2.359 36
-1.887 -1.517 2.732 7
-1.864 -1.478 2.713 6
-1.85 -1.446 2.693 10
-1.835 -1.415 2.673 13
-1.741 -1.323 2.67 0
-1.731 -1.298 2.652 3
0.0 -0.0 3.0 0
-1.805 -1.319 2.597 0
-1.796 -1.298 2.578 0
-2.148 -1.534 2.472 1
-1.717 -1.213 2.559 0
0.0 -0.0 3.0 0
0.0 -0.0 3.0 0
0.0 -0.0 3.0 0
-1.547 -1.051 2.532 0
-1.509 -1.016 2.526 0
0.0 -0.0 3.0 0
-1.46 -0.968 2.507 0
-1.427 -0.94 2.5 0
-1.4 -0.916 2.492 0
-1.392 -0.904 2.478 0
-1.31 -0.846 2.492 0
-1.282 -0.823 2.485 0
-1.307 -0.836 2.457 15
-1.288 -0.82 2.447 4
-1.272 -0.806 2.436 3
-1.246 -0.786 2.429 4
-1.216 -0.765 2.424 1
-1.205 -0.755 2.41 3
-1.207 -0.753 2.39 21
-1.201 -0.748 2.373 47
-1.19 -0.738 2.359 18
-1.882 -1.523 2.732 5
-1.86 -1.483 2.712 14
-1.852 -1.456 2.691 8
-1.831 -1.419 2.672 6
-1.715 -1.312 2.673 0
-1.724 -1.301 2.651 5
0.0 -0.0 3.0 0
-1.769 -1.302 2.602 0
-1.783 -1.296 2.579 0
-2.13 -1.531 2.473 1
-1.643 -1.168 2.575 0
0.0 -0.0 3.0 0
0.0 -0.0 3.0 0
-1.597 -1.102 2.532 0
-1.534 -1.049 2.533 0
-1.489 -1.01 2.529 0
0.0 -0.0 3.0 0
0.0 -0.0 3.0 0
-1.421 -0.941 2.5 0
-1.374 -0.904 2.499 0
-1.382 -0.904 2.478 0
-1.316 -0.856 2.486 0
-1.298 -0.839 2.476 0
-1.301 -0.837 2.456 12
-1.285 -0.823 2.445 4
-1.275 -0.813 2.431 2
-1.227 -0.779 2.434 2
-1.21 -0.765 2.423 2
-1.209 -0.762 2.405 8
-1.204 -0.756 2.388 25
-1.195 -0.749 2.372 33
-1.19 -0.743 2.354 15
-1.875 -1.526 2.731 3
-1.855 -1.488 2.711 15
-1.838 -1.454 2.691 12
-1.821 -1.42 2.672 1
-1.692 -1.302 2.675 0
-1.711 -1.299 2.652 9
0.0 -0.0 3.0 0
-1.781 -1.319 2.597 0
-1.753 -1.283 2.583 0
-2.128 -1.54 2.47 1
0.0 -0.0 3.0 0
0.0 -0.0 3.0 0
0.0 -0.0 3.0 0
-1.609 -1.118 2.526 0
-1.505 -1.035 2.539 0
-1.502 -1.025 2.522 0
-1.457 -0.986 2.519 0
0.0 -0.0 3.0 0
-1.42 -0.947 2.496 0
-1.403 -0.93 2.485 0
-1.36 -0.895 2.483 0
-1.294 -0.847 2.491 0
-1.285 -0.836 2.478 0
-1.292 -0.836 2.457 10
-1.279 -0.824 2.444 3
-1.256 -0.806 2.436 3
-1.224 -0.782 2.432 1
-1.204 -0.767 2.422 4
-1.203 -0.762 2.404 18
-1.198 -0.757 2.387 34
-1.193 -0.751 2.37 16
-1.19 -0.747 2.351 13
-1.858 -1.521 2.732 7
-1.857 -1.499 2.709 10
-1.834 -1.459 2.69 11
-1.804 -1.416 2.673 1
-1.698 -1.315 2.672 0
-1.707 -1.304 2.651 11
0.0 -0.0 3.0 0
-1.798 -1.34 2.59 0
0.0 -0.0 3.0 0
-2.123 -1.546 2.468 2
0.0 -0.0 3.0 0
0.0 -0.0 3.0 0
0.0 -0.0 3.0 0
-1.554 -1.087 2.539 0
-1.507 -1.045 2.535 0
-1.476 -1.014 2.527 0
0.0 -0.0 3.0 0
-1.431 -0.967 2.507 0
-1.395 -0.936 2.502 0
-1.387 -0.925 2.488 0
-1.353 -0.897 2.482 0
-1.288 -0.848 2.49 0
-1.266 -0.829 2.482 0
-1.282 -0.836 2.457 10
-1.27 -0.824 2.444 2
-1.222 -0.789 2.447 5
-1.215 -0.781 2.432 1
-1.214 -0.777 2.414 3
-1.203 -0.768 2.4 20
-1.195 -0.76 2.385 27
-1.19 -0.754 2.368 14
-1.184 -0.748 2.35 11
-1.856 -1.528 2.731 14
-1.843 -1.496 2.709 12
-1.833 -1.467 2.688 3
-1.781 -1.406 2.675 0
-1.703 -1.327 2.669 0
-1.687 -1.296 2.653 14
0.0 -0.0 3.0 0
-1.788 -1.341 2.59 0
0.0 -0.0 3.0 0
-2.121 -1.555 2.465 1
0.0 -0.0 3.0 0
-1.681 -1.206 2.537 0
0.0 -0.0 3.0 0
0.0 -0.0 3.0 0
-1.501 -1.046 2.534 0
-1.479 -1.022 2.523 0
0.0 -0.0 3.0 0
-1.418 -0.965 2.508 0
-1.404 -0.948 2.496 0
-1.365 -0.916 2.492 0
-1.353 -0.902 2.479 0
-1.288 -0.853 2.487 0
-1.266 -0.835 2.478 0
-1.279 -0.839 2.455 8
-1.257 -0.82 2.447 2
-1.213 -0.788 2.448 1
-1.203 -0.778 2.435 5
-1.214 -0.782 2.411 14
-1.203 -0.772 2.397 24
-1.192 -0.762 2.383 17
-1.184 -0.755 2.367 11
-1.175 -0.746 2.351 4
-1.858 -1.539 2.729 13
-1.836 -1.5 2.709 14
-1.825 -1.47 2.688 1
-1.736 -1.38 2.681 0
-1.677 -1.315 2.672 0
-1.68 -1.299 2.652 17
0.0 -0.0 3.0 0
-1.743 -1.315 2.598 0
0.0 -0.0 3.0 0
-2.116 -1.561 2.462 1
0.0 -0.0 3.0 0
0.0 -0.0 3.0 0
-1.581 -1.131 2.543 0
0.0 -0.0 3.0 0
-1.494 -1.049 2.533 0
-1.463 -1.018 2.525 0
0.0 -0.0 3.0 0
-1.389 -0.951 2.515 0
-1.394 -0.948 2.496 0
-1.368 -0.924 2.488 0
-1.331 -0.893 2.484 0
-1.263 -0.842 2.494 1
-1.26 -0.836 2.478 0
-1.267 -0.836 2.457 5
-1.229 -0.807 2.456 4
-1.213 -0.793 2.445 1
-1.219 -0.793 2.424 3
-1.208 -0.783 2.41 21
-1.197 -0.773 2.396 25
-1.186 -0.763 2.382 16
-1.184 -0.759 2.363 10
-1.182 -0.755 2.344 1
-1.851 -1.541 2.728 8
-1.834 -1.507 2.707 10
-1.827 -1.48 2.685 1
-1.713 -1.37 2.684 0
-1.651 -1.302 2.675 0
-1.673 -1.302 2.651 18
0.0 -0.0 3.0 0
-1.76 -1.337 2.591 0
0.0 -0.0 3.0 0
-2.105 -1.563 2.462 1
0.0 -0.0 3.0 0
0.0 -0.0 3.0 0
0.0 -0.0 3.0 0
-1.515 -1.08 2.542 0
-1.49 -1.053 2.531 0
-1.45 -1.015 2.527 0
-1.424 -0.99 2.517 0
-1.395 -0.962 2.51 0
-1.385 -0.947 2.496 0
-1.345 -0.915 2.493 0
-1.331 -0.899 2.481 0
-1.266 -0.85 2.489 1
-1.254 -0.837 2.477 0
-1.261 -0.837 2.456 3
-1.217 -0.804 2.458 1
-1.204 -0.792 2.445 3
-1.216 -0.796 2.422 12
-1.208 -0.788 2.406 21
-1.191 -0.774 2.395 18
-1.184 -0.766 2.38 12
-1.181 -0.761 2.361 6
-1.173 -0.753 2.346 0
-1.843 -1.545 2.728 13
-1.833 -1.515 2.706 3
-1.81 -1.475 2.686 0
-1.697 -1.364 2.685 0
-1.635 -1.297 2.677 0
-1.662 -1.301 2.651 18
0.0 -0.0 3.0 0
-1.728 -1.32 2.596 0
-1.698 -1.282 2.583 0
-2.093 -1.564 2.462 1
0.0 -0.0 3.0 0
0.0 -0.0 3.0 0
0.0 -0.0 3.0 0
-1.483 -1.064 2.548 0
-1.468 -1.044 2.535 0
-1.446 -1.02 2.525 0
0.0 -0.0 3.0 0
-1.401 -0.973 2.504 0
-1.356 -0.934 2.503 0
-1.355 -0.927 2.486 0
-1.334 -0.907 2.476 0
-1.256 -0.849 2.49 0
-1.245 -0.836 2.477 0
-1.236 -0.826 2.464 5
-1.208 -0.803 2.458 1
-1.201 -0.795 2.443 2
-1.203 -0.793 2.424 21
-1.205 -0.791 2.404 18
-1.189 -0.776 2.393 12
-1.184 -0.77 2.376 10
-1.163 -0.754 2.367 1
0.0 -0.0 3.0 0
-1.835 -1.547 2.727 13
-1.825 -1.517 2.705 1
0.0 -0.0 3.0 0
-1.674 -1.354 2.687 0
-1.628 -1.299 2.676 0
-1.655 -1.304 2.651 20
0.0 -0.0 3.0 0
-1.708 -1.313 2.598 0
-1.712 -1.301 2.577 0
-2.063 -1.551 2.466 0
-1.697 -1.262 2.541 0
0.0 -0.0 3.0 0
0.0 -0.0 3.0 0
-1.479 -1.069 2.546 0
-1.442 -1.032 2.541 0
-1.446 -1.026 2.522 0
-1.408 -0.991 2.517 0
-1.373 -0.958 2.512 0
-1.362 -0.945 2.498 0
-1.336 -0.92 2.49 0
-1.296 -0.887 2.488 0
-1.241 -0.844 2.493 0
-1.229 -0.831 2.481 0
-1.223 -0.822 2.466 1
-1.195 -0.799 2.461 2
-1.207 -0.804 2.437 8
-1.21 -0.802 2.418 20
-1.202 -0.793 2.402 20
-1.18 -0.775 2.394 10
-1.178 -0.772 2.375 8
-1.169 -0.763 2.36 0
0.0 -0.0 3.0 0
-1.825 -1.547 2.727 7
-1.815 -1.517 2.705 1
0.0 -0.0 3.0 0
-1.658 -1.349 2.688 0
-1.612 -1.294 2.677 0
-1.639 -1.299 2.652 20
0.0 -0.0 3.0 0
0.0 -0.0 3.0 0
0.0 -0.0 3.0 0
-2.046 -1.548 2.467 0
-1.674 -1.253 2.544 0
0.0 -0.0 3.0 0
0.0 -0.0 3.0 0
-1.488 -1.081 2.541 0
-1.435 -1.035 2.539 0
-1.423 -1.017 2.526 0
-1.398 -0.991 2.517 0
-1.379 -0.969 2.506 0
-1.362 -0.951 2.494 0
-1.339 -0.928 2.486 0
-1.274 -0.877 2.493 0
-1.241 -0.849 2.49 1
-1.211 -0.824 2.485 1
-1.217 -0.824 2.465 0
-1.208 -0.813 2.452 2
-1.198 -0.803 2.438 17
-1.201 -0.801 2.418 17
-1.19 -0.791 2.404 13
-1.18 -0.78 2.391 9
-1.178 -0.776 2.372 2
-1.151 -0.756 2.366 0
0.0 -0.0 3.0 0
-1.823 -1.555 2.726 1
-1.798 -1.512 2.706 0
0.0 -0.0 3.0 0
-1.66 -1.359 2.686 0
-1.592 -1.287 2.679 0
-1.632 -1.301 2.651 18
0.0 -0.0 3.0 0
-1.666 -1.297 2.603 0
0.0 -0.0 3.0 0
-2.053 -1.563 2.462 0
0.0 -0.0 3.0 0
0.0 -0.0 3.0 0
-1.539 -1.137 2.541 0
-1.472 -1.077 2.543 0
-1.447 -1.049 2.533 0
-1.432 -1.03 2.52 0
-1.401 -0.999 2.513 0
-1.375 -0.973 2.504 0
-1.34 -0.941 2.5 0
-1.304 -0.91 2.496 0
-1.271 -0.881 2.492 0
-1.229 -0.846 2.492 0
-1.229 -0.842 2.474 1
-1.211 -0.825 2.464 2
-1.208 -0.818 2.448 5
-1.201 -0.81 2.433 17
-1.198 -0.804 2.416 21
-1.19 -0.795 2.401 11
-1.177 -0.783 2.389 9
-1.172 -0.777 2.371 0
-1.164 -0.768 2.356 0
0.0 -0.0 3.0 0
-1.819 -1.56 2.725 1
0.0 -0.0 3.0 0
0.0 -0.0 3.0 0
-1.637 -1.348 2.689 0
-1.604 -1.304 2.675 0
-1.624 -1.304 2.651 16
0.0 -0.0 3.0 0
-1.683 -1.319 2.597 0
0.0 -0.0 3.0 0
-2.048 -1.57 2.46 0
0.0 -0.0 3.0 0
0.0 -0.0 3.0 0
0.0 -0.0 3.0 0
-1.434 -1.056 2.552 0
0.0 -0.0 3.0 0
-1.4 -1.013 2.528 0
-1.375 -0.987 2.518 0
-1.35 -0.961 2.51 0
-1.33 -0.94 2.5 0
-1.291 -0.907 2.497 0
-1.265 -0.882 2.491 0
-1.225 -0.849 2.49 1
-1.217 -0.838 2.476 0
-1.208 -0.828 2.462 2
-1.202 -0.819 2.447 14
-1.201 -0.815 2.43 15
-1.195 -0.807 2.414 16
-1.184 -0.796 2.4 10
-1.177 -0.787 2.385 2
-1.163 -0.775 2.372 0
0.0 -0.0 3.0 0
0.0 -0.0 3.0 0
-1.814 -1.565 2.724 1
0.0 -0.0 3.0 0
0.0 -0.0 3.0 0
-1.615 -1.339 2.691 0
-1.587 -1.298 2.676 0
-1.614 -1.303 2.651 14
-1.65 -1.317 2.622 0
-1.62 -1.278 2.609 0
-1.667 -1.3 2.578 0
-1.916 -1.477 2.491 0
-2.056 -1.568 2.429 0
-1.493 -1.127 2.567 0
0.0 -0.0 3.0 0
-1.427 -1.057 2.551 0
-1.428 -1.049 2.533 0
-1.397 -1.017 2.526 0
-1.397 -1.009 2.508 0
-1.34 -0.96 2.511 0
-1.311 -0.933 2.504 0
-1.291 -0.913 2.494 0
-1.243 -0.873 2.496 0
-1.229 -0.857 2.485 3
-1.208 -0.837 2.477 1
-1.217 -0.84 2.455 5
-1.202 -0.824 2.444 15
-1.195 -0.816 2.429 16
-1.186 -0.806 2.415 11
-1.187 -0.803 2.395 10
-1.165 -0.785 2.387 0
-1.166 -0.782 2.367 0
-1.137 -0.759 2.363 0
0.0 -0.0 3.0 0
0.0 -0.0 3.0 0
0.0 -0.0 3.0 0
0.0 -0.0 3.0 0
-1.614 -1.345 2.689 0
-1.586 -1.305 2.675 0
-1.607 -1.306 2.65 12
-1.63 -1.309 2.625 0
0.0 -0.0 3.0 0
0.0 -0.0 3.0 0
-1.605 -1.245 2.571 0
-2.069 -1.589 2.422 1
-1.476 -1.123 2.569 0
0.0 -0.0 3.0 0
-1.436 -1.071 2.545 0
-1.409 -1.041 2.537 0
-1.39 -1.019 2.525 0
-1.362 -0.99 2.517 0
-1.337 -0.965 2.508 0
-1.299 -0.929 2.506 0
-1.269 -0.903 2.5 0
-1.231 -0.869 2.498 0
-1.216 -0.853 2.487 1
-1.205 -0.841 2.475 2
-1.211 -0.841 2.454 13
-1.202 -0.829 2.441 13
-1.192 -0.818 2.427 13
-1.186 -0.81 2.411 11
-1.184 -0.806 2.393 5
-1.15 -0.778 2.392 0
-1.133 -0.764 2.381 0
0.0 -0.0 3.0 0
0.0 -0.0 3.0 0
0.0 -0.0 3.0 0
0.0 -0.0 3.0 0
0.0 -0.0 3.0 0
-1.604 -1.345 2.69 0
-1.564 -1.295 2.677 0
-1.597 -1.306 2.65 8
-1.629 -1.316 2.623 0
-1.609 -1.284 2.607 0
-1.597 -1.261 2.59 0
0.0 -0.0 3.0 0
-2.064 -1.595 2.42 0
-1.476 -1.129 2.567 0
-1.443 -1.093 2.558 0
-1.426 -1.07 2.546 0
-1.411 -1.05 2.532 0
-1.39 -1.025 2.522 0
-1.349 -0.987 2.518 0
-1.302 -0.946 2.518 0
-1.292 -0.931 2.505 0
-1.244 -0.891 2.506 0
-1.215 -0.864 2.501 1
-1.207 -0.852 2.488 1
-1.217 -0.855 2.466 3
-1.208 -0.844 2.452 15
-1.19 -0.827 2.442 14
-1.186 -0.82 2.426 10
-1.183 -0.813 2.41 12
-1.172 -0.802 2.395 0
-1.147 -0.781 2.39 0
-1.121 -0.761 2.384 0
0.0 -0.0 3.0 0
0.0 -0.0 3.0 0
0.0 -0.0 3.0 0
0.0 -0.0 3.0 0
0.0 -0.0 3.0 0
-2.594 -2.189 2.495 5
-1.584 -1.319 2.671 0
-1.584 -1.302 2.651 5
-1.616 -1.314 2.623 0
-1.556 -1.25 2.618 0
-1.569 -1.247 2.595 0
0.0 -0.0 3.0 0
-2.055 -1.598 2.418 0
-1.463 -1.126 2.568 0
-1.458 -1.112 2.551 0
-1.398 -1.056 2.552 0
-1.408 -1.054 2.531 0
-1.362 -1.011 2.529 0
-1.355 -0.998 2.513 0
-1.29 -0.942 2.52 0
-1.274 -0.923 2.509 0
-1.229 -0.885 2.509 1
-1.215 -0.869 2.498 1
-1.21 -0.86 2.483 2
-1.211 -0.855 2.466 11
-1.205 -0.847 2.45 14
-1.19 -0.831 2.439 14
-1.183 -0.822 2.424 13
-1.186 -0.82 2.404 8
-1.166 -0.803 2.395 0
-1.132 -0.776 2.394 0
-1.139 -0.777 2.371 0
0.0 -0.0 3.0 0
0.0 -0.0 3.0 0
0.0 -0.0 3.0 0
0.0 -0.0 3.0 0
0.0 -0.0 3.0 0
-2.588 -2.196 2.493 4
0.0 -0.0 3.0 0
-1.579 -1.307 2.65 3
-1.599 -1.309 2.625 0
-1.567 -1.267 2.613 0
-1.549 -1.239 2.597 0
-1.58 -1.25 2.57 0
-2.059 -1.612 2.413 0
-1.428 -1.106 2.575 0
0.0 -0.0 3.0 0
-1.4 -1.065 2.548 0
-1.373 -1.035 2.539 0
-1.355 -1.012 2.528 0
-1.336 -0.991 2.517 0
-1.271 -0.934 2.524 0
-1.264 -0.922 2.51 0
-1.226 -0.889 2.507 1
-1.218 -0.877 2.494 1
-1.213 -0.868 2.479 2
-1.205 -0.857 2.465 16
-1.199 -0.848 2.449 13
-1.184 -0.832 2.439 10
-1.18 -0.826 2.422 12
-1.183 -0.823 2.402 1
-1.154 -0.799 2.398 0
-1.12 -0.772 2.397 0
-1.118 -0.767 2.379 0
0.0 -0.0 3.0 0
-1.108 -0.754 2.344 0
0.0 -0.0 3.0 0
0.0 -0.0 3.0 0
0.0 -0.0 3.0 0
-1.588 -1.356 2.687 0
0.0 -0.0 3.0 0
-1.572 -1.309 2.649 2
-1.592 -1.31 2.624 0
-1.56 -1.269 2.612 0
0.0 -0.0 3.0 0
0.0 -0.0 3.0 0
-2.054 -1.618 2.411 0
0.0 -0.0 3.0 0
-1.432 -1.106 2.553 0
-1.409 -1.078 2.543 0
-1.385 -1.05 2.532 0
-1.339 -1.007 2.53 0
-1.302 -0.971 2.526 0
-1.268 -0.938 2.522 0
-1.264 -0.928 2.506 0
-1.223 -0.892 2.505 1
-1.209 -0.876 2.494 1
-1.207 -0.869 2.478 9
-1.202 -0.859 2.463 13
-1.193 -0.849 2.449 14
-1.181 -0.835 2.436 12
-1.174 -0.826 2.422 9
-1.177 -0.824 2.401 0
-1.169 -0.815 2.386 0
-1.108 -0.769 2.4 0
-1.118 -0.772 2.375 0
0.0 -0.0 3.0 0
-1.132 -0.775 2.327 0
0.0 -0.0 3.0 0
0.0 -0.0 3.0 0
0.0 -0.0 3.0 0
-1.59 -1.366 2.685 0
0.0 -0.0 3.0 0
-1.562 -1.309 2.649 2
-1.567 -1.297 2.628 0
0.0 -0.0 3.0 0
-1.553 -1.258 2.591 0
-1.511 -1.21 2.583 0
-2.045 -1.622 2.41 0
-1.415 -1.11 2.574 0
-1.428 -1.111 2.551 0
-1.381 -1.063 2.549 0
-1.36 -1.038 2.538 0
-1.326 -1.003 2.532 0
-1.308 -0.982 2.521 0
-1.261 -0.94 2.521 0
-1.221 -0.903 2.52 1
-1.207 -0.886 2.509 1
-1.212 -0.884 2.49 2
-1.207 -0.874 2.475 14
-1.195 -0.861 2.462 12
-1.19 -0.852 2.447 10
-1.181 -0.84 2.433 12
-1.177 -0.833 2.416 1
-1.18 -0.831 2.396 0
-1.142 -0.801 2.396 0
0.0 -0.0 3.0 0
0.0 -0.0 3.0 0
-1.111 -0.768 2.355 0
0.0 -0.0 3.0 0
0.0 -0.0 3.0 0
0.0 -0.0 3.0 0
0.0 -0.0 3.0 0
-1.55 -1.34 2.691 0
0.0 -0.0 3.0 0
-1.549 -1.306 2.65 1
-1.572 -1.31 2.624 0
-1.549 -1.275 2.61 0
-1.492 -1.215 2.605 0
-1.47 -1.185 2.592 0
-1.47 -1.172 2.573 0
-2.113 -1.669 2.359 0
-2.125 -1.662 2.328 0
-1.386 -1.074 2.544 0
-1.362 -1.046 2.534 0
-1.314 -1.001 2.533 0
-1.283 -0.969 2.527 0
-1.243 -0.932 2.525 0
-1.224 -0.91 2.516 0
-1.204 -0.889 2.507 2
-1.206 -0.885 2.489 7
-1.204 -0.877 2.473 13
-1.192 -0.863 2.461 13
-1.186 -0.855 2.445 13
-1.174 -0.841 2.433 11
-1.159 -0.826 2.422 0
-1.158 -0.821 2.404 0
-1.136 -0.802 2.396 0
-1.117 -0.784 2.388 0
-1.119 -0.781 2.367 0
-1.099 -0.764 2.359 0
0.0 -0.0 3.0 0
0.0 -0.0 3.0 0
0.0 -0.0 3.0 0
0.0 -0.0 3.0 0
-1.534 -1.333 2.692 0
-1.549 -1.329 2.669 0
-1.545 -1.311 2.649 0
-1.537 -1.289 2.631 0
-1.526 -1.265 2.613 0
-1.479 -1.212 2.606 0
-1.494 -1.212 2.583 0
-1.487 -1.194 2.565 0
-1.422 -1.131 2.566 0
-2.125 -1.673 2.324 0
-1.343 -1.047 2.555 0
-1.374 -1.062 2.527 0
-1.313 -1.007 2.53 0
-1.27 -0.966 2.529 0
-1.224 -0.924 2.529 0
-1.217 -0.912 2.515 0
-1.207 -0.897 2.503 2
-1.208 -0.892 2.485 12
-1.197 -0.878 2.472 11
-1.183 -0.862 2.461 10
-1.183 -0.858 2.443 13
-1.177 -0.849 2.428 2
-1.162 -0.833 2.417 0
-1.14 -0.813 2.409 0
-1.142 -0.811 2.389 0
-1.108 -0.783 2.389 0
-1.116 -0.784 2.365 0
-1.102 -0.771 2.353 0
0.0 -0.0 3.0 0
0.0 -0.0 3.0 0
0.0 -0.0 3.0 0
0.0 -0.0 3.0 0
-2.441 -2.135 2.507 4
-1.53 -1.322 2.67 0
-1.535 -1.31 2.649 0
-1.542 -1.301 2.627 0
-1.516 -1.264 2.613 0
-1.49 -1.229 2.601 0
-1.496 -1.22 2.58 0
0.0 -0.0 3.0 0
-1.397 -1.117 2.571 0
-1.426 -1.13 2.543 0
-1.345 -1.056 2.552 0
-1.325 -1.031 2.541 0
-1.292 -0.996 2.536 0
-1.237 -0.946 2.539 0
-1.227 -0.932 2.525 0
-1.205 -0.908 2.517 1
-1.207 -0.903 2.5 9
-1.205 -0.896 2.483 13
-1.194 -0.881 2.47 13
-1.183 -0.868 2.458 10
-1.18 -0.861 2.441 11
-1.171 -0.849 2.427 0
-1.162 -0.838 2.413 0
-1.143 -0.82 2.404 0
-1.121 -0.8 2.397 0
-1.096 -0.779 2.391 0
-1.092 -0.772 2.375 0
-1.096 -0.771 2.353 0
0.0 -0.0 3.0 0
0.0 -0.0 3.0 0
0.0 -0.0 3.0 0
0.0 -0.0 3.0 0
-2.449 -2.155 2.502 5
-1.517 -1.318 2.671 0
0.0 -0.0 3.0 0
-1.532 -1.301 2.627 0
-1.497 -1.256 2.616 0
-1.474 -1.223 2.603 0
-1.428 -1.173 2.596 0
-1.398 -1.136 2.587 0
-1.403 -1.129 2.567 0
-2.117 -1.687 2.318 0
-1.351 -1.067 2.547 0
-1.303 -1.02 2.546 0
-1.27 -0.986 2.54 0
-1.23 -0.948 2.538 0
-1.215 -0.928 2.527 0
-1.211 -0.918 2.512 2
-1.207 -0.909 2.496 13
-1.202 -0.898 2.481 10
-1.188 -0.882 2.47 10
-1.183 -0.873 2.454 13
-1.189 -0.873 2.433 3
-1.147 -0.837 2.435 0
-1.138 -0.826 2.422 0
-1.122 -0.81 2.412 0
-1.115 -0.801 2.397 0
-1.093 -0.781 2.39 0
-1.119 -0.795 2.356 0
-1.09 -0.771 2.353 0
0.0 -0.0 3.0 0
0.0 -0.0 3.0 0
0.0 -0.0 3.0 0
0.0 -0.0 3.0 0
-1.51 -1.337 2.691 0
-1.509 -1.32 2.671 1
0.0 -0.0 3.0 0
-1.513 -1.293 2.629 0
-1.472 -1.243 2.62 0
-1.446 -1.208 2.608 0
-1.437 -1.187 2.591 0
0.0 -0.0 3.0 0
-1.405 -1.138 2.563 0
-2.114 -1.697 2.315 1
-1.308 -1.04 2.559 0
-1.287 -1.014 2.548 0
-1.254 -0.98 2.543 0
-1.224 -0.949 2.537 0
-1.211 -0.932 2.525 1
-1.208 -0.921 2.51 7
-1.206 -0.914 2.493 15
-1.193 -0.897 2.482 13
-1.185 -0.886 2.468 9
-1.18 -0.876 2.453 13
-1.174 -0.867 2.437 0
-1.144 -0.839 2.434 0
-1.135 -0.828 2.42 0
-1.14 -0.828 2.398 0
-1.106 -0.8 2.397 0
-1.105 -0.794 2.379 0
-1.095 -0.783 2.366 0
-1.096 -0.78 2.345 0
0.0 -0.0 3.0 0
0.0 -0.0 3.0 0
0.0 -0.0 3.0 0
0.0 -0.0 3.0 0
-1.482 -1.32 2.695 0
-1.485 -1.306 2.674 1
0.0 -0.0 3.0 0
-1.515 -1.301 2.627 0
-1.477 -1.255 2.616 0
-1.49 -1.252 2.593 0
-1.418 -1.179 2.594 0
-1.387 -1.141 2.585 0
-2.061 -1.68 2.355 0
-2.103 -1.698 2.314 0
-1.304 -1.043 2.557 0
-1.284 -1.018 2.547 0
-1.227 -0.964 2.55 0
-1.224 -0.954 2.535 0
-1.205 -0.932 2.525 2
-1.21 -0.929 2.506 11
-1.2 -0.915 2.493 12
-1.187 -0.898 2.481 10
-1.182 -0.889 2.466 13
-1.182 -0.884 2.448 5
-1.177 -0.874 2.432 0
-1.117 -0.825 2.444 0
-1.129 -0.829 2.42 0
-1.131 -0.826 2.4 0
-1.103 -0.802 2.396 0
-1.102 -0.797 2.377 0
-1.107 -0.796 2.355 0
0.0 -0.0 3.0 0
0.0 -0.0 3.0 0
0.0 -0.0 3.0 0
0.0 -0.0 3.0 0
-1.537 -1.394 2.704 0
-1.46 -1.308 2.698 0
-1.481 -1.31 2.673 3
0.0 -0.0 3.0 0
-1.502 -1.298 2.628 0
-1.461 -1.249 2.618 0
-1.444 -1.221 2.603 0
-1.42 -1.188 2.591 0
-1.374 -1.139 2.586 0
-1.379 -1.131 2.566 0
-1.324 -1.075 2.566 0
-1.28 -1.031 2.563 0
-1.253 -1.0 2.555 0
-1.217 -0.963 2.551 0
-1.217 -0.956 2.534 1
-1.211 -0.943 2.519 6
-1.207 -0.933 2.504 13
-1.194 -0.916 2.492 14
-1.183 -0.902 2.479 8
-1.181 -0.894 2.463 13
-1.161 -0.873 2.454 0
-1.147 -0.858 2.443 0
-1.132 -0.841 2.433 0
-1.131 -0.836 2.414 0
-1.122 -0.824 2.401 0
-1.106 -0.809 2.39 0
-1.096 -0.798 2.377 0
-1.092 -0.791 2.36 0
-1.093 -0.787 2.34 0
0.0 -0.0 3.0 0
0.0 -0.0 3.0 0
0.0 -0.0 3.0 0
-1.527 -1.394 2.704 0
-1.445 -1.302 2.699 0
-1.471 -1.31 2.673 4
0.0 -0.0 3.0 0
-1.513 -1.316 2.623 0
-1.454 -1.25 2.618 0
-1.443 -1.228 2.601 0
-1.383 -1.164 2.599 0
-1.373 -1.145 2.583 0
-1.364 -1.126 2.568 0
-1.281 -1.047 2.577 0
-1.294 -1.048 2.555 0
-1.238 -0.994 2.557 0
-1.22 -0.972 2.547 1
-1.208 -0.954 2.535 1
-1.21 -0.948 2.517 11
-1.201 -0.934 2.504 11
-1.19 -0.919 2.491 13
-1.186 -0.909 2.475 13
-1.178 -0.898 2.461 7
-1.149 -0.87 2.457 0
-1.155 -0.869 2.435 0
-1.129 -0.844 2.431 0
-1.12 -0.833 2.417 0
-1.113 -0.823 2.402 0
-1.106 -0.814 2.387 0
-1.087 -0.796 2.378 0
0.0 -0.0 3.0 0
-1.078 -0.781 2.344 0
0.0 -0.0 3.0 0
0.0 -0.0 3.0 0
0.0 -0.0 3.0 0
-1.493 -1.371 2.709 0
-1.461 -1.325 2.694 0
-1.461 -1.308 2.674 8
0.0 -0.0 3.0 0
-1.497 -1.31 2.624 0
-1.432 -1.24 2.621 0
-1.436 -1.229 2.601 0
-1.391 -1.178 2.594 0
-1.364 -1.144 2.584 0
-1.342 -1.114 2.572 0
-1.283 -1.056 2.573 0
-1.264 -1.031 2.563 0
-1.222 -0.988 2.56 0
-1.214 -0.972 2.547 1
-1.211 -0.962 2.531 5
-1.207 -0.952 2.515 13
-1.197 -0.937 2.502 13
-1.181 -0.918 2.491 10
-1.183 -0.913 2.473 13
-1.166 -0.894 2.463 0
-1.155 -0.88 2.45 0
-1.137 -0.861 2.441 0
-1.137 -0.856 2.423 0
-1.122 -0.84 2.412 0
-1.116 -0.83 2.397 0
-1.121 -0.83 2.375 0
-1.079 -0.794 2.38 0
-1.089 -0.797 2.354 0
0.0 -0.0 3.0 0
0.0 -0.0 3.0 0
0.0 -0.0 3.0 0
0.0 -0.0 3.0 0
-1.46 -1.348 2.713 0
-1.442 -1.316 2.696 0
-1.448 -1.305 2.675 11
0.0 -0.0 3.0 0
-1.478 -1.301 2.627 0
-1.464 -1.275 2.61 0
-1.417 -1.221 2.603 0
-1.384 -1.18 2.594 0
-1.363 -1.151 2.581 0
-1.296 -1.083 2.584 0
-1.289 -1.067 2.569 0
-1.245 -1.021 2.566 0
-1.219 -0.992 2.559 0
-1.207 -0.973 2.546 1
-1.21 -0.968 2.528 9
-1.204 -0.956 2.513 10
-1.191 -0.938 2.501 12
-1.184 -0.926 2.487 15
-1.179 -0.915 2.471 8
-1.183 -0.913 2.451 0
-1.146 -0.878 2.451 0
-1.113 -0.848 2.449 0
-1.114 -0.843 2.431 0
-1.102 -0.829 2.42 0
-1.101 -0.824 2.401 0
-1.118 -0.832 2.373 0
-1.084 -0.803 2.373 0
-1.089 -0.802 2.351 0
0.0 -0.0 3.0 0
0.0 -0.0 3.0 0
0.0 -0.0 3.0 0
0.0 -0.0 3.0 0
-1.465 -1.361 2.711 0
-1.435 -1.317 2.696 0
-1.441 -1.307 2.674 13
0.0 -0.0 3.0 0
-1.456 -1.29 2.63 0
-1.419 -1.243 2.62 0
-1.407 -1.22 2.603 0
-1.407 -1.207 2.584 0
-1.338 -1.136 2.586 0
-1.29 -1.085 2.583 0
-1.255 -1.046 2.577 0
-1.227 -1.013 2.57 0
-1.218 -0.997 2.556 1
-1.213 -0.984 2.541 3
-1.207 -0.971 2.526 11
-1.197 -0.956 2.513 13
-1.188 -0.941 2.499 9
-1.181 -0.929 2.485 16
-1.17 -0.914 2.472 0
-1.153 -0.896 2.462 0
-1.137 -0.876 2.453 0
-1.125 -0.862 2.44 0
-1.119 -0.852 2.425 0
-1.11 -0.841 2.411 0
-1.11 -0.836 2.393 0
-1.085 -0.813 2.387 0
-1.076 -0.801 2.374 0
-1.077 -0.798 2.354 0
-1.069 -0.788 2.338 0
0.0 -0.0 3.0 0
0.0 -0.0 3.0 0
0.0 -0.0 3.0 0
-1.452 -1.356 2.712 0
-1.434 -1.325 2.694 0
-1.434 -1.308 2.674 16
0.0 -0.0 3.0 0
-1.458 -1.3 2.627 0
-1.438 -1.268 2.612 0
-1.435 -1.252 2.593 0
-1.388 -1.198 2.587 0
-1.317 -1.126 2.59 0
-1.286 -1.089 2.582 0
-1.231 -1.032 2.583 0
-1.22 -1.014 2.57 0
-1.209 -0.996 2.557 1
-1.212 -0.99 2.539 8
-1.203 -0.975 2.525 9
-1.194 -0.96 2.511 12
-1.181 -0.942 2.499 13
-1.177 -0.932 2.483 13
-1.167 -0.917 2.471 0
-1.153 -0.901 2.459 0
-1.139 -0.884 2.448 0
-1.134 -0.874 2.432 0
-1.104 -0.846 2.429 0
-1.095 -0.835 2.416 0
-1.101 -0.834 2.394 0
-1.097 -0.826 2.377 0
-1.073 -0.804 2.372 0
-1.103 -0.822 2.334 0
0.0 -0.0 3.0 0
0.0 -0.0 3.0 0
0.0 -0.0 3.0 0
0.0 -0.0 3.0 0
-1.43 -1.344 2.714 0
-1.422 -1.32 2.695 0
-1.43 -1.312 2.673 19
0.0 -0.0 3.0 0
-1.459 -1.309 2.625 0
-1.402 -1.244 2.62 0
-1.402 -1.231 2.6 0
-1.358 -1.18 2.594 0
-1.298 -1.116 2.594 0
-1.259 -1.072 2.589 0
-1.231 -1.039 2.58 0
-1.223 -1.022 2.566 0
-1.215 -1.007 2.552 2
-1.209 -0.993 2.537 11
-1.2 -0.978 2.523 11
-1.188 -0.961 2.51 9
-1.181 -0.948 2.496 14
-1.177 -0.937 2.48 1
-1.14 -0.902 2.479 0
-1.138 -0.894 2.463 0
-1.115 -0.871 2.456 0
-1.107 -0.859 2.442 0
-1.101 -0.849 2.427 0
-1.104 -0.846 2.407 0
-1.118 -0.852 2.381 0
-1.111 -0.842 2.365 0
-1.075 -0.811 2.366 0
-1.077 -0.808 2.346 0
0.0 -0.0 3.0 0
0.0 -0.0 3.0 0
0.0 -0.0 3.0 0
0.0 -0.0 3.0 0
-1.447 -1.368 2.709 0
-1.392 -1.3 2.7 0
-1.417 -1.309 2.674 20
0.0 -0.0 3.0 0
-1.449 -1.308 2.625 0
-1.395 -1.246 2.619 0
-1.36 -1.202 2.61 0
-1.325 -1.158 2.601 0
-1.295 -1.12 2.592 0
-1.255 -1.076 2.587 0
-1.221 -1.037 2.581 0
-1.216 -1.023 2.566 1
-1.211 -1.01 2.55 8
-1.206 -0.997 2.535 10
-1.191 -0.976 2.524 12
-1.184 -0.964 2.509 13
-1.178 -0.951 2.494 12
-1.156 -0.927 2.486 0
-1.14 -0.907 2.476 0
-1.132 -0.895 2.462 0
-1.121 -0.88 2.45 0
-1.104 -0.862 2.44 0
-1.113 -0.863 2.418 0
-1.098 -0.847 2.407 0
-1.08 -0.828 2.399 0
-1.091 -0.832 2.373 0
-1.081 -0.82 2.36 0
-1.076 -0.812 2.342 0
0.0 -0.0 3.0 0
-1.104 -0.824 2.284 0
0.0 -0.0 3.0 0
0.0 -0.0 3.0 0
-1.402 -1.334 2.716 0
-1.396 -1.312 2.697 0
-1.407 -1.307 2.674 21
-1.418 -1.302 2.651 0
-1.428 -1.296 2.628 0
-1.4 -1.257 2.616 0
-1.385 -1.231 2.6 0
-1.309 -1.151 2.604 0
-1.25 -1.089 2.604 0
-1.228 -1.06 2.593 0
-1.218 -1.041 2.58 0
-1.216 -1.03 2.563 2
-1.211 -1.016 2.548 11
-1.199 -0.998 2.535 10
-1.19 -0.983 2.521 10
-1.184 -0.97 2.506 14
-1.177 -0.956 2.491 2
-1.15 -0.928 2.486 0
-1.116 -0.894 2.484 0
-1.12 -0.891 2.465 0
-1.118 -0.883 2.448 0
-1.13 -0.887 2.424 0
-1.083 -0.846 2.43 0
-1.098 -0.852 2.404 0
-1.083 -0.835 2.393 0
-1.093 -0.839 2.368 0
-1.069 -0.815 2.363 0
-1.073 -0.814 2.341 0
0.0 -0.0 3.0 0
0.0 -0.0 3.0 0
0.0 -0.0 3.0 0
0.0 -0.0 3.0 0
-1.395 -1.336 2.716 0
-1.381 -1.306 2.699 0
-1.403 -1.311 2.673 21
0.0 -0.0 3.0 0
-1.426 -1.303 2.626 0
-1.378 -1.245 2.619 0
-1.355 -1.212 2.606 0
-1.285 -1.138 2.608 0
-1.246 -1.092 2.602 0
-1.23 -1.068 2.59 0
-1.223 -1.052 2.575 1
-1.204 -1.026 2.565 8
-1.207 -1.02 2.546 11
-1.193 -0.999 2.534 12
-1.181 -0.981 2.522 11
-1.183 -0.975 2.503 13
-1.165 -0.953 2.493 0
-1.129 -0.916 2.492 0
-1.136 -0.916 2.471 0
-1.108 -0.887 2.467 0
-1.097 -0.872 2.455 0
-1.106 -0.875 2.432 0
-1.086 -0.853 2.425 0
-1.077 -0.841 2.411 0
-1.094 -0.849 2.383 0
-1.073 -0.828 2.376 0
-1.055 -0.809 2.368 0
-1.05 -0.802 2.351 0
-1.097 -0.833 2.301 0
-1.072 -0.809 2.297 0
0.0 -0.0 3.0 0
0.0 -0.0 3.0 0
-1.391 -1.339 2.715 0
-1.359 -1.293 2.701 0
-1.39 -1.307 2.674 21
0.0 -0.0 3.0 0
-1.419 -1.305 2.626 0
-1.36 -1.236 2.622 0
-1.316 -1.185 2.615 0
-1.29 -1.149 2.604 0
-1.242 -1.096 2.601 0
-1.221 -1.066 2.591 0
-1.214 -1.05 2.576 2
-1.209 -1.036 2.56 10
-1.198 -1.018 2.547 9
-1.189 -1.002 2.533 10
-1.186 -0.992 2.516 14
-1.18 -0.979 2.501 3
-1.147 -0.944 2.498 0
-1.134 -0.927 2.486 0
0.0 -0.0 3.0 0
-1.125 -0.906 2.455 0
-1.108 -0.887 2.446 0
-1.1 -0.875 2.432 0
-1.086 -0.858 2.421 0
-1.086 -0.853 2.403 0
-1.062 -0.83 2.397 0
-1.055 -0.819 2.383 0
-1.046 -0.807 2.369 0
-1.047 -0.804 2.349 0
-1.065 -0.813 2.317 0
0.0 -0.0 3.0 0
0.0 -0.0 3.0 0
0.0 -0.0 3.0 0
-2.268 -2.197 2.533 5
-1.378 -1.319 2.695 0
-1.383 -1.308 2.674 20
0.0 -0.0 3.0 0
-1.392 -1.288 2.631 0
-1.335 -1.221 2.627 0
-1.304 -1.181 2.616 0
-1.245 -1.116 2.616 0
-1.23 -1.091 2.603 0
-1.206 -1.06 2.593 1
-1.213 -1.056 2.573 7
-1.205 -1.04 2.559 10
-1.194 -1.022 2.545 12
-1.183 -1.003 2.532 9
-1.177 -0.99 2.517 12
-1.171 -0.977 2.502 0
-1.161 -0.962 2.489 0
-1.134 -0.932 2.483 0
-1.118 -0.912 2.473 0
-1.084 -0.879 2.472 0
-1.108 -0.892 2.443 0
-1.106 -0.885 2.426 0
-1.077 -0.856 2.423 0
-1.088 -0.86 2.398 0
-1.091 -0.856 2.378 0
-1.069 -0.836 2.37 0
-1.04 -0.808 2.369 0
-1.033 -0.798 2.354 0
-1.082 -0.831 2.302 0
0.0 -0.0 3.0 0
0.0 -0.0 3.0 0
0.0 -0.0 3.0 0
-1.377 -1.342 2.715 0
-1.354 -1.304 2.699 0
-1.376 -1.31 2.673 19
-1.404 -1.321 2.646 0
-1.402 -1.305 2.626 0
-1.311 -1.207 2.631 0
-1.294 -1.179 2.617 0
-1.222 -1.102 2.621 0
-1.224 -1.092 2.602 0
-1.214 -1.074 2.588 1
-1.212 -1.062 2.571 9
-1.199 -1.041 2.558 9
-1.191 -1.025 2.543 10
-1.182 -1.009 2.53 14
-1.182 -1.001 2.512 5
-1.161 -0.975 2.503 0
-1.143 -0.953 2.493 0
-1.101 -0.911 2.495 0
-1.1 -0.904 2.478 0
-1.104 -0.9 2.459 0
-1.105 -0.895 2.441 0
-1.094 -0.88 2.428 0
-1.077 -0.861 2.419 0
-1.068 -0.849 2.405 0
-1.073 -0.848 2.384 0
-1.052 -0.827 2.377 0
-1.068 -0.834 2.348 0
-1.047 -0.813 2.342 0
0.0 -0.0 3.0 0
0.0 -0.0 3.0 0
0.0 -0.0 3.0 0
0.0 -0.0 3.0 0
-1.373 -1.346 2.714 0
-1.353 -1.31 2.697 0
-1.37 -1.312 2.673 16
-1.383 -1.309 2.649 0
-1.378 -1.29 2.63 0
-1.29 -1.195 2.635 0
-1.25 -1.146 2.628 0
-1.235 -1.121 2.614 0
-1.223 -1.099 2.6 0
-1.213 -1.079 2.586 5
-1.206 -1.063 2.571 10
-1.198 -1.047 2.556 11
-1.181 -1.023 2.544 9
-1.182 -1.015 2.527 13
-1.155 -0.985 2.52 0
-1.149 -0.972 2.505 0
-1.12 -0.939 2.501 0
-1.121 -0.934 2.482 0
-1.088 -0.899 2.481 0
-1.101 -0.904 2.457 0
-1.087 -0.886 2.446 0
-1.082 -0.877 2.431 0
-1.071 -0.862 2.419 0
-1.062 -0.849 2.405 0
-1.058 -0.842 2.389 0
-1.06 -0.838 2.368 0
-1.076 -0.846 2.339 0
0.0 -0.0 3.0 0
-1.039 -0.807 2.322 0
0.0 -0.0 3.0 0
0.0 -0.0 3.0 0
0.0 -0.0 3.0 0
-1.369 -1.35 2.713 0
-1.346 -1.312 2.697 0
-1.36 -1.309 2.674 12
-1.367 -1.302 2.651 0
-1.354 -1.276 2.634 0
-1.301 -1.212 2.629 0
-1.252 -1.154 2.625 0
-1.226 -1.119 2.615 0
-1.211 -1.095 2.601 1
-1.21 -1.083 2.584 9
-1.202 -1.067 2.569 8
-1.192 -1.048 2.555 10
-1.181 -1.029 2.542 13
-1.175 -1.016 2.526 6
-1.152 -0.988 2.518 0
-1.134 -0.964 2.509 0
-1.116 -0.942 2.499 0
-1.109 -0.929 2.485 0
-1.111 -0.924 2.467 0
-1.092 -0.902 2.458 0
-1.104 -0.905 2.434 0
-1.079 -0.879 2.429 0
-1.067 -0.864 2.417 0
-1.084 -0.873 2.389 0
-1.081 -0.865 2.372 0
-1.069 -0.85 2.359 0
-1.05 -0.83 2.351 0
0.0 -0.0 3.0 0
-1.047 -0.819 2.313 0
0.0 -0.0 3.0 0
0.0 -0.0 3.0 0
0.0 -0.0 3.0 0
-1.354 -1.342 2.715 0
-1.337 -1.311 2.697 0
-1.356 -1.314 2.672 10
0.0 -0.0 3.0 0
-1.322 -1.252 2.641 0
-1.274 -1.194 2.635 0
-1.228 -1.14 2.63 0
-1.216 -1.118 2.615 1
-1.218 -1.108 2.597 3
-1.209 -1.089 2.582 11
-1.199 -1.07 2.568 11
-1.185 -1.049 2.555 9
-1.18 -1.035 2.539 13
-1.16 -1.009 2.53 0
-1.157 -0.998 2.513 0
-1.108 -0.948 2.517 0
-1.136 -0.964 2.487 0
-1.1 -0.927 2.486 0
-1.102 -0.922 2.468 0
-1.097 -0.912 2.452 0
-1.075 -0.887 2.446 0
-1.081 -0.887 2.424 0
-1.053 -0.857 2.422 0
-1.078 -0.873 2.389 0
-1.069 -0.861 2.375 0
-1.048 -0.839 2.368 0
-1.053 -0.838 2.346 0
0.0 -0.0 3.0 0
-1.058 -0.831 2.302 0
0.0 -0.0 3.0 0
0.0 -0.0 3.0 0
0.0 -0.0 3.0 0
-1.344 -1.341 2.715 0
-1.335 -1.317 2.696 0
-1.354 -1.321 2.671 8
-1.367 -1.318 2.647 0
-1.289 -1.229 2.647 0
-1.244 -1.174 2.641 0
-1.219 -1.138 2.63 0
-1.213 -1.121 2.614 1
-1.212 -1.11 2.596 8
-1.205 -1.093 2.58 8
-1.189 -1.068 2.568 10
-1.179 -1.05 2.554 11
-1.176 -1.038 2.538 7
-1.154 -1.01 2.529 0
-1.134 -0.985 2.52 0
-1.122 -0.966 2.508 0
-1.101 -0.94 2.5 0
-1.111 -0.942 2.478 0
-1.098 -0.925 2.466 0
-1.088 -0.91 2.453 0
-1.086 -0.902 2.437 0
-1.066 -0.88 2.429 0
-1.064 -0.872 2.412 0
-1.046 -0.853 2.403 0
-1.077 -0.872 2.366 0
-1.062 -0.855 2.355 0
-1.053 -0.842 2.342 0
0.0 -0.0 3.0 0
-1.035 -0.819 2.313 0
0.0 -0.0 3.0 0
0.0 -0.0 3.0 0
0.0 -0.0 3.0 0
-1.334 -1.339 2.715 0
-1.331 -1.321 2.695 0
-1.342 -1.316 2.672 5
-1.327 -1.286 2.655 0
-1.285 -1.233 2.646 0
-1.235 -1.173 2.642 0
-1.221 -1.147 2.627 0
-1.212 -1.127 2.612 2
-1.202 -1.108 2.597 10
-1.196 -1.091 2.581 10
-1.188 -1.075 2.566 8
-1.175 -1.053 2.553 11
-1.161 -1.032 2.541 0
-1.147 -1.011 2.529 0
-1.127 -0.984 2.52 0
-1.098 -0.952 2.515 0
-1.103 -0.948 2.496 0
-1.102 -0.941 2.479 0
-1.081 -0.916 2.471 0
-1.105 -0.929 2.442 0
-1.086 -0.907 2.433 0
-1.069 -0.887 2.424 0
-1.063 -0.877 2.408 0
-1.063 -0.871 2.39 0
-1.054 -0.858 2.376 0
-1.076 -0.871 2.344 0
-1.058 -0.851 2.335 0
0.0 -0.0 3.0 0
-1.024 -0.814 2.317 0
0.0 -0.0 3.0 0
0.0 -0.0 3.0 0
0.0 -0.0 3.0 0
-1.33 -1.343 2.715 0
-1.324 -1.322 2.695 0
-1.335 -1.317 2.672 4
-1.294 -1.263 2.662 0
-1.25 -1.207 2.654 0
-1.223 -1.167 2.643 0
-1.217 -1.151 2.626 1
-1.211 -1.133 2.61 8
-1.199 -1.112 2.595 8
-1.195 -1.097 2.579 10
-1.182 -1.076 2.565 11
-1.172 -1.056 2.552 8
-1.152 -1.03 2.541 0
-1.147 -1.016 2.526 0
-1.121 -0.985 2.519 0
-1.115 -0.972 2.505 0
-1.117 -0.967 2.486 0
-1.087 -0.934 2.482 0
-1.083 -0.923 2.467 0
-1.09 -0.923 2.445 0
-1.077 -0.905 2.434 0
-1.066 -0.89 2.422 0
-1.06 -0.88 2.407 0
-1.071 -0.884 2.381 0
-1.068 -0.875 2.364 0
-1.033 -0.842 2.366 0
-1.024 -0.829 2.352 0
0.0 -0.0 3.0 0
0.0 -0.0 3.0 0
0.0 -0.0 3.0 0
0.0 -0.0 3.0 0
0.0 -0.0 3.0 0
-1.312 -1.333 2.717 0
-1.315 -1.32 2.695 0
-1.32 -1.31 2.673 3
-1.276 -1.253 2.664 0
-1.238 -1.202 2.655 0
-1.224 -1.177 2.64 1
-1.213 -1.154 2.625 2
-1.207 -1.137 2.609 10
-1.198 -1.117 2.593 9
-1.188 -1.098 2.579 8
-1.178 -1.079 2.564 11
-1.174 -1.065 2.548 0
-1.163 -1.046 2.534 0
-1.138 -1.014 2.527 0
-1.126 -0.996 2.514 0
-1.103 -0.968 2.507 0
-1.094 -0.953 2.493 0
-1.093 -0.944 2.477 0
-1.066 -0.915 2.472 0
-1.07 -0.911 2.453 0
-1.068 -0.903 2.436 0
-1.074 -0.902 2.414 0
-1.06 -0.885 2.403 0
-1.071 -0.889 2.378 0
-1.053 -0.868 2.369 0
-1.058 -0.867 2.347 0
-1.04 -0.847 2.338 0
0.0 -0.0 3.0 0
0.0 -0.0 3.0 0
0.0 -0.0 3.0 0
0.0 -0.0 3.0 0
0.0 -0.0 3.0 0
-1.306 -1.334 2.716 0
-1.302 -1.316 2.696 0
-1.316 -1.314 2.672 1
-1.261 -1.246 2.666 0
-1.229 -1.201 2.656 0
-1.215 -1.175 2.641 1
-1.212 -1.16 2.623 8
-1.204 -1.14 2.607 9
-1.194 -1.121 2.592 10
-1.179 -1.096 2.579 11
-1.175 -1.082 2.563 8
-1.159 -1.058 2.551 0
-1.122 -1.016 2.548 0
-1.145 -1.028 2.521 0
-1.114 -0.992 2.516 0
-1.091 -0.963 2.509 0
-1.082 -0.948 2.496 0
-1.083 -0.942 2.478 0
-1.082 -0.935 2.46 0
-1.069 -0.917 2.449 0
-1.053 -0.896 2.44 0
-1.073 -0.907 2.411 0
-1.04 -0.874 2.411 0
-1.067 -0.891 2.376 0
0.0 -0.0 3.0 0
-1.052 -0.868 2.346 0
-1.043 -0.854 2.333 0
0.0 -0.0 3.0 0
0.0 -0.0 3.0 0
0.0 -0.0 3.0 0
0.0 -0.0 3.0 0
0.0 -0.0 3.0 0
-1.301 -1.338 2.716 0
-1.301 -1.323 2.695 0
-1.303 -1.309 2.674 1
-1.227 -1.22 2.673 0
-1.213 -1.193 2.658 0
-1.211 -1.179 2.64 1
-1.206 -1.161 2.623 9
-1.197 -1.141 2.607 8
-1.188 -1.122 2.592 8
-1.181 -1.105 2.576 12
-1.174 -1.089 2.56 1
-1.166 -1.072 2.545 0
-1.127 -1.027 2.543 0
-1.122 -1.013 2.528 0
-1.125 -1.008 2.508 0
-1.113 -0.989 2.496 0
-1.081 -0.954 2.493 0
-1.08 -0.946 2.476 0
-1.07 -0.929 2.463 0
-1.06 -0.914 2.451 0
-1.061 -0.909 2.432 0
-1.07 -0.911 2.409 0
-1.028 -0.869 2.414 0
-1.042 -0.875 2.387 0
-1.027 -0.858 2.377 0
-1.029 -0.854 2.356 0
-1.014 -0.836 2.347 0
0.0 -0.0 3.0 0
0.0 -0.0 3.0 0
0.0 -0.0 3.0 0
0.0 -0.0 3.0 0
0.0 -0.0 3.0 0
-1.289 -1.333 2.717 0
-1.297 -1.326 2.694 0
-1.28 -1.294 2.677 0
-1.228 -1.228 2.671 0
-1.224 -1.211 2.653 1
-1.213 -1.188 2.637 6
-1.199 -1.162 2.622 10
-1.19 -1.142 2.607 11
-1.181 -1.123 2.591 9
-1.175 -1.106 2.575 10
-1.17 -1.091 2.559 0
-1.14 -1.054 2.552 0
-1.118 -1.025 2.543 0
-1.13 -1.027 2.521 0
-1.104 -0.995 2.515 0
-1.087 -0.972 2.505 0
-1.081 -0.959 2.49 0
-1.08 -0.951 2.473 0
-1.061 -0.928 2.464 0
-1.065 -0.925 2.444 0
-1.058 -0.912 2.43 0
-1.061 -0.908 2.41 0
-1.041 -0.886 2.402 0
-1.047 -0.885 2.381 0
-1.013 -0.851 2.382 0
-1.037 -0.866 2.348 0
-1.008 -0.836 2.347 0
0.0 -0.0 3.0 0
0.0 -0.0 3.0 0
0.0 -0.0 3.0 0
0.0 -0.0 3.0 0
0.0 -0.0 3.0 0
-1.269 -1.32 2.72 0
-1.274 -1.31 2.698 0
-1.242 -1.263 2.685 0
-1.227 -1.235 2.669 0
-1.211 -1.206 2.654 1
-1.206 -1.188 2.637 10
-1.201 -1.171 2.62 8
-1.187 -1.146 2.605 9
-1.18 -1.129 2.589 11
-1.168 -1.106 2.575 2
-1.152 -1.082 2.563 0
-1.134 -1.055 2.552 0
-1.115 -1.028 2.542 0
-1.121 -1.025 2.522 0
-1.098 -0.996 2.514 0
-1.078 -0.97 2.506 0
-1.083 -0.967 2.486 0
-1.085 -0.961 2.467 0
-1.069 -0.941 2.457 0
-1.062 -0.927 2.443 0
-1.054 -0.914 2.429 0
-1.044 -0.899 2.416 0
-1.027 -0.879 2.407 0
-1.049 -0.892 2.375 0
-0.996 -0.841 2.389 0
-1.034 -0.868 2.346 0
0.0 -0.0 3.0 0
0.0 -0.0 3.0 0
0.0 -0.0 3.0 0
0.0 -0.0 3.0 0
0.0 -0.0 3.0 0
-1.311 -1.388 2.73 0
-1.267 -1.326 2.718 0
-1.261 -1.306 2.699 0
-1.227 -1.256 2.687 0
-1.215 -1.23 2.67 0
-1.213 -1.215 2.652 4
-1.205 -1.195 2.635 10
-1.194 -1.172 2.619 11
-1.183 -1.149 2.604 8
-1.171 -1.127 2.59 9
-1.15 -1.097 2.579 0
-1.154 -1.091 2.559 0
-1.125 -1.052 2.553 0
-1.105 -1.026 2.543 0
-1.111 -1.023 2.523 0
-1.092 -0.997 2.514 0
-1.103 -0.998 2.491 0
-1.077 -0.968 2.485 0
-1.087 -0.969 2.463 0
-1.074 -0.951 2.451 0
-1.042 -0.916 2.45 0
-1.07 -0.935 2.416 0
-1.065 -0.923 2.4 0
-1.027 -0.884 2.404 0
-1.048 -0.897 2.372 0
0.0 -0.0 3.0 0
-1.025 -0.866 2.347 0
0.0 -0.0 3.0 0
0.0 -0.0 3.0 0
0.0 -0.0 3.0 0
0.0 -0.0 3.0 0
0.0 -0.0 3.0 0
-1.288 -1.371 2.733 0
-1.252 -1.319 2.72 0
-1.252 -1.303 2.699 0
-1.221 -1.257 2.687 0
-1.214 -1.236 2.669 1
-1.212 -1.222 2.65 9
-1.202 -1.199 2.633 8
-1.185 -1.17 2.62 9
-1.179 -1.153 2.603 10
-1.175 -1.138 2.586 2
-1.155 -1.108 2.575 0
-1.134 -1.078 2.564 0
-1.138 -1.072 2.545 0
-1.124 -1.05 2.533 0
-1.099 -1.019 2.525 0
-1.113 -1.023 2.501 0
-1.085 -0.988 2.496 0
-1.062 -0.961 2.489 0
-1.047 -0.939 2.479 0
-1.062 -0.947 2.453 0
-1.038 -0.918 2.448 0
-1.05 -0.922 2.424 0
-1.062 -0.927 2.398 0
-1.007 -0.872 2.412 0
-1.023 -0.881 2.383 0
-0.992 -0.849 2.383 0
-1.008 -0.857 2.355 0
0.0 -0.0 3.0 0
0.0 -0.0 3.0 0
0.0 -0.0 3.0 0
0.0 -0.0 3.0 0
0.0 -0.0 3.0 0
-1.27 -1.361 2.735 1
-1.251 -1.325 2.718 0
-1.234 -1.293 2.702 0
-1.231 -1.275 2.682 1
-1.205 -1.234 2.669 2
-1.205 -1.223 2.649 10
-1.198 -1.202 2.633 12
-1.184 -1.176 2.618 8
-1.173 -1.153 2.603 9
-1.147 -1.117 2.593 0
-1.14 -1.1 2.578 0
-1.133 -1.084 2.562 0
-1.098 -1.04 2.558 0
-1.107 -1.04 2.537 0
-1.09 -1.016 2.526 0
-1.076 -0.995 2.515 0
-1.076 -0.987 2.497 0
-1.056 -0.961 2.489 0
-1.038 -0.938 2.48 0
-1.048 -0.939 2.458 0
-1.035 -0.921 2.447 0
-1.064 -0.94 2.413 0
-1.036 -0.909 2.409 0
-1.001 -0.872 2.412 0
-1.042 -0.902 2.369 0
-0.984 -0.847 2.385 0
-0.999 -0.855 2.356 0
0.0 -0.0 3.0 0
0.0 -0.0 3.0 0
0.0 -0.0 3.0 0
0.0 -0.0 3.0 0
0.0 -0.0 3.0 0
-1.279 -1.379 2.732 0
-1.244 -1.326 2.718 0
-1.236 -1.302 2.699 1
-1.216 -1.267 2.684 1
-1.206 -1.243 2.667 9
-1.204 -1.228 2.648 8
-1.191 -1.202 2.632 11
-1.18 -1.18 2.617 9
-1.177 -1.165 2.599 3
-1.165 -1.143 2.584 0
-1.153 -1.12 2.57 0
-1.124 -1.082 2.563 0
-1.103 -1.052 2.554 0
-1.12 -1.059 2.528 0
-1.084 -1.017 2.526 0
-1.089 -1.013 2.506 0
-1.078 -0.995 2.493 0
-1.064 -0.974 2.482 0
0.0 -0.0 3.0 0
-1.075 -0.969 2.44 0
-1.037 -0.929 2.442 0
-1.013 -0.901 2.437 0
-1.036 -0.914 2.406 0
-1.0 -0.877 2.408 0
-1.022 -0.891 2.376 0
-0.989 -0.856 2.378 0
0.0 -0.0 3.0 0
0.0 -0.0 3.0 0
0.0 -0.0 3.0 0
0.0 -0.0 3.0 0
0.0 -0.0 3.0 0
0.0 -0.0 3.0 0
-1.264 -1.371 2.734 0
-1.238 -1.327 2.718 0
-1.223 -1.297 2.701 2
-1.214 -1.273 2.683 2
-1.208 -1.253 2.664 10
-1.195 -1.226 2.648 10
-1.187 -1.206 2.631 7
-1.179 -1.186 2.615 9
-1.165 -1.16 2.601 0
-1.145 -1.129 2.589 0
-1.122 -1.096 2.579 0
-1.115 -1.079 2.564 0
-1.116 -1.071 2.545 0
-1.097 -1.044 2.535 0
-1.094 -1.033 2.518 0
-1.072 -1.003 2.511 0
-1.072 -0.996 2.493 0
-1.082 -0.997 2.47 0
-1.034 -0.945 2.476 0
-1.038 -0.942 2.456 0
-1.023 -0.922 2.446 0
-1.029 -0.92 2.425 0
-1.049 -0.932 2.395 0
-1.013 -0.894 2.397 0
-0.983 -0.862 2.397 0
0.0 -0.0 3.0 0
0.0 -0.0 3.0 0
0.0 -0.0 3.0 0
0.0 -0.0 3.0 0
0.0 -0.0 3.0 0
0.0 -0.0 3.0 0
0.0 -0.0 3.0 0
-1.249 -1.363 2.735 0
-1.223 -1.318 2.72 0
-1.225 -1.307 2.698 3
-1.208 -1.274 2.682 9
-1.204 -1.257 2.663 10
-1.194 -1.233 2.646 12
-1.18 -1.207 2.631 8
-1.172 -1.187 2.614 5
-1.161 -1.164 2.599 0
-1.119 -1.111 2.596 0
-1.115 -1.097 2.579 0
-1.119 -1.091 2.559 0
-1.104 -1.066 2.547 0
-1.088 -1.042 2.536 0
-1.088 -1.033 2.518 0
-1.085 -1.022 2.501 0
-1.057 -0.987 2.497 0
-1.057 -0.979 2.479 0
-1.055 -0.971 2.462 0
-1.068 -0.975 2.437 0
-1.017 -0.922 2.446 0
-1.037 -0.933 2.417 0
-1.013 -0.906 2.412 0
-0.996 -0.884 2.404 0
-1.002 -0.884 2.381 0
0.0 -0.0 3.0 0
0.0 -0.0 3.0 0
0.0 -0.0 3.0 0
0.0 -0.0 3.0 0
0.0 -0.0 3.0 0
0.0 -0.0 3.0 0
-1.938 -2.151 2.621 1
-1.237 -1.358 2.736 0
-1.219 -1.322 2.719 0
-1.218 -1.308 2.698 10
-1.206 -1.281 2.681 11
-1.194 -1.254 2.664 11
-1.187 -1.234 2.646 9
-1.177 -1.21 2.63 9
-1.168 -1.19 2.613 0
-1.122 -1.131 2.611 0
-1.126 -1.125 2.59 0
-1.112 -1.1 2.578 0
0.0 -0.0 3.0 0
-1.095 -1.064 2.548 0
-1.098 -1.058 2.529 0
-1.079 -1.031 2.519 0
-1.079 -1.023 2.501 0
-1.056 -0.994 2.494 0
-1.039 -0.969 2.485 0
-1.06 -0.982 2.456 0
-1.04 -0.955 2.449 0
-1.016 -0.927 2.443 0
-1.022 -0.926 2.421 0
-1.006 -0.905 2.412 0
0.0 -0.0 3.0 0
-0.996 -0.884 2.381 0
-0.976 -0.861 2.374 0
0.0 -0.0 3.0 0
0.0 -0.0 3.0 0
0.0 -0.0 3.0 0
0.0 -0.0 3.0 0
0.0 -0.0 3.0 0
-1.931 -2.156 2.62 1
-1.217 -1.344 2.739 0
-1.199 -1.308 2.722 0
-1.211 -1.308 2.698 35
-1.208 -1.29 2.678 13
-1.19 -1.257 2.663 13
-1.18 -1.235 2.646 8
-1.173 -1.213 2.629 7
-1.156 -1.185 2.615 0
-1.142 -1.16 2.601 0
-1.123 -1.128 2.589 0
-1.105 -1.101 2.577 0
-1.095 -1.081 2.563 0
-1.102 -1.078 2.542 0
0.0 -0.0 3.0 0
-1.089 -1.048 2.511 0
0.0 -0.0 3.0 0
-1.047 -0.991 2.495 0
-1.039 -0.975 2.482 0
-1.043 -0.972 2.461 0
0.0 -0.0 3.0 0
-1.005 -0.922 2.446 0
-1.008 -0.918 2.426 0
-0.984 -0.891 2.421 0
-0.998 -0.897 2.395 0
-0.982 -0.877 2.386 0
-0.962 -0.853 2.38 0
0.0 -0.0 3.0 0
0.0 -0.0 3.0 0
0.0 -0.0 3.0 0
0.0 -0.0 3.0 0
0.0 -0.0 3.0 0
-1.925 -2.162 2.619 0
-1.216 -1.35 2.738 1
-1.205 -1.323 2.719 0
-1.213 -1.317 2.696 92
-1.206 -1.296 2.677 14
-1.189 -1.264 2.661 10
-1.179 -1.24 2.644 8
-1.161 -1.209 2.63 0
-1.142 -1.177 2.617 0
-1.136 -1.16 2.601 0
-1.111 -1.123 2.591 0
-1.11 -1.112 2.573 0
-1.116 -1.109 2.552 0
-1.096 -1.078 2.542 0
-1.082 -1.056 2.53 0
-1.075 -1.04 2.515 0
-1.028 -0.987 2.519 0
-1.047 -0.996 2.492 0
-1.049 -0.991 2.473 0
-1.037 -0.972 2.461 0
-1.03 -0.959 2.447 0
-1.012 -0.935 2.438 0
-1.024 -0.939 2.413 0
-0.975 -0.888 2.423 0
0.0 -0.0 3.0 0
0.0 -0.0 3.0 0
0.0 -0.0 3.0 0
0.0 -0.0 3.0 0
0.0 -0.0 3.0 0
0.0 -0.0 3.0 0
0.0 -0.0 3.0 0
0.0 -0.0 3.0 0
-1.238 -1.399 2.753 0
-1.212 -1.354 2.737 0
-1.193 -1.318 2.72 0
-1.206 -1.318 2.696 116
-1.2 -1.297 2.677 17
-1.18 -1.262 2.662 8
-1.178 -1.247 2.642 7
-1.162 -1.218 2.628 0
-1.138 -1.18 2.616 0
-1.127 -1.158 2.601 0
-1.101 -1.122 2.592 0
-1.106 -1.115 2.572 0
0.0 -0.0 3.0 0
-1.092 -1.082 2.541 0
-1.084 -1.065 2.526 0
-1.06 -1.032 2.519 0
-1.052 -1.016 2.504 0
-1.049 -1.005 2.488 0
-1.062 -1.009 2.463 0
-1.041 -0.982 2.456 0
-1.038 -0.972 2.439 0
-0.998 -0.927 2.443 0
0.0 -0.0 3.0 0
-0.98 -0.898 2.417 0
0.0 -0.0 3.0 0
-0.972 -0.879 2.385 0
-0.945 -0.849 2.383 0
0.0 -0.0 3.0 0
0.0 -0.0 3.0 0
0.0 -0.0 3.0 0
0.0 -0.0 3.0 0
0.0 -0.0 3.0 0
-1.215 -1.381 2.756 0
-1.21 -1.36 2.736 0
-1.197 -1.331 2.717 1
-1.204 -1.325 2.694 99
-1.196 -1.301 2.676 13
-1.178 -1.267 2.66 7
-1.168 -1.245 2.643 1
-1.134 -1.196 2.634 0
-1.139 -1.19 2.613 0
-1.131 -1.169 2.597 0
-1.106 -1.133 2.588 0
-1.102 -1.119 2.571 0
-1.106 -1.113 2.55 0
-1.061 -1.058 2.551 0
-1.078 -1.066 2.526 0
-1.059 -1.038 2.516 0
-1.059 -1.029 2.498 0
-1.053 -1.016 2.482 0
-1.02 -0.976 2.481 0
-1.019 -0.967 2.464 0
-1.021 -0.961 2.445 0
-0.994 -0.93 2.441 0
-0.985 -0.914 2.429 0
-0.985 -0.909 2.41 0
0.0 -0.0 3.0 0
-0.95 -0.864 2.395 0
-0.961 -0.868 2.369 0
0.0 -0.0 3.0 0
0.0 -0.0 3.0 0
0.0 -0.0 3.0 0
0.0 -0.0 3.0 0
0.0 -0.0 3.0 0
-1.203 -1.376 2.757 0
-1.196 -1.352 2.737 1
-1.19 -1.332 2.717 1
-1.198 -1.325 2.694 106
-1.184 -1.295 2.677 10
-1.174 -1.271 2.659 6
-1.151 -1.234 2.646 0
-1.138 -1.207 2.631 0
0.0 -0.0 3.0 0
0.0 -0.0 3.0 0
-1.094 -1.128 2.589 0
-1.077 -1.1 2.578 0
-1.073 -1.086 2.561 0
-1.082 -1.086 2.539 0
-1.077 -1.071 2.523 0
-1.056 -1.041 2.514 0
0.0 -0.0 3.0 0
-1.063 -1.032 2.474 0
-1.022 -0.983 2.477 0
-1.04 -0.994 2.449 0
-1.028 -0.974 2.438 0
-0.996 -0.938 2.437 0
0.0 -0.0 3.0 0
-0.963 -0.893 2.42 0
-0.993 -0.914 2.383 0
0.0 -0.0 3.0 0
-0.947 -0.86 2.375 0
0.0 -0.0 3.0 0
0.0 -0.0 3.0 0
0.0 -0.0 3.0 0
0.0 -0.0 3.0 0
0.0 -0.0 3.0 0
-1.207 -1.389 2.755 0
-1.184 -1.347 2.738 0
-1.173 -1.32 2.719 0
-1.194 -1.328 2.693 156
-1.182 -1.301 2.676 8
-1.17 -1.275 2.658 2
-1.155 -1.246 2.643 0
0.0 -0.0 3.0 0
0.0 -0.0 3.0 0
-1.118 -1.171 2.597 0
-1.101 -1.142 2.584 0
-1.089 -1.12 2.57 0
-1.085 -1.105 2.553 0
-1.086 -1.097 2.535 0
-1.07 -1.072 2.523 0
-1.052 -1.044 2.513 0
-1.038 -1.022 2.501 0
-1.027 -1.003 2.489 0
-1.032 -0.999 2.469 0
-1.004 -0.966 2.465 0
-1.019 -0.972 2.439 0
-0.996 -0.943 2.433 0
-0.997 -0.937 2.414 0
-0.957 -0.894 2.42 0
0.0 -0.0 3.0 0
0.0 -0.0 3.0 0
-0.936 -0.856 2.378 0
0.0 -0.0 3.0 0
0.0 -0.0 3.0 0
0.0 -0.0 3.0 0
0.0 -0.0 3.0 0
0.0 -0.0 3.0 0
-1.218 -1.411 2.751 1
-1.18 -1.35 2.738 0
-1.172 -1.327 2.718 0
-1.184 -1.326 2.694 46
-1.175 -1.302 2.675 5
-1.161 -1.273 2.659 0
0.0 -0.0 3.0 0
-1.136 -1.22 2.627 0
0.0 -0.0 3.0 0
-1.119 -1.179 2.594 0
-1.073 -1.12 2.592 0
-1.08 -1.117 2.571 0
-1.063 -1.089 2.56 0
-1.069 -1.086 2.539 0
-1.067 -1.075 2.522 0
-1.056 -1.055 2.508 0
-1.054 -1.044 2.491 0
-1.018 -1.001 2.49 0
-1.007 -0.982 2.478 0
0.0 -0.0 3.0 0
-0.999 -0.959 2.446 0
-0.974 -0.928 2.442 0
-0.967 -0.915 2.429 0
-0.978 -0.918 2.404 0
-0.965 -0.9 2.393 0
-0.949 -0.879 2.384 0
0.0 -0.0 3.0 0
0.0 -0.0 3.0 0
0.0 -0.0 3.0 0
0.0 -0.0 3.0 0
0.0 -0.0 3.0 0
0.0 -0.0 3.0 0
-1.206 -1.405 2.752 4
-1.173 -1.351 2.737 1
-1.157 -1.318 2.72 0
-1.177 -1.326 2.694 30
-1.166 -1.3 2.676 4
0.0 -0.0 3.0 0
0.0 -0.0 3.0 0
-1.14 -1.232 2.623 0
0.0 -0.0 3.0 0
-1.097 -1.163 2.6 0
-1.085 -1.14 2.585 0
-1.09 -1.134 2.565 0
-1.067 -1.101 2.555 0
-1.081 -1.106 2.531 0
-1.047 -1.062 2.527 0
-1.061 -1.066 2.503 0
-1.031 -1.029 2.498 0
-1.031 -1.02 2.481 0
-1.012 -0.992 2.472 0
-1.021 -0.994 2.449 0
0.0 -0.0 3.0 0
-0.973 -0.933 2.439 0
-0.979 -0.932 2.418 0
-0.966 -0.913 2.407 0
0.0 -0.0 3.0 0
-0.945 -0.882 2.383 0
0.0 -0.0 3.0 0
0.0 -0.0 3.0 0
0.0 -0.0 3.0 0
0.0 -0.0 3.0 0
0.0 -0.0 3.0 0
0.0 -0.0 3.0 0
-1.207 -1.414 2.751 11
-1.166 -1.351 2.737 0
-1.158 -1.327 2.718 0
-1.165 -1.321 2.695 23
-1.18 -1.324 2.67 1
0.0 -0.0 3.0 0
0.0 -0.0 3.0 0
-1.115 -1.213 2.629 0
-1.091 -1.175 2.618 0
-1.088 -1.16 2.601 0
-1.095 -1.157 2.579 0
-1.078 -1.129 2.567 0
-1.071 -1.112 2.551 0
-1.043 -1.073 2.545 0
-1.049 -1.07 2.524 0
-1.049 -1.061 2.505 0
-1.03 -1.034 2.496 0
-1.019 -1.014 2.483 0
-1.0 -0.987 2.475 0
-0.994 -0.973 2.46 0
-0.984 -0.957 2.447 0
0.0 -0.0 3.0 0
0.0 -0.0 3.0 0
-0.96 -0.913 2.407 0
0.0 -0.0 3.0 0
-0.937 -0.879 2.385 0
0.0 -0.0 3.0 0
0.0 -0.0 3.0 0
-0.872 -0.801 2.374 0
0.0 -0.0 3.0 0
0.0 -0.0 3.0 0
0.0 -0.0 3.0 0
-1.206 -1.421 2.749 11
-1.154 -1.345 2.738 0
-1.149 -1.325 2.718 0
-1.159 -1.322 2.695 22
-1.184 -1.337 2.667 0
0.0 -0.0 3.0 0
0.0 -0.0 3.0 0
-1.103 -1.207 2.631 0
-1.124 -1.218 2.604 0
-1.089 -1.17 2.597 0
-1.086 -1.155 2.58 0
-1.069 -1.126 2.568 0
-1.046 -1.093 2.558 0
-1.06 -1.098 2.534 0
