# .PCD v0.7 - Point Cloud Data file format
VERSION 0.7
FIELDS x y z intensity
SIZE 4 4 4 4
TYPE F F F F
COUNT 1 1 1 1
WIDTH 2001
HEIGHT 1
VIEWPOINT 0 0 0 1 0 0 0
POINTS 2001
DATA ascii
-0.194 -33.092 -3.432 18
-0.184 -32.02 -3.806 25
-0.173 -29.913 -3.906 6
-0.158 -28.018 -3.986 7
-0.145 -26.35 -4.06 5
-0.138 -24.873 -4.132 6
-0.128 -23.598 -4.215 5
-0.122 -22.41 -4.282 5
-0.114 -21.334 -4.346 7
-0.109 -20.391 -4.422 31
-0.102 -19.53 -4.497 10
-0.099 -18.762 -4.58 8
-0.092 -17.979 -4.632 7
-0.089 -17.27 -4.689 8
-0.083 -16.604 -4.742 7
-0.081 -15.962 -4.785 30
-0.075 -15.385 -4.839 8
-0.07 -14.816 -4.878 8
-0.068 -14.284 -4.918 9
-0.064 -13.815 -4.976 7
-0.062 -13.355 -5.024 7
-0.058 -12.863 -5.038 9
-0.056 -12.439 -5.078 10
-0.053 -12.024 -5.11 10
-0.051 -11.625 -5.14 10
-0.048 -11.248 -5.172 13
-0.047 -10.884 -5.201 12
-0.043 -10.528 -5.225 14
-0.04 -10.19 -5.251 13
-0.039 -9.857 -5.271 13
-0.036 -9.542 -5.295 44
-0.332 -37.327 -3.582 7
-0.297 -33.087 -3.431 18
-0.284 -32.024 -3.807 13
-0.267 -29.912 -3.906 6
-0.247 -28.025 -3.987 6
-0.23 -26.354 -4.062 5
-0.219 -24.872 -4.132 6
-0.205 -23.597 -4.214 5
-0.196 -22.414 -4.283 5
-0.184 -21.346 -4.35 9
-0.177 -20.387 -4.42 30
-0.168 -19.526 -4.495 10
-0.162 -18.762 -4.58 8
-0.153 -17.982 -4.633 8
-0.148 -17.273 -4.691 8
-0.141 -16.599 -4.74 8
-0.136 -15.959 -4.784 35
-0.13 -15.385 -4.839 8
-0.123 -14.816 -4.878 7
-0.12 -14.295 -4.924 7
-0.114 -13.815 -4.976 8
-0.111 -13.351 -5.022 7
-0.105 -12.863 -5.038 8
-0.103 -12.442 -5.08 10
-0.098 -12.024 -5.11 10
-0.095 -11.628 -5.142 10
-0.091 -11.248 -5.172 11
-0.088 -10.88 -5.199 13
-0.084 -10.531 -5.227 12
-0.08 -10.19 -5.251 12
-0.078 -9.86 -5.274 14
-0.074 -9.536 -5.29 42
-0.447 -37.333 -3.583 8
-0.4 -33.117 -3.437 15
-0.384 -32.019 -3.806 13
-0.362 -29.911 -3.906 6
-0.337 -28.028 -3.988 7
-0.314 -26.364 -4.064 6
-0.299 -24.872 -4.132 6
-0.282 -23.604 -4.216 5
-0.27 -22.417 -4.284 5
-0.255 -21.341 -4.348 9
-0.245 -20.39 -4.421 20
-0.233 -19.533 -4.498 9
-0.226 -18.769 -4.583 8
-0.215 -17.982 -4.633 7
-0.208 -17.269 -4.688 8
-0.198 -16.606 -4.744 7
-0.192 -15.961 -4.785 34
-0.184 -15.385 -4.839 7
-0.175 -14.815 -4.877 8
-0.171 -14.287 -4.919 9
-0.164 -13.817 -4.977 8
-0.16 -13.354 -5.024 7
-0.152 -12.859 -5.035 8
-0.149 -12.445 -5.082 10
-0.143 -12.024 -5.11 9
-0.139 -11.628 -5.142 11
-0.133 -11.251 -5.175 12
-0.13 -10.886 -5.203 12
-0.125 -10.527 -5.225 12
-0.12 -10.19 -5.251 13
-0.117 -9.863 -5.276 13
-0.112 -9.539 -5.292 42
-0.562 -37.332 -3.583 8
-0.503 -33.129 -3.44 17
-0.484 -32.029 -3.808 13
-0.456 -29.921 -3.908 6
-0.426 -28.023 -3.987 6
-0.399 -26.371 -4.066 6
-0.379 -24.882 -4.135 6
-0.358 -23.603 -4.216 6
-0.343 -22.412 -4.282 5
-0.325 -21.336 -4.347 10
-0.313 -20.4 -4.425 12
-0.299 -19.532 -4.498 10
-0.289 -18.772 -4.584 8
-0.276 -17.985 -4.634 7
-0.267 -17.271 -4.69 8
-0.256 -16.602 -4.742 7
-0.248 -15.961 -4.785 36
-0.238 -15.381 -4.837 7
-0.228 -14.818 -4.879 8
-0.222 -14.29 -4.921 9
-0.214 -13.817 -4.977 8
-0.208 -13.35 -5.021 8
-0.2 -12.862 -5.037 11
-0.195 -12.445 -5.082 10
-0.188 -12.027 -5.112 10
-0.183 -11.628 -5.142 10
-0.176 -11.254 -5.177 11
-0.172 -10.883 -5.201 11
-0.166 -10.533 -5.229 12
-0.16 -10.19 -5.251 12
-0.156 -9.86 -5.273 12
-0.151 -9.539 -5.292 42
-0.678 -37.342 -3.584 7
-0.606 -33.135 -3.441 14
-0.585 -32.027 -3.808 12
-0.55 -29.92 -3.908 6
-0.515 -28.037 -3.99 7
-0.483 -26.354 -4.062 5
-0.46 -24.881 -4.135 7
-0.435 -23.61 -4.218 5
-0.417 -22.419 -4.284 5
-0.396 -21.335 -4.346 10
-0.381 -20.407 -4.428 10
-0.364 -19.531 -4.497 9
-0.353 -18.774 -4.585 8
-0.337 -17.984 -4.634 5
-0.327 -17.274 -4.691 8
-0.313 -16.597 -4.739 8
-0.304 -15.961 -4.784 36
-0.292 -15.384 -4.838 5
-0.281 -14.818 -4.879 8
-0.273 -14.293 -4.923 9
-0.264 -13.82 -4.979 8
-0.257 -13.353 -5.023 8
-0.247 -12.865 -5.039 7
-0.241 -12.441 -5.079 10
-0.233 -12.026 -5.111 10
-0.227 -11.63 -5.144 10
-0.219 -11.251 -5.174 13
-0.214 -10.889 -5.205 12
-0.207 -10.527 -5.224 12
-0.2 -10.195 -5.256 13
-0.195 -9.863 -5.276 14
-0.189 -9.539 -5.292 39
-0.793 -37.363 -3.588 7
-0.709 -33.152 -3.444 14
-0.685 -32.041 -3.811 14
-0.645 -29.918 -3.907 7
-0.604 -28.028 -3.988 7
-0.568 -26.372 -4.066 5
-0.54 -24.887 -4.136 7
-0.512 -23.6 -4.215 5
-0.49 -22.417 -4.284 5
-0.466 -21.338 -4.347 10
-0.449 -20.41 -4.429 10
-0.43 -19.534 -4.498 9
-0.416 -18.773 -4.585 8
-0.399 -17.987 -4.635 7
-0.386 -17.273 -4.691 8
-0.371 -16.6 -4.741 8
-0.36 -15.963 -4.786 37
-0.346 -15.386 -4.84 7
-0.333 -14.817 -4.878 8
-0.324 -14.292 -4.922 9
-0.314 -13.822 -4.98 8
-0.306 -13.356 -5.025 7
-0.294 -12.864 -5.038 9
-0.287 -12.444 -5.081 10
-0.278 -12.022 -5.109 10
-0.271 -11.633 -5.146 10
-0.262 -11.253 -5.176 12
-0.256 -10.885 -5.203 12
-0.248 -10.526 -5.224 13
-0.24 -10.194 -5.255 13
-0.234 -9.862 -5.275 14
-0.227 -9.541 -5.294 41
-0.908 -37.361 -3.588 7
-0.812 -33.146 -3.443 17
-0.785 -32.035 -3.809 13
-0.739 -29.916 -3.907 6
-0.693 -28.037 -3.99 7
-0.652 -26.37 -4.066 5
-0.621 -24.89 -4.137 7
-0.589 -23.603 -4.216 5
-0.564 -22.415 -4.283 5
-0.537 -21.34 -4.348 11
-0.518 -20.412 -4.429 10
-0.496 -19.536 -4.499 8
-0.48 -18.776 -4.586 8
-0.46 -17.993 -4.638 8
-0.446 -17.28 -4.693 7
-0.428 -16.599 -4.74 8
-0.415 -15.961 -4.785 35
-0.401 -15.382 -4.837 8
-0.386 -14.819 -4.88 8
-0.376 -14.295 -4.924 8
-0.364 -13.825 -4.982 8
-0.354 -13.355 -5.024 7
-0.342 -12.863 -5.038 9
-0.333 -12.446 -5.083 10
-0.323 -12.032 -5.115 9
-0.315 -11.626 -5.141 11
-0.305 -11.256 -5.178 12
-0.298 -10.891 -5.207 12
-0.289 -10.528 -5.226 12
-0.28 -10.194 -5.255 12
-0.274 -9.864 -5.277 13
-0.265 -9.54 -5.293 41
-1.024 -37.365 -3.589 7
-0.915 -33.155 -3.445 16
-0.886 -32.044 -3.811 15
-0.834 -29.917 -3.907 6
-0.782 -28.039 -3.991 7
-0.737 -26.376 -4.067 5
-0.701 -24.884 -4.135 6
-0.665 -23.597 -4.214 5
-0.637 -22.422 -4.285 5
-0.607 -21.334 -4.346 12
-0.585 -20.41 -4.429 9
-0.561 -19.534 -4.498 9
-0.544 -18.778 -4.587 8
-0.522 -17.987 -4.635 7
-0.505 -17.278 -4.693 7
-0.486 -16.605 -4.743 7
-0.471 -15.961 -4.784 35
-0.455 -15.387 -4.84 7
-0.439 -14.821 -4.881 8
-0.427 -14.294 -4.923 9
-0.414 -13.824 -4.981 8
-0.403 -13.353 -5.023 8
-0.389 -12.869 -5.042 8
-0.38 -12.449 -5.084 10
-0.368 -12.027 -5.113 10
-0.359 -11.635 -5.147 11
-0.348 -11.255 -5.177 11
-0.34 -10.89 -5.206 12
-0.33 -10.534 -5.23 11
-0.32 -10.19 -5.251 11
-0.313 -9.867 -5.279 16
-0.303 -9.537 -5.29 44
-1.139 -37.375 -3.59 7
-1.019 -33.164 -3.446 15
-0.986 -32.041 -3.811 13
-0.929 -29.934 -3.911 6
-0.872 -28.04 -3.991 7
-0.821 -26.37 -4.066 5
-0.781 -24.893 -4.138 7
-0.742 -23.598 -4.215 5
-0.711 -22.423 -4.286 5
-0.678 -21.332 -4.345 13
-0.654 -20.412 -4.429 9
-0.627 -19.533 -4.498 9
-0.607 -18.776 -4.586 8
-0.583 -17.986 -4.634 5
-0.565 -17.281 -4.694 8
-0.544 -16.607 -4.744 7
-0.527 -15.966 -4.787 34
-0.509 -15.39 -4.842 7
-0.492 -14.82 -4.88 8
-0.478 -14.296 -4.924 9
-0.464 -13.829 -4.984 8
-0.452 -13.356 -5.025 7
-0.436 -12.865 -5.039 8
-0.426 -12.444 -5.081 10
-0.413 -12.029 -5.114 9
-0.403 -11.634 -5.146 10
-0.391 -11.254 -5.177 11
-0.382 -10.886 -5.203 12
-0.371 -10.53 -5.227 8
-0.36 -10.199 -5.259 11
-0.352 -9.866 -5.279 13
-0.342 -9.542 -5.295 41
-1.255 -37.394 -3.594 7
-1.123 -33.212 -3.456 12
-1.087 -32.062 -3.815 14
-1.023 -29.944 -3.913 6
-0.961 -28.045 -3.992 7
-0.906 -26.375 -4.067 5
-0.862 -24.894 -4.138 7
-0.819 -23.6 -4.215 5
-0.785 -22.429 -4.288 4
-0.748 -21.331 -4.345 14
-0.721 -20.406 -4.427 9
-0.692 -19.535 -4.499 9
-0.671 -18.778 -4.587 8
-0.645 -17.991 -4.637 7
-0.624 -17.279 -4.693 8
-0.602 -16.609 -4.745 8
-0.583 -15.965 -4.787 36
-0.564 -15.388 -4.841 7
-0.544 -14.822 -4.881 9
-0.529 -14.295 -4.924 8
-0.513 -13.815 -4.976 8
-0.501 -13.359 -5.027 7
-0.484 -12.867 -5.04 7
-0.472 -12.446 -5.083 9
-0.458 -12.028 -5.113 10
-0.447 -11.633 -5.145 11
-0.434 -11.256 -5.178 10
-0.424 -10.891 -5.207 12
-0.412 -10.532 -5.229 11
-0.4 -10.195 -5.255 12
-0.391 -9.862 -5.275 13
-0.38 -9.541 -5.294 42
-1.371 -37.399 -3.594 7
-1.226 -33.201 -3.454 13
-1.188 -32.07 -3.817 14
-1.118 -29.948 -3.914 6
-1.05 -28.05 -3.994 7
-0.991 -26.38 -4.068 5
-0.943 -24.907 -4.142 7
-0.896 -23.593 -4.213 5
-0.858 -22.43 -4.288 4
-0.819 -21.332 -4.345 15
-0.79 -20.416 -4.431 10
-0.758 -19.54 -4.501 9
-0.735 -18.78 -4.588 8
-0.706 -17.986 -4.634 7
-0.683 -17.277 -4.692 8
-0.659 -16.607 -4.744 7
-0.639 -15.963 -4.786 34
-0.618 -15.386 -4.84 7
-0.597 -14.824 -4.882 8
-0.581 -14.296 -4.925 9
-0.564 -13.827 -4.983 8
-0.549 -13.357 -5.026 7
-0.531 -12.868 -5.041 8
-0.518 -12.445 -5.082 10
-0.503 -12.027 -5.112 10
-0.491 -11.638 -5.149 10
-0.477 -11.255 -5.177 11
-0.466 -10.89 -5.207 12
-0.453 -10.534 -5.23 10
-0.44 -10.2 -5.259 13
-0.43 -9.865 -5.277 13
-0.418 -9.544 -5.296 42
-1.486 -37.402 -3.595 7
-1.33 -33.224 -3.458 10
-1.289 -32.074 -3.818 14
-1.213 -29.948 -3.914 6
-1.14 -28.062 -3.997 7
-1.076 -26.384 -4.07 5
-1.023 -24.908 -4.142 7
-0.973 -23.598 -4.215 5
-0.932 -22.428 -4.287 5
-0.889 -21.33 -4.344 16
-0.858 -20.413 -4.43 9
-0.824 -19.542 -4.501 9
-0.798 -18.777 -4.586 8
-0.767 -17.991 -4.637 7
-0.743 -17.282 -4.695 8
-0.717 -16.609 -4.745 7
-0.695 -15.961 -4.785 36
-0.672 -15.392 -4.842 7
-0.65 -14.822 -4.881 8
-0.632 -14.295 -4.924 9
-0.614 -13.822 -4.98 8
-0.598 -13.359 -5.027 8
-0.579 -12.868 -5.041 8
-0.565 -12.447 -5.083 10
-0.548 -12.036 -5.118 10
-0.535 -11.634 -5.146 11
-0.52 -11.257 -5.178 11
-0.508 -10.889 -5.205 11
-0.494 -10.537 -5.232 12
-0.48 -10.196 -5.256 11
-0.469 -9.869 -5.281 12
-0.456 -9.545 -5.297 37
-1.602 -37.413 -3.597 7
-1.435 -33.255 -3.464 11
-1.39 -32.082 -3.819 13
-1.308 -29.952 -3.915 6
-1.138 -25.965 -3.474 4
-1.161 -26.389 -4.071 5
-1.104 -24.909 -4.142 6
-1.05 -23.595 -4.214 5
-1.006 -22.432 -4.289 5
-0.96 -21.327 -4.343 23
-0.926 -20.414 -4.43 9
-0.89 -19.546 -4.503 8
-0.862 -18.786 -4.59 8
-0.829 -17.993 -4.638 8
-0.803 -17.28 -4.693 8
-0.775 -16.611 -4.746 8
-0.751 -15.966 -4.787 36
-0.727 -15.393 -4.843 7
-0.703 -14.824 -4.882 8
-0.683 -14.296 -4.925 8
-0.664 -13.823 -4.981 7
-0.647 -13.36 -5.028 7
-0.626 -12.869 -5.042 13
-0.611 -12.442 -5.08 10
-0.593 -12.031 -5.115 9
-0.579 -11.632 -5.145 11
-0.563 -11.259 -5.18 11
-0.55 -10.897 -5.212 11
-0.535 -10.542 -5.236 10
-0.52 -10.197 -5.258 12
-0.508 -9.865 -5.278 14
-0.495 -9.55 -5.302 42
-1.718 -37.424 -3.599 7
-1.539 -33.27 -3.467 12
-1.49 -32.086 -3.82 14
-1.229 -26.245 -3.059 25
-1.204 -25.613 -3.386 6
-1.245 -26.393 -4.072 5
-1.185 -24.917 -4.145 7
-1.127 -23.597 -4.214 5
-1.079 -22.429 -4.288 5
-1.031 -21.339 -4.348 24
-0.994 -20.415 -4.43 9
-0.955 -19.536 -4.499 12
-0.925 -18.776 -4.586 8
-0.891 -17.998 -4.64 7
-0.862 -17.281 -4.694 7
-0.832 -16.608 -4.744 8
-0.806 -15.961 -4.784 35
-0.781 -15.392 -4.842 7
-0.756 -14.826 -4.883 8
-0.735 -14.295 -4.924 9
-0.714 -13.822 -4.98 8
-0.696 -13.359 -5.027 7
-0.673 -12.868 -5.041 21
-0.657 -12.447 -5.083 10
-0.639 -12.036 -5.118 10
-0.623 -11.634 -5.146 10
-0.606 -11.254 -5.177 11
-0.592 -10.89 -5.206 12
-0.576 -10.537 -5.232 11
-0.561 -10.205 -5.264 13
-0.548 -9.867 -5.28 14
-0.533 -9.546 -5.298 38
-1.835 -37.442 -3.602 7
-1.643 -33.282 -3.469 14
-1.592 -32.1 -3.823 15
-1.301 -26.043 -3.013 11
-1.274 -25.396 -3.332 19
-1.33 -26.393 -4.072 5
-1.265 -24.909 -4.143 6
-1.204 -23.6 -4.215 5
-1.153 -22.438 -4.29 5
-1.101 -21.336 -4.346 24
-1.062 -20.412 -4.429 9
-1.021 -19.537 -4.5 14
-0.989 -18.777 -4.586 7
-0.952 -17.995 -4.638 6
-0.922 -17.279 -4.693 8
-0.89 -16.609 -4.745 7
-0.863 -15.972 -4.79 33
-0.835 -15.393 -4.843 7
-0.808 -14.82 -4.88 8
-0.786 -14.292 -4.922 9
-0.764 -13.827 -4.983 8
-0.745 -13.36 -5.028 7
-0.721 -12.866 -5.04 20
-0.703 -12.446 -5.082 9
-0.683 -12.031 -5.115 10
-0.667 -11.635 -5.147 10
-0.649 -11.256 -5.178 12
-0.634 -10.891 -5.207 11
-0.617 -10.539 -5.234 12
-0.6 -10.198 -5.258 11
-0.587 -9.869 -5.281 13
-0.571 -9.548 -5.3 43
-1.95 -37.44 -3.602 7
-1.746 -33.272 -3.467 13
-1.693 -32.103 -3.824 13
-1.357 -25.537 -2.896 12
-1.349 -25.271 -3.301 33
-1.415 -26.4 -4.074 5
-1.346 -24.913 -4.144 6
-1.281 -23.6 -4.215 5
-1.227 -22.442 -4.292 5
-1.173 -21.344 -4.349 25
-1.131 -20.417 -4.431 9
-1.087 -19.546 -4.503 14
-1.053 -18.786 -4.59 8
-1.014 -17.996 -4.639 8
-0.981 -17.283 -4.695 8
-0.947 -16.607 -4.744 8
-0.918 -15.967 -4.788 33
-0.89 -15.391 -4.842 7
-0.861 -14.828 -4.884 8
-0.837 -14.297 -4.925 9
-0.814 -13.824 -4.981 8
-0.793 -13.354 -5.024 7
-0.769 -12.874 -5.044 12
-0.75 -12.447 -5.083 10
-0.728 -12.029 -5.114 10
-0.711 -11.634 -5.146 10
-0.692 -11.258 -5.179 12
-0.676 -10.892 -5.208 11
-0.658 -10.543 -5.237 12
-0.641 -10.202 -5.262 13
-0.626 -9.867 -5.28 13
-0.609 -9.543 -5.296 42
-2.066 -37.446 -3.603 7
-1.85 -33.275 -3.468 15
-1.794 -32.109 -3.825 13
-1.429 -25.389 -2.862 35
-1.426 -25.205 -3.284 41
-1.499 -26.384 -4.07 4
-1.427 -24.921 -4.146 6
-1.358 -23.604 -4.217 5
-1.301 -22.438 -4.29 5
-1.243 -21.34 -4.348 23
-1.199 -20.413 -4.43 9
-1.153 -19.546 -4.503 13
-1.117 -18.782 -4.588 8
-1.075 -17.993 -4.638 7
-1.041 -17.287 -4.697 8
-1.005 -16.604 -4.742 7
-0.974 -15.968 -4.788 35
-0.944 -15.388 -4.841 7
-0.914 -14.819 -4.879 8
-0.889 -14.302 -4.928 9
-0.864 -13.826 -4.982 8
-0.842 -13.359 -5.027 7
-0.815 -12.865 -5.039 27
-0.796 -12.448 -5.084 10
-0.774 -12.037 -5.119 9
-0.755 -11.636 -5.147 10
-0.735 -11.259 -5.18 12
-0.718 -10.891 -5.207 10
-0.699 -10.539 -5.234 13
-0.681 -10.204 -5.263 12
-0.665 -9.869 -5.281 13
-0.648 -9.545 -5.297 43
-2.183 -37.475 -3.608 7
-1.953 -33.261 -3.465 19
-1.895 -32.12 -3.827 13
-1.507 -25.338 -2.85 40
-1.503 -25.158 -3.273 46
-1.514 -25.226 -3.759 2
-1.507 -24.916 -4.145 6
-1.436 -23.615 -4.22 5
-1.375 -22.441 -4.291 5
-1.314 -21.337 -4.347 31
-1.267 -20.413 -4.43 10
-1.219 -19.546 -4.503 30
-1.18 -18.779 -4.587 8
-1.137 -17.997 -4.639 8
-1.1 -17.277 -4.692 8
-1.063 -16.608 -4.744 7
-1.03 -15.968 -4.788 35
-0.999 -15.396 -4.845 8
-0.966 -14.816 -4.878 8
-0.94 -14.296 -4.924 9
-0.914 -13.827 -4.983 8
-0.891 -13.357 -5.026 8
-0.863 -12.866 -5.04 19
-0.842 -12.446 -5.082 10
-0.819 -12.029 -5.113 9
-0.799 -11.633 -5.146 10
-0.778 -11.26 -5.181 12
-0.76 -10.889 -5.206 12
-0.74 -10.54 -5.235 11
-0.721 -10.203 -5.262 13
-0.704 -9.868 -5.28 13
-0.686 -9.55 -5.302 38
-2.299 -37.468 -3.607 7
-2.057 -33.271 -3.467 15
-1.996 -32.125 -3.828 13
-1.586 -25.322 -2.846 34
-1.582 -25.142 -3.269 50
-1.593 -25.179 -3.747 13
-1.589 -24.923 -4.147 6
-1.513 -23.614 -4.22 5
-1.449 -22.437 -4.29 5
-1.385 -21.343 -4.349 31
-1.335 -20.417 -4.431 9
-1.284 -19.531 -4.497 41
-1.245 -18.786 -4.59 8
-1.199 -18.0 -4.641 7
-1.161 -17.292 -4.699 8
-1.121 -16.609 -4.745 8
-1.086 -15.969 -4.788 32
-1.053 -15.389 -4.841 7
-1.019 -14.82 -4.88 7
-0.992 -14.3 -4.927 9
-0.965 -13.831 -4.985 8
-0.94 -13.354 -5.024 7
-0.911 -12.867 -5.04 12
-0.889 -12.45 -5.085 10
-0.865 -12.04 -5.121 10
-0.843 -11.634 -5.146 10
-0.821 -11.261 -5.182 12
-0.802 -10.89 -5.206 11
-0.781 -10.544 -5.238 14
-0.762 -10.207 -5.265 12
-0.744 -9.872 -5.283 13
-0.725 -9.548 -5.3 46
-2.417 -37.497 -3.612 7
-2.161 -33.272 -3.467 12
-2.098 -32.139 -3.831 13
-1.665 -25.309 -2.843 37
-1.661 -25.122 -3.264 52
-1.672 -25.159 -3.741 1
-1.67 -24.926 -4.147 6
-1.591 -23.625 -4.223 5
-1.523 -22.447 -4.294 5
-1.456 -21.343 -4.349 31
-1.403 -20.417 -4.431 10
-1.35 -19.534 -4.499 39
-1.308 -18.787 -4.59 8
-1.26 -17.997 -4.639 8
-1.22 -17.285 -4.696 8
-1.179 -16.613 -4.747 8
-1.143 -15.973 -4.791 38
-1.107 -15.394 -4.843 8
-1.072 -14.818 -4.879 8
-1.043 -14.297 -4.925 8
-1.015 -13.829 -4.984 8
-0.989 -13.359 -5.027 7
-0.958 -12.864 -5.039 25
-0.935 -12.452 -5.086 10
-0.909 -12.034 -5.117 9
-0.888 -11.639 -5.15 10
-0.864 -11.262 -5.182 12
-0.844 -10.892 -5.208 12
-0.822 -10.543 -5.237 12
-0.801 -10.202 -5.261 12
-0.783 -9.876 -5.287 14
-0.763 -9.546 -5.298 43
-2.315 -34.279 -3.044 7
-2.265 -33.278 -3.469 17
-1.823 -26.64 -2.663 3
-1.745 -25.3 -2.841 45
-1.741 -25.109 -3.26 56
-1.749 -25.096 -3.725 0
-1.751 -24.936 -4.15 6
-1.668 -23.628 -4.224 5
-1.597 -22.447 -4.293 5
-1.527 -21.346 -4.35 32
-1.472 -20.416 -4.431 9
-1.416 -19.538 -4.5 25
-1.372 -18.787 -4.59 8
-1.322 -18.0 -4.641 7
-1.28 -17.285 -4.696 8
-1.237 -16.609 -4.745 8
-1.199 -15.97 -4.789 35
-1.162 -15.394 -4.843 8
-1.125 -14.814 -4.877 8
-1.095 -14.297 -4.925 9
-1.065 -13.826 -4.982 8
-1.038 -13.36 -5.027 7
-1.006 -12.869 -5.041 8
-0.981 -12.442 -5.08 10
-0.954 -12.028 -5.113 9
-0.931 -11.63 -5.143 9
-0.907 -11.26 -5.181 12
-0.886 -10.89 -5.206 12
-0.863 -10.537 -5.233 11
-0.842 -10.203 -5.262 11
-0.822 -9.871 -5.283 12
-0.801 -9.55 -5.302 40
-2.426 -34.338 -3.055 37
-2.368 -33.267 -3.466 15
-1.904 -26.599 -2.654 10
-1.824 -25.295 -2.84 50
-1.82 -25.095 -3.257 56
-1.828 -25.079 -3.72 0
-1.833 -24.946 -4.153 6
-1.746 -23.635 -4.226 5
-1.671 -22.45 -4.294 5
-1.598 -21.349 -4.351 32
-1.54 -20.415 -4.43 9
-1.482 -19.537 -4.5 10
-1.437 -18.797 -4.594 8
-1.384 -18.0 -4.641 7
-1.339 -17.285 -4.696 8
-1.294 -16.609 -4.745 8
-1.255 -15.97 -4.789 38
-1.216 -15.394 -4.844 8
-1.178 -14.819 -4.879 8
-1.146 -14.302 -4.928 8
-1.115 -13.826 -4.983 8
-1.087 -13.363 -5.029 7
-1.053 -12.863 -5.038 8
-1.028 -12.453 -5.087 10
-1.0 -12.036 -5.118 10
-0.976 -11.638 -5.149 10
-0.95 -11.255 -5.177 12
-0.928 -10.891 -5.207 10
-0.905 -10.545 -5.238 10
-0.882 -10.201 -5.261 11
-0.862 -9.872 -5.284 13
-0.84 -9.552 -5.303 42
-2.523 -34.22 -3.034 27
-2.473 -33.275 -3.468 18
-1.979 -26.492 -2.631 2
-1.904 -25.289 -2.838 52
-1.899 -25.079 -3.253 57
0.0 -0.0 3.0 0
-1.914 -24.944 -4.153 6
-1.823 -23.641 -4.228 5
-1.745 -22.445 -4.293 6
-1.668 -21.344 -4.349 32
-1.609 -20.425 -4.434 9
-1.549 -19.555 -4.506 9
-1.501 -18.793 -4.593 8
-1.445 -17.997 -4.639 7
-1.399 -17.284 -4.695 8
-1.353 -16.616 -4.748 8
-1.311 -15.973 -4.791 38
-1.271 -15.394 -4.844 7
-1.231 -14.822 -4.881 8
-1.197 -14.295 -4.924 9
-1.165 -13.83 -4.985 8
-1.136 -13.364 -5.03 7
-1.101 -12.87 -5.042 8
-1.074 -12.447 -5.083 10
-1.045 -12.033 -5.116 10
-1.02 -11.638 -5.149 9
-0.994 -11.262 -5.182 12
-0.97 -10.895 -5.21 11
-0.945 -10.539 -5.234 12
-0.922 -10.199 -5.259 12
-0.901 -9.873 -5.284 13
-0.878 -9.553 -5.304 43
-2.621 -34.111 -3.015 28
-2.574 -33.248 -3.463 14
-2.05 -26.334 -2.597 1
-1.984 -25.283 -2.837 52
-1.978 -25.069 -3.25 56
-1.991 -25.099 -3.725 1
-1.994 -24.938 -4.151 6
-1.9 -23.635 -4.226 5
-1.82 -22.462 -4.298 6
-1.739 -21.336 -4.347 31
-1.677 -20.421 -4.433 9
-1.615 -19.551 -4.505 9
-1.565 -18.796 -4.594 8
-1.507 -18.0 -4.64 8
-1.459 -17.284 -4.695 8
-1.41 -16.613 -4.747 8
-1.367 -15.97 -4.789 40
-1.326 -15.398 -4.846 8
-1.284 -14.822 -4.881 8
-1.249 -14.295 -4.924 9
-1.215 -13.827 -4.983 8
-1.185 -13.364 -5.03 7
-1.148 -12.867 -5.04 8
-1.121 -12.447 -5.083 10
-1.09 -12.03 -5.114 9
-1.064 -11.639 -5.149 10
-1.037 -11.259 -5.18 12
-1.012 -10.889 -5.206 10
-0.986 -10.537 -5.232 12
-0.962 -10.2 -5.26 12
-0.94 -9.874 -5.285 16
-0.917 -9.551 -5.302 41
-2.719 -34.013 -2.997 28
-2.678 -33.24 -3.461 14
-2.118 -26.144 -2.557 8
-2.064 -25.278 -2.836 54
-2.058 -25.063 -3.249 56
-2.071 -25.084 -3.721 5
-2.075 -24.944 -4.153 6
-1.978 -23.637 -4.227 6
-1.895 -22.468 -4.3 5
-1.81 -21.338 -4.347 30
-1.746 -20.427 -4.435 8
-1.681 -19.553 -4.506 9
-1.629 -18.795 -4.594 7
-1.568 -17.995 -4.638 8
-1.519 -17.287 -4.697 8
-1.468 -16.612 -4.746 7
-1.423 -15.969 -4.788 39
-1.381 -15.401 -4.847 8
-1.337 -14.822 -4.881 8
-1.301 -14.298 -4.926 9
-1.265 -13.824 -4.981 8
-1.234 -13.361 -5.028 7
-1.196 -12.871 -5.042 8
-1.167 -12.451 -5.086 10
-1.136 -12.034 -5.117 8
-1.108 -11.633 -5.145 10
-1.08 -11.26 -5.181 12
-1.055 -10.896 -5.211 11
-1.028 -10.541 -5.236 12
-1.002 -10.201 -5.261 13
-0.979 -9.869 -5.281 13
-0.955 -9.552 -5.303 39
-2.826 -34.04 -3.002 36
-2.784 -33.275 -3.468 22
-2.196 -26.091 -2.546 10
-2.144 -25.275 -2.835 54
-2.138 -25.065 -3.249 55
-2.155 -25.117 -3.73 10
-2.156 -24.942 -4.152 7
-2.056 -23.642 -4.228 5
-1.969 -22.466 -4.3 4
-1.882 -21.347 -4.351 31
-1.814 -20.425 -4.434 6
-1.747 -19.549 -4.504 9
-1.693 -18.793 -4.593 7
-1.631 -17.998 -4.64 8
-1.579 -17.286 -4.696 8
-1.527 -16.623 -4.751 7
-1.48 -15.972 -4.79 38
-1.435 -15.394 -4.843 7
-1.39 -14.821 -4.881 8
-1.352 -14.298 -4.926 8
-1.316 -13.827 -4.983 8
-1.283 -13.361 -5.028 8
-1.243 -12.867 -5.04 8
-1.213 -12.448 -5.084 10
-1.181 -12.031 -5.115 10
-1.153 -11.64 -5.15 11
-1.123 -11.26 -5.181 12
-1.097 -10.893 -5.209 12
-1.069 -10.541 -5.236 11
-1.042 -10.201 -5.261 11
-1.019 -9.87 -5.282 13
-0.994 -9.555 -5.306 40
-2.931 -34.031 -3.001 28
-2.884 -33.22 -3.457 37
-2.274 -26.049 -2.537 10
-2.224 -25.276 -2.835 53
-2.218 -25.066 -3.25 56
-2.237 -25.138 -3.736 4
-2.238 -24.95 -4.154 7
-2.134 -23.648 -4.23 6
-2.043 -22.471 -4.301 5
-1.954 -21.365 -4.356 32
-1.882 -20.42 -4.432 6
-1.813 -19.55 -4.505 9
-1.757 -18.8 -4.596 7
-1.693 -18.004 -4.642 7
-1.639 -17.289 -4.697 7
-1.584 -16.614 -4.747 7
-1.536 -15.975 -4.791 9
-1.489 -15.393 -4.843 7
-1.443 -14.821 -4.881 8
-1.403 -14.295 -4.924 9
-1.366 -13.82 -4.979 8
-1.331 -13.357 -5.026 7
-1.291 -12.867 -5.04 8
-1.26 -12.451 -5.086 10
-1.227 -12.034 -5.117 10
-1.197 -11.636 -5.148 11
-1.166 -11.261 -5.182 10
-1.139 -10.894 -5.209 9
-1.11 -10.539 -5.234 12
-1.082 -10.199 -5.259 10
-1.058 -9.873 -5.284 12
-1.032 -9.553 -5.304 41
-3.034 -34.002 -2.996 29
-2.991 -33.258 -3.465 39
-2.352 -26.003 -2.527 11
-2.304 -25.274 -2.835 9
-2.299 -25.07 -3.251 55
-2.321 -25.169 -3.744 6
-2.319 -24.951 -4.154 7
-2.212 -23.653 -4.231 6
-2.117 -22.469 -4.301 5
-2.025 -21.367 -4.357 29
-1.952 -20.426 -4.434 8
-1.88 -19.556 -4.507 9
-1.822 -18.809 -4.599 7
-1.754 -17.999 -4.64 8
-1.699 -17.288 -4.697 8
-1.643 -16.617 -4.749 8
-1.593 -15.978 -4.793 9
-1.544 -15.393 -4.843 8
-1.496 -14.824 -4.882 8
-1.455 -14.298 -4.925 9
-1.417 -13.826 -4.983 8
-1.38 -13.357 -5.026 8
-1.339 -12.867 -5.04 9
-1.307 -12.448 -5.084 10
-1.271 -12.028 -5.113 10
-1.241 -11.636 -5.148 10
-1.21 -11.261 -5.182 11
-1.181 -10.891 -5.207 11
-1.151 -10.539 -5.234 13
-1.123 -10.202 -5.262 12
-1.097 -9.871 -5.283 13
-0.96 -8.57 -4.45 11
-3.149 -34.099 -3.013 26
-3.086 -33.162 -3.446 37
-2.432 -25.976 -2.521 20
-2.387 -25.297 -2.84 0
-2.38 -25.083 -3.254 56
-2.402 -25.165 -3.743 21
-2.401 -24.96 -4.157 7
-2.289 -23.65 -4.231 6
-2.193 -22.482 -4.305 5
-2.098 -21.379 -4.361 32
-2.02 -20.427 -4.435 9
-1.945 -19.551 -4.505 9
-1.886 -18.803 -4.597 6
-1.817 -18.005 -4.643 7
-1.758 -17.287 -4.697 8
-1.701 -16.619 -4.75 8
-1.648 -15.973 -4.791 9
-1.599 -15.395 -4.844 4
-1.549 -14.82 -4.88 8
-1.507 -14.301 -4.927 9
-1.467 -13.823 -4.981 7
-1.429 -13.356 -5.025 8
-1.387 -12.871 -5.043 10
-1.353 -12.452 -5.086 10
-1.317 -12.034 -5.117 9
-1.285 -11.637 -5.148 11
-1.253 -11.258 -5.179 11
-1.223 -10.895 -5.21 11
-1.192 -10.536 -5.232 11
-1.164 -10.203 -5.262 11
-1.136 -9.868 -5.281 13
-0.985 -8.487 -4.377 12
-3.253 -34.085 -3.01 29
-3.186 -33.118 -3.438 40
-2.509 -25.93 -2.512 15
0.0 -0.0 3.0 0
-2.462 -25.091 -3.256 54
-2.481 -25.135 -3.735 20
-2.483 -24.964 -4.158 6
-2.367 -23.658 -4.233 5
-2.267 -22.475 -4.303 5
-2.169 -21.38 -4.362 28
-2.09 -20.436 -4.438 18
-2.012 -19.556 -4.507 8
-1.949 -18.794 -4.593 5
-1.878 -18.0 -4.64 7
-1.819 -17.289 -4.697 8
-1.759 -16.622 -4.751 8
-1.705 -15.979 -4.794 9
-1.654 -15.401 -4.847 6
-1.601 -14.813 -4.876 7
-1.559 -14.297 -4.925 9
-1.517 -13.822 -4.98 8
-1.478 -13.356 -5.025 8
-1.434 -12.87 -5.042 9
-1.399 -12.444 -5.081 9
-1.362 -12.031 -5.115 10
-1.33 -11.637 -5.148 10
-1.296 -11.262 -5.182 12
-1.265 -10.892 -5.207 11
-1.234 -10.537 -5.232 11
-1.204 -10.203 -5.262 11
-1.177 -9.874 -5.285 12
-1.009 -8.401 -4.303 11
-3.341 -33.895 -2.977 14
-3.292 -33.143 -3.442 37
-2.588 -25.9 -2.505 12
-2.548 -25.297 -2.84 2
-2.545 -25.114 -3.262 55
-2.565 -25.166 -3.743 8
-2.566 -24.979 -4.163 6
-2.446 -23.666 -4.235 5
-2.342 -22.487 -4.306 5
-2.241 -21.389 -4.365 25
-2.158 -20.434 -4.437 22
-2.079 -19.566 -4.511 8
-2.014 -18.8 -4.596 6
-1.941 -18.005 -4.643 7
-1.879 -17.291 -4.698 7
-1.818 -16.623 -4.752 8
-1.762 -15.981 -4.795 9
-1.709 -15.4 -4.847 7
-1.654 -14.811 -4.875 7
-1.611 -14.299 -4.926 9
-1.568 -13.828 -4.984 8
-1.528 -13.359 -5.027 8
-1.482 -12.87 -5.042 8
-1.446 -12.447 -5.083 9
-1.407 -12.028 -5.113 9
-1.374 -11.637 -5.148 10
-1.34 -11.264 -5.184 11
-1.308 -10.892 -5.207 11
-1.275 -10.536 -5.232 11
-1.244 -10.2 -5.26 12
-1.051 -8.535 -4.162 11
-1.033 -8.317 -4.23 9
-3.464 -34.073 -3.008 35
-3.389 -33.079 -3.43 38
-2.667 -25.872 -2.499 12
0.0 -0.0 3.0 0
-2.627 -25.129 -3.265 53
-2.645 -25.147 -3.738 2
-2.647 -24.975 -4.161 7
-2.524 -23.67 -4.237 6
-2.417 -22.492 -4.308 5
-2.313 -21.386 -4.364 23
-2.226 -20.42 -4.432 33
-2.145 -19.563 -4.509 9
-2.077 -18.794 -4.593 5
-2.003 -18.007 -4.643 7
-1.939 -17.292 -4.699 8
-1.876 -16.625 -4.753 8
-1.818 -15.98 -4.794 9
-1.763 -15.395 -4.844 8
-1.709 -14.82 -4.88 8
-1.662 -14.295 -4.924 8
-1.618 -13.824 -4.981 8
-1.577 -13.355 -5.024 7
-1.529 -12.866 -5.04 8
-1.493 -12.45 -5.085 9
-1.454 -12.034 -5.117 10
-1.418 -11.633 -5.145 10
-1.383 -11.264 -5.184 12
-1.35 -10.888 -5.204 11
-1.316 -10.536 -5.232 12
-1.285 -10.204 -5.263 12
-1.073 -8.442 -4.084 10
-1.052 -8.203 -4.131 8
-3.558 -33.953 -2.987 17
-3.491 -33.06 -3.426 32
-2.746 -25.848 -2.494 15
0.0 -0.0 3.0 0
-2.709 -25.142 -3.269 53
-2.75 -25.366 -3.797 3
-2.73 -24.986 -4.165 6
-2.602 -23.67 -4.237 6
-2.492 -22.492 -4.308 5
-2.384 -21.39 -4.365 23
-2.294 -20.417 -4.431 26
-2.212 -19.567 -4.511 9
-2.142 -18.791 -4.592 7
-2.064 -18.001 -4.641 7
-1.999 -17.294 -4.7 7
-1.934 -16.623 -4.752 8
-1.874 -15.979 -4.793 10
-1.819 -15.401 -4.847 8
-1.761 -14.816 -4.878 7
-1.713 -14.293 -4.923 9
-1.668 -13.823 -4.981 7
-1.626 -13.361 -5.028 6
-1.577 -12.865 -5.039 8
-1.54 -12.449 -5.085 10
-1.499 -12.03 -5.114 11
-1.463 -11.636 -5.148 10
-1.426 -11.261 -5.182 12
-1.393 -10.894 -5.21 11
-1.358 -10.54 -5.235 12
-1.109 -8.539 -3.915 0
-1.096 -8.354 -4.01 12
-1.076 -8.135 -4.072 11
-3.677 -34.083 -3.01 39
-3.604 -33.14 -3.442 30
-2.826 -25.832 -2.491 14
0.0 -0.0 3.0 0
-2.792 -25.164 -3.274 54
-2.812 -25.192 -3.75 23
-2.81 -24.974 -4.161 7
-2.681 -23.681 -4.24 6
-2.567 -22.496 -4.309 5
-2.457 -21.398 -4.368 23
-2.363 -20.421 -4.433 13
-2.279 -19.568 -4.512 9
-2.206 -18.789 -4.591 7
-2.128 -18.013 -4.646 7
-2.059 -17.292 -4.699 7
-1.993 -16.625 -4.753 8
-1.93 -15.973 -4.791 8
-1.873 -15.395 -4.844 8
-1.815 -14.818 -4.879 7
-1.766 -14.299 -4.926 8
-1.719 -13.825 -4.982 7
-1.675 -13.353 -5.023 5
-1.625 -12.864 -5.039 9
-1.586 -12.449 -5.084 10
-1.544 -12.029 -5.114 8
-1.507 -11.635 -5.147 10
-1.469 -11.257 -5.179 11
-1.435 -10.894 -5.209 11
-1.399 -10.539 -5.234 12
-1.137 -8.494 -3.878 10
-1.118 -8.275 -3.943 9
-1.097 -8.051 -3.999 12
-3.781 -34.056 -3.005 34
-3.701 -33.082 -3.431 36
-2.907 -25.82 -2.488 16
0.0 -0.0 3.0 0
-2.875 -25.179 -3.278 55
-2.897 -25.218 -3.757 22
-2.893 -24.988 -4.165 7
-2.759 -23.685 -4.241 5
-2.642 -22.499 -4.31 5
-2.529 -21.402 -4.369 22
-2.435 -20.448 -4.442 10
-2.345 -19.568 -4.512 9
-2.27 -18.786 -4.59 8
-2.19 -18.014 -4.647 7
-2.119 -17.29 -4.698 7
-2.05 -16.62 -4.75 8
-1.988 -15.981 -4.795 9
-1.928 -15.394 -4.843 7
-1.868 -14.816 -4.878 7
-1.817 -14.294 -4.923 9
-1.77 -13.824 -4.981 8
-1.725 -13.358 -5.027 7
-1.673 -12.867 -5.04 9
-1.632 -12.444 -5.081 9
-1.59 -12.032 -5.115 10
-1.552 -11.638 -5.149 10
-1.512 -11.256 -5.178 11
-1.477 -10.894 -5.209 10
-1.441 -10.543 -5.237 10
-1.16 -8.417 -3.816 12
-1.141 -8.202 -3.882 8
-1.119 -7.973 -3.931 7
-3.884 -34.034 -3.001 29
-3.806 -33.091 -3.432 32
-2.987 -25.803 -2.485 15
0.0 -0.0 3.0 0
-2.956 -25.185 -3.279 56
-2.983 -25.252 -3.766 18
-2.976 -24.995 -4.167 6
-2.838 -23.692 -4.243 5
-2.718 -22.51 -4.314 5
-2.601 -21.409 -4.372 18
-2.503 -20.441 -4.44 9
-2.412 -19.573 -4.513 9
-2.334 -18.787 -4.59 8
-2.252 -18.008 -4.644 8
-2.18 -17.291 -4.698 7
-2.109 -16.621 -4.75 9
-2.045 -15.983 -4.795 9
-1.983 -15.395 -4.844 8
-1.921 -14.814 -4.877 7
-1.869 -14.296 -4.924 8
-1.82 -13.826 -4.982 7
-1.773 -13.351 -5.022 8
-1.721 -12.869 -5.041 8
-1.679 -12.447 -5.083 10
-1.635 -12.028 -5.113 10
-1.596 -11.634 -5.146 10
-1.556 -11.259 -5.18 12
-1.519 -10.89 -5.206 11
-1.2 -8.537 -3.67 5
-1.182 -8.337 -3.751 12
-1.162 -8.117 -3.811 10
-1.379 -9.549 -5.301 26
-3.999 -34.108 -3.014 40
-3.915 -33.13 -3.44 44
-3.067 -25.79 -2.482 16
0.0 -0.0 3.0 0
-3.039 -25.199 -3.283 55
-3.067 -25.27 -3.771 17
-3.057 -24.993 -4.167 6
-2.916 -23.691 -4.243 6
-2.793 -22.513 -4.315 5
-2.673 -21.409 -4.372 17
-2.573 -20.448 -4.442 9
-2.479 -19.573 -4.513 9
-2.399 -18.79 -4.592 7
-2.315 -18.013 -4.646 8
-2.24 -17.295 -4.7 8
-2.167 -16.618 -4.749 7
-2.101 -15.981 -4.795 8
-2.038 -15.397 -4.845 7
-1.975 -14.823 -4.882 8
-1.921 -14.294 -4.923 9
-1.87 -13.82 -4.979 5
-1.823 -13.352 -5.023 7
-1.769 -12.868 -5.041 8
-1.727 -12.45 -5.085 9
-1.68 -12.027 -5.112 10
-1.64 -11.633 -5.146 10
-1.6 -11.258 -5.18 10
-1.562 -10.889 -5.206 10
-1.224 -8.468 -3.616 12
-1.204 -8.259 -3.688 8
-1.183 -8.036 -3.743 10
-1.416 -9.543 -5.296 38
-4.12 -34.228 -3.035 27
-4.027 -33.196 -3.453 39
-3.147 -25.773 -2.478 16
0.0 -0.0 3.0 0
-3.122 -25.21 -3.285 56
-3.151 -25.284 -3.775 16
-3.14 -24.999 -4.168 6
-2.996 -23.701 -4.246 6
-2.868 -22.513 -4.315 5
-2.746 -21.416 -4.374 15
-2.643 -20.452 -4.444 9
-2.545 -19.57 -4.512 9
-2.463 -18.788 -4.591 8
-2.375 -18.001 -4.641 7
-2.301 -17.296 -4.701 8
-2.226 -16.619 -4.75 7
-2.158 -15.982 -4.795 8
-2.094 -15.402 -4.848 7
-2.028 -14.821 -4.881 7
-1.973 -14.296 -4.924 8
-1.922 -13.826 -4.982 4
-1.873 -13.358 -5.026 8
-1.816 -12.863 -5.038 7
-1.773 -12.448 -5.084 10
-1.726 -12.029 -5.113 9
-1.684 -11.629 -5.143 10
-1.643 -11.258 -5.179 10
-1.604 -10.892 -5.208 11
-1.245 -8.384 -3.55 9
-1.223 -8.171 -3.616 10
-1.204 -7.963 -3.682 7
-1.455 -9.546 -5.298 39
-4.211 -34.099 -3.013 5
-4.137 -33.238 -3.461 40
-3.229 -25.775 -2.479 12
0.0 -0.0 3.0 0
-3.204 -25.215 -3.287 55
-3.234 -25.293 -3.777 16
-3.222 -25.002 -4.169 7
-3.074 -23.699 -4.246 6
-2.944 -22.519 -4.317 5
-2.816 -21.405 -4.37 31
-2.711 -20.444 -4.441 9
-2.612 -19.573 -4.513 9
-2.529 -18.795 -4.594 8
-2.439 -18.009 -4.644 7
-2.361 -17.296 -4.701 8
-2.284 -16.62 -4.75 8
-2.213 -15.972 -4.79 9
-2.149 -15.406 -4.85 7
-2.083 -14.826 -4.883 7
-2.025 -14.294 -4.923 8
-1.972 -13.821 -4.979 8
-1.921 -13.349 -5.021 8
-1.865 -12.865 -5.039 8
-1.82 -12.446 -5.083 8
-1.772 -12.028 -5.113 10
-1.729 -11.631 -5.144 10
-1.686 -11.254 -5.176 11
-1.287 -8.512 -3.414 9
-1.265 -8.297 -3.482 6
-1.242 -8.081 -3.544 8
-1.234 -7.951 -3.671 0
-1.494 -9.546 -5.298 39
-4.346 -34.321 -3.052 2
-4.255 -33.342 -3.481 31
-3.3 -25.695 -2.462 3
0.0 -0.0 3.0 0
-3.286 -25.225 -3.289 54
-3.319 -25.31 -3.782 16
-3.306 -25.015 -4.173 6
-3.153 -23.709 -4.249 6
-3.019 -22.525 -4.319 5
-2.888 -21.404 -4.37 31
-2.781 -20.451 -4.443 9
-2.68 -19.577 -4.515 9
-2.593 -18.791 -4.592 8
-2.5 -18.002 -4.642 8
-2.421 -17.293 -4.699 8
-2.342 -16.617 -4.749 8
-2.27 -15.977 -4.792 9
-2.205 -15.407 -4.85 7
-2.136 -14.823 -4.882 7
-2.077 -14.295 -4.924 8
-2.022 -13.819 -4.978 8
-1.97 -13.351 -5.022 8
-1.912 -12.863 -5.038 7
-1.867 -12.448 -5.084 9
-1.817 -12.026 -5.112 9
-1.773 -11.63 -5.144 10
-1.73 -11.259 -5.18 12
-1.318 -8.497 -3.403 9
-1.284 -8.209 -3.413 8
-1.261 -7.998 -3.477 12
-1.57 -9.864 -5.277 13
-1.533 -9.548 -5.3 38
-4.926 -37.969 -3.695 7
-4.362 -33.357 -3.484 23
-3.386 -25.725 -2.468 3
-3.366 -25.372 -2.858 1
-3.369 -25.238 -3.293 54
-3.402 -25.319 -3.784 16
-3.388 -25.02 -4.174 6
-3.232 -23.711 -4.249 5
-3.095 -22.531 -4.321 5
-2.961 -21.413 -4.373 33
-2.851 -20.454 -4.444 9
-2.746 -19.576 -4.515 9
-2.657 -18.787 -4.59 8
-2.563 -18.006 -4.643 8
-2.482 -17.293 -4.699 8
-2.401 -16.621 -4.75 8
-2.327 -15.974 -4.791 9
-2.259 -15.404 -4.849 8
-2.19 -14.828 -4.884 8
-2.13 -14.3 -4.926 8
-2.074 -13.827 -4.983 8
-2.02 -13.349 -5.021 7
-1.96 -12.861 -5.037 6
-1.914 -12.45 -5.085 9
-1.864 -12.032 -5.115 9
-1.819 -11.636 -5.147 10
-1.773 -11.255 -5.177 11
-1.351 -8.496 -3.402 5
-1.316 -8.209 -3.414 2
-1.285 -7.948 -3.437 6
-1.611 -9.87 -5.282 15
-1.571 -9.541 -5.294 39
-5.049 -37.996 -3.7 6
-4.471 -33.382 -3.489 27
-3.468 -25.729 -2.469 2
-3.449 -25.385 -2.861 1
-3.452 -25.244 -3.294 55
-3.485 -25.324 -3.786 16
-3.471 -25.025 -4.176 7
-3.312 -23.72 -4.252 6
-3.17 -22.525 -4.319 5
-3.034 -21.419 -4.375 16
-2.92 -20.456 -4.446 9
-2.815 -19.587 -4.519 9
-2.722 -18.791 -4.592 8
-2.625 -18.002 -4.641 7
-2.542 -17.29 -4.698 8
-2.46 -16.622 -4.751 8
-2.384 -15.974 -4.791 9
-2.315 -15.409 -4.851 8
-2.244 -14.829 -4.885 8
-2.182 -14.298 -4.925 9
-2.125 -13.828 -4.983 7
-2.069 -13.347 -5.02 7
-2.008 -12.863 -5.038 8
-1.961 -12.448 -5.084 9
-1.908 -12.023 -5.11 10
-1.863 -11.631 -5.144 8
-1.817 -11.257 -5.178 11
-1.773 -10.885 -5.202 11
-1.365 -8.309 -3.491 5
-1.316 -7.949 -3.437 4
-1.651 -9.869 -5.281 14
-1.611 -9.547 -5.299 36
-5.17 -38.013 -3.703 7
-4.579 -33.4 -3.492 22
-3.559 -25.796 -2.483 1
0.0 -0.0 3.0 0
-3.536 -25.26 -3.298 54
-3.571 -25.348 -3.792 17
-3.555 -25.038 -4.179 6
-3.392 -23.729 -4.255 6
-3.246 -22.535 -4.322 5
-3.107 -21.429 -4.379 14
-2.991 -20.462 -4.448 9
-2.881 -19.582 -4.517 9
-2.787 -18.79 -4.592 8
-2.688 -18.005 -4.643 8
-2.603 -17.297 -4.701 8
-2.518 -16.614 -4.747 8
-2.441 -15.974 -4.791 9
-2.371 -15.413 -4.853 8
-2.297 -14.829 -4.885 7
-2.233 -14.295 -4.924 8
-2.176 -13.826 -4.982 7
-2.119 -13.352 -5.023 7
-2.057 -12.864 -5.038 7
-2.007 -12.443 -5.081 9
-1.955 -12.028 -5.113 10
-1.908 -11.632 -5.145 8
-1.86 -11.255 -5.177 11
-1.817 -10.89 -5.206 12
-1.434 -8.524 -3.66 0
-1.348 -7.948 -3.436 1
-1.69 -9.868 -5.28 14
-1.649 -9.544 -5.296 37
-5.292 -38.032 -3.706 7
-4.687 -33.417 -3.496 28
-3.653 -25.879 -2.501 0
0.0 -0.0 3.0 0
-3.619 -25.268 -3.3 56
-3.655 -25.352 -3.793 19
-3.638 -25.042 -4.181 6
-3.47 -23.73 -4.255 6
-3.323 -22.548 -4.326 5
-3.183 -21.45 -4.386 12
-3.06 -20.461 -4.447 9
-2.949 -19.588 -4.519 9
-2.853 -18.8 -4.596 8
-2.752 -18.012 -4.646 8
-2.664 -17.297 -4.701 8
-2.577 -16.618 -4.749 8
-2.498 -15.979 -4.793 9
-2.425 -15.403 -4.848 8
-2.351 -14.827 -4.884 8
-2.286 -14.299 -4.926 8
-2.226 -13.823 -4.981 7
-2.168 -13.35 -5.021 7
-2.106 -12.869 -5.041 8
-2.054 -12.444 -5.081 10
-2.0 -12.027 -5.112 9
-1.953 -11.634 -5.146 9
-1.904 -11.257 -5.179 12
-1.859 -10.885 -5.202 11
-1.813 -10.529 -5.226 11
-1.482 -8.54 -3.915 3
-1.394 -7.954 -3.674 5
-1.688 -9.545 -5.298 39
-5.415 -38.059 -3.711 6
-4.794 -33.43 -3.498 22
-3.746 -25.953 -2.516 5
0.0 -0.0 3.0 0
-3.702 -25.28 -3.303 56
-3.74 -25.368 -3.797 19
-3.722 -25.054 -4.184 6
-3.55 -23.735 -4.257 5
-3.399 -22.549 -4.327 5
-3.256 -21.456 -4.388 12
-3.131 -20.471 -4.451 9
-3.015 -19.583 -4.517 9
-2.916 -18.792 -4.592 8
-2.814 -18.011 -4.645 8
-2.724 -17.296 -4.701 8
-2.636 -16.618 -4.749 8
-2.554 -15.971 -4.79 9
-2.481 -15.41 -4.852 8
-2.405 -14.83 -4.885 7
-2.338 -14.296 -4.925 8
-2.277 -13.82 -4.979 7
-2.218 -13.35 -5.022 7
-2.154 -12.869 -5.042 7
-2.102 -12.446 -5.083 9
-2.047 -12.028 -5.113 10
-1.997 -11.629 -5.142 9
-1.948 -11.256 -5.178 11
-1.901 -10.884 -5.201 12
-1.855 -10.531 -5.228 11
-1.811 -10.196 -5.256 14
-1.517 -8.457 -4.097 0
-1.487 -8.22 -4.145 1
-5.54 -38.094 -3.717 7
-4.902 -33.443 -3.501 22
-3.84 -26.023 -2.531 7
0.0 -0.0 3.0 0
-3.786 -25.292 -3.306 55
-3.824 -25.376 -3.8 20
-3.804 -25.05 -4.183 6
-3.63 -23.743 -4.259 5
-3.475 -22.554 -4.328 4
-3.328 -21.453 -4.387 11
-3.201 -20.476 -4.453 9
-3.083 -19.589 -4.519 9
-2.982 -18.797 -4.595 8
-2.878 -18.014 -4.646 8
-2.786 -17.303 -4.704 5
-2.694 -16.614 -4.747 8
-2.612 -15.978 -4.793 9
-2.537 -15.41 -4.852 7
-2.458 -14.824 -4.882 8
-2.39 -14.296 -4.925 8
-2.328 -13.821 -4.98 7
-2.267 -13.344 -5.018 7
-2.201 -12.864 -5.039 7
-2.148 -12.44 -5.079 9
-2.093 -12.029 -5.114 8
-2.042 -11.631 -5.144 7
-1.992 -11.257 -5.178 10
-1.944 -10.885 -5.203 12
-1.897 -10.533 -5.229 13
-1.851 -10.194 -5.255 13
-1.557 -8.49 -4.124 5
-1.476 -7.98 -3.937 4
-5.661 -38.1 -3.718 7
-5.01 -33.455 -3.503 21
-3.943 -26.158 -2.56 4
0.0 -0.0 3.0 0
-3.87 -25.304 -3.309 53
-3.908 -25.384 -3.802 20
-3.889 -25.065 -4.187 7
-3.71 -23.751 -4.261 5
-3.554 -22.577 -4.336 4
-3.401 -21.458 -4.388 10
-3.271 -20.474 -4.452 9
-3.15 -19.588 -4.519 9
-3.047 -18.796 -4.594 7
-2.94 -18.013 -4.646 7
-2.846 -17.298 -4.702 8
-2.753 -16.616 -4.748 8
-2.668 -15.97 -4.789 9
-2.592 -15.406 -4.85 8
-2.513 -14.831 -4.886 8
-2.442 -14.29 -4.921 8
-2.378 -13.818 -4.978 7
-2.316 -13.341 -5.016 7
-2.251 -12.871 -5.043 7
-2.196 -12.448 -5.084 9
-2.138 -12.024 -5.11 10
-2.086 -11.625 -5.14 7
-2.035 -11.252 -5.175 11
-1.987 -10.887 -5.204 11
-1.937 -10.528 -5.226 13
-1.892 -10.193 -5.254 12
-1.849 -9.867 -5.279 15
-1.547 -8.182 -4.113 4
-5.126 -33.786 -2.957 6
-5.115 -33.452 -3.502 20
-4.982 -32.364 -3.879 10
0.0 -0.0 3.0 0
-3.954 -25.315 -3.312 54
-3.994 -25.403 -3.807 22
-3.974 -25.076 -4.19 6
-3.79 -23.759 -4.264 5
-3.63 -22.574 -4.335 4
-3.474 -21.463 -4.39 10
-3.341 -20.479 -4.454 10
-3.219 -19.596 -4.522 10
-3.113 -18.798 -4.595 8
-3.003 -18.015 -4.647 7
-2.906 -17.293 -4.7 7
-2.813 -16.62 -4.75 8
-2.725 -15.973 -4.791 9
-2.647 -15.403 -4.848 7
-2.566 -14.828 -4.884 7
-2.495 -14.297 -4.925 9
-2.429 -13.818 -4.978 8
-2.367 -13.349 -5.021 8
-2.301 -12.879 -5.048 8
-2.243 -12.446 -5.082 9
-2.184 -12.025 -5.111 9
-2.131 -11.626 -5.14 6
-2.079 -11.253 -5.176 12
-2.03 -10.885 -5.202 10
-1.98 -10.53 -5.227 11
-1.933 -10.195 -5.256 13
-1.888 -9.862 -5.275 14
-1.658 -8.583 -4.461 2
-5.235 -33.802 -2.96 9
-5.223 -33.463 -3.505 27
-5.086 -32.364 -3.879 12
0.0 -0.0 3.0 0
-4.039 -25.33 -3.315 54
-4.079 -25.413 -3.809 23
-4.058 -25.083 -4.192 6
-3.87 -23.763 -4.265 6
-3.706 -22.575 -4.335 4
-3.548 -21.471 -4.393 10
-3.411 -20.481 -4.454 10
-3.287 -19.602 -4.524 19
-3.179 -18.804 -4.597 8
-3.067 -18.017 -4.648 7
-2.968 -17.3 -4.702 8
-2.871 -16.619 -4.75 8
-2.783 -15.973 -4.791 9
-2.701 -15.395 -4.844 7
-2.619 -14.823 -4.882 8
-2.547 -14.294 -4.923 9
-2.48 -13.815 -4.976 7
-2.416 -13.342 -5.017 7
-2.348 -12.873 -5.044 7
-2.291 -12.449 -5.085 9
-2.23 -12.026 -5.112 10
-2.176 -11.627 -5.141 5
-2.122 -11.251 -5.174 11
-2.071 -10.88 -5.199 11
-2.021 -10.528 -5.226 13
-1.974 -10.197 -5.257 12
-1.928 -9.861 -5.274 14
-1.882 -9.54 -5.293 38
-5.354 -33.879 -2.974 20
-5.333 -33.483 -3.508 20
-5.19 -32.368 -3.88 12
0.0 -0.0 3.0 0
-4.123 -25.345 -3.319 54
-4.165 -25.428 -3.813 24
-4.143 -25.098 -4.197 6
-3.95 -23.77 -4.267 5
-3.783 -22.582 -4.337 5
-3.62 -21.468 -4.392 10
-3.482 -20.485 -4.456 9
-3.353 -19.592 -4.52 36
-3.244 -18.806 -4.598 8
-3.129 -18.015 -4.647 7
-3.028 -17.294 -4.7 8
-2.93 -16.614 -4.747 8
-2.84 -15.976 -4.792 9
-2.757 -15.398 -4.846 7
-2.673 -14.82 -4.88 7
-2.599 -14.29 -4.921 9
-2.531 -13.815 -4.976 7
-2.466 -13.346 -5.019 8
-2.397 -12.873 -5.044 8
-2.337 -12.443 -5.081 10
-2.276 -12.023 -5.11 10
-2.22 -11.624 -5.14 6
-2.166 -11.252 -5.175 12
-2.114 -10.881 -5.2 10
-2.062 -10.526 -5.224 12
-2.013 -10.189 -5.251 12
-1.968 -9.862 -5.275 14
-1.92 -9.539 -5.292 37
-5.415 -33.595 -2.924 27
-5.44 -33.487 -3.509 21
-5.295 -32.376 -3.882 12
0.0 -0.0 3.0 0
-4.208 -25.359 -3.323 55
-4.25 -25.438 -3.816 25
-4.226 -25.096 -4.196 6
-4.032 -23.781 -4.271 5
-3.859 -22.586 -4.339 5
-3.694 -21.472 -4.394 10
-3.551 -20.482 -4.455 9
-3.419 -19.586 -4.518 41
-3.31 -18.807 -4.598 8
-3.192 -18.014 -4.646 7
-3.09 -17.297 -4.701 8
-2.99 -16.62 -4.75 8
-2.897 -15.971 -4.79 9
-2.812 -15.394 -4.844 7
-2.726 -14.816 -4.878 8
-2.651 -14.289 -4.921 9
-2.582 -13.815 -4.976 7
-2.515 -13.343 -5.017 8
-2.445 -12.873 -5.044 8
-2.386 -12.45 -5.085 9
-2.322 -12.024 -5.11 9
-2.265 -11.626 -5.14 10
-2.21 -11.25 -5.174 11
-2.158 -10.882 -5.2 11
-2.105 -10.527 -5.225 13
-2.054 -10.19 -5.252 11
-2.008 -9.861 -5.274 14
-1.96 -9.54 -5.293 30
-5.515 -33.559 -2.917 15
-5.551 -33.516 -3.515 29
-5.399 -32.379 -3.882 12
-4.292 -25.535 -2.895 3
-4.293 -25.373 -3.326 53
-4.335 -25.445 -3.818 26
-4.31 -25.099 -4.197 7
-4.111 -23.784 -4.271 6
-3.935 -22.586 -4.339 5
-3.767 -21.476 -4.395 9
-3.622 -20.486 -4.456 9
-3.487 -19.587 -4.519 33
-3.375 -18.808 -4.599 8
-3.255 -18.012 -4.646 7
-3.151 -17.295 -4.7 7
-3.049 -16.618 -4.749 8
-2.954 -15.97 -4.789 9
-2.867 -15.393 -4.843 7
-2.781 -14.819 -4.879 8
-2.704 -14.293 -4.923 9
-2.633 -13.815 -4.976 8
-2.565 -13.342 -5.017 8
-2.494 -12.874 -5.044 8
-2.431 -12.441 -5.079 9
-2.368 -12.025 -5.111 10
-2.311 -11.627 -5.141 10
-2.253 -11.247 -5.171 10
-2.2 -10.88 -5.199 11
-2.146 -10.525 -5.223 11
-2.096 -10.191 -5.253 12
-2.047 -9.859 -5.273 14
-1.998 -9.539 -5.292 37
-5.608 -33.484 -2.904 26
-5.658 -33.515 -3.515 21
-5.505 -32.39 -3.885 12
-4.373 -25.53 -2.894 40
-4.378 -25.383 -3.329 52
-4.421 -25.462 -3.822 28
-4.396 -25.121 -4.203 7
-4.193 -23.794 -4.275 5
-4.013 -22.592 -4.341 5
-3.84 -21.477 -4.395 9
-3.694 -20.494 -4.459 9
-3.555 -19.587 -4.519 15
-3.441 -18.809 -4.599 8
-3.318 -18.009 -4.644 7
-3.211 -17.293 -4.7 8
-3.11 -16.627 -4.753 7
-3.012 -15.976 -4.792 9
-2.922 -15.388 -4.841 7
-2.835 -14.818 -4.879 8
-2.756 -14.285 -4.918 8
-2.685 -13.814 -4.976 8
-2.615 -13.342 -5.017 8
-2.542 -12.87 -5.042 8
-2.479 -12.441 -5.079 9
-2.414 -12.022 -5.109 9
-2.356 -11.63 -5.143 10
-2.299 -11.255 -5.177 11
-2.243 -10.881 -5.2 11
-2.188 -10.526 -5.224 10
-2.135 -10.183 -5.246 12
-2.087 -9.858 -5.272 14
-2.037 -9.537 -5.29 35
-5.753 -33.712 -2.944 3
-5.764 -33.513 -3.514 21
-5.611 -32.397 -3.886 12
-4.459 -25.544 -2.897 1
-4.463 -25.396 -3.332 53
-4.506 -25.467 -3.824 33
-4.48 -25.119 -4.203 6
-4.274 -23.804 -4.278 5
-4.091 -22.607 -4.345 5
-3.915 -21.483 -4.397 10
-3.765 -20.498 -4.461 8
-3.625 -19.603 -4.525 10
-3.507 -18.813 -4.601 8
-3.382 -18.018 -4.648 7
-3.273 -17.294 -4.7 8
-3.168 -16.622 -4.751 7
-3.068 -15.967 -4.788 9
-2.979 -15.39 -4.842 7
-2.889 -14.82 -4.88 8
-2.81 -14.291 -4.922 9
-2.735 -13.811 -4.974 7
-2.664 -13.339 -5.015 8
-2.59 -12.867 -5.04 7
-2.527 -12.445 -5.082 9
-2.46 -12.022 -5.109 9
-2.4 -11.624 -5.139 10
-2.341 -11.246 -5.171 11
-2.286 -10.878 -5.197 11
-2.23 -10.527 -5.225 12
-2.177 -10.19 -5.252 13
-2.127 -9.856 -5.27 13
-2.077 -9.538 -5.291 34
-6.665 -38.342 -3.761 6
-5.877 -33.543 -3.52 22
-5.715 -32.399 -3.887 14
0.0 -0.0 3.0 0
-4.549 -25.41 -3.335 52
-4.591 -25.472 -3.825 36
-4.567 -25.139 -4.208 5
-4.354 -23.806 -4.278 5
-4.166 -22.599 -4.343 5
-3.99 -21.494 -4.401 9
-3.837 -20.506 -4.463 9
-3.695 -19.611 -4.528 8
-3.573 -18.814 -4.601 8
-3.445 -18.015 -4.647 7
-3.334 -17.292 -4.699 8
-3.227 -16.62 -4.75 8
-3.126 -15.969 -4.788 9
-3.034 -15.389 -4.841 7
-2.943 -14.816 -4.878 9
-2.861 -14.287 -4.919 8
-2.788 -13.817 -4.977 8
-2.714 -13.338 -5.014 7
-2.638 -12.867 -5.04 8
-2.574 -12.441 -5.08 10
-2.506 -12.022 -5.109 9
-2.446 -11.628 -5.142 11
-2.385 -11.246 -5.171 11
-2.329 -10.879 -5.198 12
-2.272 -10.525 -5.223 12
-2.217 -10.185 -5.248 11
-2.166 -9.854 -5.268 13
-2.114 -9.531 -5.285 34
-6.793 -38.38 -3.767 6
-5.988 -33.563 -3.524 28
-5.82 -32.401 -3.887 14
-4.743 -26.2 -3.049 2
-4.635 -25.427 -3.34 43
-4.673 -25.459 -3.822 47
-4.652 -25.148 -4.211 6
-4.438 -23.827 -4.285 6
-4.246 -22.62 -4.35 4
-4.064 -21.501 -4.403 9
-3.908 -20.508 -4.464 9
-3.762 -19.611 -4.528 9
-3.639 -18.815 -4.602 8
-3.508 -18.013 -4.646 5
-3.395 -17.293 -4.7 8
-3.287 -16.625 -4.753 8
-3.185 -15.974 -4.791 9
-3.091 -15.391 -4.842 8
-2.998 -14.822 -4.881 8
-2.915 -14.29 -4.921 9
-2.838 -13.813 -4.975 8
-2.765 -13.341 -5.016 7
-2.687 -12.866 -5.04 8
-2.62 -12.437 -5.077 9
-2.553 -12.022 -5.109 9
-2.492 -11.631 -5.144 9
-2.429 -11.246 -5.171 10
-2.371 -10.876 -5.196 11
-2.313 -10.522 -5.221 11
-2.258 -10.183 -5.246 12
-2.207 -9.855 -5.269 13
-2.154 -9.535 -5.289 28
-6.917 -38.395 -3.77 6
-6.091 -33.542 -3.52 31
-5.926 -32.41 -3.889 14
-4.817 -26.14 -3.035 10
-4.719 -25.432 -3.341 50
-4.755 -25.449 -3.819 34
-4.737 -25.153 -4.213 6
-4.516 -23.817 -4.282 5
-4.323 -22.622 -4.35 5
-4.138 -21.504 -4.404 8
-3.977 -20.501 -4.462 10
-3.831 -19.614 -4.529 9
-3.706 -18.823 -4.605 8
-3.573 -18.02 -4.649 7
-3.456 -17.291 -4.698 7
-3.345 -16.615 -4.748 8
-3.243 -15.976 -4.792 9
-3.147 -15.393 -4.843 7
-3.052 -14.82 -4.88 8
-2.967 -14.289 -4.92 8
-2.89 -13.812 -4.974 7
-2.814 -13.337 -5.014 7
-2.736 -12.866 -5.04 8
-2.669 -12.444 -5.081 10
-2.598 -12.019 -5.107 9
-2.536 -11.625 -5.14 10
-2.473 -11.243 -5.169 10
-2.415 -10.878 -5.197 12
-2.356 -10.526 -5.224 12
-2.3 -10.186 -5.249 15
-2.246 -9.852 -5.267 14
-2.192 -9.53 -5.284 34
-7.045 -38.424 -3.775 6
-6.207 -33.589 -3.529 24
-6.03 -32.408 -3.888 14
-4.909 -26.174 -3.043 9
-4.803 -25.433 -3.341 52
-4.861 -25.564 -3.85 2
-4.822 -25.161 -4.215 7
-4.599 -23.834 -4.287 6
-4.401 -22.628 -4.352 5
-4.214 -21.513 -4.408 10
-4.051 -20.522 -4.469 10
-3.901 -19.621 -4.532 8
-3.771 -18.819 -4.603 8
-3.635 -18.014 -4.646 6
-3.519 -17.295 -4.7 8
-3.406 -16.623 -4.752 8
-3.299 -15.97 -4.789 9
-3.201 -15.384 -4.839 8
-3.106 -14.818 -4.879 8
-3.02 -14.287 -4.919 8
-2.942 -13.814 -4.975 7
-2.864 -13.336 -5.013 8
-2.784 -12.862 -5.037 8
-2.716 -12.437 -5.077 9
-2.646 -12.025 -5.111 10
-2.58 -11.619 -5.135 11
-2.518 -11.247 -5.171 10
-2.457 -10.875 -5.195 11
-2.397 -10.52 -5.219 12
-2.341 -10.188 -5.25 13
-2.287 -9.853 -5.268 13
-2.232 -9.531 -5.285 34
-7.175 -38.469 -3.783 6
-6.321 -33.624 -3.536 22
-6.136 -32.413 -3.89 13
-5.006 -26.237 -3.057 9
-4.886 -25.43 -3.34 52
-4.926 -25.461 -3.822 2
-4.909 -25.173 -4.218 6
-4.681 -23.843 -4.289 5
-4.48 -22.637 -4.355 4
-4.288 -21.519 -4.41 10
-4.121 -20.517 -4.468 12
-3.969 -19.621 -4.532 9
-3.837 -18.819 -4.603 8
-3.7 -18.021 -4.649 7
-3.579 -17.292 -4.699 8
-3.465 -16.618 -4.749 8
-3.358 -15.975 -4.792 9
-3.258 -15.388 -4.841 6
-3.16 -14.817 -4.878 8
-3.071 -14.278 -4.915 9
-2.992 -13.809 -4.973 7
-2.915 -13.335 -5.013 8
-2.833 -12.861 -5.037 8
-2.764 -12.44 -5.078 9
-2.691 -12.018 -5.106 9
-2.626 -11.621 -5.137 10
-2.561 -11.244 -5.169 11
-2.5 -10.875 -5.195 12
-2.44 -10.524 -5.222 9
-2.381 -10.181 -5.245 12
-2.326 -9.851 -5.266 14
-2.27 -9.525 -5.28 34
-7.303 -38.498 -3.788 6
-6.433 -33.644 -3.54 22
-6.243 -32.421 -3.891 14
-5.103 -26.294 -3.071 8
-4.97 -25.43 -3.341 53
-5.014 -25.481 -3.827 3
-4.993 -25.174 -4.218 6
-4.764 -23.855 -4.293 6
-4.556 -22.635 -4.355 4
-4.362 -21.518 -4.409 9
-4.191 -20.513 -4.466 32
-4.038 -19.628 -4.534 9
-3.905 -18.829 -4.607 8
-3.764 -18.021 -4.649 5
-3.641 -17.292 -4.699 8
-3.525 -16.622 -4.751 7
-3.416 -15.976 -4.792 9
-3.314 -15.387 -4.84 7
-3.214 -14.815 -4.877 8
-3.124 -14.281 -4.916 9
-3.045 -13.815 -4.976 7
-2.965 -13.338 -5.014 7
-2.882 -12.863 -5.038 8
-2.811 -12.439 -5.078 10
-2.737 -12.014 -5.104 10
-2.671 -11.618 -5.135 10
-2.606 -11.243 -5.169 10
-2.544 -10.874 -5.194 11
-2.482 -10.521 -5.22 10
-2.421 -10.176 -5.241 13
-2.366 -9.848 -5.264 13
-2.31 -9.53 -5.284 29
-7.432 -38.53 -3.794 7
-6.537 -33.625 -3.536 34
-6.349 -32.429 -3.893 14
-5.205 -26.375 -3.089 7
-5.055 -25.438 -3.342 51
-5.105 -25.515 -3.837 3
-5.079 -25.185 -4.222 6
-4.844 -23.852 -4.292 5
-4.637 -22.655 -4.361 5
-4.437 -21.527 -4.412 10
-4.262 -20.516 -4.467 24
-4.107 -19.63 -4.535 8
-3.971 -18.828 -4.607 8
-3.827 -18.017 -4.648 7
-3.705 -17.303 -4.704 8
-3.587 -16.63 -4.755 7
-3.472 -15.97 -4.789 8
-3.371 -15.391 -4.842 7
-3.269 -14.817 -4.878 8
-3.179 -14.285 -4.919 8
-3.096 -13.81 -4.973 8
-3.015 -13.336 -5.013 8
-2.931 -12.863 -5.037 8
-2.859 -12.438 -5.077 10
-2.785 -12.02 -5.108 10
-2.717 -11.624 -5.139 9
-2.649 -11.24 -5.166 9
-2.587 -10.875 -5.195 11
-2.525 -10.525 -5.223 13
-2.463 -10.179 -5.243 12
-2.406 -9.846 -5.261 14
-2.349 -9.527 -5.282 38
-7.56 -38.558 -3.799 6
-6.655 -33.671 -3.545 21
-6.455 -32.433 -3.894 14
-5.308 -26.458 -3.108 6
-5.14 -25.446 -3.344 49
-5.196 -25.545 -3.845 9
-5.165 -25.193 -4.224 6
-4.928 -23.868 -4.297 6
-4.715 -22.659 -4.363 5
-4.513 -21.537 -4.416 9
-4.335 -20.521 -4.469 24
-4.176 -19.633 -4.536 9
-4.038 -18.832 -4.609 7
-3.892 -18.021 -4.65 8
-3.766 -17.3 -4.702 8
-3.645 -16.623 -4.751 8
-3.531 -15.974 -4.791 9
-3.428 -15.392 -4.843 7
-3.323 -14.81 -4.875 8
-3.231 -14.284 -4.918 9
-3.148 -13.811 -4.974 8
-3.065 -13.331 -5.01 7
-2.98 -12.865 -5.039 8
-2.907 -12.437 -5.077 10
-2.831 -12.02 -5.107 10
-2.761 -11.617 -5.134 10
-2.694 -11.24 -5.166 12
-2.629 -10.868 -5.19 12
-2.566 -10.521 -5.22 10
-2.504 -10.176 -5.241 12
-2.446 -9.846 -5.262 12
-2.388 -9.524 -5.279 32
-7.695 -38.613 -3.808 6
-6.768 -33.692 -3.549 18
-6.561 -32.437 -3.895 15
-5.421 -26.592 -3.139 5
-5.226 -25.453 -3.346 49
-5.28 -25.537 -3.843 11
-5.251 -25.199 -4.226 6
-5.01 -23.875 -4.299 6
-4.794 -22.668 -4.365 5
-4.587 -21.538 -4.416 10
-4.403 -20.508 -4.464 19
-4.244 -19.632 -4.536 9
-4.103 -18.827 -4.607 7
-3.957 -18.028 -4.652 7
-3.828 -17.3 -4.702 8
-3.706 -16.626 -4.753 8
-3.588 -15.967 -4.788 9
-3.484 -15.393 -4.843 7
