# .PCD v0.7 - Point Cloud Data file format
VERSION 0.7
FIELDS x y z intensity
SIZE 4 4 4 4
TYPE F F F F
COUNT 1 1 1 1
WIDTH 2218
HEIGHT 1
VIEWPOINT 0 0 0 1 0 0 0
POINTS 2218
DATA ascii
-6.385 -1.57 2.666 3
-6.811 -1.558 2.64 3
-7.293 -1.543 2.615 3
-7.92 -1.544 2.586 20
-8.604 -1.54 2.558 5
-9.443 -1.545 2.528 8
-10.445 -1.556 2.494 12
-11.642 -1.574 2.458 8
-8.738 -1.072 2.61 14
-8.746 -0.973 2.627 20
-8.831 -0.898 2.637 5
-12.956 -1.22 2.482 2
-12.512 -1.117 2.503 7
-9.441 -0.821 2.617 11
-9.376 -0.821 2.599 14
-9.288 -0.844 2.57 255
-8.665 -0.835 2.556 255
-8.087 -0.839 2.535 1
-1.527 -0.172 2.901 15
-1.529 -0.186 2.888 20
-1.506 -0.199 2.876 21
-1.51 -0.216 2.86 11
-1.557 -0.239 2.839 23
-1.447 -0.238 2.833 23
-1.317 -0.231 2.832 23
-1.246 -0.232 2.825 16
-1.218 -0.241 2.812 16
-1.283 -0.267 2.784 13
-1.104 -0.241 2.798 12
-1.08 -0.247 2.785 12
-7.969 -2.256 2.602 80
-8.886 -2.355 2.542 64
-6.348 -1.57 2.666 2
-6.762 -1.556 2.641 3
-7.247 -1.544 2.615 3
-7.871 -1.547 2.585 3
-8.578 -1.55 2.556 13
-9.365 -1.549 2.526 9
-10.343 -1.561 2.493 6
-7.157 -0.983 2.662 0
-8.711 -1.088 2.604 21
-8.716 -0.991 2.62 18
-7.195 -0.751 2.697 0
-12.606 -1.222 2.481 6
-9.536 -0.878 2.609 1
-9.414 -0.846 2.606 11
-9.361 -0.847 2.587 25
-8.712 -0.815 2.585 44
-8.65 -0.855 2.545 77
-7.906 -0.838 2.535 0
-1.554 -0.178 2.897 10
-1.52 -0.189 2.887 22
-1.501 -0.201 2.874 25
-1.49 -0.215 2.86 14
-1.553 -0.241 2.838 22
-1.517 -0.252 2.824 22
-1.325 -0.234 2.83 23
-1.262 -0.237 2.822 18
-1.222 -0.242 2.811 16
-1.275 -0.266 2.784 13
-1.107 -0.243 2.796 12
-1.072 -0.246 2.786 13
-7.974 -2.267 2.6 80
-5.926 -1.577 2.693 3
-6.307 -1.568 2.667 2
-6.725 -1.556 2.641 3
-7.249 -1.555 2.612 19
-7.806 -1.547 2.586 19
-8.485 -1.547 2.556 9
-9.275 -1.55 2.526 7
-10.244 -1.567 2.491 9
-7.143 -0.996 2.657 1
-8.713 -1.108 2.597 17
-8.697 -1.01 2.612 30
-7.2 -0.77 2.689 0
-12.065 -1.203 2.489 3
-9.485 -0.901 2.599 10
-9.399 -0.871 2.594 12
-9.298 -0.867 2.577 35
-8.674 -0.835 2.575 42
-8.608 -0.872 2.537 20
-7.729 -0.837 2.536 0
-1.57 -0.183 2.894 10
-1.532 -0.193 2.884 29
-1.481 -0.201 2.875 23
-1.494 -0.218 2.858 19
-1.525 -0.239 2.839 22
-1.521 -0.255 2.822 25
-1.317 -0.234 2.83 24
-1.292 -0.244 2.816 24
-1.245 -0.248 2.806 19
-1.297 -0.272 2.779 13
-1.111 -0.245 2.795 12
-1.075 -0.248 2.785 13
-7.972 -2.276 2.599 77
-5.905 -1.58 2.693 2
-6.271 -1.567 2.667 2
-6.676 -1.554 2.641 3
-7.196 -1.554 2.612 3
-7.776 -1.553 2.584 4
-8.462 -1.558 2.553 8
-9.237 -1.561 2.523 12
-10.162 -1.574 2.489 6
-7.184 -1.016 2.65 21
-8.714 -1.128 2.589 14
-8.694 -1.031 2.604 22
-7.182 -0.787 2.682 33
-11.664 -1.195 2.493 3
-9.438 -0.923 2.589 10
-9.376 -0.896 2.582 13
-9.152 -0.879 2.571 8
-8.671 -0.857 2.563 251
-8.124 -0.843 2.552 0
-7.56 -0.837 2.536 0
-1.542 -0.183 2.894 8
-1.527 -0.195 2.883 27
-1.477 -0.203 2.873 23
-1.497 -0.221 2.856 26
-1.517 -0.24 2.838 22
-1.512 -0.255 2.822 26
-1.343 -0.241 2.825 26
-1.3 -0.247 2.814 26
-1.283 -0.257 2.799 28
-1.262 -0.266 2.785 14
-1.126 -0.249 2.791 13
-1.082 -0.25 2.783 13
-5.542 -1.589 2.72 1
-5.864 -1.577 2.694 2
-6.237 -1.568 2.667 2
-6.643 -1.556 2.641 3
-7.147 -1.554 2.612 13
-7.702 -1.551 2.584 13
-8.369 -1.555 2.554 13
-9.143 -1.563 2.522 10
-10.084 -1.583 2.486 9
-7.118 -1.023 2.648 133
-7.186 -0.946 2.656 4
-8.691 -1.052 2.596 23
-7.195 -0.807 2.674 5
-9.534 -1.003 2.574 1
-9.411 -0.948 2.578 11
-9.345 -0.92 2.571 18
-8.692 -0.86 2.581 25
-8.644 -0.879 2.552 15
-7.903 -0.841 2.553 0
-7.395 -0.835 2.537 0
-1.537 -0.185 2.893 11
-1.527 -0.198 2.881 22
-1.476 -0.205 2.872 24
-1.477 -0.22 2.857 23
-1.504 -0.24 2.838 23
-1.52 -0.259 2.819 30
-1.351 -0.244 2.823 28
-1.303 -0.249 2.812 25
-1.283 -0.259 2.798 28
-1.25 -0.265 2.785 15
-1.137 -0.252 2.788 18
-1.086 -0.252 2.781 12
-5.509 -1.587 2.72 3
-5.827 -1.575 2.694 2
-6.185 -1.563 2.668 2
-6.648 -1.567 2.638 3
-7.132 -1.563 2.61 9
-7.676 -1.558 2.582 7
-8.319 -1.561 2.552 5
-9.081 -1.569 2.52 6
-10.001 -1.59 2.484 11
-7.092 -1.035 2.644 164
-7.167 -0.961 2.65 10
-7.205 -0.891 2.658 0
-12.639 -1.453 2.413 9
-9.483 -1.025 2.565 10
-9.396 -0.973 2.567 13
-9.314 -0.943 2.56 38
-8.677 -0.882 2.57 22
-8.593 -0.896 2.544 6
-7.729 -0.842 2.552 0
-7.249 -0.836 2.537 0
-1.541 -0.189 2.891 12
-1.542 -0.203 2.878 20
-1.46 -0.205 2.872 23
-1.472 -0.222 2.856 27
-1.488 -0.239 2.839 24
-1.519 -0.261 2.817 27
-1.37 -0.249 2.819 28
-1.318 -0.254 2.809 25
-1.29 -0.262 2.795 27
-1.269 -0.27 2.781 13
-1.144 -0.256 2.786 16
-1.082 -0.252 2.781 12
-5.477 -1.584 2.721 3
-5.79 -1.572 2.694 2
-6.148 -1.563 2.668 2
-6.514 -1.546 2.643 19
-5.94 -1.311 2.673 0
-7.595 -1.555 2.583 9
-8.249 -1.563 2.552 17
-9.015 -1.575 2.518 12
-9.907 -1.595 2.482 12
-7.058 -1.045 2.64 84
-7.173 -0.98 2.643 17
-7.199 -0.908 2.651 9
-12.186 -1.433 2.421 4
-9.444 -1.047 2.556 11
-9.373 -0.997 2.556 13
-9.227 -0.962 2.552 42
-8.67 -0.906 2.558 72
-8.078 -0.865 2.559 0
-7.564 -0.843 2.552 0
-1.538 -0.181 2.9 0
-1.54 -0.193 2.889 18
-1.537 -0.206 2.876 23
-1.448 -0.206 2.871 24
-1.468 -0.224 2.854 25
-1.488 -0.242 2.837 27
-1.515 -0.262 2.817 27
-1.385 -0.254 2.816 32
-1.345 -0.26 2.804 27
-1.321 -0.269 2.79 29
-1.288 -0.275 2.777 12
-1.156 -0.259 2.782 16
-1.089 -0.255 2.779 12
-5.451 -1.585 2.721 3
-5.757 -1.572 2.694 3
-6.111 -1.563 2.668 2
-6.562 -1.568 2.638 9
-7.034 -1.565 2.61 23
-7.577 -1.564 2.581 9
-8.187 -1.567 2.551 4
-8.921 -1.577 2.518 8
-9.813 -1.601 2.48 8
-7.047 -1.06 2.635 102
-7.103 -0.987 2.641 30
-7.247 -0.933 2.642 10
-9.532 -1.147 2.537 1
-9.413 -1.07 2.546 11
-9.349 -1.022 2.545 18
-8.699 -0.932 2.566 24
-8.619 -0.926 2.548 9
-7.896 -0.867 2.558 0
-7.403 -0.844 2.551 0
-1.542 -0.186 2.897 2
-1.532 -0.195 2.888 22
-1.533 -0.208 2.875 24
-1.439 -0.208 2.87 24
-1.463 -0.226 2.853 24
-1.479 -0.243 2.836 26
-1.577 -0.275 2.808 21
-1.388 -0.257 2.814 35
-1.345 -0.262 2.803 27
-1.324 -0.272 2.788 28
-1.261 -0.271 2.781 12
-1.174 -0.265 2.778 17
-1.088 -0.256 2.778 11
-5.396 -1.576 2.722 3
-5.724 -1.571 2.695 3
-6.135 -1.578 2.665 4
-6.528 -1.569 2.638 4
-5.768 -1.293 2.678 0
-5.736 -1.195 2.68 0
-8.137 -1.572 2.549 14
-8.878 -1.587 2.515 7
-9.762 -1.613 2.476 9
-7.037 -1.074 2.63 50
-7.072 -0.999 2.636 38
-7.209 -0.946 2.637 13
-9.481 -1.166 2.529 9
-9.401 -1.095 2.535 12
-9.318 -1.046 2.534 29
-8.676 -0.954 2.555 16
-8.584 -0.946 2.538 2
-7.711 -0.867 2.558 0
-7.245 -0.845 2.551 0
-1.525 -0.187 2.896 6
-1.523 -0.197 2.886 23
-1.536 -0.212 2.873 36
-1.439 -0.211 2.868 23
-1.463 -0.228 2.852 26
-1.475 -0.244 2.835 26
-1.611 -0.283 2.802 22
-1.384 -0.257 2.813 34
-1.379 -0.27 2.796 24
-1.312 -0.271 2.789 17
-1.229 -0.266 2.785 15
-1.189 -0.269 2.774 16
-1.092 -0.257 2.776 11
-5.39 -1.582 2.721 2
-5.691 -1.57 2.695 2
-6.087 -1.575 2.665 4
-6.495 -1.572 2.637 15
-6.942 -1.568 2.609 7
-7.473 -1.57 2.579 16
-8.06 -1.573 2.549 4
-8.796 -1.591 2.514 15
-9.679 -1.621 2.473 14
-7.026 -1.089 2.625 34
-7.062 -1.015 2.63 15
-7.167 -0.959 2.632 8
-9.438 -1.187 2.521 10
-9.374 -1.118 2.525 13
-9.227 -1.062 2.527 41
-8.669 -0.979 2.544 38
-8.064 -0.911 2.555 0
-7.541 -0.868 2.557 0
-7.092 -0.845 2.55 0
-1.525 -0.19 2.895 9
-1.53 -0.202 2.883 26
-1.532 -0.214 2.871 40
-1.434 -0.213 2.867 21
-1.454 -0.229 2.851 24
-1.47 -0.246 2.834 25
-1.63 -0.29 2.797 22
-1.383 -0.259 2.812 23
-1.402 -0.277 2.792 22
-1.4 -0.291 2.773 12
-1.217 -0.265 2.786 17
-1.219 -0.277 2.768 17
-1.088 -0.258 2.776 11
-5.338 -1.574 2.722 3
-5.662 -1.57 2.695 3
-6.049 -1.574 2.665 23
-6.484 -1.58 2.635 11
-6.912 -1.573 2.608 12
-7.408 -1.57 2.579 4
-8.025 -1.582 2.546 12
-8.718 -1.594 2.513 5
-9.545 -1.62 2.474 5
-7.023 -1.105 2.62 22
-7.047 -1.031 2.625 20
-7.243 -0.989 2.62 8
-9.41 -1.209 2.512 11
-9.35 -1.142 2.515 18
-8.696 -1.025 2.543 19
-8.61 -0.997 2.535 6
-7.847 -0.909 2.557 0
-7.376 -0.87 2.557 0
-6.954 -0.847 2.55 0
-1.524 -0.194 2.893 12
-1.526 -0.205 2.882 40
-1.535 -0.218 2.869 41
-1.363 -0.205 2.872 21
-1.387 -0.222 2.856 24
-1.47 -0.248 2.832 21
-1.626 -0.291 2.796 17
-1.379 -0.26 2.811 21
-1.397 -0.277 2.791 23
-1.45 -0.302 2.764 20
-1.217 -0.266 2.784 16
-1.188 -0.271 2.772 21
-1.091 -0.26 2.774 12
-5.313 -1.575 2.722 4
-5.656 -1.579 2.693 4
-6.035 -1.58 2.664 7
-6.423 -1.576 2.636 4
-6.851 -1.571 2.608 4
-7.366 -1.575 2.578 20
-7.951 -1.583 2.546 5
-8.687 -1.607 2.509 13
-5.593 -0.961 2.688 0
-7.013 -1.12 2.614 35
-7.036 -1.047 2.619 20
-7.185 -1.0 2.616 7
-9.398 -1.233 2.502 11
-9.322 -1.165 2.506 41
-8.68 -1.049 2.533 13
-8.507 -1.01 2.529 1
-7.709 -0.915 2.554 0
-7.238 -0.873 2.555 0
-6.821 -0.848 2.549 0
-1.519 -0.197 2.891 19
-1.525 -0.208 2.88 41
-1.527 -0.22 2.868 38
-1.37 -0.209 2.87 20
-1.383 -0.223 2.855 24
-1.356 -0.232 2.844 26
-1.602 -0.289 2.798 13
-1.382 -0.263 2.809 22
-1.401 -0.28 2.789 20
-1.403 -0.295 2.77 15
-1.201 -0.264 2.786 17
-1.188 -0.273 2.771 20
-1.106 -0.265 2.77 11
-5.291 -1.576 2.722 3
-5.619 -1.577 2.694 12
-5.99 -1.579 2.664 4
-6.382 -1.577 2.636 16
-6.821 -1.577 2.607 18
-7.324 -1.58 2.577 4
-7.917 -1.592 2.543 13
-8.597 -1.609 2.508 7
-5.54 -0.965 2.687 0
-7.018 -1.137 2.608 20
-7.022 -1.063 2.613 44
-9.44 -1.339 2.486 9
-9.371 -1.256 2.493 11
-9.263 -1.184 2.498 6
-8.669 -1.073 2.522 25
-8.032 -0.976 2.545 0
-7.527 -0.916 2.553 0
-7.072 -0.872 2.555 0
-6.675 -0.848 2.549 0
-1.519 -0.201 2.889 24
-1.529 -0.212 2.878 41
-1.514 -0.221 2.867 37
-1.369 -0.212 2.868 21
-1.382 -0.225 2.854 23
-1.367 -0.235 2.841 26
-1.39 -0.253 2.823 19
-1.386 -0.266 2.807 20
-1.4 -0.282 2.788 16
-1.383 -0.292 2.772 11
-1.193 -0.264 2.787 18
-1.21 -0.279 2.766 13
-1.124 -0.27 2.765 12
-5.266 -1.577 2.722 3
-5.605 -1.582 2.693 22
-5.957 -1.58 2.664 11
-6.368 -1.584 2.634 10
-6.795 -1.583 2.605 7
-7.27 -1.583 2.576 9
-7.839 -1.593 2.543 5
-5.525 -1.046 2.68 0
-5.557 -0.981 2.681 5
-7.026 -1.156 2.602 18
-7.038 -1.083 2.606 47
-5.558 -0.802 2.692 0
-9.351 -1.279 2.483 15
-8.685 -1.135 2.518 14
-8.61 -1.091 2.514 6
-7.866 -0.979 2.544 0
-7.378 -0.918 2.552 0
-6.943 -0.876 2.554 0
-6.554 -0.85 2.548 0
-1.514 -0.204 2.887 24
-1.532 -0.216 2.875 41
-1.521 -0.225 2.865 35
-1.341 -0.21 2.869 18
-1.366 -0.226 2.853 19
-1.378 -0.24 2.838 25
-1.347 -0.248 2.827 19
-1.373 -0.265 2.807 13
-1.4 -0.284 2.786 12
-1.332 -0.283 2.779 10
-1.188 -0.264 2.786 13
-1.271 -0.295 2.752 12
-1.166 -0.281 2.756 13
-5.271 -1.587 2.72 7
-5.591 -1.587 2.692 6
-5.939 -1.585 2.663 13
-6.31 -1.582 2.635 4
-6.737 -1.583 2.605 4
-7.243 -1.591 2.574 10
-7.812 -1.604 2.54 15
-5.542 -1.062 2.675 3
-5.519 -0.987 2.679 36
-5.55 -0.926 2.681 1
-7.031 -1.1 2.6 124
-5.54 -0.815 2.687 3
-9.327 -1.302 2.474 16
-8.681 -1.16 2.508 11
-8.416 -1.09 2.515 1
-7.681 -0.978 2.544 0
-7.22 -0.919 2.552 0
-6.797 -0.877 2.553 0
-1.515 -0.2 2.894 0
-1.513 -0.208 2.885 26
-1.519 -0.218 2.874 41
-1.536 -0.231 2.861 36
-1.329 -0.211 2.868 15
-1.326 -0.221 2.856 16
-1.334 -0.234 2.842 21
-1.299 -0.24 2.832 11
-1.369 -0.267 2.806 12
-1.399 -0.286 2.785 10
-1.197 -0.256 2.8 10
-1.169 -0.261 2.788 9
-1.305 -0.304 2.745 12
-1.158 -0.281 2.756 13
-5.231 -1.582 2.721 6
-5.546 -1.583 2.692 4
-5.894 -1.584 2.663 4
-6.277 -1.585 2.634 14
-6.715 -1.59 2.604 19
-7.177 -1.591 2.574 6
-7.734 -1.604 2.54 4
-5.489 -1.063 2.675 29
-5.474 -0.991 2.678 14
-5.559 -0.941 2.676 8
-7.04 -1.119 2.593 163
-5.537 -0.83 2.682 28
-9.303 -1.325 2.465 27
-8.665 -1.182 2.498 15
-8.044 -1.066 2.525 0
-7.515 -0.979 2.544 0
-7.11 -0.925 2.549 0
-6.668 -0.878 2.553 0
-1.51 -0.204 2.891 0
-1.509 -0.211 2.883 33
-1.523 -0.222 2.872 41
-1.524 -0.233 2.86 33
-1.324 -0.212 2.867 17
-1.314 -0.222 2.856 15
-1.314 -0.234 2.842 20
-1.267 -0.237 2.834 10
-1.337 -0.263 2.809 8
-1.379 -0.284 2.786 5
-1.188 -0.256 2.8 13
-1.172 -0.263 2.787 16
-1.32 -0.309 2.741 12
-1.153 -0.281 2.756 12
-5.209 -1.584 2.721 6
-5.517 -1.585 2.692 10
-5.852 -1.583 2.664 6
-6.262 -1.593 2.632 12
-6.673 -1.593 2.603 5
-7.139 -1.596 2.572 22
-7.695 -1.612 2.538 18
-5.466 -1.071 2.672 17
-5.452 -1.0 2.675 13
-5.514 -0.948 2.674 9
-7.052 -1.14 2.585 56
-5.535 -0.844 2.676 1
-8.694 -1.262 2.49 7
-8.61 -1.199 2.491 4
-7.846 -1.062 2.527 0
-7.341 -0.978 2.544 0
-6.925 -0.922 2.551 0
-6.55 -0.881 2.551 0
-1.522 -0.209 2.889 1
-1.508 -0.215 2.881 43
-1.526 -0.226 2.87 40
-1.519 -0.235 2.859 29
-1.265 -0.206 2.871 12
-1.239 -0.212 2.862 12
-1.282 -0.23 2.845 16
-1.24 -0.234 2.836 10
-1.201 -0.238 2.827 2
-1.258 -0.261 2.803 0
-1.196 -0.259 2.798 12
-1.168 -0.264 2.786 23
-1.369 -0.323 2.729 11
-1.214 -0.297 2.742 14
-5.172 -1.582 2.721 12
-5.484 -1.584 2.692 18
-5.83 -1.587 2.663 22
-6.205 -1.59 2.633 4
-6.619 -1.593 2.603 6
-7.093 -1.601 2.571 3
-7.633 -1.616 2.537 3
-5.448 -1.08 2.67 17
-5.429 -1.009 2.672 22
-5.452 -0.951 2.672 15
-5.56 -0.913 2.668 0
-5.528 -0.858 2.671 0
-8.631 -1.277 2.484 7
-9.432 -1.341 2.431 1
-7.673 -1.061 2.527 0
-7.207 -0.981 2.543 0
-6.791 -0.923 2.55 0
-6.227 -0.855 2.564 0
-1.517 -0.213 2.887 2
-1.511 -0.219 2.879 44
-1.525 -0.229 2.868 39
-1.527 -0.24 2.856 27
-1.249 -0.206 2.871 9
-1.23 -0.213 2.862 11
-1.207 -0.219 2.852 13
-1.204 -0.23 2.839 9
-1.188 -0.237 2.828 4
-1.18 -0.247 2.814 4
-1.207 -0.264 2.794 11
-1.171 -0.266 2.784 20
-1.502 -0.356 2.702 5
-1.289 -0.317 2.724 16
-5.158 -1.587 2.72 21
-5.466 -1.588 2.691 6
-5.82 -1.595 2.661 6
-6.171 -1.592 2.632 12
-6.589 -1.599 2.601 23
-7.039 -1.604 2.57 12
-7.587 -1.622 2.535 14
-5.422 -1.088 2.668 17
-5.411 -1.019 2.669 19
-5.442 -0.963 2.668 18
-5.545 -0.925 2.663 13
-9.296 -1.469 2.436 27
-8.406 -1.267 2.488 2
-8.021 -1.164 2.506 0
-7.495 -1.058 2.529 0
-7.05 -0.98 2.543 0
-6.669 -0.926 2.549 0
-6.176 -0.865 2.559 1
-1.516 -0.217 2.885 3
-1.511 -0.223 2.877 46
-1.52 -0.232 2.866 37
-1.526 -0.243 2.854 26
-1.248 -0.209 2.87 7
-1.23 -0.215 2.86 11
-1.207 -0.221 2.851 13
-1.184 -0.228 2.841 15
-1.192 -0.24 2.826 7
-1.176 -0.248 2.813 10
-1.191 -0.261 2.796 12
-1.17 -0.268 2.783 11
-1.406 -0.335 2.719 5
-1.327 -0.328 2.715 6
-5.148 -1.592 2.719 7
-5.428 -1.587 2.692 5
-5.771 -1.592 2.662 4
-6.149 -1.599 2.631 15
-6.547 -1.601 2.601 4
-7.028 -1.616 2.567 10
-7.544 -1.63 2.533 4
-5.404 -1.096 2.665 29
-5.401 -1.03 2.665 17
-5.463 -0.98 2.663 17
-5.594 -0.948 2.655 6
-8.684 -1.396 2.464 11
-8.019 -1.232 2.502 4
-7.835 -1.159 2.508 0
-7.337 -1.057 2.529 0
-6.92 -0.982 2.542 0
-6.527 -0.924 2.549 0
-5.916 -0.845 2.569 8
-1.504 -0.219 2.883 5
-1.506 -0.226 2.875 44
-1.524 -0.237 2.863 36
-1.533 -0.248 2.851 20
-1.255 -0.212 2.867 7
-1.241 -0.219 2.858 10
-1.21 -0.224 2.849 12
-1.191 -0.231 2.838 15
-1.199 -0.243 2.823 8
-1.179 -0.25 2.812 3
-1.19 -0.263 2.794 12
-1.212 -0.279 2.774 10
-1.306 -0.313 2.738 12
-1.318 -0.327 2.715 13
-5.104 -1.587 2.72 7
-5.399 -1.588 2.691 11
-5.733 -1.592 2.662 10
-6.103 -1.599 2.631 4
-6.505 -1.605 2.6 7
-6.958 -1.615 2.567 4
-7.474 -1.631 2.532 14
-5.405 -1.109 2.661 23
-5.386 -1.041 2.662 18
-5.511 -1.003 2.655 14
-5.567 -0.959 2.651 9
-8.68 -1.419 2.455 14
-7.829 -1.225 2.505 5
-7.658 -1.155 2.51 0
-7.195 -1.058 2.529 0
-6.786 -0.982 2.542 0
-6.299 -0.911 2.556 0
-5.902 -0.86 2.562 19
-1.511 -0.224 2.881 6
-1.505 -0.23 2.873 44
-1.523 -0.241 2.861 34
-1.54 -0.253 2.848 17
-1.259 -0.215 2.866 6
-1.248 -0.224 2.855 11
-1.213 -0.227 2.847 12
-1.194 -0.234 2.836 15
-1.191 -0.243 2.823 9
-1.171 -0.25 2.812 0
-1.205 -0.268 2.79 9
-1.211 -0.281 2.773 13
-1.29 -0.31 2.74 10
-1.322 -0.33 2.713 14
-5.086 -1.59 2.72 8
-5.381 -1.593 2.69 19
-5.715 -1.598 2.66 18
-6.062 -1.6 2.631 8
-6.478 -1.611 2.598 24
-6.919 -1.62 2.566 20
-7.232 -1.595 2.543 6
-5.394 -1.119 2.658 20
-5.372 -1.051 2.659 33
-5.512 -1.018 2.65 16
-5.529 -0.966 2.648 9
-8.648 -1.438 2.448 11
-7.648 -1.219 2.508 6
-7.488 -1.151 2.511 0
-7.042 -1.056 2.53 0
-6.605 -0.976 2.545 0
-6.154 -0.907 2.558 1
-5.907 -0.877 2.553 23
-1.498 -0.227 2.879 7
-1.508 -0.234 2.87 41
-1.522 -0.244 2.859 30
-1.539 -0.256 2.846 14
-1.262 -0.219 2.863 6
-1.239 -0.224 2.854 8
-1.221 -0.231 2.844 13
-1.198 -0.237 2.834 16
-1.186 -0.245 2.822 11
-1.174 -0.253 2.81 5
-1.17 -0.262 2.795 16
-1.207 -0.281 2.772 15
-1.282 -0.31 2.74 10
-1.332 -0.334 2.71 16
-5.053 -1.589 2.72 19
-5.366 -1.598 2.689 6
-5.677 -1.598 2.66 5
-6.039 -1.607 2.629 21
-6.432 -1.614 2.598 4
-6.877 -1.626 2.564 4
-7.349 -1.638 2.53 7
-5.392 -1.131 2.654 19
-5.365 -1.063 2.655 60
-5.458 -1.021 2.648 26
-5.546 -0.985 2.642 2
-8.521 -1.441 2.447 5
-7.475 -1.212 2.51 6
-7.335 -1.149 2.512 0
-6.904 -1.056 2.53 0
-6.53 -0.984 2.541 0
-5.91 -0.889 2.567 9
-5.9 -0.893 2.545 96
-1.497 -0.23 2.878 10
-1.5 -0.237 2.869 39
-1.521 -0.248 2.857 29
-1.538 -0.26 2.844 10
-1.269 -0.223 2.861 5
-1.243 -0.228 2.852 8
-1.224 -0.233 2.843 12
-1.197 -0.239 2.833 15
-1.185 -0.247 2.821 16
-1.174 -0.255 2.808 2
-1.173 -0.265 2.793 23
-1.21 -0.284 2.77 16
-1.281 -0.312 2.738 17
-1.294 -0.326 2.716 14
-5.05 -1.597 2.718 15
-5.325 -1.596 2.69 5
-5.644 -1.6 2.66 4
-5.997 -1.607 2.629 4
-6.39 -1.617 2.597 8
-6.827 -1.629 2.564 10
-7.357 -1.657 2.525 12
-5.385 -1.144 2.65 18
-5.362 -1.076 2.65 74
-5.424 -1.029 2.646 34
-5.586 -1.007 2.633 2
-8.194 -1.408 2.459 1
-7.329 -1.21 2.511 4
-7.177 -1.145 2.514 0
-6.766 -1.054 2.531 0
-6.326 -0.972 2.547 0
-5.907 -0.905 2.559 13
-5.889 -0.908 2.538 7
-1.501 -0.235 2.875 12
-1.503 -0.241 2.866 36
-1.517 -0.251 2.855 24
-1.538 -0.263 2.842 7
-1.268 -0.226 2.859 3
-1.246 -0.231 2.85 8
-1.227 -0.237 2.84 13
-1.204 -0.242 2.83 15
-1.185 -0.249 2.819 18
-1.165 -0.254 2.808 2
-1.184 -0.269 2.79 16
-1.229 -0.29 2.765 18
-1.28 -0.313 2.737 18
-1.293 -0.328 2.715 15
-5.024 -1.598 2.718 7
-5.3 -1.598 2.689 7
-5.614 -1.603 2.659 14
-5.952 -1.608 2.629 7
-6.368 -1.624 2.595 23
-6.808 -1.639 2.561 16
-7.283 -1.657 2.525 4
-5.386 -1.156 2.646 16
-5.351 -1.087 2.647 165
-5.421 -1.043 2.641 27
-5.556 -1.017 2.63 3
-8.009 -1.398 2.463 1
-7.211 -1.211 2.511 1
-7.031 -1.143 2.515 0
-6.644 -1.055 2.53 0
-6.153 -0.963 2.551 1
-5.904 -0.922 2.55 17
-5.866 -0.921 2.531 5
-1.496 -0.239 2.873 12
-1.502 -0.245 2.864 36
-1.524 -0.255 2.853 17
-1.549 -0.269 2.838 6
-1.26 -0.227 2.858 1
-1.253 -0.235 2.847 8
-1.223 -0.238 2.839 12
-1.207 -0.245 2.828 17
-1.188 -0.251 2.818 19
-1.172 -0.258 2.806 9
-1.229 -0.281 2.78 9
-1.216 -0.289 2.766 16
-1.272 -0.313 2.737 20
-1.289 -0.328 2.715 16
-4.991 -1.596 2.719 8
-5.278 -1.601 2.689 25
-5.603 -1.611 2.658 11
-5.933 -1.615 2.627 30
-6.325 -1.628 2.594 4
-6.75 -1.641 2.56 4
-7.252 -1.667 2.522 14
-5.383 -1.169 2.643 18
-5.356 -1.101 2.642 167
-5.418 -1.056 2.636 14
-8.523 -1.582 2.424 3
-7.828 -1.389 2.467 1
-7.105 -1.213 2.51 0
-6.894 -1.14 2.516 0
-6.519 -1.054 2.531 0
-5.909 -0.943 2.56 11
-5.9 -0.938 2.543 52
-5.721 -0.914 2.534 1
-1.499 -0.243 2.871 12
-1.505 -0.249 2.862 32
-1.519 -0.258 2.851 15
-1.552 -0.273 2.836 2
0.0 -0.0 3.0 0
-1.252 -0.237 2.846 6
-1.226 -0.242 2.837 9
-1.215 -0.249 2.826 16
-1.187 -0.253 2.816 21
-1.175 -0.261 2.803 4
-1.252 -0.288 2.775 10
-1.22 -0.292 2.764 18
-1.271 -0.315 2.736 32
-1.265 -0.324 2.718 20
-4.973 -1.6 2.718 7
-5.275 -1.611 2.687 9
-5.554 -1.608 2.658 4
-5.906 -1.62 2.626 6
-6.279 -1.629 2.594 8
-6.711 -1.647 2.559 13
-7.193 -1.671 2.521 3
-5.392 -1.184 2.638 17
-5.353 -1.115 2.638 87
-5.411 -1.07 2.632 16
-8.205 -1.546 2.437 1
-7.655 -1.38 2.47 1
-7.053 -1.225 2.505 0
-6.756 -1.137 2.517 0
-6.33 -1.043 2.536 0
-5.91 -0.96 2.552 13
-5.881 -0.952 2.536 4
-5.572 -0.907 2.538 0
-1.49 -0.246 2.869 11
-1.497 -0.252 2.86 25
-1.526 -0.264 2.848 13
-1.59 -0.284 2.83 0
0.0 -0.0 3.0 0
-1.256 -0.24 2.844 4
-1.229 -0.245 2.835 9
-1.222 -0.253 2.823 16
-1.191 -0.256 2.814 18
-7.746 -1.731 1.695 0
-1.255 -0.291 2.773 10
-1.219 -0.293 2.762 19
-1.267 -0.316 2.735 33
-1.264 -0.326 2.717 25
-4.94 -1.599 2.718 20
-5.214 -1.603 2.688 5
-5.535 -1.614 2.657 5
-5.861 -1.62 2.626 5
-6.256 -1.637 2.592 21
-6.692 -1.658 2.556 9
-7.142 -1.676 2.52 15
-5.42 -1.204 2.632 15
-5.358 -1.129 2.633 53
-5.412 -1.084 2.627 13
-8.004 -1.531 2.443 1
-7.47 -1.368 2.475 1
-6.955 -1.228 2.504 1
-6.63 -1.136 2.518 0
-6.157 -1.033 2.54 0
-5.91 -0.977 2.544 18
-5.854 -0.964 2.53 3
-5.431 -0.899 2.542 0
-1.489 -0.249 2.867 9
-1.5 -0.256 2.858 24
-1.521 -0.267 2.846 9
-4.618 -0.835 2.498 0
-4.402 -0.823 2.486 0
-1.263 -0.244 2.841 2
-1.232 -0.248 2.833 8
-1.267 -0.265 2.815 21
-1.186 -0.257 2.813 13
0.0 -0.0 3.0 0
-1.266 -0.296 2.769 11
-1.195 -0.289 2.766 17
-1.262 -0.316 2.735 32
-1.26 -0.326 2.717 27
-4.937 -1.608 2.716 14
-5.192 -1.607 2.688 6
-5.494 -1.613 2.657 17
-5.834 -1.625 2.625 13
-6.214 -1.64 2.591 4
-3.95 -0.987 2.735 3
-7.123 -1.688 2.516 5
-5.44 -1.222 2.626 13
-5.355 -1.143 2.629 43
-5.413 -1.099 2.622 25
-7.823 -1.517 2.448 1
-7.32 -1.361 2.477 1
-6.837 -1.227 2.504 2
-6.493 -1.131 2.52 0
-5.906 -1.008 2.551 12
-5.903 -0.993 2.537 32
-5.745 -0.963 2.53 1
-5.326 -0.896 2.543 0
-1.492 -0.255 2.865 7
-1.503 -0.261 2.855 22
-1.524 -0.271 2.843 7
-4.537 -0.831 2.5 0
0.0 -0.0 3.0 0
0.0 -0.0 3.0 0
-1.235 -0.251 2.831 5
-1.274 -0.269 2.811 20
-1.189 -0.26 2.811 12
0.0 -0.0 3.0 0
-1.261 -0.297 2.768 13
-1.157 -0.282 2.772 18
-1.258 -0.317 2.734 34
-1.259 -0.328 2.715 28
-4.904 -1.607 2.717 6
-5.166 -1.609 2.687 16
-5.487 -1.623 2.655 9
-5.819 -1.633 2.623 15
-3.958 -1.053 2.737 0
-3.92 -0.989 2.735 1
-5.55 -1.329 2.619 0
-5.448 -1.237 2.622 9
-5.363 -1.158 2.624 22
-5.409 -1.113 2.617 40
-3.927 -0.773 2.719 1
-7.171 -1.354 2.48 1
-6.735 -1.228 2.504 3
-6.351 -1.125 2.522 0
-5.899 -1.024 2.544 9
-5.872 -1.006 2.531 4
-5.521 -0.942 2.541 0
-5.248 -0.899 2.542 0
-1.484 -0.257 2.863 6
-1.498 -0.264 2.854 13
-1.531 -0.276 2.841 5
-4.468 -0.83 2.501 0
0.0 -0.0 3.0 0
0.0 -0.0 3.0 0
-1.239 -0.255 2.828 3
-1.258 -0.268 2.812 15
-1.189 -0.262 2.81 10
0.0 -0.0 3.0 0
-1.264 -0.299 2.766 13
-1.144 -0.281 2.773 17
-1.249 -0.317 2.734 32
-1.259 -0.329 2.714 28
-4.874 -1.606 2.717 8
-5.159 -1.617 2.686 13
-5.441 -1.621 2.655 4
-5.777 -1.635 2.623 4
-3.851 -1.033 2.742 3
-3.883 -0.989 2.735 10
-5.547 -1.342 2.615 6
-5.453 -1.252 2.617 8
-5.384 -1.177 2.617 17
-3.934 -0.82 2.718 0
-3.913 -0.781 2.716 0
-7.022 -1.346 2.483 1
-6.625 -1.228 2.504 1
-6.155 -1.108 2.53 0
-5.911 -1.043 2.536 15
-5.861 -1.021 2.524 3
-5.428 -0.941 2.541 0
-5.174 -0.901 2.541 0
-1.491 -0.262 2.861 2
-1.505 -0.27 2.851 9
-1.534 -0.281 2.838 1
0.0 -0.0 3.0 0
0.0 -0.0 3.0 0
0.0 -0.0 3.0 0
-1.246 -0.258 2.826 1
-1.265 -0.272 2.81 10
-1.192 -0.265 2.807 8
-5.288 -1.219 2.081 0
-1.267 -0.303 2.764 15
-1.151 -0.284 2.77 13
-1.245 -0.317 2.734 32
-1.258 -0.331 2.712 30
-4.86 -1.611 2.716 8
-5.129 -1.618 2.685 6
-5.419 -1.626 2.654 5
-5.735 -1.635 2.623 6
-3.884 -1.051 2.738 5
-3.881 -0.998 2.733 8
-4.001 -0.978 2.72 2
-5.465 -1.27 2.612 6
-5.396 -1.194 2.612 16
-3.912 -0.826 2.715 6
-3.918 -0.793 2.711 2
-6.884 -1.339 2.486 1
-6.531 -1.229 2.503 0
-5.904 -1.081 2.541 10
-5.899 -1.059 2.529 19
-5.7 -1.01 2.529 1
-5.33 -0.94 2.541 0
-5.089 -0.9 2.541 0
-1.486 -0.265 2.859 0
-1.496 -0.272 2.849 8
0.0 -0.0 3.0 0
0.0 -0.0 3.0 0
0.0 -0.0 3.0 0
0.0 -0.0 3.0 0
0.0 -0.0 3.0 0
-1.322 -0.287 2.799 11
-1.195 -0.268 2.805 6
-5.262 -1.223 2.079 1
-1.266 -0.305 2.762 14
-1.151 -0.286 2.769 9
-1.233 -0.316 2.735 30
-1.253 -0.332 2.712 31
-4.83 -1.611 2.716 18
-5.088 -1.617 2.686 5
-5.381 -1.626 2.654 18
-5.705 -1.64 2.621 22
-3.862 -1.055 2.737 13
-3.851 -1.0 2.732 19
-3.917 -0.967 2.723 1
-3.892 -0.914 2.721 1
-3.936 -0.882 2.714 2
-3.917 -0.838 2.711 6
-3.912 -0.803 2.708 2
-6.755 -1.334 2.488 1
-6.374 -1.218 2.508 0
-5.909 -1.099 2.534 8
-5.872 -1.071 2.523 3
-5.52 -0.994 2.536 0
-5.241 -0.939 2.542 0
-5.019 -0.903 2.54 0
0.0 -0.0 3.0 0
-1.515 -0.279 2.845 7
0.0 -0.0 3.0 0
0.0 -0.0 3.0 0
0.0 -0.0 3.0 0
0.0 -0.0 3.0 0
-7.422 -1.571 1.94 0
-1.364 -0.299 2.791 11
-1.198 -0.271 2.803 6
-5.243 -1.228 2.075 2
-1.273 -0.308 2.759 13
-1.161 -0.29 2.765 8
-1.221 -0.315 2.736 29
-1.256 -0.334 2.709 34
-4.827 -1.62 2.714 13
-5.074 -1.622 2.685 8
-5.381 -1.638 2.652 9
-5.69 -1.648 2.619 7
-3.836 -1.057 2.737 17
-3.837 -1.005 2.731 16
-3.953 -0.986 2.717 3
-3.886 -0.923 2.718 2
-3.926 -0.89 2.711 9
-3.903 -0.846 2.709 15
-3.902 -0.811 2.705 0
-6.59 -1.32 2.493 1
-6.108 -1.185 2.521 0
-5.905 -1.116 2.526 15
-5.841 -1.083 2.518 2
-5.415 -0.992 2.538 0
-5.163 -0.941 2.541 0
-4.937 -0.901 2.541 0
0.0 -0.0 3.0 0
-1.502 -0.281 2.844 0
0.0 -0.0 3.0 0
0.0 -0.0 3.0 0
0.0 -0.0 3.0 0
0.0 -0.0 3.0 0
-7.382 -1.579 1.935 0
-1.506 -0.333 2.767 7
-1.205 -0.275 2.8 3
-5.228 -1.234 2.07 2
-1.269 -0.31 2.758 12
-1.18 -0.297 2.759 7
-1.216 -0.316 2.735 26
-1.252 -0.335 2.709 37
-4.798 -1.621 2.714 7
-5.047 -1.625 2.684 20
-5.332 -1.634 2.653 4
-5.644 -1.648 2.62 5
-3.819 -1.061 2.735 17
-3.812 -1.008 2.73 22
-3.908 -0.985 2.718 7
-3.872 -0.93 2.716 7
-3.92 -0.898 2.708 16
-3.9 -0.856 2.705 14
-6.885 -1.452 2.472 1
-6.312 -1.283 2.508 1
-5.908 -1.164 2.53 7
-5.897 -1.132 2.519 11
-5.614 -1.057 2.529 0
-5.329 -0.992 2.538 0
0.0 -0.0 3.0 0
0.0 -0.0 3.0 0
-4.712 -0.881 2.532 0
0.0 -0.0 3.0 0
0.0 -0.0 3.0 0
0.0 -0.0 3.0 0
0.0 -0.0 3.0 0
0.0 -0.0 3.0 0
0.0 -0.0 3.0 0
-1.544 -0.344 2.759 8
-6.84 -1.576 1.855 2
-3.442 -0.819 2.383 0
-1.279 -0.314 2.755 10
-1.274 -0.323 2.739 10
-1.2 -0.314 2.737 20
-1.243 -0.335 2.709 34
-4.768 -1.62 2.714 8
-5.037 -1.632 2.683 8
-5.306 -1.639 2.652 5
-5.61 -1.65 2.619 10
-3.805 -1.067 2.734 16
-3.802 -1.014 2.728 18
-3.94 -1.003 2.713 11
-3.862 -0.937 2.714 10
-3.913 -0.908 2.705 21
-3.894 -0.865 2.702 9
-6.748 -1.442 2.475 1
-6.14 -1.266 2.514 0
-5.912 -1.182 2.522 6
-5.862 -1.143 2.515 2
-5.493 -1.051 2.532 0
-5.216 -0.986 2.54 0
-5.004 -0.941 2.541 0
-4.806 -0.905 2.539 0
-53.494 -10.153 -2.399 2
0.0 -0.0 3.0 0
0.0 -0.0 3.0 0
0.0 -0.0 3.0 0
0.0 -0.0 3.0 0
0.0 -0.0 3.0 0
0.0 -0.0 3.0 0
-1.543 -0.347 2.757 7
-6.832 -1.587 1.847 2
-5.126 -1.229 2.074 1
-1.275 -0.315 2.754 9
-1.304 -0.333 2.731 11
-1.165 -0.306 2.743 18
-1.231 -0.334 2.71 31
-4.754 -1.625 2.713 8
-5.003 -1.632 2.683 6
-5.283 -1.643 2.651 14
-5.564 -1.65 2.619 21
-3.779 -1.068 2.734 17
-3.784 -1.019 2.727 21
-3.911 -1.005 2.712 13
-3.851 -0.945 2.711 14
-3.907 -0.917 2.702 25
-3.891 -0.875 2.699 3
-6.622 -1.434 2.478 1
-5.964 -1.247 2.521 1
-5.904 -1.198 2.516 17
-5.811 -1.15 2.512 1
-5.38 -1.046 2.534 0
-5.161 -0.991 2.538 0
-4.957 -0.947 2.538 0
-4.767 -0.912 2.535 0
-53.158 -10.239 -2.444 2
0.0 -0.0 3.0 0
0.0 -0.0 3.0 0
0.0 -0.0 3.0 0
0.0 -0.0 3.0 0
0.0 -0.0 3.0 0
0.0 -0.0 3.0 0
-1.534 -0.349 2.756 4
-6.835 -1.601 1.837 3
-3.277 -0.792 2.403 0
-1.27 -0.316 2.753 8
-1.337 -0.343 2.722 11
-1.123 -0.297 2.751 11
-1.227 -0.334 2.71 29
-4.728 -1.627 2.713 14
-4.981 -1.637 2.682 6
-5.268 -1.65 2.649 10
-3.878 -1.159 2.732 0
-3.773 -1.075 2.732 16
-3.773 -1.026 2.725 20
-3.85 -1.0 2.713 17
-3.853 -0.956 2.708 14
-3.9 -0.927 2.699 21
-6.899 -1.572 2.459 0
-6.493 -1.424 2.482 1
-5.906 -1.252 2.519 13
-5.889 -1.213 2.51 8
-5.588 -1.123 2.523 0
-5.306 -1.047 2.534 0
-5.068 -0.988 2.539 0
-4.884 -0.948 2.538 0
-4.663 -0.905 2.539 0
0.0 -0.0 3.0 0
0.0 -0.0 3.0 0
0.0 -0.0 3.0 0
0.0 -0.0 3.0 0
0.0 -0.0 3.0 0
0.0 -0.0 3.0 0
0.0 -0.0 3.0 0
-1.533 -0.351 2.754 1
0.0 -0.0 3.0 0
-3.191 -0.778 2.414 0
-1.281 -0.321 2.749 6
-1.382 -0.357 2.711 11
-1.111 -0.295 2.752 11
-1.215 -0.332 2.711 28
-4.713 -1.632 2.712 17
-4.954 -1.639 2.682 12
-5.234 -1.652 2.649 5
-3.86 -1.163 2.731 3
-3.755 -1.079 2.731 32
-3.767 -1.033 2.723 24
-3.832 -1.004 2.712 19
-3.846 -0.964 2.705 16
-3.909 -0.939 2.695 12
-6.75 -1.557 2.464 1
-6.368 -1.415 2.485 1
-5.804 -1.247 2.521 1
-5.861 -1.224 2.506 2
-5.487 -1.118 2.525 0
-5.216 -1.045 2.535 0
-4.994 -0.989 2.539 0
-4.822 -0.95 2.537 0
-4.624 -0.911 2.536 0
0.0 -0.0 3.0 0
0.0 -0.0 3.0 0
0.0 -0.0 3.0 0
0.0 -0.0 3.0 0
0.0 -0.0 3.0 0
0.0 -0.0 3.0 0
0.0 -0.0 3.0 0
-6.79 -1.572 1.899 0
0.0 -0.0 3.0 0
-3.154 -0.774 2.417 1
-1.28 -0.323 2.747 3
-1.426 -0.371 2.7 11
-1.114 -0.298 2.75 12
-1.195 -0.329 2.714 22
-4.695 -1.636 2.712 7
-4.94 -1.645 2.68 16
-5.204 -1.654 2.648 4
-3.849 -1.169 2.73 5
-3.756 -1.089 2.728 20
-3.757 -1.04 2.721 22
-3.81 -1.009 2.711 26
-3.851 -0.976 2.702 16
-3.914 -0.951 2.691 4
-6.633 -1.549 2.467 1
-6.185 -1.393 2.493 1
-5.695 -1.241 2.524 1
-5.806 -1.23 2.503 1
-5.382 -1.113 2.527 0
-5.146 -1.047 2.534 0
-4.917 -0.988 2.539 0
-4.728 -0.945 2.539 0
-4.566 -0.913 2.535 0
0.0 -0.0 3.0 0
0.0 -0.0 3.0 0
0.0 -0.0 3.0 0
0.0 -0.0 3.0 0
0.0 -0.0 3.0 0
0.0 -0.0 3.0 0
-122.467 -27.815 -15.761 16
0.0 -0.0 3.0 0
-3.278 -0.788 2.427 0
-3.08 -0.762 2.426 7
-1.294 -0.33 2.743 0
-1.448 -0.38 2.693 10
-1.117 -0.301 2.748 11
-1.175 -0.326 2.717 19
-4.661 -1.635 2.712 8
-4.917 -1.649 2.68 6
-5.177 -1.659 2.647 10
-3.866 -1.183 2.727 5
-3.746 -1.095 2.727 21
-3.746 -1.047 2.72 22
-3.8 -1.016 2.709 29
-3.86 -0.988 2.698 20
-3.927 -0.965 2.687 2
-6.504 -1.537 2.471 1
-5.908 -1.348 2.509 7
-5.594 -1.235 2.526 0
-5.635 -1.211 2.511 0
-5.304 -1.113 2.528 0
-5.064 -1.045 2.535 0
-4.839 -0.987 2.54 0
-4.706 -0.955 2.534 0
0.0 -0.0 3.0 0
-51.937 -10.591 -2.631 2
0.0 -0.0 3.0 0
0.0 -0.0 3.0 0
0.0 -0.0 3.0 0
0.0 -0.0 3.0 0
0.0 -0.0 3.0 0
0.0 -0.0 3.0 0
0.0 -0.0 3.0 0
-3.207 -0.778 2.435 0
-3.07 -0.766 2.423 7
-3.058 -0.784 2.387 34
-1.526 -0.403 2.674 7
-1.131 -0.307 2.742 11
-1.126 -0.314 2.727 14
-4.643 -1.638 2.711 8
-4.872 -1.644 2.68 6
-5.162 -1.666 2.646 15
-3.867 -1.193 2.725 4
-3.743 -1.104 2.725 18
-3.736 -1.054 2.718 28
-3.797 -1.025 2.706 34
-3.842 -0.994 2.696 16
-3.947 -0.981 2.681 1
-6.379 -1.526 2.475 0
-5.912 -1.366 2.503 5
-5.504 -1.232 2.527 1
-5.498 -1.197 2.516 0
-5.222 -1.112 2.528 0
-5.006 -1.048 2.533 0
-4.769 -0.987 2.54 0
0.0 -0.0 3.0 0
-49.969 -10.281 -2.238 4
-51.655 -10.681 -2.679 2
0.0 -0.0 3.0 0
0.0 -0.0 3.0 0
0.0 -0.0 3.0 0
0.0 -0.0 3.0 0
0.0 -0.0 3.0 0
0.0 -0.0 3.0 0
-3.415 -0.812 2.431 0
-3.151 -0.77 2.44 0
-3.071 -0.772 2.418 8
-3.06 -0.791 2.382 7
-1.544 -0.41 2.668 8
-1.142 -0.312 2.738 12
-1.091 -0.306 2.734 13
-4.617 -1.639 2.711 12
-4.861 -1.652 2.679 6
-5.132 -1.668 2.645 5
-3.872 -1.204 2.722 3
-3.733 -1.111 2.723 18
-3.729 -1.061 2.716 27
-3.783 -1.032 2.704 22
-3.82 -0.999 2.695 16
-3.921 -0.986 2.68 1
-6.216 -1.505 2.482 1
-5.908 -1.382 2.497 21
-5.415 -1.228 2.529 0
-5.374 -1.187 2.52 0
-5.156 -1.113 2.528 0
-4.925 -1.045 2.535 0
-4.715 -0.99 2.539 0
0.0 -0.0 3.0 0
-50.003 -10.434 -2.316 3
-51.329 -10.76 -2.721 2
-50.322 -10.656 -2.907 3
0.0 -0.0 3.0 0
0.0 -0.0 3.0 0
0.0 -0.0 3.0 0
0.0 -0.0 3.0 0
-3.484 -0.815 2.45 0
-3.243 -0.779 2.455 0
-3.084 -0.761 2.447 7
-3.069 -0.777 2.414 12
-3.05 -0.794 2.38 3
-1.543 -0.413 2.666 8
-1.152 -0.317 2.734 13
-1.09 -0.308 2.733 13
-4.602 -1.645 2.71 18
-4.838 -1.656 2.678 15
-5.106 -1.672 2.645 5
-3.873 -1.214 2.72 7
-3.73 -1.119 2.721 17
-3.727 -1.071 2.713 42
-3.768 -1.038 2.702 19
-3.821 -1.01 2.691 15
-3.918 -0.996 2.676 2
-5.917 -1.449 2.501 5
-5.865 -1.389 2.494 2
-5.337 -1.226 2.529 0
-5.304 -1.187 2.52 0
-5.059 -1.107 2.53 0
-4.855 -1.045 2.535 0
0.0 -0.0 3.0 0
-4.512 -0.955 2.534 0
-50.111 -10.603 -2.402 3
0.0 -0.0 3.0 0
-50.277 -10.786 -2.979 2
0.0 -0.0 3.0 0
0.0 -0.0 3.0 0
0.0 -0.0 3.0 0
0.0 -0.0 3.0 0
-3.404 -0.805 2.457 0
-3.168 -0.768 2.462 0
-3.078 -0.766 2.444 8
-3.071 -0.784 2.409 46
-3.059 -0.802 2.373 0
-1.542 -0.415 2.664 4
-1.133 -0.313 2.737 12
-1.093 -0.31 2.731 12
-4.591 -1.652 2.709 9
-4.831 -1.665 2.676 14
-5.068 -1.672 2.645 7
-3.843 -1.214 2.72 6
-3.727 -1.128 2.719 20
-3.728 -1.081 2.71 40
-3.766 -1.048 2.7 17
-3.814 -1.018 2.689 14
-3.912 -1.006 2.673 1
-5.916 -1.466 2.495 3
-5.821 -1.396 2.492 2
-9.051 -2.106 2.192 0
-5.21 -1.182 2.523 0
-4.985 -1.107 2.53 0
-4.758 -1.039 2.537 0
-48.923 -10.563 -1.926 2
-48.04 -10.316 -2.031 2
-50.159 -10.759 -2.482 4
-50.321 -10.837 -2.762 4
0.0 -0.0 3.0 0
0.0 -0.0 3.0 0
0.0 -0.0 3.0 0
0.0 -0.0 3.0 0
0.0 -0.0 3.0 0
-3.371 -0.804 2.457 0
-3.128 -0.765 2.464 1
-3.072 -0.77 2.44 10
-3.065 -0.789 2.405 8
-3.053 -0.806 2.37 0
-1.53 -0.415 2.664 3
-1.117 -0.31 2.74 10
-1.096 -0.312 2.728 12
-4.558 -1.65 2.709 7
-4.805 -1.667 2.676 6
-5.049 -1.677 2.643 18
-3.84 -1.223 2.718 9
-3.724 -1.137 2.717 17
-3.721 -1.088 2.708 47
-3.755 -1.055 2.697 18
-3.834 -1.034 2.684 14
-6.208 -1.613 2.476 0
-5.904 -1.48 2.491 17
-5.647 -1.37 2.501 0
0.0 -0.0 3.0 0
-5.125 -1.178 2.524 0
-4.904 -1.103 2.532 0
-4.735 -1.049 2.533 0
0.0 -0.0 3.0 0
-47.732 -10.392 -2.068 2
0.0 -0.0 3.0 0
-50.326 -10.982 -2.839 3
0.0 -0.0 3.0 0
0.0 -0.0 3.0 0
0.0 -0.0 3.0 0
0.0 -0.0 3.0 0
0.0 -0.0 3.0 0
-3.223 -0.776 2.477 0
-3.083 -0.761 2.467 5
-3.073 -0.777 2.435 28
-3.059 -0.794 2.402 3
-1.216 -0.324 2.747 0
-1.51 -0.412 2.667 0
-1.127 -0.316 2.735 10
-1.107 -0.317 2.724 11
-4.536 -1.652 2.709 9
-4.775 -1.668 2.676 7
-5.045 -1.689 2.641 8
-3.83 -1.229 2.716 9
-3.718 -1.144 2.715 26
-3.711 -1.095 2.706 45
-3.752 -1.064 2.695 24
-3.831 -1.044 2.681 16
-5.907 -1.552 2.496 4
-5.861 -1.486 2.488 2
-5.546 -1.362 2.504 0
-5.158 -1.231 2.528 0
-5.043 -1.174 2.526 0
-4.842 -1.104 2.531 0
-4.669 -1.048 2.533 0
-4.464 -0.991 2.538 0
-4.331 -0.956 2.534 0
-47.101 -10.379 -2.288 1
-50.225 -11.104 -2.904 2
-49.497 -11.035 -3.117 2
0.0 -0.0 3.0 0
0.0 -0.0 3.0 0
0.0 -0.0 3.0 0
0.0 -0.0 3.0 0
-3.159 -0.769 2.482 0
-3.077 -0.766 2.463 9
-3.067 -0.783 2.431 71
-3.075 -0.805 2.394 1
-1.204 -0.323 2.748 3
-1.18 -0.324 2.737 1
-1.171 -0.33 2.723 10
-1.11 -0.32 2.722 11
-4.51 -1.653 2.709 8
-4.748 -1.67 2.675 6
-5.003 -1.687 2.641 5
-3.827 -1.238 2.714 8
-3.715 -1.153 2.713 19
-3.712 -1.106 2.704 45
-3.745 -1.072 2.693 22
-3.863 -1.064 2.675 14
-5.921 -1.572 2.489 2
-5.791 -1.486 2.488 1
-5.46 -1.357 2.506 0
-5.135 -1.24 2.524 1
-5.008 -1.181 2.523 0
-4.768 -1.101 2.533 0
-4.584 -1.043 2.536 0
0.0 -0.0 3.0 0
0.0 -0.0 3.0 0
-46.866 -10.465 -2.332 2
0.0 -0.0 3.0 0
0.0 -0.0 3.0 0
0.0 -0.0 3.0 0
0.0 -0.0 3.0 0
0.0 -0.0 3.0 0
-3.341 -0.804 2.478 0
-3.107 -0.763 2.485 2
-3.067 -0.771 2.46 11
-3.061 -0.787 2.428 9
-3.092 -0.815 2.386 1
-1.218 -0.329 2.743 4
-1.187 -0.329 2.734 2
-1.137 -0.322 2.73 5
-1.109 -0.321 2.721 12
-4.502 -1.661 2.707 15
-4.726 -1.674 2.675 14
-4.976 -1.69 2.641 5
-3.812 -1.243 2.713 8
-3.719 -1.164 2.71 18
-3.712 -1.115 2.701 35
-3.739 -1.081 2.69 29
-3.833 -1.067 2.674 17
-5.905 -1.586 2.485 14
-5.651 -1.467 2.495 0
-5.359 -1.349 2.509 0
-5.069 -1.24 2.524 3
-4.884 -1.167 2.528 0
-4.714 -1.104 2.531 0
-4.538 -1.046 2.534 0
0.0 -0.0 3.0 0
0.0 -0.0 3.0 0
-46.554 -10.533 -2.367 4
0.0 -0.0 3.0 0
0.0 -0.0 3.0 0
0.0 -0.0 3.0 0
0.0 -0.0 3.0 0
0.0 -0.0 3.0 0
-3.204 -0.779 2.494 0
-3.077 -0.763 2.486 9
-3.068 -0.778 2.455 72
-3.055 -0.793 2.424 3
-3.044 -0.809 2.391 0
-1.225 -0.334 2.739 3
-1.205 -0.336 2.728 2
-1.188 -0.339 2.716 4
-1.108 -0.323 2.719 12
-4.491 -1.668 2.706 13
-4.718 -1.683 2.673 16
-4.954 -1.696 2.64 11
-3.813 -1.254 2.711 10
-3.728 -1.176 2.707 16
-3.713 -1.126 2.698 27
-3.739 -1.091 2.687 22
-3.838 -1.079 2.67 14
-5.854 -1.589 2.484 1
-5.543 -1.454 2.499 0
-5.262 -1.34 2.512 0
-5.018 -1.243 2.523 4
-7.11 -1.72 2.305 0
-4.66 -1.105 2.531 0
-7.131 -1.666 2.258 2
0.0 -0.0 3.0 0
0.0 -0.0 3.0 0
-46.363 -10.627 -2.415 3
-49.418 -11.354 -3.037 2
0.0 -0.0 3.0 0
0.0 -0.0 3.0 0
0.0 -0.0 3.0 0
0.0 -0.0 3.0 0
-3.16 -0.775 2.497 0
-3.071 -0.769 2.481 11
-3.066 -0.785 2.45 114
-3.075 -0.805 2.415 1
-3.034 -0.813 2.388 0
-1.216 -0.333 2.74 2
-1.204 -0.338 2.726 4
-1.184 -0.34 2.715 3
-1.118 -0.329 2.714 12
-4.469 -1.671 2.705 8
-4.696 -1.687 2.672 6
-4.934 -1.702 2.638 13
-3.814 -1.263 2.708 8
-3.729 -1.187 2.704 15
-3.714 -1.137 2.695 25
-3.736 -1.1 2.684 22
-3.831 -1.087 2.668 15
-5.788 -1.587 2.484 1
-5.442 -1.444 2.503 0
-5.081 -1.309 2.524 0
-4.968 -1.246 2.522 4
-9.343 -2.289 2.075 0
-4.563 -1.096 2.535 0
-7.14 -1.69 2.248 6
0.0 -0.0 3.0 0
0.0 -0.0 3.0 0
-46.085 -10.7 -2.452 2
-49.166 -11.439 -3.082 2
-48.499 -11.36 -3.297 2
0.0 -0.0 3.0 0
0.0 -0.0 3.0 0
-3.257 -0.793 2.504 0
-3.088 -0.765 2.503 10
-3.076 -0.778 2.475 27
-3.06 -0.79 2.447 10
-3.065 -0.809 2.412 1
-2.99 -0.807 2.392 0
-1.208 -0.333 2.739 3
-1.207 -0.341 2.724 6
-1.186 -0.343 2.712 5
-1.117 -0.331 2.713 13
-4.435 -1.669 2.706 9
-4.662 -1.685 2.672 7
-4.912 -1.706 2.637 5
-3.856 -1.287 2.703 5
-3.733 -1.198 2.701 16
-3.711 -1.146 2.693 22
-3.741 -1.113 2.681 17
-3.839 -1.101 2.663 12
-5.634 -1.562 2.493 0
-5.356 -1.437 2.505 0
-4.922 -1.282 2.533 1
-4.921 -1.248 2.521 2
-9.247 -2.293 2.073 0
-7.065 -1.719 2.27 2
-7.158 -1.716 2.236 0
0.0 -0.0 3.0 0
-46.113 -10.868 -2.301 1
-45.812 -10.772 -2.489 2
-48.94 -11.528 -3.129 1
-48.29 -11.448 -3.346 2
0.0 -0.0 3.0 0
0.0 -0.0 3.0 0
-3.189 -0.785 2.51 0
-3.078 -0.771 2.499 60
-3.07 -0.783 2.472 255
-3.061 -0.798 2.441 3
-3.044 -0.81 2.412 0
-2.984 -0.812 2.388 0
-1.211 -0.337 2.737 4
-1.206 -0.343 2.722 8
-1.185 -0.345 2.711 9
-1.131 -0.336 2.708 13
-4.413 -1.672 2.705 9
-4.639 -1.689 2.672 6
-4.885 -1.71 2.637 4
-3.879 -1.305 2.699 4
-3.753 -1.215 2.697 14
-3.716 -1.157 2.69 24
-3.746 -1.125 2.677 16
-3.836 -1.111 2.66 12
-5.537 -1.551 2.496 0
-5.271 -1.43 2.508 0
-4.833 -1.274 2.536 1
-4.871 -1.25 2.52 1
-9.143 -2.296 2.072 0
-7.125 -1.755 2.255 1
-4.326 -1.05 2.532 0
0.0 -0.0 3.0 0
0.0 -0.0 3.0 0
-45.569 -10.85 -2.528 2
0.0 -0.0 3.0 0
-48.038 -11.524 -3.388 2
0.0 -0.0 3.0 0
0.0 -0.0 3.0 0
-3.148 -0.783 2.511 0
-3.075 -0.778 2.495 17
-3.071 -0.791 2.466 255
-3.07 -0.807 2.435 2
-3.033 -0.814 2.409 0
-2.928 -0.804 2.395 0
-1.21 -0.339 2.735 6
-1.212 -0.347 2.719 12
-1.192 -0.349 2.707 10
-1.145 -0.343 2.702 15
-4.398 -1.677 2.704 11
-4.617 -1.693 2.671 11
-3.955 -1.394 2.704 1
-3.868 -1.312 2.697 0
-3.75 -1.224 2.695 14
-3.709 -1.166 2.688 24
-3.75 -1.137 2.674 16
-3.837 -1.122 2.657 16
-5.448 -1.542 2.499 0
-5.182 -1.421 2.511 0
-4.745 -1.265 2.539 1
0.0 -0.0 3.0 0
-9.058 -2.302 2.07 0
0.0 -0.0 3.0 0
0.0 -0.0 3.0 0
0.0 -0.0 3.0 0
0.0 -0.0 3.0 0
-45.268 -10.913 -2.56 3
0.0 -0.0 3.0 0
0.0 -0.0 3.0 0
0.0 -0.0 3.0 0
-3.282 -0.813 2.511 0
-3.072 -0.772 2.518 21
-3.073 -0.785 2.49 87
-3.057 -0.795 2.464 13
-3.067 -0.813 2.43 1
-3.012 -0.815 2.408 0
-2.907 -0.804 2.394 0
-1.213 -0.343 2.732 6
-1.207 -0.348 2.718 16
-1.183 -0.349 2.707 12
-1.159 -0.349 2.697 14
-4.383 -1.681 2.704 17
-4.605 -1.7 2.67 17
-3.925 -1.394 2.704 1
-5.084 -1.738 2.599 5
-3.773 -1.241 2.691 14
-3.717 -1.178 2.684 17
-3.754 -1.149 2.671 16
-3.837 -1.133 2.654 14
-5.34 -1.527 2.504 0
-5.132 -1.423 2.51 0
-4.687 -1.264 2.54 1
0.0 -0.0 3.0 0
-8.946 -2.301 2.07 0
0.0 -0.0 3.0 0
0.0 -0.0 3.0 0
0.0 -0.0 3.0 0
-45.341 -11.097 -2.412 2
-45.083 -11.002 -2.606 5
0.0 -0.0 3.0 0
0.0 -0.0 3.0 0
0.0 -0.0 3.0 0
-3.198 -0.801 2.519 0
-3.073 -0.78 2.512 9
-3.074 -0.793 2.485 255
-3.077 -0.808 2.455 5
-3.038 -0.813 2.431 0
-2.975 -0.812 2.41 0
-2.946 -0.821 2.381 0
-1.208 -0.344 2.731 3
-1.218 -0.353 2.714 18
-1.182 -0.35 2.706 16
-1.169 -0.354 2.692 14
-4.368 -1.687 2.703 9
-4.579 -1.702 2.669 7
-3.907 -1.398 2.703 4
-5.061 -1.744 2.597 8
-3.804 -1.262 2.685 8
-3.725 -1.191 2.681 15
-3.759 -1.16 2.667 16
-3.845 -1.148 2.649 16
-5.266 -1.522 2.505 0
-5.043 -1.413 2.513 0
-4.621 -1.26 2.541 1
0.0 -0.0 3.0 0
-5.549 -1.445 2.416 0
0.0 -0.0 3.0 0
0.0 -0.0 3.0 0
0.0 -0.0 3.0 0
0.0 -0.0 3.0 0
-44.86 -11.082 -2.647 2
0.0 -0.0 3.0 0
0.0 -0.0 3.0 0
0.0 -0.0 3.0 0
-3.146 -0.797 2.521 0
-3.074 -0.788 2.508 9
-3.071 -0.801 2.48 255
-3.09 -0.818 2.448 5
-3.016 -0.814 2.43 0
-2.878 -0.792 2.425 0
-2.849 -0.8 2.397 0
-1.214 -0.348 2.728 0
-1.213 -0.355 2.712 20
-1.185 -0.354 2.703 17
-1.172 -0.357 2.69 18
-4.338 -1.687 2.703 8
-4.541 -1.7 2.67 5
-4.789 -1.726 2.633 4
-5.038 -1.749 2.596 18
-3.823 -1.279 2.681 6
-3.748 -1.209 2.676 14
-3.763 -1.172 2.664 16
-3.846 -1.159 2.646 8
-5.17 -1.509 2.51 0
-4.958 -1.404 2.517 0
-4.552 -1.255 2.543 1
-8.187 -2.202 2.155 0
-5.56 -1.464 2.408 2
0.0 -0.0 3.0 0
-46.594 -11.886 -2.292 3
0.0 -0.0 3.0 0
-5.552 -1.392 2.321 1
0.0 -0.0 3.0 0
-45.274 -11.327 -3.023 2
-3.46 -0.87 2.518 0
-3.256 -0.825 2.524 0
-3.074 -0.786 2.528 11
-3.064 -0.794 2.504 32
-3.072 -0.808 2.475 15
-3.095 -0.828 2.442 3
-2.983 -0.812 2.431 0
-4.881 -1.355 2.016 7
-2.858 -0.809 2.39 0
-2.832 -0.817 2.361 0
-1.216 -0.358 2.71 19
-1.188 -0.357 2.7 19
-1.171 -0.359 2.688 20
-4.305 -1.685 2.703 11
-4.496 -1.695 2.671 4
-4.763 -1.729 2.632 5
-5.026 -1.758 2.594 6
-3.839 -1.295 2.677 5
-3.753 -1.221 2.673 13
-3.771 -1.186 2.66 20
-3.838 -1.168 2.643 6
-5.112 -1.508 2.51 0
-4.893 -1.401 2.518 0
-4.487 -1.251 2.545 1
-8.122 -2.21 2.152 0
-5.494 -1.464 2.409 6
0.0 -0.0 3.0 0
0.0 -0.0 3.0 0
0.0 -0.0 3.0 0
0.0 -0.0 3.0 0
0.0 -0.0 3.0 0
-45.376 -11.486 -3.107 3
0.0 -0.0 3.0 0
-3.203 -0.82 2.527 0
-3.075 -0.795 2.522 8
-3.069 -0.803 2.498 179
-3.081 -0.818 2.468 7
-3.088 -0.834 2.438 2
-2.969 -0.816 2.429 0
-4.85 -1.357 2.014 5
-2.742 -0.782 2.411 0
-2.807 -0.816 2.362 0
-1.207 -0.358 2.71 16
-1.187 -0.359 2.699 20
-1.177 -0.364 2.684 22
-4.29 -1.69 2.702 9
-4.044 -1.535 2.702 2
-4.743 -1.734 2.631 6
-4.98 -1.756 2.595 6
-3.824 -1.301 2.676 0
-3.768 -1.237 2.669 13
-3.783 -1.201 2.656 11
-3.839 -1.179 2.64 0
-5.035 -1.5 2.513 0
-4.823 -1.395 2.52 0
-4.429 -1.248 2.546 1
-8.042 -2.213 2.151 0
-5.477 -1.476 2.404 15
-5.566 -1.474 2.374 1
-5.58 -1.458 2.351 0
-5.539 -1.432 2.332 2
0.0 -0.0 3.0 0
-43.815 -11.218 -2.716 1
-45.313 -11.604 -3.17 2
-3.343 -0.859 2.524 0
-3.131 -0.81 2.532 1
-3.072 -0.803 2.517 9
-3.066 -0.81 2.494 51
-3.082 -0.827 2.463 5
-3.09 -0.841 2.432 2
-2.91 -0.806 2.436 0
-2.844 -0.802 2.417 0
-2.774 -0.797 2.399 0
-2.759 -0.808 2.369 0
-1.213 -0.362 2.707 15
-1.193 -0.363 2.695 21
-1.173 -0.364 2.684 26
-4.252 -1.686 2.703 13
-4.469 -1.708 2.668 6
-4.717 -1.738 2.631 14
-4.964 -1.764 2.593 6
-5.254 -1.801 2.551 9
-3.776 -1.251 2.665 3
-3.81 -1.22 2.65 10
-5.201 -1.613 2.507 0
-4.958 -1.492 2.515 0
-4.746 -1.388 2.522 0
-4.371 -1.245 2.547 1
-7.954 -2.213 2.15 0
-5.453 -1.487 2.399 21
-5.538 -1.484 2.37 1
-5.587 -1.477 2.342 1
-5.553 -1.453 2.323 0
0.0 -0.0 3.0 0
-43.618 -11.298 -2.757 1
0.0 -0.0 3.0 0
-3.251 -0.845 2.531 0
-3.082 -0.807 2.534 5
-3.066 -0.81 2.514 31
-3.06 -0.817 2.489 7
-3.095 -0.838 2.456 2
-3.079 -0.846 2.429 2
-2.919 -0.816 2.428 0
-1.325 -0.377 2.726 1
-4.839 -1.402 1.944 1
-2.675 -0.789 2.384 0
-1.216 -0.365 2.704 16
-1.192 -0.365 2.694 21
-1.164 -0.363 2.684 27
-4.245 -1.693 2.701 13
-4.469 -1.72 2.666 8
-4.712 -1.749 2.628 11
-4.937 -1.768 2.592 14
-5.207 -1.801 2.551 5
-3.769 -1.259 2.663 1
-3.814 -1.232 2.647 2
-5.14 -1.609 2.508 0
-4.877 -1.482 2.518 0
-6.926 -2.046 2.295 1
-4.31 -1.241 2.548 1
-5.515 -1.552 2.404 0
-5.429 -1.498 2.395 23
-5.502 -1.492 2.367 2
-5.543 -1.483 2.34 1
0.0 -0.0 3.0 0
-43.98 -11.566 -2.641 1
-43.406 -11.375 -2.796 1
-3.432 -0.899 2.522 0
-3.172 -0.834 2.538 0
-3.08 -0.815 2.53 8
-3.067 -0.819 2.508 98
-3.065 -0.827 2.483 3
-3.118 -0.852 2.447 1
-2.921 -0.81 2.454 0
-2.867 -0.809 2.434 0
-1.346 -0.386 2.72 1
-2.87 -0.838 2.369 0
-2.13 -0.633 2.505 1
-1.211 -0.367 2.703 16
-1.191 -0.367 2.692 19
-1.171 -0.368 2.68 30
-4.089 -1.642 2.71 5
-4.45 -1.724 2.665 6
-4.678 -1.749 2.628 5
-4.929 -1.779 2.589 12
-5.184 -1.807 2.55 6
-5.439 -1.832 2.509 1
-3.833 -1.25 2.642 3
-5.032 -1.591 2.514 0
-4.815 -1.478 2.52 0
-6.858 -2.047 2.295 0
-4.256 -1.239 2.549 0
-5.502 -1.565 2.399 1
-5.412 -1.51 2.39 18
-5.459 -1.497 2.365 2
-5.492 -1.486 2.338 2
-44.644 -11.954 -2.574 3
0.0 -0.0 3.0 0
0.0 -0.0 3.0 0
0.0 -0.0 3.0 0
-3.119 -0.829 2.541 1
-3.073 -0.821 2.526 9
-3.064 -0.827 2.503 20
-3.062 -0.834 2.479 2
-3.066 -0.847 2.45 0
-2.873 -0.804 2.458 0
-2.879 -0.819 2.427 0
-1.371 -0.397 2.712 0
-1.302 -0.383 2.711 3
-2.113 -0.632 2.506 0
-1.214 -0.37 2.7 13
-1.19 -0.37 2.69 16
-1.166 -0.368 2.68 29
-4.189 -1.693 2.701 5
-4.42 -1.725 2.665 8
-4.647 -1.75 2.628 6
-4.898 -1.781 2.589 6
-5.152 -1.811 2.548 16
-5.305 -1.803 2.517 0
-5.642 -1.857 2.467 0
-4.94 -1.576 2.518 0
-4.777 -1.48 2.519 0
-6.818 -2.056 2.292 1
-4.226 -1.243 2.548 0
-5.505 -1.583 2.392 1
-5.4 -1.523 2.385 19
-5.454 -1.512 2.358 2
-5.479 -1.5 2.332 2
0.0 -0.0 3.0 0
0.0 -0.0 3.0 0
0.0 -0.0 3.0 0
-3.223 -0.863 2.541 0
-3.086 -0.829 2.54 3
-3.066 -0.829 2.522 33
-3.05 -0.831 2.501 5
-3.074 -0.846 2.472 1
-3.01 -0.838 2.456 0
-2.809 -0.793 2.465 0
-2.869 -0.823 2.424 0
-1.325 -0.386 2.72 0
-1.309 -0.388 2.708 3
-1.311 -0.396 2.691 0
-1.213 -0.372 2.698 9
-1.193 -0.373 2.687 18
-1.165 -0.37 2.678 30
-4.17 -1.697 2.701 11
-4.412 -1.733 2.663 8
-4.624 -1.754 2.627 6
-4.867 -1.784 2.588 6
-5.14 -1.821 2.546 10
-5.255 -1.801 2.517 0
-5.698 -1.892 2.457 2
-4.894 -1.576 2.518 0
-6.372 -1.994 2.352 1
-6.766 -2.061 2.29 0
-4.21 -1.252 2.544 0
-5.507 -1.601 2.385 1
-5.395 -1.539 2.378 11
-5.43 -1.522 2.354 1
-5.539 -1.534 2.317 2
0.0 -0.0 3.0 0
0.0 -0.0 3.0 0
0.0 -0.0 3.0 0
-3.174 -0.86 2.543 0
-3.071 -0.834 2.538 8
-3.063 -0.836 2.517 69
-3.062 -0.843 2.494 2
-3.045 -0.846 2.471 0
-2.844 -0.8 2.48 0
-2.746 -0.783 2.472 0
-2.761 -0.799 2.441 0
-1.331 -0.391 2.716 2
-1.334 -0.399 2.7 2
-1.265 -0.385 2.7 5
-1.219 -0.377 2.695 3
-1.191 -0.375 2.686 22
-1.167 -0.374 2.675 29
-4.173 -1.709 2.699 9
-4.389 -1.737 2.662 14
-4.605 -1.76 2.626 15
-4.84 -1.788 2.587 8
-5.098 -1.82 2.546 6
-5.227 -1.807 2.516 8
-5.62 -1.883 2.46 0
-4.814 -1.565 2.522 0
-6.339 -2.004 2.349 0
-6.713 -2.065 2.289 1
-4.172 -1.253 2.544 0
-5.532 -1.626 2.376 1
-5.382 -1.551 2.373 7
-5.413 -1.535 2.348 3
-5.534 -1.549 2.31 1
0.0 -0.0 3.0 0
0.0 -0.0 3.0 0
-3.299 -0.904 2.539 0
-3.095 -0.848 2.549 5
-3.072 -0.844 2.532 9
-3.06 -0.844 2.512 10
-3.044 -0.846 2.492 1
-3.084 -0.865 2.459 1
-2.849 -0.809 2.475 0
-2.729 -0.785 2.471 0
-2.792 -0.815 2.429 0
-1.341 -0.397 2.712 0
-4.843 -1.458 1.901 0
-1.283 -0.393 2.693 4
-1.292 -0.402 2.674 0
-1.187 -0.376 2.685 21
-1.163 -0.374 2.675 29
-4.162 -1.716 2.697 14
-4.377 -1.744 2.661 11
-4.597 -1.769 2.624 11
-4.816 -1.793 2.586 18
-5.074 -1.828 2.544 6
-5.192 -1.81 2.515 9
-5.573 -1.884 2.46 0
-5.948 -1.951 2.404 1
-6.291 -2.008 2.348 1
-6.684 -2.077 2.285 0
-4.13 -1.253 2.544 0
-5.493 -1.631 2.374 1
-5.377 -1.567 2.367 4
-5.404 -1.55 2.342 1
-5.49 -1.555 2.308 1
0.0 -0.0 3.0 0
0.0 -0.0 3.0 0
-3.235 -0.897 2.543 0
-3.092 -0.856 2.545 3
-3.065 -0.851 2.528 33
-3.058 -0.853 2.508 4
-3.03 -0.851 2.489 0
-2.986 -0.846 2.471 0
-2.839 -0.814 2.471 0
-2.756 -0.799 2.461 0
-2.665 -0.784 2.451 0
-1.321 -0.395 2.713 1
-1.298 -0.394 2.703 3
-1.326 -0.409 2.681 3
-1.276 -0.4 2.676 4
-1.182 -0.377 2.684 20
-1.154 -0.374 2.675 26
-4.154 -1.724 2.696 13
-4.358 -1.748 2.66 7
-4.566 -1.771 2.624 6
-4.804 -1.802 2.584 7
-5.05 -1.834 2.543 13
-5.157 -1.813 2.514 1
-5.587 -1.905 2.454 2
-4.676 -1.548 2.527 0
-6.259 -2.016 2.345 1
-4.21 -1.322 2.545 0
-4.046 -1.241 2.548 1
-5.484 -1.645 2.368 0
-5.371 -1.582 2.361 4
-5.399 -1.565 2.336 1
-5.447 -1.559 2.306 1
0.0 -0.0 3.0 0
0.0 -0.0 3.0 0
-3.171 -0.889 2.547 0
-3.077 -0.862 2.542 7
-3.066 -0.86 2.523 45
-3.047 -0.858 2.504 2
-2.981 -0.845 2.492 0
-2.915 -0.834 2.479 0
-2.851 -0.825 2.465 0
-2.757 -0.807 2.456 0
-2.791 -0.828 2.42 0
-4.847 -1.459 1.94 4
-1.371 -0.419 2.684 2
-1.321 -0.41 2.68 3
-1.256 -0.397 2.679 5
-1.173 -0.376 2.684 20
-1.146 -0.374 2.675 22
-4.143 -1.731 2.695 9
-4.328 -1.748 2.66 8
-4.536 -1.772 2.623 6
-4.77 -1.803 2.584 6
-5.034 -1.842 2.541 31
-5.107 -1.811 2.515 0
-5.555 -1.911 2.452 0
-5.868 -1.961 2.401 0
-6.196 -2.015 2.345 0
-4.13 -1.309 2.549 0
-4.027 -1.248 2.546 2
-5.471 -1.659 2.363 1
-5.366 -1.598 2.354 3
-5.389 -1.579 2.33 1
-5.487 -1.588 2.293 1
0.0 -0.0 3.0 0
-3.287 -0.935 2.544 0
-3.08 -0.873 2.555 7
-3.074 -0.869 2.538 8
-3.059 -0.867 2.519 10
-3.04 -0.865 2.501 1
-2.955 -0.846 2.491 0
-2.923 -0.844 2.472 0
-2.864 -0.836 2.457 0
-2.822 -0.833 2.438 0
-2.709 -0.811 2.432 0
-2.09 -0.634 2.539 2
-1.336 -0.412 2.69 3
-1.301 -0.407 2.682 4
-1.24 -0.394 2.681 6
-1.176 -0.38 2.681 16
-1.144 -0.376 2.673 23
-4.117 -1.731 2.695 8
-4.309 -1.752 2.659 8
-4.52 -1.778 2.622 6
-4.746 -1.808 2.583 6
-4.992 -1.841 2.541 6
-5.008 -1.79 2.52 0
-5.527 -1.918 2.45 0
-5.836 -1.968 2.398 1
-6.155 -2.022 2.343 1
-4.02 -1.287 2.557 0
-3.989 -1.248 2.546 4
-5.469 -1.676 2.357 1
-5.372 -1.617 2.347 2
-5.38 -1.594 2.324 2
-5.512 -1.612 2.282 0
0.0 -0.0 3.0 0
-3.227 -0.928 2.547 0
-3.077 -0.882 2.551 6
-3.063 -0.876 2.534 30
-3.052 -0.874 2.515 3
-3.022 -0.869 2.498 0
-2.914 -0.844 2.493 0
-2.958 -0.863 2.461 0
-2.823 -0.832 2.46 0
-2.778 -0.828 2.442 0
-2.368 -0.714 2.5 0
-2.091 -0.64 2.535 3
-1.35 -0.419 2.684 3
-1.356 -0.427 2.667 3
-1.224 -0.391 2.683 7
-1.164 -0.378 2.683 15
-1.143 -0.377 2.672 23
-4.09 -1.731 2.695 11
-4.286 -1.755 2.659 9
-4.501 -1.783 2.621 13
-4.719 -1.812 2.582 11
-4.964 -1.845 2.54 4
-5.104 -1.84 2.507 0
-5.487 -1.922 2.449 1
-5.8 -1.974 2.396 1
-6.134 -2.033 2.339 0
-3.985 -1.289 2.556 1
-3.962 -1.252 2.544 5
-5.475 -1.695 2.35 1
