# .PCD v0.7 - Point Cloud Data file format
VERSION 0.7
FIELDS x y z intensity
SIZE 4 4 4 4
TYPE F F F F
COUNT 1 1 1 1
WIDTH 2232
HEIGHT 1
VIEWPOINT 0 0 0 1 0 0 0
POINTS 2232
DATA ascii
7.35 -1.27 2.111 38
7.362 -1.348 2.02 40
6.515 -1.261 2.05 6
2.045 -0.417 2.674 0
2.422 -0.519 2.58 38
2.465 -0.553 2.536 0
1.536 -0.359 2.688 1
0.0 -0.0 3.0 0
0.0 -0.0 3.0 0
0.0 -0.0 3.0 0
0.0 -0.0 3.0 0
0.0 -0.0 3.0 0
0.0 -0.0 3.0 0
0.0 -0.0 3.0 0
0.0 -0.0 3.0 0
0.0 -0.0 3.0 0
0.0 -0.0 3.0 0
0.0 -0.0 3.0 0
57.928 -7.456 0.138 9
57.593 -6.929 0.201 16
63.907 -7.263 -0.083 7
67.058 -7.33 -0.264 4
0.0 -0.0 3.0 0
7.348 -0.789 2.615 66
7.345 -0.806 2.589 68
7.343 -0.837 2.555 66
7.359 -0.883 2.51 48
7.365 -0.937 2.459 37
7.364 -0.998 2.4 40
7.362 -1.065 2.335 48
7.368 -1.137 2.262 34
7.361 -1.208 2.185 46
7.359 -1.283 2.102 33
7.363 -1.358 2.013 28
6.462 -1.259 2.051 5
2.044 -0.419 2.673 0
2.382 -0.512 2.585 14
2.456 -0.553 2.536 1
1.535 -0.361 2.687 1
0.0 -0.0 3.0 0
0.0 -0.0 3.0 0
0.0 -0.0 3.0 0
0.0 -0.0 3.0 0
0.0 -0.0 3.0 0
0.0 -0.0 3.0 0
115.894 -22.393 -3.421 42
119.887 -21.433 -3.553 15
126.598 -20.925 -3.799 24
0.0 -0.0 3.0 0
57.626 -8.154 0.032 4
57.89 -7.601 0.082 7
57.441 -7.067 0.145 17
57.494 -6.696 0.158 18
63.967 -7.177 -0.195 15
0.0 -0.0 3.0 0
7.341 -0.809 2.605 56
7.346 -0.826 2.579 66
7.34 -0.855 2.545 66
7.36 -0.901 2.5 62
7.362 -0.954 2.449 41
7.366 -1.014 2.39 41
7.363 -1.079 2.326 39
7.37 -1.149 2.254 48
7.362 -1.221 2.177 31
7.364 -1.295 2.094 42
7.364 -1.369 2.005 37
6.433 -1.262 2.049 5
6.025 -1.243 2.029 6
2.412 -0.522 2.577 4
1.83 -0.414 2.653 0
1.531 -0.361 2.686 0
0.0 -0.0 3.0 0
0.0 -0.0 3.0 0
0.0 -0.0 3.0 0
0.0 -0.0 3.0 0
0.0 -0.0 3.0 0
109.915 -23.106 -3.191 19
113.912 -22.23 -3.374 56
0.0 -0.0 3.0 0
0.0 -0.0 3.0 0
0.0 -0.0 3.0 0
57.802 -8.321 -0.029 16
55.789 -7.47 0.133 4
54.188 -6.814 0.247 7
57.491 -6.859 0.089 21
63.796 -7.341 -0.268 9
0.0 -0.0 3.0 0
7.35 -0.831 2.594 0
7.347 -0.846 2.569 68
7.345 -0.875 2.535 65
7.338 -0.916 2.492 64
7.359 -0.97 2.44 36
7.359 -1.029 2.382 42
7.368 -1.094 2.316 42
7.367 -1.162 2.245 37
7.356 -1.231 2.169 45
7.358 -1.305 2.087 31
7.361 -1.379 1.998 31
7.362 -1.454 1.905 38
5.969 -1.238 2.033 5
2.365 -0.514 2.584 2
1.752 -0.398 2.666 0
1.527 -0.362 2.685 0
0.0 -0.0 3.0 0
0.0 -0.0 3.0 0
0.0 -0.0 3.0 0
0.0 -0.0 3.0 0
0.0 -0.0 3.0 0
107.879 -22.877 -3.13 37
111.943 -22.065 -3.327 36
0.0 -0.0 3.0 0
126.644 -21.487 -3.982 37
0.0 -0.0 3.0 0
56.245 -8.236 0.002 8
53.61 -7.318 0.191 15
53.529 -6.877 0.221 10
56.537 -6.905 0.069 16
0.0 -0.0 3.0 0
0.0 -0.0 3.0 0
89.888 -10.418 -2.081 7
7.344 -0.866 2.559 68
7.343 -0.894 2.525 65
7.343 -0.935 2.482 65
7.364 -0.987 2.43 47
7.364 -1.045 2.372 37
7.361 -1.107 2.308 41
7.368 -1.176 2.236 42
7.361 -1.244 2.161 32
7.359 -1.317 2.078 43
7.366 -1.39 1.99 32
7.363 -1.464 1.897 22
5.931 -1.238 2.033 5
2.191 -0.479 2.612 0
0.0 -0.0 3.0 0
1.556 -0.37 2.678 0
0.0 -0.0 3.0 0
0.0 -0.0 3.0 0
0.0 -0.0 3.0 0
0.0 -0.0 3.0 0
0.0 -0.0 3.0 0
105.933 -22.664 -3.073 35
0.0 -0.0 3.0 0
0.0 -0.0 3.0 0
126.644 -21.77 -4.074 42
0.0 -0.0 3.0 0
57.731 -8.597 -0.129 11
53.636 -7.463 0.135 20
53.507 -7.021 0.163 25
57.183 -7.147 -0.034 17
78.742 -9.517 -1.237 12
0.0 -0.0 3.0 0
89.328 -10.608 -2.174 6
7.345 -0.886 2.549 54
7.347 -0.913 2.514 65
7.34 -0.953 2.472 65
7.357 -1.003 2.421 61
7.369 -1.061 2.362 46
7.366 -1.122 2.299 36
7.369 -1.189 2.228 28
7.365 -1.257 2.152 41
7.36 -1.328 2.07 29
7.359 -1.4 1.983 34
7.364 -1.473 1.89 38
5.894 -1.237 2.033 5
5.573 -1.225 2.008 7
0.0 -0.0 3.0 0
1.644 -0.393 2.658 0
0.0 -0.0 3.0 0
0.0 -0.0 3.0 0
0.0 -0.0 3.0 0
0.0 -0.0 3.0 0
0.0 -0.0 3.0 0
0.0 -0.0 3.0 0
0.0 -0.0 3.0 0
0.0 -0.0 3.0 0
126.642 -22.056 -4.166 42
60.442 -9.796 -0.373 4
58.039 -8.791 -0.2 6
53.708 -7.615 0.077 5
53.829 -7.213 0.086 16
56.993 -7.285 -0.092 19
0.0 -0.0 3.0 0
0.0 -0.0 3.0 0
0.0 -0.0 3.0 0
7.338 -0.906 2.538 0
7.344 -0.933 2.504 66
7.341 -0.971 2.462 65
7.342 -1.018 2.412 62
7.374 -1.078 2.352 34
7.371 -1.138 2.289 45
7.377 -1.204 2.218 21
7.358 -1.27 2.144 33
7.356 -1.339 2.062 43
7.364 -1.412 1.974 28
7.365 -1.484 1.882 24
5.861 -1.238 2.032 4
5.517 -1.219 2.012 4
1.743 -0.402 2.663 0
1.631 -0.392 2.659 0
0.0 -0.0 3.0 0
0.0 -0.0 3.0 0
0.0 -0.0 3.0 0
0.0 -0.0 3.0 0
99.881 -23.272 -2.802 17
103.884 -22.626 -3.063 11
107.892 -21.921 -3.286 45
0.0 -0.0 3.0 0
126.635 -22.344 -4.26 41
60.003 -9.87 -0.399 4
54.469 -8.388 -0.053 7
54.555 -7.881 -0.025 15
53.521 -7.32 0.042 18
56.597 -7.396 -0.139 18
0.0 -0.0 3.0 0
78.975 -9.83 -1.584 25
0.0 -0.0 3.0 0
75.34 -9.507 -1.844 5
7.345 -0.952 2.494 66
7.345 -0.99 2.451 65
7.339 -1.035 2.403 63
7.362 -1.092 2.344 46
7.364 -1.152 2.28 33
7.378 -1.219 2.208 34
7.363 -1.283 2.135 39
7.357 -1.351 2.054 28
7.361 -1.422 1.967 38
7.362 -1.494 1.874 29
7.361 -1.565 1.777 30
5.488 -1.22 2.012 4
1.734 -0.402 2.663 0
0.0 -0.0 3.0 0
0.0 -0.0 3.0 0
0.0 -0.0 3.0 0
0.0 -0.0 3.0 0
0.0 -0.0 3.0 0
97.901 -22.995 -2.733 12
101.915 -22.398 -3.002 46
105.936 -21.744 -3.235 20
0.0 -0.0 3.0 0
125.715 -22.473 -4.302 31
0.0 -0.0 3.0 0
56.095 -8.783 -0.197 6
54.527 -8.023 -0.08 10
53.497 -7.466 -0.016 30
58.816 -7.855 -0.334 4
0.0 -0.0 3.0 0
0.0 -0.0 3.0 0
86.069 -10.957 -2.344 7
74.433 -9.599 -1.891 7
7.342 -0.971 2.484 49
7.338 -1.008 2.441 65
7.34 -1.052 2.392 63
7.359 -1.108 2.334 60
7.365 -1.167 2.271 46
7.371 -1.232 2.2 32
7.36 -1.296 2.126 36
7.358 -1.364 2.045 40
7.366 -1.435 1.958 25
7.367 -1.506 1.865 14
7.354 -1.573 1.771 28
5.455 -1.219 2.013 4
5.178 -1.207 1.987 8
0.0 -0.0 3.0 0
0.0 -0.0 3.0 0
0.0 -0.0 3.0 0
0.0 -0.0 3.0 0
0.0 -0.0 3.0 0
0.0 -0.0 3.0 0
0.0 -0.0 3.0 0
0.0 -0.0 3.0 0
0.0 -0.0 3.0 0
0.0 -0.0 3.0 0
57.701 -9.773 -0.365 4
53.786 -8.56 -0.116 2
53.594 -8.03 -0.082 22
55.205 -7.858 -0.175 17
57.251 -7.81 -0.315 11
0.0 -0.0 3.0 0
0.0 -0.0 3.0 0
79.154 -10.303 -2.025 10
73.513 -9.683 -1.934 5
7.339 -0.99 2.473 0
7.343 -1.027 2.431 64
7.345 -1.07 2.382 65
7.34 -1.121 2.326 61
7.361 -1.182 2.261 28
7.376 -1.247 2.19 20
7.365 -1.309 2.117 35
7.351 -1.375 2.037 29
7.358 -1.445 1.95 40
7.375 -1.518 1.856 26
7.358 -1.585 1.762 29
5.429 -1.22 2.012 4
5.126 -1.2 1.993 7
1.633 -0.398 2.654 0
0.0 -0.0 3.0 0
0.0 -0.0 3.0 0
0.0 -0.0 3.0 0
0.0 -0.0 3.0 0
95.889 -22.889 -2.707 32
0.0 -0.0 3.0 0
0.0 -0.0 3.0 0
0.0 -0.0 3.0 0
121.653 -22.318 -4.252 13
57.352 -9.857 -0.394 3
53.761 -8.696 -0.165 19
0.0 -0.0 3.0 0
55.235 -8.017 -0.239 9
57.106 -7.954 -0.376 26
0.0 -0.0 3.0 0
0.0 -0.0 3.0 0
78.841 -10.488 -2.115 14
72.566 -9.761 -1.973 6
64.56 -8.885 -1.724 8
7.343 -1.046 2.42 65
7.341 -1.087 2.372 63
7.349 -1.14 2.315 61
7.37 -1.199 2.251 43
7.365 -1.259 2.182 32
7.357 -1.322 2.108 38
7.363 -1.389 2.027 39
7.363 -1.457 1.941 24
7.375 -1.529 1.848 30
7.355 -1.594 1.754 33
5.4 -1.221 2.011 1
5.089 -1.199 1.994 5
1.606 -0.393 2.659 0
0.0 -0.0 3.0 0
0.0 -0.0 3.0 0
0.0 -0.0 3.0 0
0.0 -0.0 3.0 0
0.0 -0.0 3.0 0
97.938 -22.121 -2.927 43
0.0 -0.0 3.0 0
111.631 -22.128 -3.765 48
0.0 -0.0 3.0 0
57.377 -10.005 -0.445 3
53.803 -8.843 -0.219 24
52.886 -8.211 -0.152 23
54.194 -8.018 -0.24 11
56.862 -8.084 -0.431 18
64.663 -8.942 -0.981 5
0.0 -0.0 3.0 0
76.55 -10.403 -2.074 6
71.603 -9.83 -2.009 6
63.867 -8.961 -1.765 7
7.34 -1.064 2.41 46
7.346 -1.106 2.362 63
7.345 -1.156 2.306 61
7.366 -1.214 2.241 61
7.365 -1.274 2.173 43
7.362 -1.336 2.099 31
7.356 -1.401 2.019 31
7.359 -1.468 1.933 39
7.372 -1.54 1.84 17
7.363 -1.606 1.745 25
7.367 -1.676 1.643 19
5.064 -1.199 1.994 5
4.819 -1.185 1.97 5
0.0 -0.0 3.0 0
0.0 -0.0 3.0 0
0.0 -0.0 3.0 0
0.0 -0.0 3.0 0
93.858 -22.774 -2.678 10
0.0 -0.0 3.0 0
0.0 -0.0 3.0 0
0.0 -0.0 3.0 0
0.0 -0.0 3.0 0
0.0 -0.0 3.0 0
52.746 -8.808 -0.206 2
52.884 -8.355 -0.207 23
54.042 -8.148 -0.292 14
56.645 -8.216 -0.487 24
0.0 -0.0 3.0 0
92.573 -12.869 -3.001 13
0.0 -0.0 3.0 0
70.775 -9.915 -2.052 5
63.264 -9.046 -1.81 9
7.352 -1.084 2.399 0
7.346 -1.124 2.351 63
7.342 -1.172 2.296 62
7.343 -1.226 2.234 61
7.369 -1.289 2.163 31
7.362 -1.35 2.089 41
7.36 -1.415 2.009 34
7.36 -1.481 1.924 23
7.365 -1.55 1.832 31
7.356 -1.616 1.738 35
7.367 -1.686 1.635 34
5.038 -1.2 1.993 5
4.786 -1.182 1.972 6
0.0 -0.0 3.0 0
0.0 -0.0 3.0 0
0.0 -0.0 3.0 0
0.0 -0.0 3.0 0
91.923 -22.49 -2.607 20
95.882 -22.058 -2.91 46
98.277 -21.232 -3.088 8
111.644 -22.646 -3.923 50
110.65 -21.098 -3.855 15
0.0 -0.0 3.0 0
52.48 -8.903 -0.24 19
52.815 -8.489 -0.259 26
54.162 -8.32 -0.361 16
56.456 -8.352 -0.545 26
65.296 -9.411 -1.19 10
91.635 -13.006 -3.065 9
73.39 -10.395 -2.07 6
70.025 -10.005 -2.098 6
62.598 -9.119 -1.849 8
54.141 -8.122 -1.502 19
7.347 -1.142 2.341 64
7.346 -1.189 2.286 61
7.344 -1.242 2.224 62
7.366 -1.304 2.153 41
7.359 -1.364 2.08 29
7.353 -1.426 2.001 33
7.364 -1.494 1.914 39
7.369 -1.562 1.823 35
7.364 -1.628 1.728 20
7.368 -1.696 1.627 18
5.021 -1.201 1.992 5
4.753 -1.18 1.974 4
0.0 -0.0 3.0 0
0.0 -0.0 3.0 0
0.0 -0.0 3.0 0
87.925 -23.035 -2.318 29
0.0 -0.0 3.0 0
0.0 -0.0 3.0 0
0.0 -0.0 3.0 0
0.0 -0.0 3.0 0
0.0 -0.0 3.0 0
111.179 -20.233 -3.967 9
52.273 -9.007 -0.278 19
52.781 -8.63 -0.313 24
53.026 -8.296 -0.352 16
56.688 -8.551 -0.629 3
0.0 -0.0 3.0 0
0.0 -0.0 3.0 0
71.877 -10.387 -2.066 12
69.233 -10.086 -2.139 5
62.046 -9.207 -1.895 10
54.091 -8.254 -1.575 5
7.351 -1.16 2.33 43
7.346 -1.206 2.275 61
7.34 -1.257 2.214 62
7.362 -1.318 2.144 63
7.363 -1.378 2.07 42
7.361 -1.441 1.991 32
7.36 -1.506 1.906 21
7.361 -1.572 1.815 28
7.36 -1.638 1.72 36
7.364 -1.705 1.619 33
5.007 -1.205 1.989 1
4.717 -1.177 1.977 4
0.0 -0.0 3.0 0
0.0 -0.0 3.0 0
0.0 -0.0 3.0 0
0.0 -0.0 3.0 0
89.927 -22.371 -2.578 27
92.415 -21.657 -2.803 7
96.633 -21.312 -3.111 46
109.792 -22.786 -3.966 9
109.398 -21.398 -3.953 16
0.0 -0.0 3.0 0
52.368 -9.164 -0.335 11
51.919 -8.632 -0.314 21
52.988 -8.441 -0.41 25
56.707 -8.718 -0.701 28
0.0 -0.0 3.0 0
0.0 -0.0 3.0 0
70.956 -10.459 -2.101 9
68.361 -10.151 -2.172 6
61.49 -9.291 -1.94 8
54.067 -8.391 -1.651 3
7.359 -1.18 2.319 0
7.347 -1.223 2.265 61
7.344 -1.274 2.204 62
7.347 -1.331 2.136 59
7.359 -1.392 2.061 28
7.349 -1.453 1.983 35
7.361 -1.518 1.897 33
7.365 -1.585 1.806 30
7.36 -1.649 1.711 20
7.36 -1.715 1.611 18
7.369 -1.783 1.504 19
4.696 -1.178 1.976 4
0.0 -0.0 3.0 0
0.0 -0.0 3.0 0
0.0 -0.0 3.0 0
85.932 -22.856 -2.277 35
0.0 -0.0 3.0 0
91.283 -21.592 -2.785 10
95.668 -21.316 -3.112 7
0.0 -0.0 3.0 0
0.0 -0.0 3.0 0
0.0 -0.0 3.0 0
51.692 -9.185 -0.343 22
52.931 -8.948 -0.435 14
53.007 -8.595 -0.473 21
57.588 -9.02 -0.829 15
0.0 -0.0 3.0 0
65.757 -9.909 -1.62 22
70.186 -10.548 -2.145 14
67.573 -10.224 -2.21 6
60.824 -9.355 -1.974 7
0.0 -0.0 3.0 0
50.095 -8.155 -1.708 5
7.347 -1.241 2.254 61
7.348 -1.291 2.194 61
7.347 -1.346 2.126 63
7.363 -1.407 2.051 39
7.357 -1.468 1.972 29
7.361 -1.531 1.888 21
7.362 -1.596 1.797 28
7.36 -1.661 1.703 37
7.36 -1.726 1.603 33
7.365 -1.792 1.496 31
4.674 -1.178 1.976 3
0.0 -0.0 3.0 0
0.0 -0.0 3.0 0
0.0 -0.0 3.0 0
0.0 -0.0 3.0 0
87.936 -22.247 -2.547 36
90.194 -21.533 -2.77 8
96.622 -21.752 -3.237 17
57.804 -12.274 -0.752 4
0.0 -0.0 3.0 0
108.524 -20.594 -4.091 13
51.79 -9.342 -0.4 6
51.983 -8.933 -0.429 25
53.011 -8.748 -0.534 18
53.952 -8.608 -0.654 22
0.0 -0.0 3.0 0
0.0 -0.0 3.0 0
68.978 -10.565 -2.153 7
66.898 -10.311 -2.254 7
60.205 -9.425 -2.011 11
54.444 -8.733 -1.841 17
49.636 -8.203 -1.736 9
7.351 -1.259 2.244 45
7.352 -1.308 2.183 61
7.343 -1.36 2.117 63
7.363 -1.421 2.041 60
7.357 -1.481 1.963 36
7.361 -1.544 1.878 25
7.365 -1.609 1.787 26
7.36 -1.672 1.694 19
7.368 -1.738 1.592 18
7.365 -1.803 1.488 19
4.653 -1.179 1.975 3
0.0 -0.0 3.0 0
0.0 -0.0 3.0 0
81.937 -23.392 -1.972 19
83.916 -22.662 -2.232 34
0.0 -0.0 3.0 0
89.183 -21.491 -2.759 7
96.636 -21.981 -3.303 49
57.781 -12.409 -0.794 6
0.0 -0.0 3.0 0
0.0 -0.0 3.0 0
52.607 -9.633 -0.506 9
52.206 -9.117 -0.5 14
53.022 -8.902 -0.597 24
53.915 -8.759 -0.718 24
0.0 -0.0 3.0 0
0.0 -0.0 3.0 0
68.739 -10.727 -2.232 16
66.213 -10.392 -2.295 7
59.582 -9.49 -2.046 9
54.057 -8.813 -1.885 10
49.441 -8.295 -1.789 11
7.331 -1.273 2.235 0
7.352 -1.324 2.172 61
7.347 -1.377 2.106 62
7.34 -1.432 2.034 55
7.357 -1.495 1.953 26
7.368 -1.559 1.868 13
7.365 -1.621 1.779 30
7.36 -1.684 1.685 37
7.364 -1.748 1.584 31
7.365 -1.813 1.479 27
7.364 -1.876 1.37 8
0.0 -0.0 3.0 0
0.0 -0.0 3.0 0
0.0 -0.0 3.0 0
0.0 -0.0 3.0 0
85.926 -22.108 -2.512 36
88.094 -21.428 -2.742 9
0.0 -0.0 3.0 0
0.0 -0.0 3.0 0
0.0 -0.0 3.0 0
108.543 -21.169 -4.289 17
52.66 -9.786 -0.562 13
52.649 -9.343 -0.586 12
53.016 -9.053 -0.658 13
53.771 -8.894 -0.775 25
58.758 -9.503 -1.231 31
0.0 -0.0 3.0 0
66.071 -10.502 -2.122 47
65.519 -10.468 -2.334 10
58.932 -9.548 -2.077 10
53.603 -8.88 -1.922 11
49.084 -8.359 -1.826 6
38.031 -6.694 -1.022 13
7.348 -1.34 2.162 62
7.351 -1.393 2.095 62
7.343 -1.448 2.024 61
7.357 -1.509 1.943 37
7.376 -1.573 1.857 25
7.377 -1.636 1.767 25
7.36 -1.695 1.675 19
7.364 -1.759 1.575 18
7.373 -1.825 1.469 7
7.367 -1.886 1.36 17
0.0 -0.0 3.0 0
0.0 -0.0 3.0 0
79.856 -23.119 -1.914 28
0.0 -0.0 3.0 0
0.0 -0.0 3.0 0
87.095 -21.383 -2.73 9
96.633 -22.435 -3.433 40
0.0 -0.0 3.0 0
100.867 -21.004 -3.825 12
100.922 -19.951 -3.87 13
52.525 -9.906 -0.605 18
52.608 -9.485 -0.641 6
54.807 -9.518 -0.846 19
53.646 -9.03 -0.833 21
0.0 -0.0 3.0 0
0.0 -0.0 3.0 0
67.569 -10.937 -2.334 8
64.9 -10.554 -2.377 8
58.353 -9.614 -2.112 9
53.09 -8.935 -1.953 7
47.821 -8.264 -1.771 9
0.0 -0.0 3.0 0
7.344 -1.356 2.152 46
7.35 -1.409 2.085 63
7.347 -1.463 2.013 61
7.357 -1.523 1.933 56
7.372 -1.586 1.848 31
7.365 -1.646 1.759 34
7.364 -1.708 1.665 35
7.364 -1.771 1.566 28
7.38 -1.837 1.458 19
7.36 -1.894 1.353 28
0.0 -0.0 3.0 0
0.0 -0.0 3.0 0
0.0 -0.0 3.0 0
0.0 -0.0 3.0 0
83.269 -21.791 -2.433 6
86.626 -21.468 -2.752 33
96.601 -22.66 -3.498 32
0.0 -0.0 3.0 0
0.0 -0.0 3.0 0
59.186 -11.859 -1.083 14
52.326 -10.013 -0.644 20
52.26 -9.57 -0.674 15
53.617 -9.466 -0.825 15
53.797 -9.213 -0.911 20
0.0 -0.0 3.0 0
58.908 -9.741 -1.542 9
67.385 -11.103 -2.415 7
64.242 -10.629 -2.416 10
57.754 -9.674 -2.144 9
52.612 -8.995 -1.986 9
47.59 -8.345 -1.818 11
0.0 -0.0 3.0 0
7.324 -1.369 2.144 0
7.346 -1.424 2.075 62
7.343 -1.477 2.004 62
7.341 -1.534 1.926 49
7.375 -1.6 1.837 17
7.368 -1.66 1.749 23
7.356 -1.719 1.657 19
7.359 -1.781 1.558 18
7.383 -1.849 1.448 23
7.367 -1.907 1.342 17
0.0 -0.0 3.0 0
75.914 -23.49 -1.566 27
77.89 -22.872 -1.862 33
0.0 -0.0 3.0 0
82.356 -21.736 -2.419 8
86.011 -21.515 -2.765 17
96.611 -22.896 -3.565 38
0.0 -0.0 3.0 0
0.0 -0.0 3.0 0
59.015 -11.983 -1.126 13
53.095 -10.307 -0.751 20
52.324 -9.73 -0.735 5
53.401 -9.583 -0.872 20
59.119 -10.298 -1.371 3
0.0 -0.0 3.0 0
58.724 -9.883 -1.609 8
73.071 -12.251 -2.975 11
63.556 -10.697 -2.45 10
57.127 -9.728 -2.172 10
52.099 -9.046 -2.014 9
47.23 -8.402 -1.851 8
0.0 -0.0 3.0 0
35.393 -6.699 -1.186 8
7.35 -1.441 2.064 62
7.35 -1.494 1.993 62
7.337 -1.548 1.916 60
7.363 -1.611 1.83 27
7.364 -1.672 1.74 33
7.355 -1.731 1.648 34
7.363 -1.794 1.547 27
7.379 -1.86 1.44 17
7.359 -1.915 1.335 27
0.0 -0.0 3.0 0
0.0 -0.0 3.0 0
0.0 -0.0 3.0 0
79.868 -22.42 -2.176 36
81.451 -21.682 -2.406 7
85.008 -21.464 -2.751 10
95.995 -22.983 -3.59 13
0.0 -0.0 3.0 0
0.0 -0.0 3.0 0
59.191 -12.178 -1.193 7
53.197 -10.474 -0.812 5
52.352 -9.885 -0.794 18
54.037 -9.854 -0.981 17
53.196 -9.423 -1.0 2
57.791 -10.029 -1.465 8
58.788 -10.067 -1.694 12
72.081 -12.296 -2.997 11
62.863 -10.759 -2.482 9
56.584 -9.792 -2.206 10
51.637 -9.103 -2.046 8
46.822 -8.45 -1.879 7
0.0 -0.0 3.0 0
35.365 -6.776 -1.234 16
7.349 -1.457 2.054 50
7.346 -1.508 1.983 62
7.34 -1.563 1.906 60
7.363 -1.625 1.82 42
7.368 -1.685 1.73 20
7.359 -1.744 1.638 18
7.366 -1.806 1.538 18
7.371 -1.868 1.433 22
7.366 -1.927 1.324 17
0.0 -0.0 3.0 0
74.428 -23.333 -1.536 19
0.0 -0.0 3.0 0
0.0 -0.0 3.0 0
80.634 -21.648 -2.397 8
86.624 -22.077 -2.915 37
94.875 -22.948 -3.58 12
0.0 -0.0 3.0 0
0.0 -0.0 3.0 0
53.3 -11.111 -0.826 6
52.977 -10.579 -0.851 18
51.47 -9.866 -0.787 12
53.867 -9.98 -1.032 7
53.137 -9.57 -1.062 24
53.75 -9.487 -1.224 12
0.0 -0.0 3.0 0
71.268 -12.364 -3.03 8
62.346 -10.848 -2.528 11
56.087 -9.861 -2.243 9
51.176 -9.159 -2.077 9
46.426 -8.498 -1.906 8
0.0 -0.0 3.0 0
35.351 -6.855 -1.284 31
7.333 -1.47 2.045 0
7.349 -1.524 1.972 62
7.34 -1.577 1.895 61
7.347 -1.635 1.812 46
7.363 -1.697 1.721 31
7.362 -1.757 1.628 32
7.366 -1.818 1.528 26
7.37 -1.88 1.423 26
7.358 -1.936 1.317 26
0.0 -0.0 3.0 0
0.0 -0.0 3.0 0
75.914 -22.774 -1.841 28
77.82 -22.189 -2.123 30
0.0 -0.0 3.0 0
86.601 -22.278 -2.969 39
93.751 -22.908 -3.569 11
0.0 -0.0 3.0 0
0.0 -0.0 3.0 0
99.945 -21.108 -4.268 9
52.659 -10.663 -0.881 23
51.368 -9.993 -0.836 11
52.713 -9.921 -1.008 19
53.198 -9.738 -1.133 23
0.0 -0.0 3.0 0
0.0 -0.0 3.0 0
58.763 -10.366 -2.056 31
61.653 -10.904 -2.556 15
55.563 -9.924 -2.277 9
50.753 -9.22 -2.111 10
46.054 -8.549 -1.936 7
0.0 -0.0 3.0 0
35.338 -6.936 -1.334 28
0.0 -0.0 3.0 0
7.349 -1.54 1.961 61
7.339 -1.592 1.885 60
7.343 -1.648 1.803 59
7.366 -1.712 1.71 19
7.357 -1.768 1.619 18
7.361 -1.829 1.519 19
7.362 -1.888 1.416 20
7.368 -1.949 1.306 17
70.448 -23.501 -1.144 52
72.445 -23.014 -1.473 42
0.0 -0.0 3.0 0
0.0 -0.0 3.0 0
78.91 -21.551 -2.373 9
0.0 -0.0 3.0 0
92.766 -22.899 -3.566 13
0.0 -0.0 3.0 0
97.711 -21.884 -4.111 11
101.37 -21.687 -4.467 10
52.783 -10.838 -0.945 19
52.264 -10.318 -0.961 15
52.943 -10.119 -1.088 19
54.393 -10.117 -1.295 21
53.778 -9.811 -1.368 10
57.762 -10.404 -1.851 24
58.762 -10.538 -2.14 3
60.96 -10.957 -2.583 14
55.058 -9.987 -2.31 8
50.334 -9.28 -2.144 10
45.701 -8.601 -1.966 7
0.0 -0.0 3.0 0
35.355 -7.023 -1.388 3
0.0 -0.0 3.0 0
7.344 -1.555 1.951 55
7.342 -1.607 1.874 60
7.342 -1.662 1.792 58
7.37 -1.726 1.699 39
7.364 -1.783 1.607 30
7.364 -1.842 1.509 26
7.369 -1.902 1.404 24
7.364 -1.959 1.297 25
0.0 -0.0 3.0 0
0.0 -0.0 3.0 0
74.424 -22.652 -1.815 19
75.675 -21.919 -2.06 7
78.04 -21.496 -2.359 8
86.62 -22.702 -3.083 42
91.624 -22.846 -3.551 19
0.0 -0.0 3.0 0
97.517 -22.102 -4.181 13
99.426 -21.545 -4.419 11
52.425 -10.912 -0.972 17
52.282 -10.473 -1.02 21
53.109 -10.306 -1.164 15
0.0 -0.0 3.0 0
0.0 -0.0 3.0 0
0.0 -0.0 3.0 0
68.721 -12.525 -3.109 4
60.334 -11.017 -2.613 15
54.597 -10.056 -2.347 9
49.88 -9.331 -2.172 9
45.364 -8.657 -1.998 8
0.0 -0.0 3.0 0
35.722 -7.182 -1.488 6
0.0 -0.0 3.0 0
7.347 -1.572 1.94 0
7.342 -1.622 1.864 60
7.345 -1.677 1.781 59
7.353 -1.736 1.692 49
7.356 -1.794 1.599 19
7.363 -1.853 1.499 19
7.364 -1.913 1.395 19
7.367 -1.971 1.287 16
0.0 -0.0 3.0 0
0.0 -0.0 3.0 0
0.0 -0.0 3.0 0
74.876 -21.859 -2.046 12
77.225 -21.454 -2.349 6
86.607 -22.91 -3.139 42
0.0 -0.0 3.0 0
0.0 -0.0 3.0 0
0.0 -0.0 3.0 0
0.0 -0.0 3.0 0
52.922 -11.166 -1.064 14
52.413 -10.651 -1.089 8
53.005 -10.443 -1.219 25
0.0 -0.0 3.0 0
0.0 -0.0 3.0 0
0.0 -0.0 3.0 0
57.841 -10.712 -2.224 4
59.782 -11.088 -2.65 17
54.108 -10.117 -2.38 9
49.445 -9.384 -2.202 8
45.023 -8.709 -2.028 7
0.0 -0.0 3.0 0
35.384 -7.199 -1.498 3
0.0 -0.0 3.0 0
26.743 -5.777 -0.897 0
7.341 -1.637 1.854 60
7.344 -1.692 1.771 58
7.349 -1.748 1.683 58
7.363 -1.808 1.587 28
7.363 -1.865 1.489 25
7.371 -1.926 1.384 24
7.362 -1.981 1.278 25
68.402 -23.244 -1.099 32
70.41 -22.819 -1.436 43
72.451 -22.374 -1.756 40
74.122 -21.81 -2.035 9
0.0 -0.0 3.0 0
86.616 -23.126 -3.197 40
0.0 -0.0 3.0 0
99.354 -24.114 -4.372 9
98.627 -22.886 -4.436 13
98.932 -21.987 -4.571 10
52.993 -11.332 -1.125 16
51.996 -10.717 -1.114 10
52.947 -10.587 -1.277 21
0.0 -0.0 3.0 0
0.0 -0.0 3.0 0
53.795 -10.168 -1.741 20
57.768 -10.867 -2.3 30
58.718 -11.06 -2.635 29
53.635 -10.18 -2.413 9
49.066 -9.446 -2.236 11
44.689 -8.761 -2.058 19
0.0 -0.0 3.0 0
35.385 -7.284 -1.552 8
0.0 -0.0 3.0 0
26.699 -5.826 -0.93 2
7.34 -1.653 1.843 57
7.347 -1.707 1.76 58
7.344 -1.761 1.673 58
7.358 -1.82 1.578 21
7.365 -1.878 1.479 8
7.37 -1.937 1.374 19
7.369 -1.994 1.266 17
0.0 -0.0 3.0 0
0.0 -0.0 3.0 0
0.0 -0.0 3.0 0
73.327 -21.747 -2.021 11
0.0 -0.0 3.0 0
86.046 -23.188 -3.213 13
0.0 -0.0 3.0 0
99.281 -24.359 -4.447 19
0.0 -0.0 3.0 0
98.625 -22.194 -4.642 15
100.51 -21.781 -4.927 14
51.727 -10.813 -1.151 16
0.0 -0.0 3.0 0
0.0 -0.0 3.0 0
0.0 -0.0 3.0 0
53.763 -10.321 -1.813 6
0.0 -0.0 3.0 0
58.715 -11.229 -2.721 12
53.146 -10.236 -2.443 10
48.733 -9.514 -2.274 10
44.422 -8.826 -2.095 11
0.0 -0.0 3.0 0
35.388 -7.37 -1.605 10
29.292 -6.273 -1.074 1
26.662 -5.877 -0.964 8
7.335 -1.667 1.833 0
7.346 -1.721 1.75 57
7.347 -1.776 1.662 59
7.353 -1.832 1.568 47
7.38 -1.895 1.466 17
7.369 -1.949 1.364 24
7.364 -2.004 1.258 26
0.0 -0.0 3.0 0
0.0 -0.0 3.0 0
70.442 -22.072 -1.692 18
72.516 -21.678 -2.005 6
75.594 -21.547 -2.372 15
85.114 -23.15 -3.203 11
0.0 -0.0 3.0 0
125.341 -31.086 -6.504 23
96.396 -22.894 -4.439 13
98.586 -22.463 -4.734 19
0.0 -0.0 3.0 0
51.759 -10.971 -1.211 12
0.0 -0.0 3.0 0
0.0 -0.0 3.0 0
0.0 -0.0 3.0 0
0.0 -0.0 3.0 0
65.801 -12.765 -3.226 4
56.35 -10.939 -2.574 15
52.693 -10.298 -2.475 9
48.407 -9.583 -2.312 14
44.049 -8.868 -2.12 7
0.0 -0.0 3.0 0
35.388 -7.457 -1.659 13
0.0 -0.0 3.0 0
26.644 -5.932 -1.001 7
26.501 -6.078 -1.256 1
7.349 -1.737 1.738 59
7.353 -1.791 1.65 58
7.341 -1.843 1.56 59
7.371 -1.905 1.457 20
7.364 -1.96 1.355 18
7.37 -2.017 1.246 16
66.396 -22.989 -1.054 41
68.398 -22.621 -1.397 37
69.644 -21.982 -1.672 9
71.729 -21.612 -1.989 10
75.722 -21.769 -2.428 8
84.225 -23.121 -3.195 11
0.0 -0.0 3.0 0
0.0 -0.0 3.0 0
0.0 -0.0 3.0 0
0.0 -0.0 3.0 0
98.801 -21.979 -5.0 12
51.704 -11.111 -1.265 22
0.0 -0.0 3.0 0
0.0 -0.0 3.0 0
0.0 -0.0 3.0 0
0.0 -0.0 3.0 0
53.737 -10.583 -2.162 31
56.312 -11.095 -2.653 12
52.204 -10.349 -2.503 11
47.996 -9.633 -2.34 9
43.692 -8.912 -2.145 16
0.0 -0.0 3.0 0
35.368 -7.539 -1.711 3
0.0 -0.0 3.0 0
26.634 -5.989 -1.04 2
0.0 -0.0 3.0 0
7.348 -1.752 1.727 57
7.348 -1.804 1.64 57
7.343 -1.857 1.549 57
7.374 -1.919 1.446 16
7.367 -1.973 1.344 24
7.361 -2.027 1.238 28
0.0 -0.0 3.0 0
0.0 -0.0 3.0 0
68.949 -21.923 -1.66 13
71.003 -21.563 -1.978 11
75.815 -21.982 -2.481 21
83.405 -23.108 -3.192 14
0.0 -0.0 3.0 0
0.0 -0.0 3.0 0
0.0 -0.0 3.0 0
96.773 -22.596 -4.78 12
99.748 -22.478 -5.181 15
0.0 -0.0 3.0 0
0.0 -0.0 3.0 0
0.0 -0.0 3.0 0
0.0 -0.0 3.0 0
0.0 -0.0 3.0 0
64.414 -12.876 -3.28 3
55.523 -11.1 -2.656 6
51.755 -10.407 -2.534 10
47.562 -9.677 -2.364 7
43.452 -8.979 -2.184 21
0.0 -0.0 3.0 0
35.472 -7.648 -1.779 1
0.0 -0.0 3.0 0
26.6 -6.041 -1.075 0
26.415 -6.172 -1.321 1
7.354 -1.768 1.716 2
7.355 -1.82 1.628 58
7.338 -1.869 1.54 59
7.357 -1.927 1.439 58
7.358 -1.983 1.336 17
7.368 -2.04 1.227 15
0.0 -0.0 3.0 0
0.0 -0.0 3.0 0
68.231 -21.855 -1.645 10
70.903 -21.704 -2.011 11
75.804 -22.168 -2.527 12
82.57 -23.088 -3.187 9
0.0 -0.0 3.0 0
85.909 -22.0 -3.726 17
89.313 -21.953 -4.133 19
0.0 -0.0 3.0 0
100.004 -22.826 -5.308 8
0.0 -0.0 3.0 0
0.0 -0.0 3.0 0
0.0 -0.0 3.0 0
0.0 -0.0 3.0 0
0.0 -0.0 3.0 0
63.772 -12.937 -3.31 3
53.749 -10.902 -2.555 19
51.208 -10.443 -2.553 10
46.945 -9.681 -2.366 16
43.165 -9.035 -2.216 7
39.867 -8.507 -2.112 10
35.455 -7.732 -1.831 1
0.0 -0.0 3.0 0
26.62 -6.106 -1.119 0
26.415 -6.229 -1.361 2
0.0 -0.0 3.0 0
7.354 -1.834 1.618 58
7.341 -1.884 1.528 58
7.341 -1.936 1.432 58
7.368 -1.998 1.323 24
7.363 -2.05 1.218 25
64.448 -22.741 -1.01 56
66.4 -22.413 -1.357 43
67.624 -21.82 -1.638 9
70.361 -21.709 -2.012 11
77.174 -22.761 -2.675 22
81.632 -23.036 -3.172 40
0.0 -0.0 3.0 0
85.57 -22.146 -3.771 14
90.383 -22.469 -4.301 19
91.288 -21.836 -4.519 17
100.22 -23.167 -5.432 15
51.836 -11.597 -1.452 3
0.0 -0.0 3.0 0
0.0 -0.0 3.0 0
0.0 -0.0 3.0 0
0.0 -0.0 3.0 0
63.071 -12.981 -3.331 3
53.75 -11.058 -2.635 24
50.77 -10.498 -2.582 11
46.67 -9.753 -2.406 14
42.789 -9.071 -2.237 8
39.556 -8.544 -2.133 12
36.703 -8.095 -2.058 6
0.0 -0.0 3.0 0
26.574 -6.156 -1.152 0
26.397 -6.282 -1.398 3
26.443 -6.466 -1.698 1
7.356 -1.849 1.606 57
7.343 -1.898 1.517 57
7.343 -1.95 1.421 57
7.363 -2.01 1.314 17
7.372 -2.066 1.204 15
0.0 -0.0 3.0 0
0.0 -0.0 3.0 0
66.971 -21.769 -1.627 9
69.673 -21.668 -2.002 12
77.16 -22.952 -2.723 29
80.92 -23.046 -3.175 15
0.0 -0.0 3.0 0
0.0 -0.0 3.0 0
85.035 -21.377 -3.946 10
91.063 -22.043 -4.59 12
0.0 -0.0 3.0 0
110.862 -25.132 -6.647 12
0.0 -0.0 3.0 0
0.0 -0.0 3.0 0
0.0 -0.0 3.0 0
0.0 -0.0 3.0 0
62.41 -13.03 -3.355 3
54.182 -11.306 -2.76 18
50.391 -10.563 -2.616 11
46.186 -9.781 -2.421 8
42.498 -9.123 -2.267 25
39.213 -8.571 -2.15 13
36.53 -8.148 -2.092 14
0.0 -0.0 3.0 0
26.543 -6.21 -1.188 2
0.0 -0.0 3.0 0
0.0 -0.0 3.0 0
7.343 -1.861 1.597 11
7.345 -1.913 1.506 57
7.345 -1.964 1.41 58
7.365 -2.023 1.303 52
7.363 -2.075 1.196 25
0.0 -0.0 3.0 0
64.437 -22.05 -1.286 8
66.277 -21.702 -1.613 10
68.887 -21.593 -1.985 7
77.164 -23.149 -2.772 32
80.102 -23.021 -3.169 9
0.0 -0.0 3.0 0
85.09 -22.489 -3.876 8
84.946 -21.594 -4.016 7
90.509 -22.169 -4.633 8
0.0 -0.0 3.0 0
0.0 -0.0 3.0 0
0.0 -0.0 3.0 0
0.0 -0.0 3.0 0
0.0 -0.0 3.0 0
0.0 -0.0 3.0 0
0.0 -0.0 3.0 0
54.092 -11.444 -2.831 15
50.02 -10.628 -2.651 11
45.822 -9.83 -2.449 18
42.253 -9.185 -2.303 18
38.937 -8.611 -2.174 12
36.271 -8.181 -2.112 13
0.0 -0.0 3.0 0
26.512 -6.264 -1.225 8
0.0 -0.0 3.0 0
0.0 -0.0 3.0 0
20.87 -5.332 -1.018 0
7.344 -1.926 1.495 57
7.34 -1.976 1.4 58
7.352 -2.032 1.295 47
7.365 -2.088 1.185 15
62.457 -22.464 -0.961 15
63.789 -21.978 -1.272 14
65.606 -21.641 -1.6 13
71.45 -22.575 -2.212 38
75.854 -22.95 -2.722 21
0.0 -0.0 3.0 0
0.0 -0.0 3.0 0
0.0 -0.0 3.0 0
84.245 -21.654 -4.036 9
89.729 -22.236 -4.657 13
0.0 -0.0 3.0 0
101.352 -23.579 -6.051 34
0.0 -0.0 3.0 0
0.0 -0.0 3.0 0
0.0 -0.0 3.0 0
0.0 -0.0 3.0 0
61.065 -13.113 -3.395 3
54.491 -11.689 -2.956 2
49.73 -10.709 -2.694 12
45.473 -9.883 -2.478 10
41.861 -9.213 -2.319 6
38.645 -8.648 -2.196 12
36.008 -8.213 -2.132 13
0.0 -0.0 3.0 0
26.497 -6.321 -1.264 12
0.0 -0.0 3.0 0
26.442 -6.633 -1.819 4
20.802 -5.356 -1.036 0
7.346 -1.941 1.483 56
7.342 -1.99 1.388 57
7.35 -2.045 1.284 57
7.368 -2.101 1.173 22
62.398 -22.587 -0.983 20
63.269 -21.95 -1.267 13
65.011 -21.604 -1.592 12
71.456 -22.756 -2.254 43
75.846 -23.143 -2.77 38
78.002 -22.829 -3.117 10
85.79 -24.093 -3.909 7
85.024 -22.943 -4.014 12
85.837 -22.307 -4.248 8
89.75 -22.502 -4.748 15
0.0 -0.0 3.0 0
0.0 -0.0 3.0 0
0.0 -0.0 3.0 0
0.0 -0.0 3.0 0
0.0 -0.0 3.0 0
0.0 -0.0 3.0 0
60.397 -13.149 -3.413 3
55.2 -12.003 -3.116 6
49.472 -10.795 -2.74 13
45.036 -9.914 -2.495 9
41.501 -9.246 -2.338 18
38.333 -8.679 -2.215 11
35.769 -8.249 -2.154 14
29.383 -6.922 -1.495 1
26.473 -6.378 -1.302 8
0.0 -0.0 3.0 0
26.418 -6.683 -1.856 8
20.714 -5.376 -1.051 0
7.344 -1.955 1.472 24
7.348 -2.006 1.376 57
7.349 -2.057 1.274 57
7.362 -2.112 1.164 29
0.0 -0.0 3.0 0
62.621 -21.875 -1.252 11
64.442 -21.573 -1.586 11
67.986 -21.822 -2.038 5
75.452 -23.219 -2.789 30
78.03 -23.045 -3.175 35
85.313 -24.193 -3.937 7
82.605 -22.521 -3.885 17
0.0 -0.0 3.0 0
89.794 -22.774 -4.842 6
0.0 -0.0 3.0 0
35.607 -8.497 -0.262 2
0.0 -0.0 3.0 0
0.0 -0.0 3.0 0
0.0 -0.0 3.0 0
0.0 -0.0 3.0 0
59.807 -13.199 -3.438 2
54.599 -12.032 -3.13 7
49.162 -10.869 -2.779 10
44.664 -9.957 -2.519 18
41.272 -9.307 -2.374 27
38.057 -8.717 -2.237 10
35.534 -8.284 -2.177 13
0.0 -0.0 3.0 0
26.457 -6.435 -1.341 13
0.0 -0.0 3.0 0
26.414 -6.739 -1.896 5
0.0 -0.0 3.0 0
20.501 -5.498 -1.295 0
7.35 -2.02 1.364 57
7.351 -2.071 1.262 56
7.356 -2.123 1.154 46
0.0 -0.0 3.0 0
62.049 -21.825 -1.242 14
64.494 -21.75 -1.623 14
71.433 -23.111 -2.336 38
74.883 -23.239 -2.794 12
0.0 -0.0 3.0 0
85.412 -24.454 -4.012 8
82.575 -22.744 -3.954 12
85.724 -22.769 -4.398 11
0.0 -0.0 3.0 0
35.969 -8.95 -0.257 5
35.634 -8.61 -0.305 8
0.0 -0.0 3.0 0
0.0 -0.0 3.0 0
0.0 -0.0 3.0 0
65.415 -14.716 -3.862 4
59.16 -13.232 -3.454 4
54.002 -12.059 -3.144 10
49.051 -10.986 -2.841 12
44.413 -10.026 -2.557 11
41.015 -9.362 -2.405 9
37.803 -8.758 -2.262 12
35.306 -8.321 -2.2 16
0.0 -0.0 3.0 0
26.44 -6.494 -1.38 39
0.0 -0.0 3.0 0
26.416 -6.797 -1.938 3
20.579 -5.426 -1.089 0
20.418 -5.515 -1.309 0
7.348 -2.034 1.353 57
7.352 -2.085 1.251 57
7.343 -2.132 1.147 56
60.462 -22.312 -0.934 56
61.5 -21.781 -1.234 17
63.907 -21.712 -1.615 14
71.441 -23.296 -2.378 42
74.135 -23.202 -2.785 9
76.243 -22.927 -3.143 17
0.0 -0.0 3.0 0
83.682 -23.285 -4.119 17
84.567 -22.704 -4.377 6
35.646 -9.25 -0.185 5
35.987 -9.061 -0.298 7
35.966 -8.799 -0.378 11
0.0 -0.0 3.0 0
0.0 -0.0 3.0 0
0.0 -0.0 3.0 0
64.646 -14.738 -3.873 3
58.636 -13.291 -3.482 3
53.502 -12.105 -3.168 8
48.369 -10.972 -2.834 8
44.076 -10.074 -2.584 7
40.693 -9.4 -2.427 8
37.546 -8.799 -2.287 11
35.097 -8.362 -2.225 13
0.0 -0.0 3.0 0
0.0 -0.0 3.0 0
0.0 -0.0 3.0 0
26.491 -6.874 -1.994 3
20.533 -5.457 -1.112 2
20.379 -5.546 -1.333 0
7.35 -2.048 1.341 42
7.354 -2.099 1.239 58
7.345 -2.145 1.135 56
59.317 -22.032 -0.885 7
60.932 -21.729 -1.224 14
63.304 -21.667 -1.605 17
71.407 -23.469 -2.418 28
73.41 -23.169 -2.777 10
75.663 -22.958 -3.152 9
77.71 -22.679 -3.503 23
84.037 -23.621 -4.222 18
0.0 -0.0 3.0 0
35.938 -9.43 -0.247 8
36.846 -9.387 -0.417 14
35.953 -8.904 -0.418 13
35.817 -8.665 -0.501 18
0.0 -0.0 3.0 0
0.0 -0.0 3.0 0
63.955 -14.775 -3.89 3
57.996 -13.32 -3.497 3
53.184 -12.191 -3.211 21
47.909 -11.007 -2.853 7
43.693 -10.11 -2.604 16
40.418 -9.447 -2.454 8
37.32 -8.845 -2.315 10
34.877 -8.399 -2.248 14
0.0 -0.0 3.0 0
0.0 -0.0 3.0 0
0.0 -0.0 3.0 0
27.14 -7.102 -2.16 14
20.521 -5.497 -1.142 7
20.386 -5.589 -1.366 0
18.732 -5.256 -1.257 0
7.356 -2.113 1.227 56
7.35 -2.16 1.123 55
58.809 -21.986 -0.877 12
60.386 -21.684 -1.215 12
62.608 -21.587 -1.588 7
70.72 -23.427 -2.409 14
72.689 -23.135 -2.768 10
75.041 -22.974 -3.156 49
77.169 -22.736 -3.519 16
0.0 -0.0 3.0 0
0.0 -0.0 3.0 0
34.907 -9.263 -0.19 0
35.821 -9.233 -0.361 2
35.804 -8.975 -0.445 16
35.803 -8.771 -0.544 6
0.0 -0.0 3.0 0
0.0 -0.0 3.0 0
63.268 -14.808 -3.905 4
57.411 -13.358 -3.515 3
52.816 -12.262 -3.248 9
47.437 -11.036 -2.868 7
43.43 -10.172 -2.638 21
40.061 -9.473 -2.469 8
37.059 -8.882 -2.337 11
34.622 -8.427 -2.266 14
0.0 -0.0 3.0 0
0.0 -0.0 3.0 0
0.0 -0.0 3.0 0
27.004 -7.126 -2.177 15
20.512 -5.538 -1.173 4
0.0 -0.0 3.0 0
18.635 -5.266 -1.264 0
7.354 -2.126 1.216 56
7.345 -2.171 1.113 55
58.339 -21.951 -0.871 14
59.83 -21.634 -1.205 17
66.466 -23.087 -1.907 45
70.072 -23.396 -2.401 14
71.988 -23.105 -2.761 11
75.029 -23.176 -3.21 22
77.01 -22.905 -3.568 12
82.513 -23.664 -4.235 14
82.653 -22.91 -4.444 14
36.064 -9.677 -0.332 6
35.306 -9.206 -0.351 1
35.62 -9.037 -0.469 6
37.532 -9.309 -0.761 12
0.0 -0.0 3.0 0
0.0 -0.0 3.0 0
62.563 -14.833 -3.917 4
56.804 -13.388 -3.53 3
52.062 -12.242 -3.237 7
47.0 -11.071 -2.887 7
43.105 -10.218 -2.664 6
39.871 -9.539 -2.507 16
36.805 -8.92 -2.36 11
34.406 -8.464 -2.289 13
0.0 -0.0 3.0 0
0.0 -0.0 3.0 0
26.294 -6.85 -1.797 3
24.273 -6.46 -1.693 2
20.503 -5.579 -1.204 1
0.0 -0.0 3.0 0
18.537 -5.274 -1.271 0
7.355 -2.14 1.204 54
7.35 -2.186 1.099 57
57.809 -21.893 -0.86 13
59.308 -21.594 -1.197 16
66.444 -23.25 -1.942 42
69.424 -23.363 -2.394 12
0.0 -0.0 3.0 0
75.035 -23.383 -3.266 17
76.851 -23.074 -3.616 11
81.806 -23.696 -4.244 28
80.62 -22.581 -4.337 17
34.565 -9.378 -0.229 6
35.939 -9.48 -0.45 3
35.498 -9.114 -0.499 6
37.381 -9.386 -0.792 15
0.0 -0.0 3.0 0
0.0 -0.0 3.0 0
61.908 -14.866 -3.932 4
56.215 -13.419 -3.545 4
51.559 -12.276 -3.255 7
46.595 -11.111 -2.908 7
42.699 -10.243 -2.678 8
39.556 -9.574 -2.527 16
36.556 -8.957 -2.382 11
34.22 -8.507 -2.316 14
0.0 -0.0 3.0 0
0.0 -0.0 3.0 0
26.368 -6.931 -1.853 3
24.245 -6.506 -1.727 1
0.0 -0.0 3.0 0
20.358 -5.707 -1.459 0
18.462 -5.289 -1.283 0
8.526 -2.497 0.904 3
7.351 -2.2 1.088 56
57.316 -21.849 -0.852 16
59.31 -21.745 -1.227 9
62.004 -21.857 -1.646 7
68.773 -23.325 -2.385 13
0.0 -0.0 3.0 0
75.022 -23.587 -3.32 19
77.095 -23.366 -3.7 11
81.201 -23.755 -4.263 11
80.756 -22.857 -4.427 18
34.613 -9.493 -0.269 1
35.293 -9.416 -0.427 5
36.57 -9.501 -0.647 3
36.011 -9.153 -0.698 1
0.0 -0.0 3.0 0
0.0 -0.0 3.0 0
61.234 -14.892 -3.944 4
55.647 -13.45 -3.56 3
51.083 -12.315 -3.275 7
46.193 -11.15 -2.929 7
42.42 -10.297 -2.708 24
39.231 -9.604 -2.545 10
36.314 -8.996 -2.405 11
34.011 -8.545 -2.339 13
0.0 -0.0 3.0 0
0.0 -0.0 3.0 0
26.3 -6.974 -1.883 3
24.213 -6.552 -1.761 255
0.0 -0.0 3.0 0
20.353 -5.746 -1.49 2
18.375 -5.301 -1.293 0
0.0 -0.0 3.0 0
7.352 -2.214 1.076 55
56.842 -21.809 -0.846 17
58.949 -21.763 -1.23 17
66.4 -23.579 -2.012 10
68.152 -23.297 -2.378 14
0.0 -0.0 3.0 0
75.03 -23.799 -3.377 31
76.961 -23.543 -3.751 16
0.0 -0.0 3.0 0
34.893 -9.978 -0.242 7
35.229 -9.767 -0.363 3
35.563 -9.596 -0.493 4
35.4 -9.305 -0.572 5
0.0 -0.0 3.0 0
0.0 -0.0 3.0 0
0.0 -0.0 3.0 0
60.564 -14.913 -3.954 4
55.148 -13.496 -3.583 3
50.531 -12.332 -3.283 10
45.795 -11.188 -2.949 7
42.173 -10.358 -2.742 11
38.84 -9.616 -2.552 9
36.068 -9.033 -2.428 11
33.772 -8.572 -2.357 11
27.577 -7.114 -1.62 1
0.0 -0.0 3.0 0
26.297 -7.036 -1.927 11
24.193 -6.602 -1.796 181
0.0 -0.0 3.0 0
20.328 -5.782 -1.518 6
18.311 -5.319 -1.307 0
0.0 -0.0 3.0 0
7.35 -2.227 1.064 54
56.391 -21.777 -0.84 15
58.427 -21.719 -1.222 17
65.801 -23.539 -2.003 14
67.538 -23.269 -2.372 14
0.0 -0.0 3.0 0
75.03 -24.009 -3.433 26
76.814 -23.718 -3.801 8
0.0 -0.0 3.0 0
35.777 -10.337 -0.359 2
35.164 -9.855 -0.393 2
35.594 -9.712 -0.535 4
35.177 -9.354 -0.591 9
36.759 -9.569 -0.866 5
0.0 -0.0 3.0 0
0.0 -0.0 3.0 0
59.911 -14.936 -3.965 4
54.572 -13.521 -3.595 3
50.029 -12.359 -3.297 8
45.456 -11.238 -2.975 8
41.771 -10.379 -2.753 6
38.641 -9.675 -2.586 14
35.807 -9.065 -2.447 11
33.509 -8.594 -2.37 11
27.465 -7.155 -1.647 0
0.0 -0.0 3.0 0
26.305 -7.1 -1.971 4
26.335 -7.246 -2.264 15
0.0 -0.0 3.0 0
20.322 -5.823 -1.549 6
18.25 -5.338 -1.323 0
18.008 -5.378 -1.513 0
7.366 -2.245 1.048 15
55.88 -21.722 -0.83 13
57.942 -21.689 -1.216 22
65.222 -23.505 -1.996 14
66.462 -23.077 -2.328 34
0.0 -0.0 3.0 0
74.198 -23.952 -3.418 10
77.383 -24.116 -3.915 6
81.724 -24.621 -4.527 12
35.371 -10.325 -0.355 7
34.896 -9.885 -0.404 6
36.465 -10.061 -0.662 7
35.719 -9.608 -0.688 8
0.0 -0.0 3.0 0
0.0 -0.0 3.0 0
0.0 -0.0 3.0 0
59.35 -14.978 -3.984 4
54.063 -13.559 -3.613 3
49.508 -12.378 -3.307 7
45.135 -11.292 -3.004 9
41.454 -10.42 -2.776 21
38.312 -9.7 -2.6 14
35.569 -9.102 -2.469 12
33.262 -8.619 -2.386 11
27.365 -7.199 -1.675 0
0.0 -0.0 3.0 0
26.297 -7.161 -2.014 5
26.198 -7.268 -2.281 19
0.0 -0.0 3.0 0
19.14 -5.525 -1.316 2
18.182 -5.355 -1.336 0
17.959 -5.399 -1.53 0
7.771 -2.383 0.928 3
55.415 -21.682 -0.823 18
57.159 -21.545 -1.188 16
64.669 -23.478 -1.99 14
0.0 -0.0 3.0 0
0.0 -0.0 3.0 0
74.815 -24.362 -3.528 11
77.592 -24.404 -3.998 12
81.508 -24.795 -4.581 9
35.405 -10.44 -0.392 7
35.037 -10.031 -0.454 4
34.347 -9.581 -0.487 3
35.457 -9.647 -0.703 6
0.0 -0.0 3.0 0
0.0 -0.0 3.0 0
0.0 -0.0 3.0 0
58.728 -15.001 -3.995 4
53.538 -13.59 -3.628 3
49.033 -12.406 -3.321 7
44.792 -11.338 -3.028 8
41.237 -10.484 -2.812 31
38.079 -9.748 -2.628 17
35.331 -9.138 -2.491 11
33.034 -8.647 -2.403 11
0.0 -0.0 3.0 0
0.0 -0.0 3.0 0
26.282 -7.219 -2.055 7
26.058 -7.29 -2.296 19
0.0 -0.0 3.0 0
19.026 -5.533 -1.323 1
18.114 -5.372 -1.35 0
17.98 -5.44 -1.565 0
7.816 -2.412 0.904 3
54.949 -21.64 -0.816 17
61.469 -23.331 -1.535 49
64.087 -23.438 -1.982 13
28.356 -10.001 0.691 2
75.05 -25.528 -3.365 7
75.04 -24.649 -3.605 23
0.0 -0.0 3.0 0
35.38 -10.867 -0.322 15
35.442 -10.557 -0.43 9
34.815 -10.073 -0.468 13
34.438 -9.712 -0.535 25
36.039 -9.916 -0.806 9
36.727 -9.902 -1.001 3
0.0 -0.0 3.0 0
0.0 -0.0 3.0 0
58.08 -15.014 -4.001 3
52.932 -13.597 -3.632 8
48.555 -12.431 -3.334 6
44.448 -11.382 -3.052 9
41.039 -10.552 -2.849 12
37.815 -9.787 -2.651 15
35.104 -9.175 -2.513 12
32.825 -8.68 -2.424 11
0.0 -0.0 3.0 0
0.0 -0.0 3.0 0
26.433 -7.324 -2.129 3
25.918 -7.31 -2.311 20
0.0 -0.0 3.0 0
18.919 -5.542 -1.33 1
18.075 -5.398 -1.371 1
17.953 -5.468 -1.588 0
7.909 -2.455 0.866 5
54.487 -21.599 -0.809 20
61.473 -23.494 -1.567 52
63.55 -23.412 -1.976 15
28.379 -10.087 0.671 6
75.028 -25.731 -3.415 18
75.047 -24.866 -3.663 24
77.578 -24.85 -4.126 9
79.466 -24.643 -4.534 5
35.166 -10.581 -0.438 4
36.025 -10.533 -0.627 2
34.538 -9.846 -0.584 9
35.731 -9.942 -0.816 1
36.694 -10.006 -1.043 14
0.0 -0.0 3.0 0
0.0 -0.0 3.0 0
57.539 -15.052 -4.019 4
52.558 -13.662 -3.663 5
48.112 -12.463 -3.35 7
44.109 -11.426 -3.075 7
40.745 -10.595 -2.873 7
37.513 -9.814 -2.666 14
34.87 -9.21 -2.534 10
32.605 -8.709 -2.442 12
0.0 -0.0 3.0 0
0.0 -0.0 3.0 0
26.25 -7.337 -2.137 8
25.782 -7.331 -2.327 19
0.0 -0.0 3.0 0
18.827 -5.556 -1.341 1
18.052 -5.429 -1.396 2
17.937 -5.499 -1.614 0
7.869 -2.458 0.863 2
54.575 -21.776 -0.84 14
56.866 -21.884 -1.254 7
63.002 -23.381 -1.97 13
28.379 -10.165 0.653 8
28.395 -9.818 0.552 1
75.051 -25.082 -3.721 28
77.348 -25.003 -4.169 7
79.287 -24.823 -4.589 14
35.214 -10.701 -0.477 10
80.72 -23.845 -5.211 7
34.414 -9.917 -0.609 18
35.66 -10.033 -0.851 4
36.699 -10.122 -1.089 13
36.851 -9.989 -1.24 15
0.0 -0.0 3.0 0
56.918 -15.066 -4.025 4
52.065 -13.693 -3.678 6
47.7 -12.5 -3.369 7
43.751 -11.462 -3.094 6
40.475 -10.642 -2.899 7
37.246 -9.85 -2.687 14
34.636 -9.243 -2.554 11
32.415 -8.745 -2.465 11
0.0 -0.0 3.0 0
0.0 -0.0 3.0 0
26.226 -7.394 -2.177 4
25.649 -7.354 -2.343 19
0.0 -0.0 3.0 0
18.746 -5.573 -1.354 1
18.047 -5.465 -1.425 1
17.902 -5.524 -1.635 1
17.78 -5.589 -1.858 1
54.198 -21.767 -0.838 19
56.452 -21.876 -1.252 4
62.446 -23.345 -1.962 17
28.39 -10.248 0.634 0
28.35 -9.882 0.536 0
75.041 -25.297 -3.778 26
80.75 -26.339 -4.552 7
82.773 -26.161 -4.998 12
35.075 -10.765 -0.498 11
33.438 -9.98 -0.436 2
35.162 -10.241 -0.727 2
35.042 -9.967 -0.826 18
36.906 -10.294 -1.159 18
0.0 -0.0 3.0 0
61.932 -16.759 -4.461 4
56.337 -15.085 -4.034 4
51.606 -13.73 -3.697 6
47.246 -12.524 -3.381 7
43.408 -11.501 -3.115 6
40.2 -10.687 -2.924 3
36.959 -9.88 -2.704 9
34.394 -9.274 -2.573 10
32.21 -8.776 -2.484 11
30.328 -8.371 -2.436 12
0.0 -0.0 3.0 0
26.882 -7.645 -2.353 21
21.881 -6.326 -1.596 1
20.306 -5.974 -1.502 0
18.673 -5.592 -1.369 1
0.0 -0.0 3.0 0
17.886 -5.555 -1.661 14
17.76 -5.617 -1.883 1
53.748 -21.728 -0.831 22
60.421 -23.577 -1.583 17
61.477 -23.152 -1.921 44
0.0 -0.0 3.0 0
75.064 -26.381 -3.577 16
75.02 -25.507 -3.835 26
70.907 -23.338 -3.692 7
35.394 -11.292 -0.452 11
34.875 -10.81 -0.512 17
33.494 -10.1 -0.478 8
37.255 -10.966 -0.991 10
35.02 -10.071 -0.866 17
36.983 -10.431 -1.214 17
0.0 -0.0 3.0 0
61.284 -16.775 -4.469 3
55.778 -15.109 -4.045 4
51.095 -13.751 -3.707 9
46.853 -12.561 -3.4 7
43.095 -11.547 -3.14 6
39.91 -10.726 -2.946 8
36.703 -9.916 -2.725 11
34.156 -9.305 -2.591 10
32.017 -8.81 -2.505 11
30.136 -8.397 -2.453 14
26.443 -7.469 -2.038 4
26.71 -7.661 -2.364 22
21.819 -6.359 -1.62 1
20.302 -6.02 -1.536 1
18.596 -5.61 -1.383 0
0.0 -0.0 3.0 0
17.877 -5.589 -1.69 10
17.754 -5.65 -1.911 1
53.32 -21.697 -0.826 20
59.948 -23.554 -1.578 16
61.415 -23.298 -1.952 23
76.977 -28.218 -3.515 16
75.049 -26.591 -3.63 22
28.366 -9.727 0.394 39
77.123 -25.612 -4.344 5
0.0 -0.0 3.0 0
34.336 -10.747 -0.492 5
33.881 -10.321 -0.554 8
33.65 -10.009 -0.643 5
34.934 -10.155 -0.898 4
35.629 -10.161 -1.105 4
0.0 -0.0 3.0 0
60.614 -16.78 -4.471 3
55.212 -15.127 -4.054 4
50.625 -13.78 -3.721 13
46.457 -12.596 -3.418 7
42.795 -11.594 -3.165 7
39.67 -10.778 -2.974 12
36.436 -9.948 -2.744 11
33.934 -9.339 -2.612 10
31.819 -8.842 -2.525 12
29.975 -8.431 -2.475 13
26.475 -7.545 -2.089 1
26.564 -7.685 -2.381 21
21.686 -6.372 -1.629 1
20.392 -6.093 -1.591 3
18.541 -5.634 -1.402 0
0.0 -0.0 3.0 0
17.867 -5.622 -1.718 5
17.756 -5.685 -1.942 0
52.87 -21.655 -0.818 18
59.453 -23.521 -1.572 17
60.887 -23.266 -1.945 16
75.885 -28.032 -3.472 32
75.056 -26.809 -3.684 16
28.353 -9.806 0.373 1
0.0 -0.0 3.0 0
69.116 -22.468 -3.869 5
33.571 -10.61 -0.447 3
33.662 -10.358 -0.567 3
33.843 -10.173 -0.703 5
34.904 -10.256 -0.937 9
0.0 -0.0 3.0 0
0.0 -0.0 3.0 0
60.009 -16.801 -4.48 2
54.701 -15.157 -4.068 7
50.141 -13.803 -3.732 17
46.061 -12.628 -3.434 7
42.46 -11.63 -3.184 6
39.392 -10.817 -2.996 14
36.169 -9.978 -2.761 10
33.719 -9.375 -2.633 10
31.618 -8.872 -2.544 11
29.788 -8.457 -2.492 14
26.62 -7.655 -2.163 0
26.414 -7.707 -2.397 22
21.511 -6.372 -1.63 1
20.383 -6.138 -1.625 4
18.497 -5.662 -1.424 0
0.0 -0.0 3.0 0
17.843 -5.652 -1.742 2
17.754 -5.72 -1.972 0
56.482 -23.287 -1.106 45
58.936 -23.478 -1.564 17
60.392 -23.246 -1.941 16
75.244 -28.009 -3.466 6
75.047 -27.023 -3.738 22
67.946 -23.698 -3.35 9
0.0 -0.0 3.0 0
66.208 -21.723 -3.641 5
33.519 -10.697 -0.476 11
33.641 -10.456 -0.6 18
33.848 -10.28 -0.742 16
34.92 -10.37 -0.981 8
35.11 -10.234 -1.135 0
0.0 -0.0 3.0 0
59.363 -16.807 -4.483 4
54.208 -15.19 -4.083 10
49.634 -13.816 -3.739 21
45.653 -12.656 -3.449 7
42.125 -11.665 -3.203 6
38.736 -10.751 -2.959 8
35.879 -10.002 -2.775 11
33.511 -9.41 -2.654 10
31.425 -8.903 -2.563 11
29.596 -8.481 -2.508 11
27.803 -8.066 -2.441 20
26.269 -7.73 -2.412 22
21.397 -6.39 -1.642 1
20.379 -6.183 -1.659 3
18.439 -5.685 -1.442 0
0.0 -0.0 3.0 0
17.822 -5.682 -1.768 1
17.741 -5.751 -1.999 0
56.482 -23.44 -1.133 57
58.448 -23.445 -1.557 19
0.0 -0.0 3.0 0
77.126 -28.93 -3.679 16
75.06 -27.246 -3.793 23
64.775 -22.784 -3.105 6
28.356 -9.671 0.227 255
66.06 -21.875 -3.688 13
33.547 -10.809 -0.512 8
34.106 -10.706 -0.686 6
33.811 -10.374 -0.776 4
34.939 -10.486 -1.025 15
35.057 -10.329 -1.173 9
0.0 -0.0 3.0 0
58.767 -16.822 -4.49 4
53.667 -15.205 -4.09 13
49.242 -13.86 -3.76 14
45.269 -12.688 -3.465 8
41.786 -11.697 -3.219 6
38.44 -10.782 -2.977 13
35.635 -10.036 -2.794 12
33.308 -9.447 -2.676 11
31.216 -8.93 -2.58 11
29.397 -8.502 -2.521 11
27.659 -8.096 -2.461 21
26.123 -7.752 -2.428 20
21.32 -6.418 -1.663 1
20.363 -6.226 -1.691 1
18.398 -5.715 -1.465 1
0.0 -0.0 3.0 0
17.794 -5.71 -1.792 1
17.76 -5.793 -2.036 0
56.489 -23.596 -1.161 36
58.009 -23.43 -1.554 18
28.378 -11.083 0.644 1
75.901 -28.689 -3.623 5
75.026 -27.453 -3.845 18
64.85 -23.003 -3.164 5
28.336 -9.749 0.204 8
65.96 -22.043 -3.739 19
34.952 -11.369 -0.694 2
33.742 -10.697 -0.683 11
34.397 -10.662 -0.881 8
34.984 -10.61 -1.073 3
0.0 -0.0 3.0 0
0.0 -0.0 3.0 0
58.209 -16.846 -4.5 3
53.152 -15.226 -4.1 18
48.724 -13.865 -3.762 5
44.904 -12.723 -3.483 8
41.456 -11.729 -3.236 9
38.093 -10.797 -2.985 11
35.383 -10.068 -2.813 11
33.108 -9.484 -2.698 11
31.018 -8.959 -2.598 12
29.221 -8.529 -2.539 13
27.522 -8.127 -2.481 20
25.98 -7.775 -2.444 21
21.231 -6.443 -1.681 1
20.346 -6.268 -1.724 3
18.377 -5.75 -1.492 0
0.0 -0.0 3.0 0
17.787 -5.746 -1.822 4
17.735 -5.822 -2.061 0
52.028 -21.876 -0.857 7
57.545 -23.404 -1.549 23
0.0 -0.0 3.0 0
75.296 -28.677 -3.621 9
74.26 -27.391 -3.829 6
65.122 -23.293 -3.241 9
64.523 -22.395 -3.422 11
0.0 -0.0 3.0 0
34.422 -11.303 -0.673 13
33.613 -10.762 -0.705 14
34.268 -10.73 -0.905 9
0.0 -0.0 3.0 0
0.0 -0.0 3.0 0
0.0 -0.0 3.0 0
57.58 -16.845 -4.5 4
52.653 -15.248 -4.11 10
48.253 -13.88 -3.77 5
44.54 -12.756 -3.5 7
41.152 -11.767 -3.257 7
37.748 -10.812 -2.993 10
35.147 -10.103 -2.833 11
32.871 -9.509 -2.713 11
30.836 -8.991 -2.618 11
29.037 -8.554 -2.555 11
27.408 -8.165 -2.507 16
25.816 -7.791 -2.455 21
21.139 -6.466 -1.698 1
20.337 -6.314 -1.758 2
18.347 -5.782 -1.517 0
0.0 -0.0 3.0 0
17.766 -5.776 -1.847 4
17.747 -5.862 -2.096 0
55.768 -23.602 -1.162 15
56.478 -23.129 -1.496 36
0.0 -0.0 3.0 0
74.077 -28.428 -3.563 25
75.07 -27.911 -3.959 20
64.494 -23.262 -3.233 14
64.311 -22.517 -3.457 10
28.35 -9.648 0.05 6
34.342 -11.384 -0.699 1
33.931 -10.969 -0.777 14
34.195 -10.815 -0.936 6
36.744 -11.376 -1.367 15
35.556 -10.814 -1.369 8
35.372 -10.591 -1.496 8
56.992 -16.854 -4.504 4
52.086 -15.247 -4.11 5
47.789 -13.896 -3.778 23
44.141 -12.778 -3.511 5
40.829 -11.798 -3.273 7
37.428 -10.831 -3.004 10
34.925 -10.14 -2.854 10
32.652 -9.538 -2.731 12
30.65 -9.022 -2.637 12
28.891 -8.588 -2.577 12
27.279 -8.198 -2.529 16
25.67 -7.811 -2.47 20
21.054 -6.492 -1.717 1
20.306 -6.352 -1.787 2
18.34 -5.822 -1.549 0
0.0 -0.0 3.0 0
17.755 -5.811 -1.876 4
17.751 -5.899 -2.128 0
55.351 -23.58 -1.158 20
56.498 -23.296 -1.528 54
70.727 -28.228 -3.0 13
74.864 -28.949 -3.684 22
75.071 -28.134 -4.015 22
63.912 -23.244 -3.228 7
64.493 -22.777 -3.531 11
64.752 -22.236 -3.798 13
34.239 -11.456 -0.722 4
34.385 -11.224 -0.865 9
33.978 -10.854 -0.951 4
77.309 -24.18 -6.282 5
0.0 -0.0 3.0 0
34.963 -10.579 -1.491 17
56.455 -16.874 -4.513 4
51.577 -15.26 -4.116 5
47.391 -13.927 -3.793 25
43.739 -12.796 -3.52 5
40.533 -11.835 -3.293 6
37.151 -10.861 -3.021 11
34.685 -10.172 -2.873 10
32.441 -9.569 -2.75 13
30.464 -9.052 -2.656 11
28.718 -8.614 -2.594 12
27.12 -8.221 -2.545 12
25.524 -7.832 -2.484 20
20.951 -6.512 -1.731 1
20.293 -6.396 -1.82 3
18.321 -5.858 -1.577 0
0.0 -0.0 3.0 0
17.748 -5.847 -1.906 3
17.759 -5.939 -2.163 0
54.938 -23.557 -1.154 20
56.215 -23.339 -1.537 19
70.18 -28.213 -2.997 15
74.827 -29.154 -3.731 24
74.975 -28.321 -4.061 25
63.939 -23.447 -3.283 9
64.119 -22.841 -3.55 10
65.952 -22.853 -3.987 12
28.384 -9.586 -0.115 2
34.16 -11.259 -0.877 1
35.975 -11.606 -1.224 2
76.638 -24.215 -6.295 5
0.0 -0.0 3.0 0
0.0 -0.0 3.0 0
55.85 -16.87 -4.511 3
51.083 -15.276 -4.123 5
46.886 -13.926 -3.792 14
43.39 -12.827 -3.536 6
40.207 -11.862 -3.307 5
36.878 -10.891 -3.037 11
34.457 -10.206 -2.892 10
32.226 -9.598 -2.767 15
30.282 -9.082 -2.675 12
28.546 -8.64 -2.611 11
26.961 -8.243 -2.56 12
25.404 -7.86 -2.504 19
20.877 -6.541 -1.752 1
20.275 -6.44 -1.853 3
18.336 -5.905 -1.614 0
0.0 -0.0 3.0 0
17.737 -5.882 -1.935 2
17.755 -5.974 -2.193 0
54.504 -23.524 -1.148 20
55.747 -23.304 -1.53 20
69.556 -28.164 -2.986 9
74.842 -29.381 -3.783 14
74.874 -28.507 -4.108 19
63.798 -23.588 -3.32 16
63.55 -22.834 -3.547 12
64.617 -22.591 -3.907 10
0.0 -0.0 3.0 0
33.623 -11.187 -0.852 6
36.5 -11.892 -1.328 5
36.949 -11.792 -1.527 1
0.0 -0.0 3.0 0
60.836 -18.797 -4.979 3
34.846 -10.637 -1.736 20
50.59 -15.288 -4.129 5
46.561 -13.975 -3.816 5
43.057 -12.862 -3.553 5
39.919 -11.899 -3.327 6
36.594 -10.917 -3.051 10
34.213 -10.234 -2.908 10
31.974 -9.614 -2.777 13
30.096 -9.11 -2.693 11
28.377 -8.666 -2.628 11
26.794 -8.263 -2.574 12
25.292 -7.891 -2.525 18
20.792 -6.566 -1.771 1
20.266 -6.486 -1.887 3
18.298 -5.935 -1.637 0
0.0 -0.0 3.0 0
17.734 -5.919 -1.967 2
17.77 -6.017 -2.23 0
54.076 -23.492 -1.142 20
55.303 -23.277 -1.525 18
0.0 -0.0 3.0 0
74.726 -29.557 -3.824 42
61.441 -23.577 -2.879 4
63.928 -23.832 -3.386 12
62.146 -22.521 -3.458 6
63.329 -22.338 -3.83 4
65.412 -22.503 -4.312 15
34.688 -11.652 -1.012 14
35.711 -11.749 -1.276 17
75.093 -24.207 -6.292 6
0.0 -0.0 3.0 0
28.377 -8.858 -0.76 4
54.767 -16.892 -4.521 3
34.722 -10.603 -1.944 16
46.148 -13.995 -3.826 6
42.693 -12.886 -3.566 6
39.627 -11.933 -3.345 6
36.317 -10.943 -3.066 11
33.973 -10.262 -2.925 10
31.767 -9.644 -2.795 15
29.918 -9.14 -2.711 11
28.197 -8.688 -2.642 12
26.639 -8.286 -2.589 13
25.209 -7.93 -2.552 20
20.741 -6.602 -1.796 0
20.278 -6.538 -1.927 2
18.305 -5.981 -1.673 0
17.703 -5.864 -1.748 0
17.737 -5.959 -2.001 1
17.798 -6.064 -2.272 0
53.682 -23.474 -1.139 19
0.0 -0.0 3.0 0
0.0 -0.0 3.0 0
74.957 -29.872 -3.897 17
64.46 -24.93 -3.216 6
63.998 -24.053 -3.445 5
62.925 -22.998 -3.595 4
63.183 -22.485 -3.874 19
35.805 -12.431 -1.039 4
28.371 -9.621 -0.313 11
36.578 -12.151 -1.423 5
74.277 -24.182 -6.283 6
0.0 -0.0 3.0 0
28.29 -8.922 -0.787 9
54.254 -16.907 -4.527 4
34.712 -10.71 -1.994 3
34.801 -10.664 -2.201 14
42.349 -12.913 -3.579 5
39.369 -11.976 -3.368 6
36.059 -10.975 -3.083 10
33.729 -10.288 -2.94 9
31.59 -9.681 -2.817 15
29.74 -9.169 -2.729 11
28.014 -8.709 -2.655 11
26.494 -8.312 -2.607 12
25.089 -7.957 -2.572 16
20.681 -6.634 -1.82 0
20.26 -6.582 -1.96 2
18.304 -6.023 -1.706 0
17.692 -5.9 -1.777 1
17.729 -5.996 -2.031 1
17.772 -6.093 -2.296 0
53.27 -23.446 -1.134 20
0.0 -0.0 3.0 0
0.0 -0.0 3.0 0
75.076 -30.143 -3.959 18
74.85 -29.175 -4.274 13
61.925 -23.465 -3.287 4
61.561 -22.691 -3.507 13
62.804 -22.547 -3.893 7
65.054 -22.791 -4.405 16
34.486 -11.804 -1.064 13
36.629 -12.286 -1.472 2
73.476 -24.158 -6.273 6
0.0 -0.0 3.0 0
28.271 -9.007 -0.823 2
53.697 -16.906 -4.527 4
49.184 -15.331 -4.149 5
34.779 -10.767 -2.251 4
41.982 -12.932 -3.589 4
39.1 -12.014 -3.388 6
35.779 -10.997 -3.096 10
33.501 -10.317 -2.957 10
31.39 -9.71 -2.835 14
29.55 -9.194 -2.745 10
27.852 -8.735 -2.673 10
26.346 -8.336 -2.623 12
24.951 -7.978 -2.586 15
20.652 -6.677 -1.851 0
20.279 -6.638 -2.002 2
18.314 -6.07 -1.742 0
17.717 -5.949 -1.817 5
17.725 -6.033 -2.063 1
17.793 -6.139 -2.336 1
52.873 -23.423 -1.13 22
28.355 -12.182 0.632 6
79.374 -33.074 -4.03 8
74.063 -29.96 -3.917 16
74.413 -29.232 -4.288 32
63.696 -24.332 -3.52 4
61.677 -22.926 -3.574 16
63.436 -22.974 -4.024 11
62.764 -22.189 -4.21 3
34.843 -12.038 -1.145 8
0.0 -0.0 3.0 0
72.485 -24.066 -6.238 5
0.0 -0.0 3.0 0
58.413 -18.798 -4.979 3
53.155 -16.905 -4.527 4
48.711 -15.339 -4.153 6
44.964 -14.062 -3.858 6
