# .PCD v0.7 - Point Cloud Data file format
VERSION 0.7
FIELDS x y z intensity
SIZE 4 4 4 4
TYPE F F F F
COUNT 1 1 1 1
WIDTH 1992
HEIGHT 1
VIEWPOINT 0 0 0 1 0 0 0
POINTS 1992
DATA ascii
-10.121 -23.305 -4.572 4
-9.661 -22.076 -4.601 7
-9.267 -21.003 -4.644 11
-8.874 -19.959 -4.662 9
-8.529 -19.028 -4.688 6
-8.211 -18.179 -4.717 6
-7.913 -17.379 -4.738 5
-7.646 -16.663 -4.77 7
-7.39 -15.974 -4.791 46
-7.17 -15.381 -4.837 8
-6.941 -14.775 -4.856 7
-6.737 -14.224 -4.885 5
-6.562 -13.746 -4.936 8
-6.377 -13.249 -4.961 8
-6.191 -12.762 -4.974 14
-6.034 -12.334 -5.01 9
-5.874 -11.91 -5.033 9
-5.725 -11.509 -5.059 8
-5.584 -11.134 -5.089 10
-5.45 -10.772 -5.118 11
-5.31 -10.408 -5.132 11
-5.184 -10.073 -5.157 10
-5.057 -9.737 -5.171 37
-4.927 -9.405 -5.175 18
-17.274 -42.062 -4.417 6
-15.833 -38.229 -4.431 5
-14.659 -35.113 -4.464 9
-13.622 -32.355 -4.47 10
-12.69 -29.907 -4.457 6
-11.932 -27.9 -4.476 5
-11.26 -26.114 -4.488 6
-10.697 -24.617 -4.526 6
-10.214 -23.314 -4.575 4
-9.749 -22.082 -4.603 8
-9.352 -21.011 -4.647 11
-8.953 -19.961 -4.662 9
-8.609 -19.037 -4.691 6
-8.284 -18.179 -4.717 6
-7.987 -17.387 -4.741 6
-7.71 -16.654 -4.766 8
-7.453 -15.97 -4.789 47
-7.233 -15.38 -4.836 8
-6.999 -14.769 -4.853 7
-6.798 -14.225 -4.885 8
-6.619 -13.745 -4.935 8
-6.43 -13.241 -4.956 8
-6.247 -12.764 -4.976 19
-6.087 -12.333 -5.009 8
-5.927 -11.913 -5.035 10
-5.773 -11.504 -5.055 9
-5.631 -11.129 -5.086 9
-5.499 -10.774 -5.119 13
-5.36 -10.413 -5.136 11
-5.226 -10.067 -5.152 12
-5.098 -9.731 -5.165 39
-4.969 -9.402 -5.173 17
-17.448 -42.12 -4.427 5
-15.991 -38.276 -4.44 5
-14.799 -35.142 -4.47 8
-13.748 -32.373 -4.474 10
-12.824 -29.962 -4.47 5
-12.05 -27.933 -4.485 5
-11.365 -26.127 -4.492 6
-10.797 -24.631 -4.53 5
-10.311 -23.329 -4.58 4
-9.843 -22.099 -4.609 8
-9.439 -21.021 -4.651 11
-9.039 -19.976 -4.668 10
-8.684 -19.036 -4.691 7
-8.358 -18.182 -4.718 6
-8.059 -17.391 -4.743 5
-7.781 -16.662 -4.77 8
-7.52 -15.972 -4.79 40
-7.297 -15.38 -4.837 8
-7.061 -14.769 -4.853 8
-6.855 -14.219 -4.882 7
-6.676 -13.743 -4.935 8
-6.489 -13.245 -4.959 8
-6.3 -12.76 -4.973 16
-6.136 -12.323 -5.003 8
-5.975 -11.904 -5.029 9
-5.824 -11.504 -5.056 8
-5.679 -11.127 -5.084 10
-5.543 -10.767 -5.113 12
-5.403 -10.406 -5.13 12
-5.271 -10.066 -5.151 11
-5.144 -9.734 -5.168 37
-5.012 -9.402 -5.173 17
-17.635 -42.207 -4.442 6
-16.166 -38.362 -4.457 5
-14.947 -35.188 -4.48 9
-13.883 -32.411 -4.483 8
-12.956 -30.009 -4.482 6
-12.165 -27.957 -4.491 5
-11.475 -26.153 -4.499 6
-10.897 -24.645 -4.535 6
-10.404 -23.336 -4.582 5
-9.933 -22.107 -4.612 7
-9.526 -21.031 -4.655 11
-9.122 -19.984 -4.671 15
-8.766 -19.048 -4.696 6
-8.433 -18.185 -4.719 6
-8.129 -17.387 -4.741 5
-7.848 -16.661 -4.769 8
-7.587 -15.974 -4.791 45
-7.36 -15.379 -4.836 8
-7.12 -14.762 -4.849 7
-6.916 -14.223 -4.884 8
-6.732 -13.737 -4.931 8
-6.543 -13.241 -4.956 8
-6.353 -12.756 -4.971 17
-6.194 -12.332 -5.009 8
-6.027 -11.903 -5.029 9
-5.873 -11.502 -5.054 9
-5.727 -11.125 -5.083 11
-5.591 -10.765 -5.112 12
-5.451 -10.407 -5.131 11
-5.315 -10.062 -5.148 11
-5.187 -9.73 -5.164 37
-5.053 -9.396 -5.168 17
-17.813 -42.271 -4.453 6
-16.329 -38.419 -4.468 5
-15.097 -35.238 -4.49 8
-14.018 -32.444 -4.49 8
-13.089 -30.056 -4.494 5
-12.284 -27.988 -4.499 5
-11.586 -26.179 -4.507 6
-10.998 -24.658 -4.539 6
-10.504 -23.358 -4.589 4
-10.02 -22.11 -4.613 8
-9.614 -21.042 -4.659 11
-9.196 -19.974 -4.667 29
-8.839 -19.043 -4.694 6
-8.507 -18.188 -4.72 6
-8.203 -17.394 -4.744 5
-7.919 -16.664 -4.771 8
-7.652 -15.972 -4.79 42
-7.424 -15.378 -4.836 5
-7.18 -14.759 -4.847 7
-6.975 -14.22 -4.882 8
-6.793 -13.742 -4.934 8
-6.598 -13.236 -4.953 8
-6.408 -12.754 -4.97 25
-6.246 -12.329 -5.006 8
-6.078 -11.901 -5.027 10
-5.921 -11.496 -5.049 8
-5.777 -11.125 -5.083 11
-5.637 -10.76 -5.108 11
-5.494 -10.4 -5.125 11
-5.359 -10.058 -5.145 12
-5.23 -9.727 -5.162 37
-5.096 -9.395 -5.167 16
-17.998 -42.348 -4.467 5
-16.506 -38.508 -4.485 6
-15.247 -35.286 -4.5 8
-14.159 -32.492 -4.501 8
-13.218 -30.095 -4.504 6
-12.4 -28.012 -4.506 4
-11.694 -26.197 -4.512 6
-11.102 -24.677 -4.545 6
-10.599 -23.369 -4.593 4
-10.112 -22.122 -4.617 8
-9.7 -21.047 -4.661 9
-9.275 -19.971 -4.666 29
-8.921 -19.055 -4.699 6
-8.582 -18.19 -4.721 6
-8.272 -17.391 -4.743 5
-7.988 -16.665 -4.771 8
-7.714 -15.964 -4.786 14
-7.489 -15.38 -4.837 8
-7.242 -14.758 -4.847 9
-7.034 -14.217 -4.881 9
-6.847 -13.732 -4.928 8
-6.652 -13.231 -4.95 8
-6.462 -12.753 -4.969 19
-6.298 -12.325 -5.004 8
-6.131 -11.903 -5.028 9
-5.974 -11.499 -5.051 6
-5.824 -11.119 -5.079 10
-5.684 -10.757 -5.106 12
-5.541 -10.398 -5.124 11
-5.404 -10.057 -5.144 11
-5.271 -9.72 -5.156 36
-5.132 -9.382 -5.155 13
-18.18 -42.418 -4.479 5
-16.678 -38.581 -4.499 5
-15.397 -35.334 -4.511 7
-14.297 -32.532 -4.511 7
-13.341 -30.117 -4.509 5
-12.52 -28.043 -4.514 4
-11.805 -26.222 -4.519 6
-11.206 -24.697 -4.551 6
-10.694 -23.375 -4.595 5
-10.202 -22.13 -4.62 7
-9.787 -21.056 -4.664 9
-9.354 -19.971 -4.666 18
-8.999 -19.056 -4.699 6
-8.655 -18.189 -4.721 6
-8.344 -17.393 -4.744 5
-8.057 -16.665 -4.771 7
-7.787 -15.978 -4.793 8
-7.553 -15.378 -4.836 8
-7.304 -14.757 -4.846 8
-7.091 -14.211 -4.877 9
-6.905 -13.73 -4.927 8
-6.71 -13.232 -4.95 8
-6.517 -12.751 -4.968 22
-6.35 -12.321 -5.001 8
-6.181 -11.896 -5.024 9
-6.022 -11.492 -5.047 6
-5.873 -11.118 -5.077 11
-5.73 -10.752 -5.102 12
-5.589 -10.4 -5.125 12
-5.448 -10.053 -5.141 12
-5.317 -9.722 -5.158 32
-4.722 -8.559 -4.44 4
-18.348 -42.451 -4.485 3
-16.832 -38.611 -4.505 5
-15.561 -35.41 -4.527 7
-14.445 -32.593 -4.525 8
-13.466 -30.144 -4.516 6
-12.64 -28.072 -4.522 5
-11.92 -26.254 -4.528 6
-11.306 -24.71 -4.555 6
-10.792 -23.393 -4.601 5
-10.295 -22.141 -4.624 7
-9.877 -21.069 -4.668 14
-9.449 -20.002 -4.678 9
-9.081 -19.067 -4.704 6
-8.737 -18.204 -4.727 6
-8.42 -17.403 -4.749 5
-8.127 -16.669 -4.773 8
-7.853 -15.975 -4.792 9
-7.615 -15.374 -4.833 8
-7.366 -14.756 -4.846 8
-7.154 -14.214 -4.879 9
-6.962 -13.726 -4.925 8
-6.764 -13.227 -4.947 9
-6.57 -12.747 -4.965 26
-6.403 -12.319 -5.0 9
-6.231 -11.893 -5.022 9
-6.073 -11.492 -5.047 7
-5.921 -11.114 -5.075 9
-5.777 -10.75 -5.1 12
-5.63 -10.39 -5.117 11
-5.495 -10.054 -5.141 10
-4.714 -8.547 -4.172 6
-4.709 -8.465 -4.358 5
-18.555 -42.573 -4.507 16
-17.007 -38.687 -4.52 5
-15.716 -35.464 -4.538 6
-14.587 -32.639 -4.535 7
-13.59 -30.168 -4.522 5
-12.763 -28.108 -4.532 5
-12.029 -26.271 -4.533 6
-11.413 -24.732 -4.561 5
-10.885 -23.395 -4.602 5
-10.385 -22.148 -4.626 7
-9.961 -21.071 -4.669 19
-9.535 -20.016 -4.683 7
-9.158 -19.067 -4.704 6
-8.808 -18.199 -4.725 6
-8.487 -17.393 -4.744 5
-8.196 -16.669 -4.773 7
-7.922 -15.98 -4.794 9
-7.679 -15.372 -4.833 8
-7.428 -14.755 -4.846 8
-7.211 -14.207 -4.875 8
-7.022 -13.727 -4.925 8
-6.822 -13.227 -4.948 8
-6.625 -12.745 -4.964 23
-6.455 -12.315 -4.997 8
-6.282 -11.889 -5.019 9
-6.123 -11.49 -5.045 9
-5.968 -11.108 -5.071 9
-5.826 -10.751 -5.101 12
-5.678 -10.39 -5.118 12
-4.755 -8.626 -3.986 4
-4.713 -8.474 -4.11 5
-4.743 -8.454 -4.349 5
-18.725 -42.609 -4.513 14
-17.185 -38.77 -4.536 6
-15.863 -35.5 -4.546 6
-14.73 -32.685 -4.546 6
-13.72 -30.202 -4.53 6
-12.879 -28.127 -4.536 5
-12.137 -26.288 -4.538 6
-11.519 -24.754 -4.568 5
-10.986 -23.415 -4.608 4
-10.48 -22.163 -4.631 8
-10.044 -21.068 -4.668 17
-9.62 -20.025 -4.687 7
-9.237 -19.071 -4.705 6
-8.887 -18.207 -4.728 6
-8.566 -17.408 -4.751 5
-8.266 -16.669 -4.773 8
-7.987 -15.977 -4.793 9
-7.743 -15.37 -4.831 8
-7.492 -14.757 -4.847 7
-7.273 -14.21 -4.876 7
-7.078 -13.721 -4.922 8
-6.878 -13.225 -4.946 8
-6.679 -12.74 -4.961 31
-6.509 -12.313 -4.996 8
-6.335 -11.888 -5.018 9
-6.171 -11.483 -5.04 9
-6.019 -11.109 -5.071 10
-5.874 -10.748 -5.099 10
-5.725 -10.388 -5.116 12
-4.714 -8.482 -3.868 5
-4.718 -8.412 -4.059 5
-4.783 -8.454 -4.349 5
-18.898 -42.651 -4.52 7
-17.346 -38.812 -4.544 5
-16.03 -35.577 -4.562 6
-14.871 -32.726 -4.555 6
-13.856 -30.249 -4.542 6
-13.004 -28.166 -4.547 5
-12.256 -26.325 -4.549 5
-11.624 -24.771 -4.573 5
-11.078 -23.414 -4.608 5
-10.574 -22.177 -4.636 7
-10.131 -21.073 -4.67 15
-9.704 -20.031 -4.689 8
-9.318 -19.078 -4.708 6
-8.96 -18.204 -4.727 6
-8.639 -17.41 -4.751 4
-8.337 -16.672 -4.774 8
-8.056 -15.981 -4.794 8
-7.809 -15.37 -4.832 8
-7.551 -14.749 -4.842 8
-7.332 -14.205 -4.874 8
-7.137 -13.72 -4.921 8
-6.935 -13.222 -4.944 8
-6.735 -12.741 -4.961 33
-6.561 -12.309 -4.993 8
-6.389 -11.89 -5.02 9
-6.224 -11.485 -5.042 8
-6.067 -11.105 -5.069 9
-5.92 -10.742 -5.095 11
-4.719 -8.492 -3.634 4
-4.715 -8.413 -3.813 5
-4.759 -8.416 -4.062 5
-4.762 -8.349 -4.258 6
-19.1 -42.753 -4.539 3
-17.518 -38.875 -4.557 5
-16.196 -35.651 -4.578 8
-15.006 -32.753 -4.562 7
-13.991 -30.293 -4.553 6
-13.125 -28.194 -4.555 5
-12.367 -26.345 -4.554 5
-11.729 -24.79 -4.579 6
-11.182 -23.439 -4.616 5
-10.667 -22.187 -4.64 7
-10.223 -21.088 -4.675 11
-9.786 -20.033 -4.69 9
-9.398 -19.082 -4.709 7
-9.036 -18.205 -4.728 6
-8.707 -17.402 -4.748 4
-8.406 -16.671 -4.774 7
-8.124 -15.981 -4.794 9
-7.873 -15.368 -4.83 8
-7.615 -14.751 -4.843 8
-7.391 -14.201 -4.872 8
-7.193 -13.713 -4.917 8
-6.991 -13.218 -4.942 8
-6.792 -12.741 -4.961 33
-6.615 -12.307 -4.992 9
-6.436 -11.879 -5.013 9
-6.272 -11.478 -5.037 8
-6.116 -11.102 -5.066 8
-4.764 -8.573 -3.46 2
-4.714 -8.414 -3.574 5
-4.733 -8.377 -3.783 4
-4.769 -8.365 -4.019 4
-4.799 -8.344 -4.253 17
0.0 -0.0 3.0 0
-17.687 -38.93 -4.567 5
-16.351 -35.7 -4.588 9
-15.153 -32.804 -4.573 7
-14.123 -30.329 -4.562 6
-13.243 -28.214 -4.56 5
-12.482 -26.371 -4.562 6
-11.831 -24.8 -4.582 6
-11.274 -23.437 -4.615 5
-10.764 -22.203 -4.645 17
-10.313 -21.098 -4.679 11
-9.872 -20.041 -4.693 9
-9.479 -19.087 -4.712 6
-9.116 -18.216 -4.732 6
-8.78 -17.403 -4.748 4
-8.477 -16.673 -4.775 7
-8.193 -15.984 -4.796 9
-7.935 -15.362 -4.828 9
-7.677 -14.749 -4.842 8
-7.454 -14.203 -4.873 8
-7.253 -13.713 -4.917 8
-7.046 -13.213 -4.939 8
-6.845 -12.735 -4.958 35
-6.667 -12.301 -4.988 8
-6.49 -11.881 -5.014 9
-6.322 -11.474 -5.034 8
-6.166 -11.102 -5.066 9
-4.803 -8.573 -3.46 7
-4.719 -8.354 -3.527 4
-4.772 -8.377 -3.784 4
-4.775 -8.307 -3.97 9
-4.833 -8.336 -4.246 6
0.0 -0.0 3.0 0
-17.864 -39.003 -4.581 6
-16.498 -35.729 -4.594 10
-15.293 -32.836 -4.581 6
-14.262 -30.379 -4.574 6
-13.358 -28.228 -4.564 5
-12.605 -26.414 -4.574 6
-11.935 -24.814 -4.586 5
-11.374 -23.452 -4.62 5
-10.845 -22.189 -4.64 23
-10.401 -21.106 -4.682 9
-9.956 -20.046 -4.695 7
-9.559 -19.09 -4.713 6
-9.193 -18.219 -4.734 6
-8.855 -17.407 -4.75 4
-8.55 -16.679 -4.777 6
-8.261 -15.984 -4.796 9
-8.001 -15.363 -4.828 8
-7.741 -14.75 -4.843 7
-7.515 -14.201 -4.872 7
-7.312 -13.712 -4.917 8
-7.102 -13.209 -4.937 8
-6.9 -12.733 -4.957 40
-6.723 -12.302 -4.989 8
-6.543 -11.879 -5.012 10
-6.373 -11.473 -5.034 9
-6.215 -11.098 -5.063 10
-4.844 -8.576 -3.462 7
-4.75 -8.339 -3.515 5
-4.754 -8.277 -3.703 5
-4.795 -8.273 -3.941 9
-4.867 -8.325 -4.237 6
0.0 -0.0 3.0 0
-18.034 -39.057 -4.592 6
-16.644 -35.754 -4.6 6
-15.439 -32.883 -4.592 6
-14.388 -30.4 -4.579 6
-13.48 -28.255 -4.571 5
-12.717 -26.432 -4.579 6
-12.042 -24.833 -4.592 5
-11.473 -23.463 -4.624 5
-10.937 -22.194 -4.642 20
-10.494 -21.12 -4.687 9
-10.043 -20.058 -4.699 8
-9.639 -19.092 -4.714 6
-9.271 -18.223 -4.735 6
-8.931 -17.412 -4.752 4
-8.621 -16.681 -4.778 8
-8.33 -15.986 -4.797 9
-8.065 -15.36 -4.826 9
-7.804 -14.748 -4.842 7
-7.572 -14.193 -4.868 7
-7.372 -13.711 -4.916 8
-7.16 -13.209 -4.937 8
-6.955 -12.73 -4.955 41
-6.775 -12.297 -4.986 8
-6.594 -11.874 -5.009 9
-6.423 -11.469 -5.031 8
-6.265 -11.097 -5.063 9
-4.882 -8.572 -3.46 8
-4.787 -8.337 -3.513 5
-4.788 -8.269 -3.696 5
-4.83 -8.267 -3.937 8
-4.906 -8.324 -4.236 5
0.0 -0.0 3.0 0
-18.204 -39.11 -4.602 5
-16.807 -35.814 -4.613 6
-15.579 -32.914 -4.599 6
-14.525 -30.442 -4.59 6
-13.607 -28.292 -4.581 5
-12.827 -26.447 -4.584 4
-12.145 -24.842 -4.595 5
-11.58 -23.491 -4.633 5
-11.036 -22.213 -4.649 8
-10.584 -21.13 -4.691 9
-10.124 -20.055 -4.698 8
-9.717 -19.091 -4.713 6
-9.348 -18.226 -4.736 6
-9.002 -17.409 -4.751 5
-8.691 -16.679 -4.777 6
-8.396 -15.982 -4.795 9
-8.135 -15.366 -4.829 8
-7.867 -14.745 -4.84 7
-7.635 -14.194 -4.868 9
-7.431 -13.71 -4.915 8
-7.215 -13.202 -4.933 8
-7.012 -12.73 -4.955 39
-6.829 -12.295 -4.984 9
-6.649 -11.876 -5.01 9
-6.475 -11.468 -5.03 8
-6.312 -11.091 -5.058 9
-4.921 -8.572 -3.46 8
-4.771 -8.242 -3.439 7
-4.822 -8.26 -3.689 5
-4.883 -8.29 -3.956 5
-4.942 -8.319 -4.232 5
0.0 -0.0 3.0 0
-18.388 -39.192 -4.618 5
-16.962 -35.857 -4.622 5
-15.743 -32.995 -4.618 6
-14.665 -30.489 -4.602 6
-13.728 -28.314 -4.587 5
-12.94 -26.464 -4.588 5
-12.256 -24.868 -4.603 6
-11.679 -23.502 -4.636 5
-11.131 -22.225 -4.653 7
-10.67 -21.129 -4.69 9
-10.212 -20.066 -4.702 8
-9.8 -19.1 -4.717 6
-9.424 -18.226 -4.736 6
-9.076 -17.41 -4.751 5
-8.763 -16.68 -4.778 6
-8.466 -15.984 -4.796 9
-8.198 -15.359 -4.826 8
-7.933 -14.749 -4.842 5
-7.696 -14.193 -4.867 8
-7.489 -13.705 -4.912 7
-7.275 -13.204 -4.934 8
-7.067 -12.727 -4.952 41
-6.883 -12.292 -4.982 8
-6.7 -11.87 -5.007 9
-6.528 -11.469 -5.031 7
-6.36 -11.083 -5.052 9
-4.959 -8.569 -3.457 8
-4.82 -8.259 -3.453 7
-4.854 -8.249 -3.68 5
-4.92 -8.287 -3.953 6
-4.985 -8.324 -4.236 5
0.0 -0.0 3.0 0
-18.58 -39.287 -4.637 5
-17.136 -35.937 -4.639 14
-15.891 -33.04 -4.628 6
-14.797 -30.519 -4.609 6
-13.858 -28.353 -4.597 4
-13.057 -26.492 -4.596 5
-12.362 -24.884 -4.608 5
-11.775 -23.505 -4.637 5
-11.225 -22.233 -4.656 8
-10.761 -21.138 -4.693 9
-10.297 -20.07 -4.704 7
-9.882 -19.104 -4.719 6
-9.504 -18.231 -4.739 6
-9.153 -17.416 -4.754 6
-8.833 -16.678 -4.777 6
-8.53 -15.976 -4.792 12
-8.264 -15.359 -4.826 8
-7.994 -14.743 -4.839 7
-7.757 -14.19 -4.866 9
-7.548 -13.7 -4.91 8
-7.33 -13.197 -4.93 9
-7.124 -12.727 -4.953 39
-6.937 -12.289 -4.98 8
-6.751 -11.865 -5.003 9
-6.576 -11.462 -5.026 9
-6.412 -11.086 -5.054 10
-4.995 -8.563 -3.453 8
-4.858 -8.259 -3.453 7
-4.896 -8.255 -3.685 5
-4.956 -8.281 -3.949 5
-5.025 -8.324 -4.236 5
0.0 -0.0 3.0 0
-18.752 -39.338 -4.646 5
-17.282 -35.958 -4.643 14
-16.045 -33.099 -4.641 5
-14.938 -30.566 -4.621 6
-13.998 -28.413 -4.613 4
-13.179 -26.526 -4.606 5
-12.476 -24.913 -4.617 5
-11.874 -23.514 -4.64 5
-11.316 -22.234 -4.656 7
-10.85 -21.144 -4.696 9
-10.383 -20.076 -4.707 7
-9.966 -19.112 -4.722 7
-9.583 -18.237 -4.741 6
-9.229 -17.42 -4.756 6
-8.904 -16.679 -4.777 7
-8.602 -15.981 -4.794 9
-8.328 -15.355 -4.824 7
-8.058 -14.743 -4.839 7
-7.819 -14.188 -4.864 9
-7.609 -13.702 -4.911 8
-7.387 -13.193 -4.927 9
-7.18 -12.723 -4.95 41
-6.993 -12.289 -4.981 8
-6.804 -11.863 -5.002 9
-6.628 -11.46 -5.024 10
-6.459 -11.078 -5.049 10
-5.03 -8.553 -3.445 8
-4.895 -8.256 -3.45 7
-4.932 -8.248 -3.679 4
-5.0 -8.289 -3.955 6
-5.07 -8.332 -4.243 5
0.0 -0.0 3.0 0
-18.936 -39.413 -4.661 5
-17.44 -36.001 -4.652 6
-16.197 -33.149 -4.653 15
-15.081 -30.615 -4.633 6
-14.127 -28.448 -4.623 4
-13.297 -26.552 -4.614 5
-12.595 -24.951 -4.628 2
-11.981 -23.538 -4.648 4
-11.415 -22.251 -4.662 7
-10.943 -21.155 -4.7 12
-10.471 -20.086 -4.71 8
-10.048 -19.117 -4.724 6
-9.659 -18.236 -4.741 6
-9.304 -17.423 -4.757 6
-8.978 -16.682 -4.779 8
-8.673 -15.986 -4.797 8
-8.395 -15.354 -4.823 8
-8.123 -14.743 -4.839 8
-7.882 -14.189 -4.865 9
-7.667 -13.697 -4.908 8
-7.444 -13.188 -4.924 8
-7.233 -12.716 -4.946 41
-7.045 -12.283 -4.977 8
-6.856 -11.86 -5.0 9
-6.678 -11.455 -5.021 9
-6.511 -11.08 -5.05 10
-5.063 -8.54 -3.436 8
-4.936 -8.258 -3.452 10
-4.971 -8.248 -3.679 5
-5.04 -8.289 -3.955 5
-5.113 -8.336 -4.247 6
0.0 -0.0 3.0 0
-19.126 -39.498 -4.678 5
-17.614 -36.075 -4.668 6
-16.339 -33.178 -4.66 14
-15.213 -30.64 -4.639 6
-14.259 -28.489 -4.634 3
-13.409 -26.564 -4.617 4
-12.706 -24.972 -4.635 1
-12.079 -23.543 -4.65 4
-11.512 -22.262 -4.665 8
-11.033 -21.16 -4.702 12
-10.556 -20.089 -4.711 8
-10.132 -19.124 -4.727 6
-9.741 -18.244 -4.744 6
-9.376 -17.419 -4.755 6
-9.05 -16.683 -4.78 8
-8.74 -15.981 -4.794 9
-8.463 -15.356 -4.824 8
-8.184 -14.736 -4.835 7
-7.943 -14.186 -4.864 8
-7.727 -13.694 -4.906 8
-7.502 -13.187 -4.924 9
-7.29 -12.715 -4.945 39
-7.101 -12.283 -4.976 7
-6.911 -11.861 -5.0 9
-6.728 -11.449 -5.017 9
-6.56 -11.075 -5.046 10
-5.092 -8.522 -3.422 8
-4.967 -8.246 -3.443 7
-5.013 -8.253 -3.683 4
-5.082 -8.293 -3.959 5
-5.159 -8.347 -4.256 5
0.0 -0.0 3.0 0
-19.308 -39.566 -4.691 5
-17.783 -36.14 -4.682 6
-16.482 -33.206 -4.666 9
-15.364 -30.703 -4.655 6
-14.39 -28.526 -4.644 4
-13.534 -26.604 -4.628 5
-12.816 -24.993 -4.641 1
-12.186 -23.565 -4.657 4
-11.606 -22.268 -4.668 8
-11.125 -21.168 -4.705 11
-10.645 -20.098 -4.715 8
-10.214 -19.128 -4.728 7
-9.819 -18.245 -4.745 6
-9.454 -17.425 -4.758 5
-9.122 -16.683 -4.78 8
-8.81 -15.982 -4.795 8
-8.531 -15.357 -4.825 8
-8.249 -14.735 -4.835 8
-8.002 -14.179 -4.86 8
-7.787 -13.692 -4.905 8
-7.562 -13.188 -4.924 8
-7.346 -12.711 -4.943 39
-7.155 -12.279 -4.974 8
-6.962 -11.855 -4.996 9
-6.78 -11.447 -5.016 6
-6.609 -11.07 -5.043 9
-5.123 -8.507 -3.411 8
-5.006 -8.246 -3.443 7
-5.052 -8.253 -3.683 4
-5.124 -8.296 -3.961 5
-5.211 -8.366 -4.272 4
0.0 -0.0 3.0 0
-19.493 -39.635 -4.704 5
-17.953 -36.203 -4.695 6
-16.628 -33.241 -4.674 8
-15.503 -30.741 -4.665 6
-14.511 -28.542 -4.648 4
-13.655 -26.632 -4.637 5
-12.922 -25.003 -4.644 4
-12.293 -23.587 -4.664 5
-11.706 -22.285 -4.673 7
-11.216 -21.176 -4.707 12
-10.732 -20.103 -4.717 7
-10.297 -19.131 -4.729 7
-9.899 -18.25 -4.747 6
-9.532 -17.43 -4.76 5
-9.194 -16.683 -4.78 6
-8.88 -15.983 -4.795 9
-8.596 -15.353 -4.823 8
-8.312 -14.732 -4.833 10
-8.067 -14.183 -4.862 9
-7.847 -13.689 -4.904 8
-7.617 -13.181 -4.92 8
-7.403 -12.71 -4.942 39
-7.209 -12.276 -4.972 8
-7.015 -11.852 -4.994 9
-6.835 -11.451 -5.018 8
-6.658 -11.065 -5.04 9
-5.153 -8.492 -3.399 8
-5.036 -8.231 -3.431 7
-5.095 -8.258 -3.687 4
-5.173 -8.311 -3.974 5
-5.265 -8.386 -4.29 3
0.0 -0.0 3.0 0
-19.68 -39.707 -4.718 4
-18.118 -36.255 -4.706 5
-16.788 -33.304 -4.689 6
-15.645 -30.782 -4.675 6
-14.634 -28.561 -4.653 4
-13.775 -26.657 -4.644 5
-13.028 -25.012 -4.647 5
-12.395 -23.598 -4.667 5
-11.803 -22.294 -4.676 8
-11.31 -21.187 -4.711 12
-10.817 -20.105 -4.718 8
-10.381 -19.137 -4.732 7
-9.981 -18.257 -4.75 6
-9.604 -17.426 -4.758 6
-9.268 -16.686 -4.781 6
-8.952 -15.986 -4.797 9
-8.662 -15.351 -4.822 8
-8.378 -14.733 -4.834 7
-8.127 -14.176 -4.858 9
-7.907 -13.687 -4.902 8
-7.676 -13.178 -4.918 9
-7.459 -12.706 -4.94 35
-7.265 -12.275 -4.971 9
-7.067 -11.846 -4.99 9
-6.885 -11.445 -5.014 9
-6.709 -11.064 -5.038 9
-5.188 -8.483 -3.392 8
-5.07 -8.222 -3.423 6
-5.137 -8.263 -3.691 5
-5.223 -8.327 -3.987 5
-5.317 -8.404 -4.306 7
0.0 -0.0 3.0 0
-19.885 -39.815 -4.739 5
-18.288 -36.313 -4.719 5
-16.966 -33.397 -4.71 6
-15.788 -30.826 -4.686 6
-14.768 -28.601 -4.664 4
-13.895 -26.681 -4.651 5
-13.136 -25.025 -4.651 5
-12.505 -23.623 -4.675 4
-11.904 -22.31 -4.682 8
-11.399 -21.187 -4.711 9
-10.906 -20.114 -4.721 8
-10.464 -19.14 -4.733 7
-10.063 -18.265 -4.753 6
-9.684 -17.434 -4.762 6
-9.34 -16.685 -4.78 6
-9.022 -15.986 -4.797 9
-8.733 -15.356 -4.824 8
-8.445 -14.735 -4.835 7
-8.194 -14.182 -4.861 9
-7.968 -13.684 -4.9 8
-7.735 -13.176 -4.917 8
-7.514 -12.701 -4.937 35
-7.318 -12.267 -4.967 8
-7.121 -11.845 -4.99 9
-6.937 -11.442 -5.012 9
-6.76 -11.061 -5.036 10
-5.225 -8.478 -3.389 8
-5.108 -8.221 -3.423 5
-5.183 -8.272 -3.699 4
-5.279 -8.351 -4.007 4
-5.784 -9.072 -4.887 9
0.0 -0.0 3.0 0
-20.082 -39.903 -4.756 5
-18.464 -36.384 -4.734 5
-17.111 -33.427 -4.717 5
-15.921 -30.848 -4.691 5
-14.897 -28.629 -4.671 4
-14.015 -26.705 -4.657 5
-13.255 -25.057 -4.661 5
-12.604 -23.626 -4.677 5
-11.997 -22.312 -4.683 7
-11.491 -21.193 -4.714 9
-10.999 -20.128 -4.726 8
-10.545 -19.14 -4.733 7
-10.138 -18.258 -4.75 6
-9.762 -17.438 -4.764 6
-9.414 -16.688 -4.782 8
-9.092 -15.986 -4.797 9
-8.799 -15.353 -4.823 8
-8.512 -14.737 -4.836 7
-8.252 -14.172 -4.856 8
-8.03 -13.684 -4.9 8
-7.794 -13.174 -4.916 8
-7.573 -12.702 -4.937 37
-7.374 -12.267 -4.966 8
-7.176 -11.844 -4.989 9
-6.987 -11.436 -5.008 9
-6.811 -11.059 -5.035 9
-5.263 -8.474 -3.386 8
-5.153 -8.228 -3.429 5
-5.237 -8.294 -3.717 4
-5.325 -8.361 -4.016 0
-5.828 -9.073 -4.887 9
0.0 -0.0 3.0 0
-20.296 -40.023 -4.78 6
-18.645 -36.463 -4.75 5
-17.27 -33.479 -4.729 6
-16.068 -30.894 -4.703 5
-15.03 -28.663 -4.68 4
-13.123 -24.816 -4.116 1
-13.369 -25.079 -4.667 5
-12.714 -23.649 -4.684 4
-12.096 -22.323 -4.686 8
-11.585 -21.203 -4.717 12
-11.089 -20.136 -4.729 12
-10.632 -19.148 -4.736 7
-10.222 -18.269 -4.755 6
-9.835 -17.433 -4.762 6
-9.489 -16.69 -4.783 6
-9.161 -15.984 -4.796 9
-8.866 -15.35 -4.821 9
-8.575 -14.733 -4.834 7
-8.316 -14.171 -4.855 8
-8.088 -13.678 -4.897 8
-7.851 -13.168 -4.912 8
-7.629 -12.698 -4.934 31
-7.43 -12.265 -4.965 9
-7.228 -11.838 -4.985 9
-7.041 -11.436 -5.007 8
-6.862 -11.056 -5.033 9
-5.305 -8.475 -3.386 8
-5.2 -8.241 -3.439 5
-5.287 -8.31 -3.729 3
-6.198 -9.657 -5.103 16
-5.871 -9.07 -4.885 10
0.0 -0.0 3.0 0
-20.482 -40.085 -4.792 5
-18.816 -36.518 -4.762 6
-17.447 -33.567 -4.749 10
-16.198 -30.908 -4.706 5
-15.165 -28.702 -4.691 4
-13.178 -24.729 -4.091 27
-13.473 -25.08 -4.668 5
-12.817 -23.659 -4.687 4
-12.199 -22.342 -4.693 7
-11.674 -21.202 -4.717 9
-11.171 -20.13 -4.727 24
-10.717 -19.154 -4.739 7
-10.301 -18.268 -4.754 6
-9.915 -17.44 -4.765 6
-9.561 -16.689 -4.782 6
-9.235 -15.989 -4.798 9
-8.933 -15.348 -4.82 8
-8.638 -14.728 -4.831 7
-8.381 -14.173 -4.856 8
-8.15 -13.677 -4.897 8
-7.91 -13.165 -4.91 8
-7.687 -12.695 -4.933 31
-7.483 -12.258 -4.96 9
-7.281 -11.834 -4.982 8
-7.091 -11.43 -5.003 9
-6.911 -11.05 -5.029 9
-5.342 -8.471 -3.383 8
-5.252 -8.26 -3.453 4
-6.398 -9.98 -5.082 39
-6.243 -9.654 -5.1 17
-5.911 -9.062 -4.878 11
0.0 -0.0 3.0 0
-20.693 -40.196 -4.813 6
-19.004 -36.606 -4.781 5
-17.603 -33.612 -4.76 16
-16.347 -30.956 -4.718 5
-15.293 -28.725 -4.697 4
-13.202 -24.587 -4.05 22
-13.591 -25.108 -4.676 5
-12.925 -23.678 -4.694 4
-12.293 -22.342 -4.693 7
-11.774 -21.221 -4.724 10
-11.257 -20.131 -4.727 22
-10.8 -19.155 -4.739 7
-10.382 -18.271 -4.755 6
-9.99 -17.437 -4.764 6
-9.637 -16.693 -4.784 7
-9.306 -15.988 -4.798 9
-9.004 -15.351 -4.822 8
-8.709 -14.735 -4.835 4
-8.441 -14.166 -4.852 8
-8.209 -13.671 -4.893 8
-7.97 -13.165 -4.91 8
-7.744 -12.693 -4.932 25
-7.541 -12.259 -4.961 8
-7.334 -11.83 -4.979 8
-7.145 -11.43 -5.003 8
-6.962 -11.048 -5.027 10
-5.375 -8.457 -3.373 1
-5.303 -8.278 -3.467 3
-6.444 -9.976 -5.079 39
-6.285 -9.645 -5.093 23
-5.955 -9.063 -4.878 9
0.0 -0.0 3.0 0
-20.888 -40.271 -4.828 6
-19.174 -36.657 -4.792 6
-17.751 -33.639 -4.766 22
-16.49 -30.993 -4.727 6
-15.429 -28.761 -4.707 4
-13.198 -24.395 -3.995 26
-13.247 -24.287 -4.425 10
-13.032 -23.693 -4.698 4
-12.395 -22.356 -4.698 7
-11.872 -21.236 -4.729 14
-11.345 -20.134 -4.729 15
-10.889 -19.166 -4.744 7
-10.465 -18.277 -4.758 6
-10.068 -17.441 -4.765 6
-9.714 -16.698 -4.786 8
-9.379 -15.991 -4.799 9
-9.075 -15.354 -4.823 8
-8.773 -14.729 -4.832 7
-8.505 -14.164 -4.851 8
-8.271 -13.67 -4.892 8
-8.029 -13.162 -4.908 9
-7.802 -12.69 -4.93 23
-7.596 -12.255 -4.958 8
-7.391 -11.831 -4.98 7
-7.195 -11.423 -4.998 8
-7.013 -11.045 -5.024 9
-6.84 -10.683 -5.05 10
-6.661 -10.319 -5.062 10
-6.49 -9.973 -5.076 32
-6.333 -9.647 -5.095 20
-5.999 -9.06 -4.876 9
0.0 -0.0 3.0 0
-21.094 -40.366 -4.846 5
-19.347 -36.711 -4.803 6
-17.902 -33.673 -4.774 27
-16.634 -31.03 -4.737 6
-15.559 -28.788 -4.714 4
-13.232 -24.273 -3.96 13
-13.191 -24.004 -4.339 12
-13.138 -23.706 -4.702 4
-12.496 -22.37 -4.703 7
-11.96 -21.232 -4.728 22
-11.437 -20.143 -4.732 10
-10.974 -19.171 -4.745 7
-10.549 -18.285 -4.762 6
-10.147 -17.445 -4.767 5
-9.785 -16.692 -4.784 6
-9.449 -15.99 -4.799 9
-9.144 -15.354 -4.823 8
-8.84 -14.73 -4.832 6
-8.569 -14.162 -4.85 8
-8.332 -13.666 -4.89 8
-8.086 -13.156 -4.905 8
-7.859 -12.688 -4.928 21
-7.652 -12.252 -4.957 9
-7.443 -11.824 -4.976 8
-7.248 -11.419 -4.996 8
-7.064 -11.042 -5.022 9
-6.887 -10.675 -5.044 10
-6.71 -10.317 -5.061 11
-6.538 -9.971 -5.074 38
-6.375 -9.638 -5.087 21
-6.04 -9.055 -4.871 9
0.0 -0.0 3.0 0
-21.292 -40.442 -4.861 6
-19.518 -36.761 -4.814 6
-18.059 -33.716 -4.784 34
-16.786 -31.081 -4.749 6
-15.686 -28.806 -4.719 5
-13.26 -24.142 -3.923 34
-13.224 -23.883 -4.302 35
-13.243 -23.717 -4.706 4
-12.597 -22.379 -4.706 7
-12.051 -21.233 -4.728 24
-11.532 -20.159 -4.738 8
-11.058 -19.171 -4.746 7
-10.629 -18.284 -4.761 6
-10.226 -17.448 -4.768 6
-9.865 -16.703 -4.789 6
-9.524 -15.994 -4.801 9
-9.211 -15.351 -4.822 8
-8.903 -14.724 -4.829 7
-8.632 -14.161 -4.849 8
-8.396 -13.667 -4.891 8
-8.146 -13.152 -4.903 8
-7.919 -12.688 -4.929 16
-7.709 -12.251 -4.956 9
-7.498 -11.823 -4.975 9
-7.302 -11.419 -4.995 8
-7.115 -11.039 -5.02 10
-6.938 -10.675 -5.044 11
-6.759 -10.315 -5.059 10
-6.586 -9.97 -5.073 38
-6.424 -9.639 -5.088 19
-6.081 -9.049 -4.866 9
0.0 -0.0 3.0 0
-21.479 -40.497 -4.872 6
-19.708 -36.845 -4.832 6
-18.219 -33.762 -4.795 26
-16.931 -31.116 -4.758 5
-15.816 -28.827 -4.724 4
-13.3 -24.034 -3.892 39
-13.255 -23.759 -4.264 44
-13.349 -23.728 -4.71 4
-12.699 -22.392 -4.71 7
-12.148 -21.244 -4.732 14
-11.621 -20.161 -4.739 8
-11.144 -19.175 -4.747 7
-10.71 -18.285 -4.762 6
-10.303 -17.447 -4.768 6
-9.938 -16.701 -4.788 6
-9.595 -15.993 -4.8 10
-9.282 -15.353 -4.823 8
-8.971 -14.724 -4.829 5
-8.696 -14.158 -4.848 7
-8.457 -13.663 -4.888 8
-8.205 -13.148 -4.9 9
-7.977 -12.685 -4.927 14
-7.763 -12.245 -4.952 8
-7.55 -11.816 -4.97 9
-7.352 -11.412 -4.991 8
-7.168 -11.038 -5.02 8
-6.988 -10.672 -5.042 12
-6.804 -10.308 -5.053 11
-6.63 -9.962 -5.067 40
-6.467 -9.633 -5.083 20
-6.124 -9.046 -4.863 9
0.0 -0.0 3.0 0
-21.676 -40.57 -4.886 6
-19.901 -36.931 -4.85 5
-18.382 -33.815 -4.807 22
-17.075 -31.148 -4.766 5
-15.951 -28.859 -4.733 5
-13.33 -23.91 -3.856 32
-13.307 -23.676 -4.239 77
-13.455 -23.739 -4.713 5
-12.807 -22.414 -4.718 16
-12.253 -21.267 -4.74 9
-11.715 -20.174 -4.744 8
-11.229 -19.179 -4.749 7
-10.793 -18.29 -4.764 6
-10.384 -17.453 -4.771 6
-10.015 -16.704 -4.789 8
-9.668 -15.994 -4.801 9
-9.352 -15.352 -4.822 8
-9.036 -14.721 -4.827 7
-8.762 -14.159 -4.849 8
-8.521 -13.664 -4.889 8
-8.264 -13.145 -4.898 8
-8.031 -12.676 -4.921 10
-7.818 -12.24 -4.948 9
-7.607 -11.816 -4.97 9
-7.406 -11.41 -4.989 8
-7.217 -11.031 -5.015 9
-7.037 -10.667 -5.038 11
-6.853 -10.305 -5.051 10
-6.678 -9.96 -5.065 33
-6.514 -9.631 -5.082 20
-6.165 -9.04 -4.858 9
0.0 -0.0 3.0 0
-21.877 -40.647 -4.901 5
-20.085 -37.0 -4.865 6
-18.53 -33.835 -4.811 9
-17.226 -31.192 -4.777 6
-16.09 -28.896 -4.743 5
-13.368 -23.802 -3.825 33
-13.367 -23.607 -4.217 61
-13.567 -23.759 -4.72 4
-12.898 -22.406 -4.715 20
-12.349 -21.274 -4.743 9
-11.808 -20.182 -4.747 8
-11.319 -19.188 -4.752 7
-10.877 -18.295 -4.766 6
-10.461 -17.452 -4.77 6
-10.09 -16.704 -4.789 6
-9.739 -15.992 -4.8 9
-9.425 -15.357 -4.825 5
-9.108 -14.727 -4.831 8
-8.826 -14.157 -4.847 8
-8.584 -13.662 -4.888 8
-8.325 -13.144 -4.898 8
-8.091 -12.676 -4.921 9
-7.876 -12.24 -4.949 9
-7.66 -11.812 -4.967 9
-7.46 -11.409 -4.989 8
-7.268 -11.028 -5.012 10
-7.089 -10.666 -5.037 11
-6.902 -10.303 -5.049 10
-6.721 -9.95 -5.057 23
-6.557 -9.625 -5.076 17
-6.21 -9.04 -4.858 10
0.0 -0.0 3.0 0
-22.066 -40.7 -4.911 6
-20.269 -37.068 -4.879 6
-18.717 -33.927 -4.833 6
-17.379 -31.241 -4.789 5
-13.975 -24.914 -3.676 6
-13.462 -23.793 -3.822 26
-13.43 -23.544 -4.198 56
-13.678 -23.776 -4.725 4
-12.993 -22.405 -4.715 19
-12.443 -21.277 -4.744 8
-11.898 -20.187 -4.749 8
-11.401 -19.184 -4.751 7
-10.962 -18.301 -4.768 5
-10.542 -17.457 -4.772 6
-10.166 -16.703 -4.789 8
-9.813 -15.993 -4.8 9
-9.49 -15.349 -4.821 5
-9.174 -14.723 -4.828 8
-8.89 -14.153 -4.845 8
-8.645 -13.657 -4.885 8
-8.386 -13.142 -4.897 9
-8.147 -12.669 -4.916 9
-7.933 -12.237 -4.947 9
-7.716 -11.809 -4.965 9
-7.513 -11.405 -4.986 8
-7.319 -11.024 -5.009 10
-7.137 -10.66 -5.033 11
-6.949 -10.297 -5.045 10
-6.77 -9.95 -5.058 15
-6.602 -9.62 -5.072 17
-6.253 -9.037 -4.855 11
0.0 -0.0 3.0 0
-22.284 -40.804 -4.931 5
-20.462 -37.149 -4.896 6
-18.89 -33.992 -4.848 6
-17.533 -31.288 -4.801 6
-14.074 -24.907 -3.674 7
-13.548 -23.77 -3.816 28
-13.508 -23.507 -4.187 58
-13.79 -23.795 -4.731 4
-13.1 -22.423 -4.721 8
-12.538 -21.283 -4.746 9
-11.989 -20.19 -4.75 8
-11.495 -19.199 -4.757 7
-11.044 -18.302 -4.769 6
-10.618 -17.452 -4.77 6
-10.247 -16.712 -4.793 8
-9.89 -16.0 -4.804 9
-9.564 -15.354 -4.823 8
-9.239 -14.72 -4.827 8
-8.956 -14.154 -4.845 8
-8.704 -13.649 -4.88 6
-8.444 -13.135 -4.892 8
-8.207 -12.668 -4.916 9
-7.986 -12.228 -4.941 8
-7.769 -11.804 -4.962 8
-7.567 -11.403 -4.984 8
-7.373 -11.023 -5.009 10
-7.187 -10.657 -5.03 10
-6.999 -10.294 -5.043 11
-6.819 -9.948 -5.056 12
-6.649 -9.618 -5.071 17
-6.304 -9.044 -4.862 11
0.0 -0.0 3.0 0
-22.499 -40.9 -4.95 5
-20.657 -37.232 -4.914 6
-19.079 -34.083 -4.869 5
-17.69 -31.337 -4.813 6
-14.171 -24.895 -3.671 0
-13.632 -23.743 -3.808 27
-13.598 -23.49 -4.182 57
-13.899 -23.807 -4.735 4
-13.208 -22.443 -4.728 7
-12.633 -21.286 -4.747 8
-12.082 -20.198 -4.753 8
-11.58 -19.199 -4.757 7
-11.128 -18.305 -4.77 6
-10.703 -17.463 -4.775 5
-10.318 -16.705 -4.79 6
-9.959 -15.994 -4.801 9
-9.635 -15.355 -4.824 8
-9.307 -14.719 -4.826 7
-9.023 -14.154 -4.846 7
-8.77 -13.653 -4.882 8
-8.505 -13.133 -4.891 9
-8.263 -12.662 -4.912 9
-8.045 -12.227 -4.941 8
-7.825 -11.802 -4.96 9
-7.619 -11.398 -4.981 7
-7.424 -11.019 -5.006 9
-7.236 -10.65 -5.025 11
-7.046 -10.288 -5.038 10
-6.865 -9.943 -5.052 12
-6.693 -9.611 -5.065 17
-6.351 -9.045 -4.863 13
0.0 -0.0 3.0 0
-22.707 -40.981 -4.966 5
-20.827 -37.267 -4.921 5
-19.251 -34.142 -4.882 5
-17.843 -31.38 -4.824 6
0.0 -0.0 3.0 0
-13.709 -23.702 -3.796 6
-13.687 -23.473 -4.176 56
-14.008 -23.819 -4.739 4
-13.314 -22.457 -4.733 7
-12.731 -21.294 -4.75 8
-12.174 -20.201 -4.755 8
-11.668 -19.203 -4.759 7
-11.212 -18.309 -4.772 6
-10.781 -17.46 -4.774 6
-10.396 -16.708 -4.791 6
-10.035 -15.996 -4.802 9
-9.707 -15.355 -4.824 8
-9.375 -14.717 -4.825 7
-9.091 -14.156 -4.847 7
-8.833 -13.65 -4.881 8
-8.565 -13.129 -4.888 9
-8.321 -12.657 -4.909 9
-8.104 -12.227 -4.94 8
-7.88 -11.799 -4.959 9
-7.67 -11.391 -4.976 9
-7.475 -11.014 -5.002 9
-7.288 -10.649 -5.025 11
-7.095 -10.285 -5.036 11
-6.915 -9.944 -5.052 11
-6.74 -9.609 -5.063 16
-6.392 -9.039 -4.857 28
0.0 -0.0 3.0 0
-22.927 -41.083 -4.986 5
-21.017 -37.338 -4.936 5
-19.418 -34.191 -4.894 6
-17.991 -31.411 -4.832 6
-14.234 -24.645 -3.604 4
0.0 -0.0 3.0 0
-13.783 -23.465 -4.174 55
-14.119 -23.834 -4.744 4
-13.417 -22.467 -4.736 7
-12.829 -21.303 -4.754 8
-12.267 -20.208 -4.757 8
-11.753 -19.202 -4.758 8
-11.296 -18.311 -4.772 6
-10.862 -17.465 -4.776 6
-10.477 -16.716 -4.795 7
-10.108 -15.996 -4.802 9
-9.775 -15.35 -4.821 8
-9.445 -14.719 -4.826 7
-9.153 -14.15 -4.843 7
-8.898 -13.65 -4.881 8
-8.626 -13.126 -4.887 9
-8.381 -12.656 -4.908 9
-8.159 -12.221 -4.936 9
-7.934 -11.793 -4.955 9
-7.728 -11.394 -4.978 8
-7.531 -11.016 -5.004 10
-7.336 -10.642 -5.02 11
-7.142 -10.279 -5.031 11
-6.957 -9.933 -5.044 16
-6.787 -9.607 -5.061 18
-6.443 -9.046 -4.864 21
0.0 -0.0 3.0 0
-23.144 -41.176 -5.004 5
-21.217 -37.423 -4.955 5
-19.581 -34.231 -4.903 6
-18.156 -31.473 -4.847 6
-14.291 -24.565 -3.582 18
-13.886 -23.664 -3.785 24
-13.873 -23.448 -4.169 51
-14.156 -23.722 -4.708 2
-13.523 -22.48 -4.741 7
-12.928 -21.311 -4.756 9
-12.36 -20.214 -4.759 8
-11.844 -19.209 -4.761 7
-11.38 -18.314 -4.774 6
-10.946 -17.471 -4.779 6
-10.551 -16.711 -4.792 7
-10.184 -15.999 -4.803 9
-9.849 -15.354 -4.823 8
-9.513 -14.717 -4.825 8
-9.222 -14.152 -4.844 7
-8.959 -13.644 -4.877 8
-8.686 -13.122 -4.884 9
-8.441 -12.655 -4.907 9
-8.217 -12.22 -4.935 8
-7.992 -11.793 -4.954 9
-7.781 -11.389 -4.975 8
-7.58 -11.009 -4.998 10
-7.386 -10.639 -5.017 12
-7.191 -10.276 -5.029 11
-7.005 -9.93 -5.041 31
-6.828 -9.597 -5.053 21
-6.487 -9.042 -4.86 17
0.0 -0.0 3.0 0
-23.37 -41.282 -5.024 4
-21.393 -37.465 -4.963 6
-19.747 -34.275 -4.913 7
-18.305 -31.503 -4.855 6
-14.373 -24.529 -3.573 18
-13.986 -23.663 -3.785 49
-13.969 -23.44 -4.166 52
-14.116 -23.486 -4.631 2
-13.625 -22.486 -4.742 7
-13.026 -21.318 -4.759 9
-12.454 -20.22 -4.762 9
-11.93 -19.21 -4.761 7
-11.465 -18.315 -4.774 6
-11.024 -17.469 -4.778 6
-10.631 -16.715 -4.794 7
-10.262 -16.004 -4.806 9
-9.921 -15.354 -4.823 8
-9.581 -14.716 -4.824 8
-9.288 -14.151 -4.844 8
-9.026 -13.647 -4.879 8
-8.745 -13.116 -4.881 9
-8.499 -12.65 -4.905 9
-8.274 -12.216 -4.933 9
-8.045 -11.787 -4.95 9
-7.833 -11.383 -4.97 8
-7.634 -11.006 -4.997 9
-7.439 -10.637 -5.016 11
-7.241 -10.272 -5.026 11
-7.056 -9.93 -5.041 33
-6.881 -9.603 -5.058 17
-6.532 -9.04 -4.859 15
-25.884 -45.818 -5.079 4
-23.592 -41.381 -5.044 4
-21.594 -37.549 -4.981 6
-19.911 -34.315 -4.922 6
-18.483 -31.583 -4.875 7
-14.461 -24.504 -3.566 17
-14.086 -23.661 -3.785 52
-14.065 -23.432 -4.164 43
-14.231 -23.506 -4.638 0
-13.733 -22.501 -4.748 7
-13.125 -21.325 -4.762 9
-12.55 -20.228 -4.765 8
-12.023 -19.22 -4.765 8
-11.549 -18.317 -4.775 6
-11.108 -17.475 -4.78 6
-10.707 -16.713 -4.794 6
-10.336 -16.004 -4.805 9
-9.989 -15.348 -4.82 8
-9.652 -14.717 -4.825 8
-9.353 -14.147 -4.842 8
-9.086 -13.637 -4.873 8
-8.813 -13.122 -4.885 9
-8.56 -12.648 -4.903 9
-8.329 -12.209 -4.928 9
-8.101 -11.783 -4.948 9
-7.89 -11.383 -4.97 8
-7.687 -11.004 -4.995 10
-7.489 -10.633 -5.013 11
-7.288 -10.266 -5.021 11
-7.098 -9.919 -5.032 38
-6.921 -9.589 -5.046 16
-6.575 -9.036 -4.855 16
-26.119 -45.909 -5.095 11
-23.81 -41.468 -5.061 4
-21.789 -37.62 -4.996 5
-20.104 -34.401 -4.942 8
-18.644 -31.633 -4.887 6
-14.549 -24.477 -3.559 17
-14.184 -23.656 -3.783 50
-14.173 -23.443 -4.167 21
-14.368 -23.562 -4.656 1
-13.837 -22.51 -4.751 7
-13.224 -21.332 -4.764 9
-12.646 -20.237 -4.768 8
-12.111 -19.221 -4.766 7
-11.636 -18.322 -4.777 6
-11.187 -17.471 -4.779 6
-10.787 -16.717 -4.795 7
-10.408 -15.999 -4.803 9
-10.065 -15.354 -4.823 8
-9.722 -14.717 -4.825 8
-9.422 -14.148 -4.842 5
-9.149 -13.633 -4.871 8
-8.869 -13.11 -4.878 9
-8.622 -12.649 -4.904 9
-8.391 -12.21 -4.929 8
-8.159 -11.782 -4.947 9
-7.943 -11.378 -4.967 7
-7.737 -10.997 -4.99 10
-7.54 -10.629 -5.009 12
-7.337 -10.263 -5.018 11
-7.148 -9.918 -5.032 35
-6.972 -9.592 -5.049 17
-6.617 -9.029 -4.849 15
-26.343 -45.98 -5.108 16
-24.048 -41.589 -5.084 4
-21.981 -37.685 -5.01 6
-20.271 -34.442 -4.952 7
-18.804 -31.679 -4.898 6
-14.651 -24.474 -3.558 11
-14.284 -23.654 -3.783 40
-14.299 -23.484 -4.18 3
-14.461 -23.546 -4.651 1
-13.944 -22.521 -4.755 7
-13.323 -21.339 -4.767 8
-12.738 -20.239 -4.769 8
-12.204 -19.23 -4.769 10
-11.72 -18.323 -4.778 6
-11.271 -17.477 -4.781 5
-10.867 -16.72 -4.797 6
-10.484 -16.001 -4.804 9
-10.135 -15.35 -4.821 8
-9.79 -14.714 -4.824 8
-9.489 -14.146 -4.841 6
-9.214 -13.633 -4.871 8
-8.932 -13.11 -4.877 9
-8.68 -12.643 -4.901 9
-8.446 -12.203 -4.925 9
-8.211 -11.773 -4.941 8
-7.995 -11.372 -4.963 8
-7.79 -10.994 -4.988 10
-7.59 -10.624 -5.006 11
-7.387 -10.258 -5.015 11
-7.198 -9.918 -5.032 34
-7.017 -9.587 -5.044 17
-6.66 -9.025 -4.846 15
-26.582 -46.073 -5.124 17
-24.271 -41.681 -5.102 4
-22.181 -37.762 -5.027 5
-20.443 -34.489 -4.962 7
-18.964 -31.723 -4.909 6
-14.741 -24.45 -3.551 13
0.0 -0.0 3.0 0
-14.456 -23.573 -4.207 1
-14.56 -23.539 -4.648 2
-14.048 -22.529 -4.757 7
-13.425 -21.348 -4.77 9
-12.834 -20.246 -4.772 8
-12.297 -19.239 -4.773 10
-11.809 -18.33 -4.781 6
-11.353 -17.479 -4.782 6
-10.944 -16.718 -4.796 6
-10.56 -16.002 -4.805 9
-10.21 -15.352 -4.822 8
-9.859 -14.712 -4.822 8
-9.551 -14.138 -4.837 8
-9.282 -13.635 -4.872 8
-8.996 -13.109 -4.877 9
-8.741 -12.641 -4.899 9
-8.503 -12.199 -4.922 8
-8.269 -11.772 -4.94 9
-8.052 -11.371 -4.962 8
-7.842 -10.989 -4.984 10
-7.643 -10.623 -5.005 11
-7.436 -10.255 -5.012 11
-7.245 -9.912 -5.026 35
-7.065 -9.584 -5.042 17
-6.702 -9.018 -4.839 17
-26.855 -46.223 -5.15 11
-24.512 -41.802 -5.126 4
-22.383 -37.838 -5.043 6
-20.631 -34.563 -4.98 6
-19.143 -31.797 -4.928 6
-14.847 -24.453 -3.552 12
0.0 -0.0 3.0 0
-14.526 -23.52 -4.191 8
-14.918 -23.948 -4.781 3
-14.161 -22.549 -4.764 7
-13.524 -21.354 -4.772 8
-12.929 -20.251 -4.774 8
-12.391 -19.247 -4.776 11
-11.896 -18.334 -4.782 6
-11.432 -17.474 -4.78 6
-11.02 -16.714 -4.794 6
-10.637 -16.003 -4.805 9
-10.286 -15.358 -4.825 8
-9.932 -14.714 -4.824 8
-9.622 -14.142 -4.839 8
-9.345 -13.63 -4.87 9
-9.058 -13.106 -4.875 9
-8.799 -12.636 -4.896 9
-8.562 -12.197 -4.921 9
-8.325 -11.768 -4.938 9
-8.105 -11.365 -4.958 8
-7.895 -10.986 -4.982 9
-7.691 -10.615 -4.999 10
-7.49 -10.256 -5.013 11
-7.291 -9.905 -5.021 33
-7.106 -9.573 -5.033 16
-6.741 -9.008 -4.831 35
-27.13 -46.372 -5.177 12
-24.781 -41.968 -5.158 4
-22.592 -37.927 -5.062 5
-20.808 -34.616 -4.992 6
-19.306 -31.843 -4.939 6
-14.953 -24.456 -3.553 12
0.0 -0.0 3.0 0
-14.612 -23.493 -4.182 43
-15.042 -23.975 -4.79 4
-14.269 -22.559 -4.768 7
-13.628 -21.365 -4.776 9
-13.032 -20.267 -4.78 15
-12.481 -19.25 -4.777 12
-11.982 -18.334 -4.782 6
-11.517 -17.479 -4.782 6
-11.103 -16.72 -4.797 7
-10.709 -15.997 -4.802 9
-10.359 -15.356 -4.824 8
-10.0 -14.711 -4.822 8
-9.691 -14.143 -4.84 8
-9.411 -13.629 -4.869 8
-9.122 -13.106 -4.875 9
-8.86 -12.633 -4.894 9
-8.619 -12.191 -4.917 8
-8.379 -11.761 -4.933 9
-8.162 -11.364 -4.957 8
-7.951 -10.986 -4.982 10
-7.744 -10.613 -4.997 11
-7.535 -10.246 -5.005 12
-7.34 -9.902 -5.019 35
-7.159 -9.578 -5.037 19
-6.787 -9.006 -4.829 15
-27.419 -46.544 -5.207 14
-25.009 -42.06 -5.176 4
-22.791 -37.995 -5.076 5
-21.016 -34.718 -5.015 6
-19.458 -31.869 -4.946 6
-15.041 -24.428 -3.545 5
0.0 -0.0 3.0 0
-14.721 -23.503 -4.185 38
-15.157 -23.99 -4.795 4
-14.378 -22.572 -4.772 7
-13.73 -21.374 -4.779 9
-13.118 -20.258 -4.776 26
-12.575 -19.258 -4.781 14
-12.071 -18.341 -4.785 5
-11.598 -17.477 -4.781 6
-11.185 -16.726 -4.799 7
-10.788 -16.001 -4.804 9
-10.428 -15.348 -4.82 8
-10.075 -14.716 -4.825 7
-9.759 -14.14 -4.838 9
-9.472 -13.62 -4.864 8
-9.184 -13.102 -4.872 9
-8.921 -12.63 -4.892 9
-8.681 -12.192 -4.918 8
-8.439 -11.762 -4.934 10
-8.215 -11.358 -4.953 9
-8.003 -10.98 -4.977 9
-7.794 -10.607 -4.993 10
-7.587 -10.245 -5.004 10
-7.388 -9.898 -5.015 36
-7.201 -9.567 -5.027 18
-6.826 -8.996 -4.82 15
-27.664 -46.636 -5.223 20
-25.217 -42.119 -5.187 2
-22.996 -38.072 -5.092 5
-21.188 -34.76 -5.025 7
-19.624 -31.918 -4.958 7
0.0 -0.0 3.0 0
0.0 -0.0 3.0 0
-14.841 -23.527 -4.193 41
-15.271 -24.0 -4.798 5
-14.496 -22.597 -4.781 7
-13.839 -21.391 -4.786 11
-13.211 -20.257 -4.776 21
-12.665 -19.259 -4.781 15
-12.156 -18.341 -4.785 6
-11.687 -17.487 -4.786 6
-11.268 -16.731 -4.802 6
-10.867 -16.004 -4.806 9
-10.505 -15.352 -4.822 8
-10.144 -14.713 -4.823 8
-9.828 -14.14 -4.838 8
-9.542 -13.625 -4.866 8
-9.248 -13.1 -4.872 9
-8.979 -12.624 -4.888 9
-8.736 -12.184 -4.912 8
-8.497 -11.761 -4.933 9
-8.269 -11.354 -4.95 9
-8.057 -10.977 -4.975 10
-7.843 -10.599 -4.987 10
-7.638 -10.243 -5.002 11
-7.437 -9.894 -5.012 35
-7.25 -9.566 -5.027 20
-6.868 -8.988 -4.814 12
-27.881 -46.68 -5.231 18
0.0 -0.0 3.0 0
-23.208 -38.158 -5.111 5
-21.383 -34.838 -5.043 8
-19.792 -31.97 -4.971 6
0.0 -0.0 3.0 0
-15.5 -24.605 -4.055 1
-14.957 -23.546 -4.199 44
-15.389 -24.017 -4.803 5
-14.597 -22.597 -4.781 7
-13.939 -21.395 -4.787 20
-13.317 -20.276 -4.783 12
-12.759 -19.266 -4.784 17
-12.248 -18.349 -4.789 6
-11.768 -17.485 -4.785 6
-11.351 -16.736 -4.804 7
-10.948 -16.01 -4.809 9
-10.58 -15.353 -4.823 8
-10.219 -14.717 -4.825 8
-9.895 -14.137 -4.837 9
-9.608 -13.623 -4.865 8
-9.313 -13.099 -4.871 9
-9.038 -12.617 -4.884 9
-8.798 -12.184 -4.912 16
-8.553 -11.756 -4.929 9
-8.322 -11.347 -4.945 9
-8.108 -10.971 -4.971 9
-7.898 -10.6 -4.987 11
-7.686 -10.235 -4.997 11
-7.483 -9.887 -5.006 35
-7.294 -9.557 -5.019 17
-6.909 -8.981 -4.807 14
-28.08 -46.693 -5.233 13
0.0 -0.0 3.0 0
-23.402 -38.213 -5.122 5
-21.572 -34.904 -5.058 8
-19.943 -31.99 -4.976 7
0.0 -0.0 3.0 0
0.0 -0.0 3.0 0
-15.068 -23.557 -4.202 44
-15.498 -24.019 -4.804 5
-14.716 -22.621 -4.789 8
-14.029 -21.382 -4.783 29
-13.422 -20.294 -4.79 7
-12.85 -19.267 -4.784 18
-12.332 -18.345 -4.787 5
-11.853 -17.488 -4.786 6
-11.428 -16.731 -4.802 7
-11.02 -16.004 -4.806 9
-10.652 -15.351 -4.822 8
-10.286 -14.71 -4.822 8
-9.965 -14.137 -4.836 8
-9.674 -13.62 -4.864 8
-9.375 -13.094 -4.868 9
-9.105 -12.622 -4.887 9
-8.855 -12.179 -4.909 9
-8.607 -11.748 -4.924 9
-8.379 -11.345 -4.944 9
-8.162 -10.967 -4.968 10
-7.952 -10.599 -4.987 12
-7.735 -10.23 -4.992 10
-7.532 -9.883 -5.003 35
-7.335 -9.546 -5.01 16
-6.951 -8.973 -4.8 13
-28.271 -46.691 -5.233 13
-26.007 -42.553 -5.271 2
-23.626 -38.315 -5.144 5
-21.764 -34.973 -5.074 10
-20.112 -32.041 -4.989 7
0.0 -0.0 3.0 0
0.0 -0.0 3.0 0
-15.18 -23.567 -4.205 45
-15.619 -24.039 -4.811 4
-14.822 -22.626 -4.791 19
-14.132 -21.389 -4.785 16
-13.522 -20.302 -4.793 8
-12.938 -19.264 -4.783 18
-12.426 -18.356 -4.792 6
-11.939 -17.492 -4.788 5
-11.51 -16.732 -4.802 6
-11.099 -16.006 -4.806 9
-10.728 -15.352 -4.822 8
-10.36 -14.711 -4.822 8
-10.038 -14.142 -4.839 8
-9.74 -13.617 -4.862 9
-9.439 -13.093 -4.867 9
-9.166 -12.618 -4.885 9
-8.917 -12.178 -4.909 8
-8.666 -11.746 -4.923 9
-8.435 -11.341 -4.941 8
-8.216 -10.964 -4.965 11
-8.003 -10.594 -4.983 11
-7.787 -10.228 -4.991 10
-7.582 -9.881 -5.002 33
-7.315 -9.455 -4.934 13
-6.99 -8.963 -4.791 12
-28.458 -46.681 -5.231 14
0.0 -0.0 3.0 0
-23.842 -38.401 -5.162 5
-21.936 -35.008 -5.082 9
-20.282 -32.09 -5.001 7
0.0 -0.0 3.0 0
0.0 -0.0 3.0 0
-15.29 -23.574 -4.207 45
-15.742 -24.06 -4.817 4
-14.92 -22.617 -4.788 22
-14.245 -21.412 -4.793 10
-13.62 -20.307 -4.795 7
-13.033 -19.27 -4.786 19
-12.51 -18.351 -4.79 6
-12.022 -17.492 -4.788 6
-11.595 -16.74 -4.806 7
-11.179 -16.008 -4.808 9
-10.801 -15.348 -4.82 8
-10.427 -14.704 -4.818 6
-10.104 -14.135 -4.835 8
-9.806 -13.614 -4.86 9
-9.502 -13.088 -4.864 8
-9.225 -12.611 -4.88 9
-8.972 -12.169 -4.902 8
-8.726 -11.746 -4.923 9
-8.492 -11.34 -4.94 9
-8.268 -10.957 -4.961 9
-8.052 -10.585 -4.977 7
-7.839 -10.225 -4.989 11
-7.633 -9.88 -5.0 33
-7.266 -9.328 -4.827 11
-7.029 -8.952 -4.782 12
-28.647 -46.675 -5.23 11
-26.561 -42.871 -5.333 5
-24.055 -38.481 -5.179 5
-22.12 -35.063 -5.095 9
-20.459 -32.148 -5.015 6
-19.068 -29.705 -4.959 5
0.0 -0.0 3.0 0
-15.405 -23.587 -4.211 45
-15.861 -24.074 -4.822 4
-15.028 -22.624 -4.79 11
-14.357 -21.43 -4.8 9
-13.722 -20.318 -4.799 8
-13.13 -19.28 -4.79 20
-12.602 -18.359 -4.793 5
-12.106 -17.491 -4.787 5
-11.677 -16.74 -4.806 7
-11.26 -16.013 -4.81 10
-10.876 -15.348 -4.82 8
-10.502 -14.708 -4.82 3
-10.174 -14.134 -4.835 8
-9.874 -13.614 -4.86 9
-9.57 -13.092 -4.867 8
-9.288 -12.61 -4.88 9
-9.032 -12.166 -4.901 8
-8.783 -11.741 -4.919 9
-8.549 -11.337 -4.939 8
-8.326 -10.958 -4.962 11
-8.107 -10.585 -4.976 10
-7.888 -10.22 -4.985 11
-7.677 -9.87 -4.992 29
-7.278 -9.279 -4.786 9
-7.073 -8.947 -4.777 12
-28.833 -46.661 -5.228 12
0.0 -0.0 3.0 0
-24.281 -38.579 -5.2 5
-22.325 -35.146 -5.114 8
-20.645 -32.219 -5.033 7
-19.207 -29.716 -4.962 7
0.0 -0.0 3.0 0
-15.517 -23.597 -4.214 44
-15.978 -24.086 -4.826 4
-15.158 -22.663 -4.804 7
-14.46 -21.435 -4.802 9
-13.822 -20.324 -4.802 8
-13.225 -19.285 -4.791 20
-12.695 -18.366 -4.796 5
-12.192 -17.493 -4.788 5
-11.752 -16.731 -4.802 7
-11.331 -16.002 -4.805 42
-10.952 -15.348 -4.82 8
-10.578 -14.712 -4.822 7
-10.245 -14.136 -4.836 8
-9.94 -13.611 -4.858 8
-9.629 -13.08 -4.859 8
-9.351 -12.609 -4.879 9
-9.096 -12.167 -4.902 8
-8.839 -11.735 -4.915 10
-8.604 -11.332 -4.935 8
-8.378 -10.952 -4.957 10
-8.16 -10.581 -4.973 11
-7.94 -10.217 -4.983 11
-7.73 -9.871 -4.993 32
-7.323 -9.274 -4.782 10
-7.118 -8.943 -4.774 13
-29.027 -46.659 -5.227 12
0.0 -0.0 3.0 0
-9.255 -14.606 -0.105 8
-9.257 -14.475 -0.342 1
-20.823 -32.276 -5.047 7
-19.358 -29.747 -4.971 6
0.0 -0.0 3.0 0
-15.63 -23.605 -4.217 31
-16.11 -24.118 -4.837 4
-15.27 -22.672 -4.807 7
-14.572 -21.453 -4.808 9
-13.923 -20.331 -4.804 8
-13.318 -19.287 -4.792 24
-12.783 -18.366 -4.796 5
-12.277 -17.495 -4.789 6
-11.838 -16.738 -4.805 7
-11.404 -15.994 -4.801 45
-11.027 -15.347 -4.82 9
-10.65 -14.709 -4.821 7
-10.315 -14.134 -4.835 8
-10.008 -13.611 -4.858 8
-9.696 -13.081 -4.86 9
-9.413 -12.604 -4.876 9
-9.158 -12.167 -4.901 6
-8.898 -11.732 -4.914 10
-8.657 -11.325 -4.93 8
-8.43 -10.945 -4.952 10
-8.209 -10.572 -4.966 10
-7.988 -10.209 -4.976 10
-7.781 -9.868 -4.991 34
-7.371 -9.272 -4.78 10
-7.158 -8.933 -4.765 14
-29.221 -46.658 -5.227 12
-9.258 -14.642 0.154 0
-9.303 -14.582 -0.099 25
-9.311 -14.461 -0.339 20
-20.999 -32.329 -5.06 9
-19.522 -29.794 -4.983 6
0.0 -0.0 3.0 0
-15.743 -23.614 -4.219 45
-16.228 -24.128 -4.84 4
-15.388 -22.691 -4.813 7
-14.682 -21.467 -4.813 9
-14.023 -20.338 -4.807 9
-13.414 -19.292 -4.795 25
-12.878 -18.375 -4.8 5
-12.364 -17.496 -4.79 6
-11.92 -16.737 -4.804 7
-11.486 -15.998 -4.803 43
-11.109 -15.355 -4.824 8
-10.719 -14.703 -4.818 8
-10.381 -14.127 -4.83 8
-10.075 -13.607 -4.856 9
-9.76 -13.078 -4.858 9
-9.476 -12.602 -4.875 8
-9.214 -12.157 -4.895 8
-8.956 -11.729 -4.911 9
-8.715 -11.323 -4.928 8
-8.489 -10.946 -4.953 10
-8.266 -10.574 -4.968 12
-8.04 -10.206 -4.974 11
-7.825 -9.858 -4.983 32
-7.418 -9.268 -4.777 10
-7.205 -8.932 -4.765 14
-29.419 -46.662 -5.228 12
-9.273 -14.569 0.168 2
-9.341 -14.544 -0.091 255
-9.341 -14.41 -0.327 255
-21.172 -32.374 -5.072 8
-19.681 -29.834 -4.994 6
0.0 -0.0 3.0 0
-15.861 -23.628 -4.224 44
-16.345 -24.138 -4.843 4
-15.499 -22.7 -4.816 7
-14.795 -21.484 -4.819 9
-14.126 -20.347 -4.81 8
-13.507 -19.293 -4.795 27
-12.967 -18.375 -4.8 6
-12.452 -17.501 -4.792 6
-12.006 -16.742 -4.807 7
-11.568 -16.002 -4.805 43
-11.179 -15.345 -4.819 8
-10.793 -14.703 -4.818 8
-10.451 -14.124 -4.829 8
-10.145 -13.609 -4.857 9
-9.825 -13.075 -4.856 9
-9.539 -12.6 -4.873 8
-9.276 -12.156 -4.894 7
-9.015 -11.726 -4.909 9
-8.77 -11.317 -4.924 8
-8.541 -10.939 -4.947 10
-8.315 -10.564 -4.961 11
-8.092 -10.203 -4.972 11
-7.878 -9.857 -4.982 15
-7.463 -9.262 -4.772 10
-7.251 -8.929 -4.761 13
-9.265 -14.597 0.426 0
-9.33 -14.561 0.17 75
-9.35 -14.46 -0.074 255
-9.343 -14.316 -0.305 255
-21.351 -32.429 -5.085 8
-19.853 -29.892 -5.01 6
0.0 -0.0 3.0 0
-15.976 -23.639 -4.227 44
-16.472 -24.16 -4.85 4
-15.62 -22.72 -4.823 7
-14.908 -21.5 -4.825 9
-14.229 -20.356 -4.814 8
-13.608 -19.304 -4.799 27
-13.063 -18.384 -4.803 6
-12.538 -17.501 -4.792 6
-12.086 -16.739 -4.805 6
-11.648 -16.002 -4.805 45
-11.261 -15.352 -4.822 9
-10.867 -14.702 -4.817 8
-10.524 -14.125 -4.83 8
-10.212 -13.604 -4.854 8
-9.89 -13.072 -4.854 9
-9.599 -12.591 -4.868 9
-9.336 -12.151 -4.891 7
-9.072 -11.719 -4.904 9
-8.828 -11.314 -4.922 9
-8.595 -10.933 -4.943 11
-8.372 -10.566 -4.962 11
-8.141 -10.197 -4.967 11
-7.927 -9.853 -4.978 13
-7.507 -9.255 -4.766 9
-7.295 -8.922 -4.756 15
-9.269 -14.507 0.442 2
-9.345 -14.487 0.184 255
-9.352 -14.367 -0.054 255
-9.351 -14.233 -0.286 255
-21.532 -32.483 -5.099 7
-20.022 -29.944 -5.024 6
0.0 -0.0 3.0 0
-16.098 -23.658 -4.233 44
-16.606 -24.191 -4.86 3
-15.741 -22.741 -4.83 7
-15.021 -21.516 -4.831 9
-14.33 -20.361 -4.816 8
-13.704 -19.308 -4.801 21
-13.16 -18.395 -4.808 6
-12.625 -17.502 -4.792 6
-12.17 -16.74 -4.806 7
-11.726 -15.999 -4.803 44
-11.333 -15.345 -4.819 9
-10.941 -14.702 -4.817 8
-10.596 -14.125 -4.83 8
-10.281 -13.602 -4.853 9
-9.953 -13.065 -4.85 9
-9.658 -12.583 -4.863 9
-9.396 -12.146 -4.888 8
-9.132 -11.718 -4.904 9
-8.885 -11.311 -4.92 8
-8.651 -10.931 -4.942 10
-8.423 -10.559 -4.957 11
-8.193 -10.193 -4.964 11
-7.978 -9.849 -4.976 12
-7.556 -9.254 -4.765 9
-7.338 -8.916 -4.751 13
-9.345 -14.529 0.438 255
-9.351 -14.4 0.201 255
-9.359 -14.283 -0.036 255
-9.357 -14.146 -0.266 255
-21.708 -32.53 -5.111 8
-20.183 -29.981 -5.034 7
-16.209 -23.863 -3.843 3
-16.214 -23.669 -4.236 42
-16.737 -24.218 -4.869 3
-15.857 -22.754 -4.835 7
-15.123 -21.515 -4.831 9
-14.434 -20.368 -4.819 8
-13.802 -19.313 -4.803 21
-13.245 -18.388 -4.805 6
-12.716 -17.508 -4.795 6
-12.25 -16.736 -4.804 6
-11.811 -16.005 -4.806 44
-11.413 -15.349 -4.82 8
-11.015 -14.701 -4.817 7
-10.662 -14.117 -4.825 6
-10.347 -13.597 -4.85 8
-10.024 -13.07 -4.853 9
-9.726 -12.586 -4.865 9
-9.456 -12.142 -4.885 8
-9.187 -11.709 -4.898 9
-8.941 -11.306 -4.916 9
-8.706 -10.926 -4.938 10
-8.476 -10.554 -4.953 11
-8.245 -10.19 -4.961 12
-8.025 -9.841 -4.969 12
-7.601 -9.247 -4.759 9
-7.382 -8.91 -4.746 12
-9.352 -14.445 0.453 255
-9.358 -14.316 0.217 255
-9.36 -14.19 -0.016 255
-9.366 -14.065 -0.247 255
-21.891 -32.585 -5.124 9
-20.307 -29.963 -5.029 11
-16.323 -23.869 -3.844 11
-16.335 -23.683 -4.241 43
-16.863 -24.234 -4.874 4
-15.981 -22.777 -4.843 8
-15.226 -21.515 -4.831 9
-14.54 -20.379 -4.823 9
-13.909 -19.332 -4.811 16
-13.348 -18.404 -4.812 3
-12.801 -17.505 -4.794 6
-12.339 -16.743 -4.807 6
