# .PCD v0.7 - Point Cloud Data file format
VERSION 0.7
FIELDS x y z intensity
SIZE 4 4 4 4
TYPE F F F F
COUNT 1 1 1 1
WIDTH 2218
HEIGHT 1
VIEWPOINT 0 0 0 1 0 0 0
POINTS 2218
DATA ascii
-7.972 -2.247 2.604 2
-8.885 -2.344 2.544 75
-6.385 -1.57 2.666 2
-6.807 -1.556 2.641 3
-7.293 -1.543 2.615 3
-7.916 -1.543 2.587 20
-8.608 -1.541 2.558 5
-9.451 -1.546 2.527 8
-10.448 -1.557 2.494 12
-11.642 -1.574 2.458 8
-8.726 -1.07 2.61 14
-8.746 -0.973 2.627 19
-8.827 -0.898 2.637 2
-12.952 -1.22 2.482 2
-12.497 -1.115 2.503 8
-9.445 -0.821 2.617 11
-9.376 -0.821 2.599 13
-9.288 -0.844 2.57 255
-8.665 -0.835 2.556 255
-8.099 -0.84 2.534 1
-1.523 -0.171 2.901 15
-1.525 -0.186 2.888 20
-1.51 -0.199 2.875 21
-1.51 -0.216 2.86 12
-1.561 -0.239 2.839 23
-1.451 -0.239 2.833 22
-1.317 -0.231 2.832 23
-1.246 -0.232 2.825 16
-1.222 -0.241 2.812 16
-1.275 -0.265 2.785 13
-1.104 -0.241 2.798 11
-1.072 -0.245 2.787 12
-7.973 -2.257 2.602 80
-8.882 -2.354 2.542 63
-6.348 -1.57 2.666 2
-6.762 -1.556 2.641 3
-7.244 -1.543 2.615 3
-7.875 -1.547 2.585 3
-8.578 -1.55 2.556 14
-9.357 -1.548 2.527 9
-10.335 -1.56 2.493 6
-7.145 -0.981 2.662 0
-8.711 -1.088 2.604 22
-8.716 -0.991 2.62 19
-8.892 -0.927 2.625 1
-12.602 -1.221 2.482 7
-9.532 -0.878 2.609 1
-9.422 -0.846 2.605 11
-9.361 -0.847 2.587 27
-8.708 -0.815 2.585 44
-8.654 -0.856 2.545 76
-7.902 -0.837 2.536 0
-1.558 -0.179 2.897 11
-1.52 -0.189 2.887 23
-1.501 -0.201 2.874 25
-1.486 -0.215 2.861 14
-1.549 -0.24 2.838 22
-1.517 -0.252 2.824 22
-1.321 -0.234 2.83 24
-1.254 -0.235 2.823 18
-1.222 -0.242 2.811 16
-1.279 -0.267 2.784 13
-1.115 -0.245 2.795 12
-1.075 -0.247 2.785 12
-7.971 -2.265 2.601 81
-5.93 -1.579 2.693 3
-6.311 -1.569 2.667 2
-6.725 -1.556 2.641 3
-7.249 -1.555 2.612 19
-7.809 -1.547 2.585 19
-8.489 -1.549 2.556 8
-9.279 -1.552 2.526 6
-10.237 -1.565 2.491 9
-7.139 -0.995 2.657 1
-8.705 -1.107 2.597 17
-8.697 -1.01 2.612 28
-7.196 -0.77 2.689 6
-12.073 -1.204 2.489 3
-9.481 -0.9 2.599 10
-9.403 -0.872 2.593 12
-9.31 -0.868 2.577 36
-8.674 -0.835 2.575 42
-8.604 -0.872 2.537 20
-7.729 -0.837 2.536 0
-1.574 -0.183 2.894 10
-1.536 -0.193 2.884 29
-1.485 -0.201 2.874 22
-1.498 -0.219 2.858 19
-1.533 -0.24 2.838 21
-1.517 -0.254 2.822 25
-1.332 -0.237 2.828 24
-1.292 -0.244 2.816 24
-1.241 -0.247 2.807 18
-1.297 -0.272 2.779 13
-1.119 -0.246 2.793 11
-1.083 -0.249 2.783 13
-7.972 -2.276 2.599 79
-5.897 -1.578 2.693 2
-6.263 -1.565 2.667 2
-6.68 -1.555 2.641 3
-7.188 -1.553 2.613 3
-7.772 -1.552 2.584 4
-8.462 -1.558 2.553 8
-9.233 -1.561 2.523 11
-10.162 -1.574 2.489 7
-7.184 -1.016 2.65 23
-8.71 -1.127 2.59 15
-8.694 -1.031 2.604 23
-7.198 -0.789 2.681 37
-11.656 -1.194 2.493 3
-9.434 -0.923 2.589 10
-9.376 -0.896 2.582 13
-9.144 -0.878 2.572 8
-8.675 -0.858 2.563 249
-8.128 -0.843 2.552 0
-7.556 -0.835 2.537 0
-1.542 -0.183 2.894 8
-1.527 -0.195 2.883 26
-1.477 -0.203 2.873 23
-1.497 -0.221 2.856 26
-1.513 -0.239 2.839 23
-1.504 -0.254 2.822 26
-1.343 -0.241 2.825 26
-1.304 -0.248 2.813 26
-1.279 -0.256 2.8 28
-1.262 -0.266 2.785 14
-1.122 -0.248 2.792 13
-1.082 -0.25 2.783 12
-5.53 -1.586 2.72 1
-5.856 -1.574 2.694 2
-6.23 -1.566 2.667 2
-6.643 -1.556 2.641 3
-7.15 -1.555 2.612 14
-7.702 -1.551 2.584 14
-8.369 -1.555 2.554 13
-9.139 -1.562 2.523 11
-10.084 -1.583 2.486 9
-7.118 -1.023 2.648 146
-7.186 -0.946 2.656 4
-8.687 -1.052 2.596 24
-7.184 -0.807 2.674 0
-9.534 -1.003 2.574 1
-9.415 -0.948 2.578 12
-9.349 -0.921 2.571 19
-8.688 -0.86 2.581 25
-8.644 -0.879 2.552 15
-7.899 -0.84 2.554 0
-7.403 -0.836 2.536 0
-1.537 -0.185 2.893 11
-1.527 -0.198 2.881 22
-1.468 -0.204 2.873 24
-1.477 -0.22 2.857 23
-1.504 -0.24 2.838 24
-1.524 -0.259 2.819 30
-1.351 -0.244 2.823 28
-1.307 -0.25 2.812 26
-1.287 -0.259 2.797 28
-1.258 -0.266 2.784 15
-1.141 -0.253 2.788 17
-1.082 -0.251 2.782 12
-5.498 -1.584 2.721 3
-5.831 -1.575 2.694 2
-6.185 -1.563 2.668 2
-6.64 -1.565 2.639 4
-7.128 -1.562 2.611 8
-7.672 -1.558 2.583 7
-8.319 -1.561 2.552 5
-9.081 -1.569 2.52 6
-10.005 -1.59 2.483 11
-7.088 -1.034 2.644 175
-7.171 -0.962 2.65 10
-7.209 -0.891 2.658 1
-12.639 -1.453 2.413 9
-9.483 -1.025 2.565 10
-9.396 -0.973 2.567 13
-9.314 -0.943 2.56 37
-8.677 -0.882 2.57 22
-8.605 -0.898 2.543 6
-7.729 -0.842 2.552 0
-1.551 -0.179 2.901 0
-1.537 -0.189 2.891 12
-1.542 -0.203 2.878 21
-1.46 -0.205 2.872 23
-1.468 -0.222 2.856 27
-1.488 -0.239 2.839 24
-1.515 -0.26 2.818 27
-1.374 -0.25 2.818 27
-1.318 -0.254 2.809 25
-1.286 -0.261 2.796 27
-1.269 -0.27 2.781 13
-1.148 -0.257 2.785 16
-1.089 -0.254 2.779 12
-5.465 -1.581 2.721 3
-5.787 -1.571 2.695 2
-6.156 -1.565 2.667 2
-6.591 -1.564 2.639 16
-5.983 -1.321 2.671 0
-7.591 -1.555 2.583 9
-8.257 -1.565 2.551 17
-9.019 -1.576 2.518 12
-9.907 -1.595 2.482 12
-7.058 -1.045 2.64 93
-7.165 -0.978 2.644 16
-7.207 -0.909 2.651 7
-12.19 -1.433 2.421 4
-9.44 -1.046 2.556 11
-9.377 -0.998 2.556 13
-9.227 -0.962 2.552 41
-8.674 -0.906 2.558 72
-8.086 -0.865 2.559 0
-7.552 -0.842 2.553 0
-1.55 -0.183 2.899 0
-1.54 -0.193 2.889 18
-1.541 -0.206 2.876 22
-1.444 -0.206 2.871 23
-1.468 -0.224 2.854 25
-1.484 -0.241 2.837 27
-1.511 -0.261 2.817 27
-1.389 -0.254 2.815 32
-1.349 -0.262 2.803 27
-1.321 -0.269 2.79 29
-1.284 -0.275 2.778 12
-1.156 -0.259 2.782 15
-1.085 -0.254 2.779 11
-5.448 -1.584 2.721 3
-5.754 -1.571 2.695 2
-6.107 -1.561 2.668 3
-6.535 -1.561 2.64 8
-5.958 -1.325 2.67 0
-7.573 -1.564 2.581 9
-8.191 -1.567 2.551 4
-8.925 -1.577 2.518 9
-9.813 -1.601 2.48 8
-7.047 -1.06 2.635 105
-7.107 -0.987 2.641 31
-7.251 -0.934 2.642 10
-9.528 -1.146 2.537 1
-9.416 -1.071 2.546 11
-9.349 -1.022 2.545 18
-8.695 -0.932 2.566 24
-8.623 -0.926 2.548 9
-7.892 -0.866 2.559 0
-7.395 -0.843 2.552 0
-1.542 -0.186 2.897 2
-1.536 -0.196 2.887 22
-1.541 -0.209 2.875 24
-1.439 -0.208 2.87 24
-1.46 -0.225 2.854 24
-1.483 -0.244 2.836 27
-1.573 -0.274 2.808 21
-1.384 -0.255 2.814 34
-1.345 -0.262 2.803 27
-1.324 -0.272 2.788 28
-1.257 -0.27 2.781 13
-1.174 -0.265 2.778 17
-1.088 -0.256 2.778 11
-5.407 -1.58 2.721 2
-5.728 -1.572 2.694 3
-6.128 -1.576 2.665 4
-6.524 -1.569 2.638 4
-5.924 -1.327 2.669 0
-7.492 -1.561 2.582 7
-8.141 -1.573 2.549 14
-8.878 -1.587 2.515 7
-9.762 -1.613 2.476 9
-7.041 -1.074 2.63 50
-7.072 -0.999 2.636 35
-7.213 -0.947 2.636 12
-9.477 -1.166 2.529 9
-9.397 -1.094 2.535 12
-9.314 -1.045 2.535 29
-8.68 -0.955 2.555 17
-8.588 -0.946 2.538 2
-7.707 -0.867 2.558 0
-7.237 -0.844 2.551 0
-1.529 -0.187 2.896 6
-1.527 -0.198 2.885 22
-1.54 -0.212 2.873 35
-1.439 -0.211 2.868 22
-1.463 -0.228 2.852 26
-1.471 -0.244 2.835 26
-1.603 -0.282 2.803 22
-1.388 -0.258 2.812 34
-1.383 -0.271 2.796 24
-1.312 -0.271 2.789 18
-1.229 -0.266 2.785 16
-1.193 -0.27 2.774 16
-1.088 -0.256 2.777 11
-5.374 -1.577 2.722 2
-5.699 -1.572 2.694 2
-6.087 -1.575 2.665 4
-6.495 -1.572 2.637 15
-5.754 -1.299 2.676 0
-5.769 -1.212 2.675 0
-8.06 -1.573 2.549 4
-8.796 -1.591 2.514 15
-9.675 -1.62 2.474 14
-7.03 -1.089 2.625 33
-7.066 -1.016 2.63 15
-7.171 -0.96 2.631 8
-9.434 -1.186 2.521 10
-9.374 -1.118 2.525 13
-9.227 -1.062 2.527 41
-8.669 -0.979 2.544 37
-8.049 -0.91 2.556 0
-7.541 -0.868 2.557 0
-7.096 -0.845 2.55 0
-1.521 -0.19 2.895 9
-1.53 -0.202 2.883 26
-1.54 -0.215 2.871 39
-1.426 -0.212 2.868 21
-1.454 -0.229 2.851 23
-1.474 -0.246 2.834 24
-1.626 -0.288 2.798 22
-1.383 -0.259 2.812 23
-1.406 -0.278 2.791 23
-1.4 -0.291 2.773 12
-1.213 -0.264 2.786 17
-1.219 -0.277 2.768 17
-1.091 -0.258 2.775 11
-5.349 -1.577 2.722 3
-5.662 -1.57 2.695 3
-6.053 -1.576 2.665 22
-6.48 -1.58 2.635 11
-6.909 -1.572 2.608 12
-5.693 -1.206 2.677 0
-8.029 -1.583 2.546 13
-8.73 -1.596 2.512 5
-9.549 -1.62 2.474 5
-7.019 -1.104 2.62 23
-7.047 -1.031 2.625 21
-7.247 -0.989 2.62 7
-9.41 -1.209 2.512 10
-9.35 -1.142 2.515 18
-8.696 -1.025 2.543 19
-8.606 -0.996 2.536 6
-7.883 -0.914 2.554 0
-7.38 -0.87 2.557 0
-6.946 -0.846 2.55 0
-1.52 -0.194 2.893 12
-1.534 -0.205 2.881 40
-1.539 -0.219 2.869 40
-1.367 -0.206 2.871 21
-1.383 -0.221 2.857 23
-1.47 -0.248 2.832 21
-1.626 -0.291 2.796 17
-1.383 -0.261 2.81 21
-1.405 -0.279 2.79 23
-1.446 -0.302 2.764 20
-1.213 -0.265 2.785 16
-1.196 -0.273 2.771 21
-1.087 -0.259 2.775 11
-5.316 -1.576 2.722 4
-5.66 -1.579 2.693 4
-6.035 -1.58 2.664 7
-6.419 -1.575 2.636 4
-6.851 -1.571 2.608 4
-7.362 -1.574 2.578 20
-7.947 -1.583 2.546 5
-8.687 -1.607 2.509 13
-5.566 -0.957 2.689 0
-7.013 -1.12 2.614 35
-7.032 -1.047 2.619 20
-7.185 -1.0 2.616 6
-9.394 -1.233 2.502 11
-9.326 -1.166 2.505 41
-8.684 -1.05 2.533 13
-8.511 -1.01 2.529 1
-7.693 -0.913 2.555 0
-7.23 -0.872 2.556 0
-6.817 -0.848 2.549 0
-1.523 -0.198 2.89 19
-1.529 -0.208 2.88 42
-1.523 -0.219 2.868 39
-1.37 -0.209 2.87 20
-1.383 -0.223 2.855 23
-1.363 -0.233 2.843 26
-1.598 -0.288 2.798 13
-1.378 -0.262 2.81 21
-1.405 -0.281 2.788 20
-1.407 -0.296 2.769 15
-1.201 -0.264 2.786 17
-1.192 -0.273 2.771 20
-1.106 -0.265 2.77 11
-5.287 -1.575 2.722 3
-5.623 -1.578 2.693 12
-5.994 -1.58 2.664 4
-6.386 -1.579 2.636 16
-6.821 -1.577 2.607 18
-7.324 -1.58 2.577 4
-7.917 -1.592 2.543 13
-8.597 -1.609 2.508 7
-5.536 -0.965 2.687 0
-7.026 -1.139 2.608 20
-7.025 -1.063 2.613 43
-9.444 -1.339 2.486 10
-9.375 -1.256 2.492 11
-9.263 -1.184 2.498 6
-8.669 -1.073 2.522 24
-8.04 -0.977 2.544 0
-7.523 -0.915 2.554 0
-7.08 -0.874 2.555 0
-6.683 -0.849 2.549 0
-1.519 -0.201 2.889 24
-1.525 -0.212 2.878 42
-1.518 -0.222 2.867 36
-1.373 -0.212 2.868 20
-1.374 -0.224 2.854 23
-1.359 -0.234 2.842 26
-1.378 -0.251 2.824 20
-1.378 -0.264 2.808 21
-1.4 -0.282 2.788 16
-1.383 -0.292 2.772 11
-1.189 -0.263 2.787 18
-1.203 -0.277 2.767 13
-1.128 -0.271 2.765 12
-5.258 -1.574 2.722 3
-5.605 -1.582 2.693 21
-5.953 -1.579 2.664 12
-6.368 -1.584 2.634 10
-6.799 -1.584 2.605 7
-7.262 -1.581 2.576 9
-7.843 -1.593 2.543 5
-5.501 -1.041 2.682 0
-5.557 -0.981 2.681 5
-7.03 -1.156 2.602 18
-7.034 -1.082 2.606 50
-5.554 -0.802 2.692 0
-9.351 -1.279 2.483 16
-8.693 -1.135 2.518 14
-8.61 -1.091 2.514 6
-7.85 -0.977 2.544 0
-7.378 -0.918 2.552 0
-6.943 -0.876 2.554 0
-6.558 -0.85 2.548 0
-1.51 -0.204 2.887 24
-1.528 -0.215 2.876 41
-1.525 -0.227 2.864 34
-1.345 -0.211 2.868 18
-1.366 -0.226 2.853 19
-1.378 -0.24 2.838 25
-1.347 -0.248 2.827 18
-1.373 -0.265 2.807 13
-1.403 -0.285 2.785 12
-1.34 -0.285 2.778 10
-1.188 -0.264 2.786 13
-1.279 -0.297 2.751 11
-1.158 -0.279 2.757 13
-5.275 -1.588 2.72 6
-5.58 -1.583 2.692 6
-5.935 -1.585 2.663 13
-6.31 -1.582 2.635 4
-6.737 -1.583 2.605 4
-7.247 -1.592 2.573 10
-7.808 -1.602 2.541 16
-5.534 -1.06 2.676 2
-5.527 -0.988 2.679 35
-5.554 -0.928 2.681 1
-7.035 -1.1 2.6 131
-5.551 -0.817 2.687 1
-9.323 -1.301 2.474 16
-8.677 -1.159 2.508 11
-8.42 -1.091 2.514 1
-7.704 -0.982 2.542 0
-7.149 -0.91 2.556 0
-6.805 -0.877 2.553 0
-1.515 -0.2 2.894 0
-1.51 -0.208 2.885 26
-1.527 -0.219 2.873 41
-1.533 -0.231 2.861 35
-1.325 -0.21 2.869 15
-1.314 -0.219 2.858 16
-1.338 -0.236 2.841 22
-1.295 -0.24 2.832 11
-1.369 -0.267 2.806 12
-1.391 -0.285 2.785 10
-1.193 -0.255 2.801 10
-1.169 -0.261 2.788 9
-1.313 -0.306 2.743 11
-1.158 -0.281 2.756 13
-5.227 -1.581 2.721 6
-5.542 -1.582 2.693 4
-5.898 -1.585 2.663 4
-6.277 -1.585 2.634 14
-6.711 -1.589 2.604 19
-7.17 -1.589 2.574 6
-7.73 -1.603 2.54 4
-5.492 -1.064 2.675 29
-5.474 -0.991 2.678 14
-5.556 -0.941 2.676 8
-7.044 -1.12 2.592 153
-5.537 -0.83 2.682 26
-9.299 -1.324 2.465 27
-8.665 -1.182 2.498 15
-8.04 -1.065 2.526 0
-7.511 -0.979 2.544 0
-7.07 -0.92 2.551 0
-6.679 -0.88 2.552 0
-1.522 -0.205 2.891 0
-1.505 -0.21 2.883 33
-1.527 -0.223 2.871 41
-1.524 -0.233 2.86 32
-1.324 -0.212 2.867 17
-1.318 -0.222 2.856 14
-1.314 -0.234 2.842 20
-1.271 -0.238 2.834 10
-1.341 -0.263 2.809 9
-1.379 -0.284 2.786 5
-1.188 -0.256 2.8 13
-1.168 -0.262 2.788 16
-1.324 -0.31 2.74 12
-1.153 -0.281 2.756 12
-5.205 -1.583 2.721 6
-5.513 -1.583 2.692 10
-5.852 -1.583 2.664 6
-6.258 -1.592 2.633 12
-6.673 -1.593 2.603 5
-7.139 -1.596 2.572 22
-7.695 -1.612 2.538 18
-5.47 -1.072 2.672 17
-5.444 -0.999 2.675 13
-5.506 -0.946 2.674 9
-7.06 -1.141 2.585 55
-5.543 -0.845 2.676 4
-8.69 -1.261 2.49 7
-8.606 -1.198 2.491 5
-7.854 -1.064 2.526 0
-7.353 -0.98 2.543 0
-6.936 -0.922 2.55 0
-6.546 -0.881 2.551 0
-1.518 -0.208 2.889 1
-1.508 -0.215 2.881 43
-1.522 -0.226 2.87 41
-1.523 -0.236 2.858 29
-1.269 -0.206 2.871 12
-1.246 -0.213 2.862 12
-1.286 -0.231 2.844 16
-1.247 -0.235 2.835 10
-1.204 -0.239 2.826 2
-1.247 -0.259 2.805 0
-1.196 -0.259 2.798 12
-1.168 -0.264 2.786 22
-1.369 -0.323 2.729 11
-1.21 -0.296 2.742 14
-5.176 -1.583 2.721 12
-5.487 -1.585 2.692 18
-5.827 -1.586 2.663 23
-6.213 -1.592 2.632 4
-6.623 -1.594 2.603 6
-7.089 -1.6 2.571 3
-7.633 -1.616 2.537 3
-5.448 -1.08 2.67 17
-5.425 -1.009 2.672 22
-5.456 -0.951 2.672 15
-5.595 -0.919 2.666 0
-5.52 -0.857 2.671 0
-8.635 -1.278 2.484 7
-9.44 -1.342 2.43 1
-7.673 -1.061 2.527 0
-7.195 -0.979 2.544 0
-6.799 -0.924 2.549 0
-6.242 -0.857 2.563 0
-1.521 -0.214 2.886 2
-1.511 -0.219 2.879 44
-1.517 -0.228 2.868 38
-1.534 -0.242 2.855 27
-1.253 -0.207 2.871 9
-1.226 -0.212 2.862 11
-1.211 -0.22 2.852 13
-1.2 -0.229 2.84 9
-1.184 -0.237 2.828 4
-1.184 -0.247 2.814 4
-1.203 -0.263 2.795 11
-1.167 -0.265 2.785 20
-1.506 -0.357 2.701 5
-1.293 -0.318 2.724 16
-5.162 -1.587 2.72 21
-5.473 -1.59 2.691 6
-5.816 -1.594 2.661 7
-6.171 -1.592 2.632 12
-6.589 -1.599 2.601 24
-7.043 -1.605 2.57 12
-7.587 -1.622 2.535 14
-5.422 -1.088 2.668 16
-5.407 -1.018 2.669 19
-5.449 -0.964 2.668 17
-5.553 -0.927 2.663 4
-9.3 -1.47 2.436 27
-8.41 -1.268 2.488 2
-8.017 -1.163 2.506 0
-7.491 -1.057 2.529 0
-7.057 -0.981 2.543 0
-6.661 -0.925 2.549 0
-6.148 -0.861 2.561 0
-1.516 -0.217 2.885 3
-1.511 -0.223 2.877 44
-1.52 -0.232 2.866 37
-1.53 -0.244 2.853 26
-1.244 -0.208 2.87 7
-1.237 -0.217 2.859 11
-1.207 -0.221 2.851 13
-1.188 -0.228 2.84 15
-1.196 -0.24 2.825 7
-1.18 -0.249 2.813 10
-1.194 -0.262 2.795 12
-1.166 -0.267 2.784 11
-1.402 -0.334 2.72 4
-1.331 -0.329 2.714 6
-5.144 -1.591 2.719 7
-5.436 -1.589 2.691 5
-5.775 -1.594 2.661 4
-6.145 -1.598 2.631 15
-6.547 -1.601 2.601 4
-7.028 -1.616 2.567 11
-7.544 -1.63 2.533 4
-5.404 -1.096 2.665 28
-5.397 -1.029 2.666 17
-5.455 -0.978 2.663 16
-5.594 -0.948 2.655 6
-8.692 -1.397 2.464 11
-8.023 -1.232 2.502 4
-7.832 -1.159 2.508 0
-7.333 -1.057 2.529 0
-6.908 -0.981 2.543 0
-6.535 -0.925 2.549 0
-5.916 -0.845 2.569 8
-1.508 -0.22 2.883 4
-1.502 -0.225 2.875 43
-1.516 -0.236 2.864 38
-1.537 -0.249 2.851 20
-1.255 -0.212 2.867 7
-1.241 -0.219 2.858 10
-1.206 -0.223 2.849 12
-1.187 -0.23 2.839 15
-1.191 -0.241 2.825 8
-1.179 -0.25 2.812 3
-1.19 -0.263 2.794 12
-1.212 -0.279 2.774 10
-1.306 -0.313 2.738 12
-1.322 -0.329 2.714 13
-5.104 -1.587 2.72 8
-5.395 -1.587 2.691 11
-5.737 -1.594 2.661 9
-6.107 -1.6 2.631 4
-6.509 -1.605 2.6 7
-6.954 -1.614 2.567 4
-7.482 -1.633 2.532 14
-5.405 -1.109 2.661 23
-5.386 -1.041 2.662 18
-5.515 -1.003 2.655 14
-5.571 -0.959 2.651 10
-8.688 -1.421 2.455 14
-7.837 -1.226 2.505 5
-7.65 -1.154 2.51 0
-7.184 -1.056 2.53 0
-6.782 -0.982 2.542 0
-6.323 -0.913 2.555 0
-5.898 -0.859 2.562 19
-1.507 -0.223 2.881 6
-1.509 -0.231 2.872 43
-1.523 -0.241 2.861 34
-1.536 -0.252 2.848 18
-1.255 -0.215 2.866 6
-1.244 -0.223 2.855 11
-1.217 -0.227 2.847 12
-1.194 -0.234 2.836 15
-1.187 -0.243 2.824 9
-1.167 -0.249 2.812 0
-1.209 -0.269 2.789 9
-1.211 -0.281 2.773 12
-1.29 -0.31 2.74 10
-1.329 -0.332 2.712 14
-5.074 -1.587 2.72 7
-5.381 -1.593 2.69 19
-5.719 -1.599 2.66 18
-6.065 -1.602 2.63 8
-6.475 -1.611 2.598 24
-6.919 -1.62 2.566 21
-7.228 -1.594 2.543 7
-5.398 -1.12 2.657 20
-5.375 -1.051 2.658 34
-5.512 -1.018 2.65 16
-5.525 -0.966 2.648 10
-8.648 -1.438 2.448 11
-7.648 -1.219 2.508 6
-7.488 -1.151 2.511 0
-7.042 -1.056 2.53 0
-6.652 -0.983 2.541 0
-6.181 -0.911 2.556 0
-5.907 -0.877 2.553 24
-1.498 -0.227 2.879 7
-1.504 -0.234 2.87 43
-1.522 -0.244 2.859 31
-1.535 -0.255 2.847 14
-1.262 -0.219 2.863 6
-1.239 -0.224 2.854 9
-1.221 -0.231 2.844 13
-1.198 -0.237 2.834 16
-1.19 -0.245 2.822 11
-1.174 -0.253 2.81 5
-1.17 -0.262 2.795 16
-1.207 -0.281 2.772 15
-1.282 -0.31 2.74 10
-1.332 -0.334 2.71 16
-5.06 -1.591 2.719 17
-5.363 -1.597 2.69 6
-5.674 -1.597 2.661 5
-6.043 -1.607 2.629 22
-6.432 -1.614 2.598 4
-6.877 -1.626 2.564 4
-7.349 -1.638 2.53 7
-5.388 -1.131 2.654 19
-5.365 -1.063 2.655 60
-5.458 -1.021 2.648 25
-5.538 -0.983 2.642 2
-8.525 -1.441 2.447 5
-7.482 -1.214 2.51 6
-7.327 -1.147 2.513 0
-6.908 -1.056 2.53 0
-6.511 -0.981 2.543 0
-5.914 -0.889 2.567 9
-5.9 -0.893 2.545 97
-1.497 -0.23 2.878 10
-1.508 -0.238 2.868 39
-1.517 -0.247 2.857 29
-1.538 -0.26 2.844 9
-1.273 -0.224 2.86 5
-1.251 -0.229 2.851 8
-1.228 -0.235 2.842 12
-1.201 -0.24 2.832 15
-1.185 -0.247 2.821 16
-1.174 -0.255 2.808 2
-1.173 -0.265 2.793 23
-1.21 -0.284 2.77 16
-1.285 -0.313 2.738 17
-1.286 -0.324 2.718 14
-5.054 -1.598 2.718 15
-5.329 -1.597 2.69 5
-5.648 -1.601 2.66 4
-5.997 -1.607 2.629 4
-6.39 -1.617 2.597 8
-6.823 -1.628 2.564 10
-7.357 -1.657 2.525 12
-5.389 -1.144 2.65 18
-5.358 -1.075 2.651 75
-5.428 -1.03 2.645 34
-5.59 -1.008 2.633 2
-8.198 -1.409 2.459 1
-7.333 -1.211 2.511 4
-7.185 -1.146 2.513 0
-6.766 -1.054 2.531 0
-6.338 -0.973 2.546 0
-5.911 -0.906 2.558 13
-5.885 -0.907 2.538 7
-1.497 -0.234 2.875 12
-1.503 -0.241 2.866 37
-1.521 -0.251 2.855 25
-1.542 -0.263 2.842 7
-1.272 -0.226 2.859 3
-1.246 -0.231 2.85 8
-1.227 -0.237 2.84 13
-1.204 -0.242 2.83 15
-1.189 -0.249 2.819 18
-1.165 -0.254 2.808 2
-1.18 -0.268 2.791 17
-1.225 -0.289 2.766 18
-1.28 -0.313 2.737 17
-1.293 -0.328 2.715 15
-5.024 -1.598 2.718 7
-5.303 -1.599 2.689 7
-5.618 -1.603 2.659 14
-5.959 -1.61 2.628 7
-6.368 -1.624 2.595 23
-6.808 -1.639 2.561 17
-7.283 -1.657 2.525 4
-5.39 -1.158 2.646 16
-5.355 -1.088 2.647 165
-5.417 -1.043 2.641 28
-5.56 -1.017 2.63 4
-8.009 -1.398 2.463 1
-7.211 -1.211 2.511 1
-7.043 -1.145 2.514 0
-6.648 -1.056 2.53 0
-6.169 -0.966 2.549 1
-5.908 -0.922 2.55 17
-5.87 -0.921 2.531 5
-1.496 -0.239 2.873 13
-1.498 -0.244 2.865 36
-1.524 -0.255 2.853 17
-1.545 -0.268 2.839 6
-1.264 -0.227 2.858 0
-1.253 -0.235 2.847 8
-1.227 -0.239 2.839 12
-1.204 -0.244 2.829 17
-1.188 -0.251 2.818 19
-1.172 -0.258 2.806 9
-1.233 -0.282 2.78 9
-1.22 -0.29 2.765 16
-1.276 -0.314 2.736 20
-1.296 -0.33 2.713 16
-4.991 -1.596 2.719 8
-5.274 -1.6 2.689 25
-5.607 -1.612 2.657 11
-5.929 -1.614 2.627 31
-6.318 -1.626 2.595 4
-6.75 -1.641 2.56 4
-7.252 -1.667 2.522 14
-5.383 -1.169 2.643 18
-5.352 -1.101 2.642 161
-5.414 -1.056 2.636 15
-8.523 -1.582 2.424 3
-7.82 -1.388 2.467 1
-7.124 -1.216 2.509 0
-6.901 -1.142 2.515 0
-6.515 -1.054 2.531 0
-5.909 -0.943 2.56 12
-5.904 -0.939 2.542 51
-5.736 -0.916 2.533 1
-1.495 -0.243 2.871 12
-1.501 -0.249 2.862 32
-1.523 -0.259 2.85 14
-1.559 -0.275 2.835 2
0.0 -0.0 3.0 0
-1.256 -0.238 2.846 6
-1.222 -0.241 2.838 10
-1.211 -0.249 2.826 16
-1.195 -0.255 2.815 20
-1.172 -0.26 2.804 4
-1.255 -0.289 2.774 10
-1.212 -0.29 2.765 17
-1.271 -0.315 2.736 32
-1.269 -0.325 2.718 21
-4.969 -1.599 2.718 8
-5.267 -1.608 2.687 9
-5.554 -1.608 2.658 4
-5.91 -1.621 2.626 6
-6.279 -1.629 2.594 8
-6.707 -1.646 2.559 13
-7.193 -1.671 2.521 3
-5.395 -1.185 2.638 17
-5.353 -1.115 2.638 89
-5.411 -1.07 2.632 15
-8.205 -1.546 2.437 1
-7.643 -1.378 2.471 1
-7.045 -1.223 2.506 0
-6.756 -1.137 2.517 0
-6.33 -1.043 2.536 0
-5.902 -0.959 2.553 13
-5.881 -0.952 2.536 4
-5.568 -0.906 2.539 0
-1.494 -0.246 2.869 12
-1.497 -0.252 2.86 25
-1.522 -0.263 2.848 13
-1.578 -0.281 2.831 0
0.0 -0.0 3.0 0
-1.263 -0.242 2.843 4
-1.233 -0.245 2.834 9
-1.214 -0.251 2.824 16
-1.191 -0.256 2.814 18
-7.75 -1.733 1.694 0
-1.259 -0.292 2.772 10
-1.219 -0.293 2.762 19
-1.271 -0.317 2.734 33
-1.264 -0.326 2.717 24
-4.951 -1.603 2.717 20
-5.222 -1.605 2.688 5
-5.524 -1.611 2.658 4
-5.865 -1.62 2.626 5
-6.256 -1.637 2.592 22
-6.692 -1.658 2.556 9
-7.146 -1.676 2.519 14
-5.42 -1.204 2.632 15
-5.358 -1.129 2.633 52
-5.408 -1.084 2.627 14
-8.008 -1.531 2.443 1
-7.481 -1.37 2.474 1
-6.943 -1.226 2.505 1
-6.634 -1.137 2.518 0
-6.153 -1.032 2.541 0
-5.903 -0.976 2.545 18
-5.858 -0.965 2.529 3
-5.435 -0.9 2.542 0
-1.486 -0.248 2.868 9
-1.496 -0.255 2.858 24
-1.521 -0.267 2.846 9
-4.603 -0.832 2.5 0
0.0 -0.0 3.0 0
-1.259 -0.244 2.841 2
-1.232 -0.248 2.833 8
-1.264 -0.264 2.815 21
-1.186 -0.257 2.813 13
0.0 -0.0 3.0 0
-1.258 -0.294 2.77 11
-1.188 -0.287 2.767 17
-1.27 -0.318 2.733 33
-1.26 -0.326 2.717 27
-4.937 -1.608 2.716 13
-5.2 -1.609 2.687 5
-5.498 -1.614 2.657 17
-5.838 -1.626 2.625 12
-6.21 -1.639 2.591 4
-3.95 -0.987 2.735 3
-7.123 -1.688 2.516 5
-5.44 -1.222 2.626 13
-5.359 -1.143 2.628 42
-5.409 -1.098 2.622 26
-7.827 -1.519 2.447 1
-7.316 -1.36 2.478 1
-6.833 -1.226 2.505 2
-6.508 -1.134 2.519 0
-5.906 -1.008 2.551 12
-5.895 -0.992 2.537 32
-5.737 -0.962 2.531 1
-5.345 -0.9 2.541 0
-1.489 -0.253 2.865 7
-1.499 -0.261 2.856 22
-1.524 -0.271 2.843 7
0.0 -0.0 3.0 0
0.0 -0.0 3.0 0
0.0 -0.0 3.0 0
-1.235 -0.251 2.831 5
-1.267 -0.267 2.813 20
-1.185 -0.259 2.812 12
0.0 -0.0 3.0 0
-1.265 -0.297 2.768 13
-1.16 -0.283 2.771 18
-1.262 -0.318 2.733 34
-1.259 -0.328 2.715 28
-4.9 -1.606 2.717 7
-5.17 -1.61 2.687 16
-5.487 -1.623 2.655 9
-5.823 -1.635 2.623 15
-3.958 -1.053 2.737 1
-3.928 -0.991 2.734 1
-5.547 -1.328 2.619 0
-5.444 -1.237 2.622 9
-5.367 -1.16 2.623 22
-5.409 -1.113 2.617 39
-3.923 -0.771 2.719 0
-7.171 -1.354 2.48 1
-6.731 -1.227 2.504 3
-6.359 -1.127 2.522 0
-5.902 -1.024 2.544 9
-5.872 -1.006 2.531 4
-5.533 -0.944 2.539 0
-5.26 -0.9 2.541 0
-1.488 -0.258 2.863 6
-1.506 -0.265 2.853 13
-1.535 -0.277 2.84 5
0.0 -0.0 3.0 0
0.0 -0.0 3.0 0
0.0 -0.0 3.0 0
-1.239 -0.255 2.828 3
-1.262 -0.268 2.812 15
-1.192 -0.263 2.809 10
0.0 -0.0 3.0 0
-1.264 -0.299 2.766 14
-1.144 -0.281 2.773 17
-1.249 -0.317 2.734 33
-1.259 -0.329 2.714 29
-4.874 -1.606 2.717 8
-5.159 -1.617 2.686 13
-5.449 -1.623 2.655 4
-5.777 -1.635 2.623 4
-3.851 -1.033 2.742 3
-3.883 -0.989 2.735 10
-5.547 -1.342 2.615 6
-5.453 -1.252 2.617 7
-5.38 -1.177 2.618 17
-3.91 -0.816 2.719 4
-7.481 -1.493 2.457 1
-7.025 -1.347 2.483 1
-6.633 -1.229 2.504 1
-6.171 -1.111 2.528 1
-5.907 -1.042 2.536 15
-5.853 -1.02 2.525 3
-5.408 -0.938 2.543 0
-5.162 -0.898 2.542 0
-1.495 -0.263 2.86 2
-1.501 -0.269 2.851 8
-1.538 -0.282 2.837 1
0.0 -0.0 3.0 0
0.0 -0.0 3.0 0
0.0 -0.0 3.0 0
-1.249 -0.259 2.825 2
-1.265 -0.272 2.81 10
-1.192 -0.265 2.807 8
-5.292 -1.22 2.081 0
-1.267 -0.303 2.764 15
-1.148 -0.283 2.771 12
-1.245 -0.317 2.734 32
-1.254 -0.33 2.713 30
-4.849 -1.608 2.717 8
-5.133 -1.62 2.685 6
-5.411 -1.623 2.655 5
-5.735 -1.635 2.623 6
-3.887 -1.052 2.738 5
-3.881 -0.998 2.733 8
-3.997 -0.977 2.72 1
-5.465 -1.27 2.612 6
-5.392 -1.194 2.612 16
-3.908 -0.826 2.716 7
-3.93 -0.795 2.711 1
-6.892 -1.341 2.485 1
-6.535 -1.23 2.503 0
-5.904 -1.081 2.541 10
-5.899 -1.059 2.529 20
-5.704 -1.011 2.529 1
-5.342 -0.942 2.54 0
-5.1 -0.902 2.54 0
-1.47 -0.263 2.86 0
-1.504 -0.273 2.849 8
-4.517 -0.839 2.516 0
0.0 -0.0 3.0 0
0.0 -0.0 3.0 0
0.0 -0.0 3.0 0
0.0 -0.0 3.0 0
-1.322 -0.287 2.799 11
-1.195 -0.268 2.805 6
-5.258 -1.222 2.079 1
-1.266 -0.305 2.762 14
-1.151 -0.286 2.769 9
-1.237 -0.318 2.734 31
-1.261 -0.333 2.71 32
-4.83 -1.611 2.716 18
-5.092 -1.618 2.686 5
-5.385 -1.627 2.654 19
-5.709 -1.64 2.621 22
-3.85 -1.051 2.738 12
-3.855 -1.001 2.732 18
-3.917 -0.967 2.723 1
-3.892 -0.914 2.721 1
-3.929 -0.88 2.714 2
-3.909 -0.836 2.712 10
-7.175 -1.472 2.464 1
-6.747 -1.332 2.489 1
-6.35 -1.213 2.51 0
-5.909 -1.099 2.534 8
-5.868 -1.07 2.523 3
-5.504 -0.992 2.538 0
-5.264 -0.944 2.54 0
-5.039 -0.905 2.539 0
-1.458 -0.264 2.859 0
-1.515 -0.279 2.845 7
0.0 -0.0 3.0 0
0.0 -0.0 3.0 0
0.0 -0.0 3.0 0
0.0 -0.0 3.0 0
-7.395 -1.566 1.944 0
-1.356 -0.297 2.792 11
-1.194 -0.271 2.803 6
-5.243 -1.228 2.075 2
-1.269 -0.308 2.76 13
-1.158 -0.289 2.766 8
-1.228 -0.317 2.734 30
-1.252 -0.333 2.71 34
-4.831 -1.622 2.714 14
-5.074 -1.622 2.685 8
-5.385 -1.639 2.652 9
-5.69 -1.648 2.619 7
-3.829 -1.055 2.737 17
-3.834 -1.004 2.731 16
-3.957 -0.987 2.717 3
-3.89 -0.924 2.717 2
-3.918 -0.888 2.712 11
-3.899 -0.845 2.709 14
-7.03 -1.462 2.468 1
-6.594 -1.32 2.493 1
-6.108 -1.185 2.521 0
-5.905 -1.116 2.526 16
-5.833 -1.081 2.519 2
-5.403 -0.989 2.539 0
-5.163 -0.941 2.541 0
-4.937 -0.901 2.541 0
0.0 -0.0 3.0 0
-1.51 -0.282 2.844 0
0.0 -0.0 3.0 0
0.0 -0.0 3.0 0
0.0 -0.0 3.0 0
0.0 -0.0 3.0 0
-7.359 -1.574 1.938 0
-1.502 -0.332 2.768 7
-1.209 -0.276 2.799 3
-3.479 -0.821 2.381 0
-1.272 -0.31 2.758 12
-1.183 -0.298 2.759 7
-1.22 -0.317 2.734 26
-1.248 -0.334 2.71 36
-4.794 -1.619 2.714 7
-5.047 -1.625 2.684 20
-5.332 -1.634 2.653 5
-5.652 -1.65 2.619 5
-3.822 -1.062 2.735 17
-3.816 -1.009 2.73 22
-3.896 -0.981 2.719 7
-3.876 -0.93 2.716 7
-3.908 -0.896 2.709 18
-3.9 -0.856 2.705 13
-6.897 -1.454 2.471 1
-6.304 -1.281 2.508 1
-5.904 -1.163 2.53 8
-5.893 -1.131 2.52 11
-5.618 -1.058 2.529 0
-5.305 -0.987 2.54 0
-5.109 -0.946 2.538 0
-4.887 -0.906 2.538 0
0.0 -0.0 3.0 0
-4.503 -0.855 2.526 0
0.0 -0.0 3.0 0
0.0 -0.0 3.0 0
0.0 -0.0 3.0 0
0.0 -0.0 3.0 0
0.0 -0.0 3.0 0
-1.544 -0.344 2.759 7
-6.84 -1.576 1.855 2
-5.148 -1.225 2.077 1
-1.283 -0.315 2.754 10
-1.278 -0.323 2.738 10
-1.2 -0.314 2.737 21
-1.243 -0.335 2.709 34
-4.768 -1.62 2.714 8
-5.044 -1.635 2.682 8
-5.306 -1.639 2.652 5
-5.606 -1.65 2.619 10
-3.805 -1.067 2.734 16
-3.802 -1.014 2.728 18
-3.944 -1.003 2.712 11
-3.862 -0.937 2.714 11
-3.909 -0.907 2.705 24
-3.894 -0.865 2.702 7
-6.759 -1.444 2.474 1
-6.136 -1.265 2.514 0
-5.912 -1.182 2.522 6
-5.862 -1.143 2.515 3
-5.497 -1.052 2.532 0
-5.22 -0.987 2.54 0
-5.047 -0.949 2.537 0
0.0 -0.0 3.0 0
0.0 -0.0 3.0 0
0.0 -0.0 3.0 0
0.0 -0.0 3.0 0
0.0 -0.0 3.0 0
0.0 -0.0 3.0 0
0.0 -0.0 3.0 0
0.0 -0.0 3.0 0
-1.539 -0.347 2.757 7
-6.84 -1.589 1.846 2
-5.134 -1.231 2.072 1
-1.282 -0.317 2.752 10
-1.304 -0.333 2.731 11
-1.165 -0.306 2.743 18
-1.231 -0.334 2.71 31
-4.746 -1.622 2.714 8
-5.007 -1.633 2.682 6
-5.283 -1.643 2.651 15
-5.572 -1.652 2.619 21
-3.779 -1.068 2.734 17
-3.784 -1.019 2.727 20
-3.915 -1.006 2.711 12
-3.855 -0.946 2.711 13
-3.903 -0.917 2.702 27
-3.895 -0.877 2.698 1
-6.622 -1.434 2.478 1
-5.968 -1.247 2.521 1
-5.9 -1.197 2.516 17
-5.803 -1.148 2.513 1
-5.415 -1.052 2.531 0
0.0 -0.0 3.0 0
-4.934 -0.943 2.54 0
-4.748 -0.908 2.537 0
-53.146 -10.236 -2.443 2
0.0 -0.0 3.0 0
0.0 -0.0 3.0 0
0.0 -0.0 3.0 0
0.0 -0.0 3.0 0
0.0 -0.0 3.0 0
0.0 -0.0 3.0 0
-1.534 -0.349 2.756 3
-3.469 -0.813 2.41 0
-3.258 -0.788 2.406 0
-1.274 -0.318 2.752 8
-1.337 -0.343 2.722 11
-1.123 -0.297 2.751 11
-1.219 -0.332 2.712 29
-4.724 -1.625 2.713 14
-4.981 -1.637 2.682 6
-5.272 -1.652 2.649 10
-3.874 -1.157 2.733 1
-3.769 -1.074 2.732 17
-3.77 -1.025 2.725 21
-3.854 -1.0 2.713 16
-3.849 -0.955 2.708 14
-3.896 -0.925 2.699 20
-6.879 -1.568 2.46 1
-6.489 -1.424 2.482 1
-5.902 -1.251 2.52 12
-5.889 -1.213 2.51 8
-5.581 -1.121 2.524 0
-5.306 -1.047 2.534 0
-5.084 -0.992 2.538 0
-4.864 -0.943 2.54 0
-4.702 -0.913 2.535 0
0.0 -0.0 3.0 0
0.0 -0.0 3.0 0
0.0 -0.0 3.0 0
0.0 -0.0 3.0 0
0.0 -0.0 3.0 0
0.0 -0.0 3.0 0
0.0 -0.0 3.0 0
-1.533 -0.351 2.754 1
-3.459 -0.817 2.406 0
-3.198 -0.779 2.413 0
-1.281 -0.321 2.749 6
-1.382 -0.357 2.711 11
-1.115 -0.296 2.751 11
-1.207 -0.331 2.713 28
-4.717 -1.633 2.712 16
-4.958 -1.64 2.681 12
-5.223 -1.649 2.65 5
-3.856 -1.162 2.732 4
-3.755 -1.079 2.731 32
-3.763 -1.032 2.723 24
-3.828 -1.004 2.712 18
-3.842 -0.963 2.705 16
-3.898 -0.936 2.696 12
-6.758 -1.559 2.463 1
-6.368 -1.415 2.485 1
-5.82 -1.251 2.52 1
-5.849 -1.222 2.506 2
-5.464 -1.114 2.527 0
-5.216 -1.045 2.535 0
-5.002 -0.99 2.539 0
-4.755 -0.937 2.543 0
0.0 -0.0 3.0 0
0.0 -0.0 3.0 0
0.0 -0.0 3.0 0
0.0 -0.0 3.0 0
0.0 -0.0 3.0 0
0.0 -0.0 3.0 0
0.0 -0.0 3.0 0
0.0 -0.0 3.0 0
-6.782 -1.57 1.901 0
-3.419 -0.815 2.408 0
-3.147 -0.773 2.418 0
-1.284 -0.325 2.746 3
-1.426 -0.371 2.7 12
-1.121 -0.3 2.748 12
-1.199 -0.33 2.713 23
-4.699 -1.637 2.711 8
-4.94 -1.645 2.68 16
-5.2 -1.654 2.648 4
-3.853 -1.17 2.73 7
-3.752 -1.088 2.729 21
-3.757 -1.04 2.721 22
-3.818 -1.011 2.71 25
-3.843 -0.974 2.702 16
-3.922 -0.953 2.69 3
-6.629 -1.548 2.467 1
-6.189 -1.393 2.493 1
-5.715 -1.245 2.522 1
-5.803 -1.23 2.503 1
-5.39 -1.115 2.527 0
-5.15 -1.048 2.534 0
-4.932 -0.991 2.538 0
0.0 -0.0 3.0 0
0.0 -0.0 3.0 0
0.0 -0.0 3.0 0
0.0 -0.0 3.0 0
0.0 -0.0 3.0 0
0.0 -0.0 3.0 0
0.0 -0.0 3.0 0
0.0 -0.0 3.0 0
-122.452 -27.812 -15.759 16
-3.47 -0.811 2.432 0
-3.275 -0.787 2.428 0
-3.087 -0.764 2.424 7
-1.283 -0.327 2.745 0
-1.452 -0.381 2.692 10
-1.117 -0.301 2.748 11
-1.175 -0.326 2.717 19
-4.665 -1.636 2.712 8
-4.921 -1.649 2.679 6
-5.17 -1.656 2.648 10
-3.858 -1.181 2.727 6
-3.746 -1.095 2.727 21
-3.742 -1.046 2.72 22
-3.8 -1.016 2.709 28
-3.848 -0.986 2.699 19
-3.939 -0.968 2.685 2
-6.5 -1.536 2.471 0
-5.908 -1.348 2.509 7
-5.601 -1.237 2.525 0
-5.639 -1.211 2.511 0
-5.288 -1.11 2.529 0
-5.08 -1.048 2.533 0
-4.831 -0.985 2.541 0
-4.671 -0.948 2.538 0
0.0 -0.0 3.0 0
0.0 -0.0 3.0 0
0.0 -0.0 3.0 0
0.0 -0.0 3.0 0
0.0 -0.0 3.0 0
0.0 -0.0 3.0 0
0.0 -0.0 3.0 0
0.0 -0.0 3.0 0
0.0 -0.0 3.0 0
-3.211 -0.779 2.434 0
-3.077 -0.768 2.422 7
-3.066 -0.787 2.386 34
-1.523 -0.402 2.675 7
-1.127 -0.306 2.743 11
-1.122 -0.313 2.728 13
-4.632 -1.634 2.712 8
-4.88 -1.647 2.68 6
-5.162 -1.666 2.646 15
-3.867 -1.193 2.725 4
-3.739 -1.103 2.725 19
-3.736 -1.054 2.718 27
-3.793 -1.024 2.706 34
-3.838 -0.993 2.696 16
-3.94 -0.979 2.682 1
-6.371 -1.524 2.475 0
-5.92 -1.368 2.502 6
-5.5 -1.231 2.527 0
-5.483 -1.194 2.517 0
-5.226 -1.112 2.528 0
-4.967 -1.04 2.537 0
-4.832 -1.0 2.534 0
0.0 -0.0 3.0 0
-49.965 -10.28 -2.238 4
0.0 -0.0 3.0 0
0.0 -0.0 3.0 0
0.0 -0.0 3.0 0
0.0 -0.0 3.0 0
0.0 -0.0 3.0 0
0.0 -0.0 3.0 0
0.0 -0.0 3.0 0
-3.373 -0.803 2.438 0
-3.144 -0.769 2.441 0
-3.075 -0.773 2.417 8
-3.06 -0.791 2.382 8
-1.541 -0.409 2.669 8
-1.145 -0.313 2.737 12
-1.087 -0.305 2.735 13
-4.617 -1.639 2.711 11
-4.861 -1.652 2.679 6
-5.132 -1.668 2.645 5
-3.872 -1.204 2.722 3
-3.736 -1.111 2.723 19
-3.729 -1.061 2.716 27
-3.783 -1.032 2.704 24
-3.824 -1.0 2.694 16
-3.929 -0.988 2.679 1
-6.208 -1.503 2.483 1
-5.904 -1.381 2.497 21
-5.422 -1.229 2.528 0
-5.362 -1.184 2.522 0
-5.148 -1.111 2.528 0
-4.921 -1.045 2.535 0
-49.548 -10.401 -1.85 1
0.0 -0.0 3.0 0
-49.999 -10.433 -2.316 4
-51.333 -10.76 -2.721 2
-50.341 -10.661 -2.909 2
0.0 -0.0 3.0 0
0.0 -0.0 3.0 0
0.0 -0.0 3.0 0
0.0 -0.0 3.0 0
0.0 -0.0 3.0 0
-3.255 -0.782 2.453 0
-3.084 -0.761 2.447 7
-3.077 -0.78 2.413 12
-3.054 -0.795 2.379 3
-1.543 -0.413 2.666 8
-1.156 -0.318 2.734 13
-1.09 -0.308 2.733 13
-4.602 -1.645 2.71 18
-4.838 -1.656 2.678 16
-5.102 -1.67 2.645 5
-3.873 -1.214 2.72 8
-3.73 -1.119 2.721 17
-3.723 -1.069 2.714 41
-3.768 -1.038 2.702 19
-3.821 -1.01 2.691 14
-3.911 -0.994 2.677 2
-5.917 -1.449 2.501 5
-5.872 -1.391 2.494 2
-5.376 -1.235 2.526 0
-5.296 -1.185 2.521 0
-5.047 -1.105 2.531 0
-4.843 -1.044 2.535 0
0.0 -0.0 3.0 0
-48.333 -10.235 -1.992 2
-50.099 -10.6 -2.401 3
0.0 -0.0 3.0 0
-50.285 -10.788 -2.98 2
0.0 -0.0 3.0 0
0.0 -0.0 3.0 0
0.0 -0.0 3.0 0
0.0 -0.0 3.0 0
-3.42 -0.808 2.455 0
-3.195 -0.775 2.457 0
-3.078 -0.766 2.444 8
-3.063 -0.783 2.41 45
-3.059 -0.802 2.373 0
-1.542 -0.415 2.664 4
-1.133 -0.313 2.737 12
-1.097 -0.311 2.73 12
-4.591 -1.652 2.709 9
-4.827 -1.663 2.677 14
-5.079 -1.676 2.644 7
-3.854 -1.217 2.719 6
-3.723 -1.126 2.719 20
-3.72 -1.078 2.711 41
-3.762 -1.047 2.7 17
-3.803 -1.016 2.69 15
-3.916 -1.007 2.673 1
-5.924 -1.468 2.494 3
-5.821 -1.396 2.492 2
-9.047 -2.105 2.192 0
-5.207 -1.181 2.523 0
-4.973 -1.104 2.531 0
-4.785 -1.045 2.535 0
0.0 -0.0 3.0 0
-48.013 -10.31 -2.028 1
-50.159 -10.759 -2.482 4
-50.325 -10.837 -2.762 4
0.0 -0.0 3.0 0
0.0 -0.0 3.0 0
0.0 -0.0 3.0 0
0.0 -0.0 3.0 0
0.0 -0.0 3.0 0
-3.356 -0.8 2.46 0
-3.135 -0.767 2.463 1
-3.072 -0.77 2.44 10
-3.061 -0.788 2.406 8
-3.068 -0.811 2.367 0
-1.537 -0.417 2.662 4
-1.12 -0.312 2.738 10
-1.1 -0.314 2.727 12
-4.558 -1.65 2.709 7
-4.801 -1.666 2.676 7
-5.049 -1.677 2.643 19
-3.84 -1.223 2.718 9
-3.72 -1.135 2.717 17
-3.717 -1.087 2.709 47
-3.755 -1.055 2.697 18
-3.83 -1.034 2.684 14
-7.269 -1.889 2.386 1
-5.9 -1.479 2.491 17
-5.647 -1.37 2.501 1
0.0 -0.0 3.0 0
-5.125 -1.178 2.524 0
-4.9 -1.102 2.532 0
-4.708 -1.043 2.536 0
0.0 -0.0 3.0 0
-47.724 -10.39 -2.067 2
0.0 -0.0 3.0 0
-50.322 -10.981 -2.839 3
-49.721 -10.945 -3.067 2
0.0 -0.0 3.0 0
0.0 -0.0 3.0 0
0.0 -0.0 3.0 0
-3.42 -0.806 2.477 0
-3.207 -0.773 2.479 0
-3.075 -0.759 2.468 5
-3.069 -0.777 2.436 29
-3.062 -0.794 2.401 3
-1.243 -0.331 2.741 0
-1.502 -0.41 2.668 0
-1.135 -0.318 2.733 10
-1.096 -0.314 2.727 11
-4.532 -1.651 2.709 9
-4.775 -1.668 2.676 7
-5.041 -1.688 2.641 9
-3.826 -1.228 2.717 10
-3.721 -1.145 2.715 26
-3.714 -1.096 2.706 46
-3.752 -1.064 2.695 24
-3.831 -1.044 2.681 16
-5.914 -1.554 2.495 4
-5.861 -1.486 2.488 2
-5.534 -1.36 2.505 0
-5.154 -1.23 2.528 0
-5.043 -1.174 2.526 0
-4.818 -1.099 2.534 0
-4.654 -1.044 2.535 0
-4.484 -0.995 2.536 0
-47.431 -10.468 -2.105 3
-47.078 -10.375 -2.286 2
-50.233 -11.106 -2.905 2
-49.49 -11.033 -3.116 2
0.0 -0.0 3.0 0
0.0 -0.0 3.0 0
0.0 -0.0 3.0 0
-3.406 -0.81 2.474 0
-3.17 -0.771 2.48 0
-3.077 -0.766 2.463 9
-3.067 -0.783 2.431 71
-3.075 -0.805 2.394 1
-1.208 -0.324 2.747 2
-1.169 -0.322 2.74 1
-1.183 -0.333 2.72 10
-1.106 -0.319 2.723 11
-4.51 -1.653 2.709 9
-4.745 -1.669 2.676 6
-4.995 -1.685 2.642 5
-3.823 -1.237 2.715 8
-3.715 -1.153 2.713 21
-3.708 -1.105 2.704 46
-3.749 -1.073 2.692 23
-3.851 -1.061 2.676 14
-5.921 -1.572 2.489 2
-5.802 -1.488 2.488 1
-5.448 -1.354 2.507 0
-5.135 -1.24 2.524 1
-4.962 -1.17 2.527 0
-4.76 -1.099 2.533 0
-4.584 -1.043 2.536 0
-47.93 -10.782 -2.028 1
0.0 -0.0 3.0 0
-46.847 -10.462 -2.331 2
0.0 -0.0 3.0 0
-49.238 -11.116 -3.161 2
0.0 -0.0 3.0 0
0.0 -0.0 3.0 0
0.0 -0.0 3.0 0
-3.326 -0.8 2.481 0
-3.103 -0.762 2.486 1
-3.067 -0.771 2.46 11
-3.061 -0.787 2.428 9
-3.08 -0.812 2.388 0
-1.218 -0.329 2.743 4
-1.187 -0.329 2.734 2
-1.144 -0.324 2.728 5
-1.101 -0.32 2.722 11
-4.495 -1.658 2.708 15
-4.73 -1.675 2.674 13
-4.973 -1.689 2.641 5
-3.812 -1.243 2.713 8
-3.719 -1.164 2.71 18
-3.712 -1.115 2.701 35
-3.742 -1.082 2.69 30
-3.837 -1.068 2.674 17
-5.898 -1.583 2.485 14
-5.655 -1.468 2.495 0
-5.344 -1.344 2.511 0
-5.069 -1.24 2.524 3
-4.865 -1.163 2.53 0
-4.702 -1.101 2.533 0
-4.526 -1.043 2.536 0
0.0 -0.0 3.0 0
0.0 -0.0 3.0 0
-46.605 -10.545 -2.373 3
-49.678 -11.269 -2.992 2
-48.968 -11.192 -3.204 2
0.0 -0.0 3.0 0
0.0 -0.0 3.0 0
0.0 -0.0 3.0 0
-3.193 -0.776 2.496 0
-3.081 -0.764 2.485 8
-3.064 -0.777 2.456 71
-3.066 -0.795 2.422 3
-3.055 -0.812 2.388 0
-1.225 -0.334 2.739 3
-1.201 -0.335 2.729 2
-1.192 -0.34 2.715 4
-1.112 -0.325 2.717 12
-4.484 -1.665 2.706 14
-4.715 -1.681 2.673 15
-4.954 -1.696 2.64 11
-3.805 -1.251 2.711 12
-3.72 -1.174 2.707 16
-3.709 -1.125 2.699 27
-3.736 -1.091 2.687 22
-3.834 -1.078 2.671 14
-5.851 -1.588 2.484 1
-5.543 -1.454 2.499 0
-5.251 -1.337 2.514 0
-5.018 -1.243 2.523 4
-7.122 -1.723 2.304 0
-4.652 -1.104 2.532 0
-7.131 -1.666 2.258 2
0.0 -0.0 3.0 0
0.0 -0.0 3.0 0
-46.363 -10.627 -2.415 3
-49.43 -11.356 -3.038 2
0.0 -0.0 3.0 0
0.0 -0.0 3.0 0
0.0 -0.0 3.0 0
-3.409 -0.821 2.487 0
-3.16 -0.775 2.497 0
-3.071 -0.769 2.481 10
-3.062 -0.784 2.451 113
-3.064 -0.802 2.417 1
-3.038 -0.814 2.387 0
-1.213 -0.333 2.74 2
-1.211 -0.34 2.725 4
-1.191 -0.342 2.713 3
-1.118 -0.329 2.714 13
-4.465 -1.669 2.706 8
-4.696 -1.687 2.672 7
-4.938 -1.703 2.638 14
-3.817 -1.265 2.708 8
-3.729 -1.187 2.704 15
-3.714 -1.137 2.695 26
-3.736 -1.1 2.684 21
-3.831 -1.087 2.668 16
-5.792 -1.589 2.484 1
-5.446 -1.445 2.503 0
-5.088 -1.311 2.523 0
-4.96 -1.244 2.523 4
-9.343 -2.289 2.075 0
-7.048 -1.692 2.282 2
-7.14 -1.69 2.248 5
0.0 -0.0 3.0 0
-46.364 -10.787 -2.261 1
-46.085 -10.7 -2.452 3
-49.189 -11.444 -3.085 2
-48.503 -11.361 -3.297 2
0.0 -0.0 3.0 0
0.0 -0.0 3.0 0
-3.28 -0.798 2.501 0
-3.088 -0.765 2.503 10
-3.072 -0.777 2.476 28
-3.063 -0.791 2.446 10
-3.05 -0.805 2.415 0
-3.005 -0.811 2.389 0
-1.216 -0.336 2.738 3
-1.199 -0.339 2.725 6
-1.186 -0.343 2.712 5
-1.125 -0.333 2.711 12
-4.432 -1.668 2.706 9
-4.654 -1.683 2.673 7
-4.915 -1.707 2.637 5
-3.848 -1.285 2.703 5
-3.729 -1.197 2.702 15
-3.711 -1.146 2.693 22
-3.737 -1.111 2.681 17
-3.831 -1.099 2.664 12
-5.63 -1.561 2.493 0
-5.36 -1.438 2.505 0
-4.922 -1.282 2.533 1
-4.918 -1.247 2.521 1
-9.239 -2.291 2.074 0
-7.062 -1.718 2.271 2
-7.154 -1.715 2.236 0
0.0 -0.0 3.0 0
-46.098 -10.864 -2.299 1
-45.812 -10.772 -2.489 2
0.0 -0.0 3.0 0
-48.27 -11.442 -3.343 2
0.0 -0.0 3.0 0
0.0 -0.0 3.0 0
-3.2 -0.787 2.508 0
-3.078 -0.771 2.499 60
-3.07 -0.783 2.472 255
-3.053 -0.795 2.443 3
-3.059 -0.814 2.409 0
-2.987 -0.813 2.388 0
-1.215 -0.338 2.736 3
-1.206 -0.343 2.722 7
-1.182 -0.344 2.712 9
-1.135 -0.337 2.707 13
-4.413 -1.672 2.705 9
-4.639 -1.689 2.672 7
-4.885 -1.71 2.637 4
-3.887 -1.308 2.698 5
-3.741 -1.211 2.698 14
-3.712 -1.156 2.69 24
-3.746 -1.125 2.677 16
-3.832 -1.11 2.661 12
-5.533 -1.55 2.496 0
-5.279 -1.432 2.507 0
-4.833 -1.274 2.536 1
-4.867 -1.249 2.52 0
-9.143 -2.296 2.072 0
-7.121 -1.754 2.255 1
0.0 -0.0 3.0 0
0.0 -0.0 3.0 0
0.0 -0.0 3.0 0
-45.561 -10.848 -2.527 2
0.0 -0.0 3.0 0
0.0 -0.0 3.0 0
0.0 -0.0 3.0 0
0.0 -0.0 3.0 0
-3.155 -0.785 2.51 0
-3.075 -0.778 2.495 17
-3.067 -0.79 2.467 255
-3.07 -0.807 2.435 2
-3.041 -0.816 2.407 0
-2.943 -0.808 2.392 0
-1.214 -0.34 2.734 6
-1.212 -0.347 2.719 11
-1.192 -0.349 2.707 10
-1.142 -0.342 2.703 14
-4.391 -1.674 2.705 11
-4.617 -1.693 2.671 11
-3.932 -1.386 2.705 1
-3.88 -1.316 2.696 0
-3.753 -1.225 2.695 14
-3.712 -1.167 2.687 25
-3.75 -1.137 2.674 16
-3.833 -1.121 2.657 16
-5.452 -1.543 2.499 0
-5.182 -1.421 2.511 0
-4.756 -1.268 2.538 1
0.0 -0.0 3.0 0
-9.046 -2.299 2.071 0
0.0 -0.0 3.0 0
0.0 -0.0 3.0 0
0.0 -0.0 3.0 0
-45.584 -11.018 -2.374 2
-45.315 -10.925 -2.566 2
0.0 -0.0 3.0 0
0.0 -0.0 3.0 0
0.0 -0.0 3.0 0
-3.259 -0.808 2.515 0
-3.068 -0.771 2.518 21
-3.073 -0.785 2.49 90
-3.069 -0.798 2.462 13
-3.071 -0.815 2.43 1
-3.035 -0.821 2.403 0
-2.911 -0.805 2.394 0
-1.216 -0.344 2.731 6
-1.211 -0.35 2.717 15
-1.187 -0.35 2.706 12
-1.155 -0.348 2.698 14
-4.368 -1.676 2.705 17
-4.605 -1.7 2.67 17
-3.925 -1.394 2.704 1
-5.096 -1.742 2.598 5
-3.762 -1.238 2.691 15
-3.717 -1.178 2.684 18
-3.754 -1.149 2.671 16
-3.837 -1.133 2.654 14
-5.37 -1.536 2.501 0
-5.128 -1.422 2.51 0
-4.683 -1.263 2.54 1
0.0 -0.0 3.0 0
-8.965 -2.306 2.068 0
0.0 -0.0 3.0 0
0.0 -0.0 3.0 0
0.0 -0.0 3.0 0
-45.326 -11.093 -2.41 2
-45.13 -11.014 -2.612 4
0.0 -0.0 3.0 0
0.0 -0.0 3.0 0
0.0 -0.0 3.0 0
-3.202 -0.802 2.518 0
-3.073 -0.78 2.512 9
-3.074 -0.793 2.485 255
-3.077 -0.808 2.455 5
-3.049 -0.816 2.429 0
-2.983 -0.814 2.409 0
-2.942 -0.82 2.382 0
-1.211 -0.345 2.73 3
-1.214 -0.353 2.714 18
-1.186 -0.352 2.705 16
-1.173 -0.355 2.691 14
-4.368 -1.687 2.703 8
-4.582 -1.703 2.669 7
-3.911 -1.399 2.703 4
-5.061 -1.744 2.597 8
-3.796 -1.26 2.686 8
-3.729 -1.192 2.68 15
-3.755 -1.159 2.668 17
-3.838 -1.144 2.65 16
-5.266 -1.522 2.505 0
-5.039 -1.412 2.514 0
-4.614 -1.258 2.542 1
0.0 -0.0 3.0 0
-5.573 -1.451 2.414 0
0.0 -0.0 3.0 0
0.0 -0.0 3.0 0
0.0 -0.0 3.0 0
0.0 -0.0 3.0 0
-44.867 -11.084 -2.647 2
0.0 -0.0 3.0 0
0.0 -0.0 3.0 0
0.0 -0.0 3.0 0
-3.15 -0.798 2.521 0
-3.074 -0.788 2.508 9
-3.071 -0.801 2.48 255
-3.086 -0.818 2.448 5
-3.02 -0.815 2.429 0
-2.852 -0.785 2.43 0
-2.868 -0.805 2.393 0
-1.222 -0.35 2.727 0
-1.217 -0.356 2.712 20
-1.193 -0.356 2.701 17
-1.165 -0.355 2.692 17
-4.346 -1.689 2.702 8
-4.541 -1.7 2.67 5
-4.801 -1.73 2.632 4
-5.038 -1.749 2.596 18
-3.819 -1.278 2.681 6
-3.745 -1.208 2.676 14
-3.767 -1.173 2.664 16
-3.838 -1.157 2.646 8
-5.189 -1.515 2.508 0
-4.947 -1.401 2.518 0
-4.556 -1.256 2.543 1
-8.191 -2.203 2.154 0
-5.556 -1.463 2.409 2
0.0 -0.0 3.0 0
-46.571 -11.879 -2.289 3
0.0 -0.0 3.0 0
-5.544 -1.391 2.322 1
-44.509 -11.128 -2.67 1
-45.293 -11.332 -3.025 2
0.0 -0.0 3.0 0
-3.26 -0.825 2.523 0
-3.078 -0.787 2.527 11
-3.068 -0.795 2.503 32
-3.069 -0.807 2.476 15
-3.087 -0.826 2.443 3
-2.995 -0.815 2.429 0
-4.881 -1.355 2.016 7
-2.843 -0.804 2.394 0
-2.881 -0.831 2.351 0
-1.216 -0.358 2.71 19
-1.195 -0.359 2.699 18
-1.171 -0.359 2.688 20
-4.308 -1.686 2.703 11
-4.5 -1.696 2.67 5
-4.763 -1.729 2.632 6
-5.026 -1.758 2.594 6
-3.835 -1.294 2.677 5
-3.749 -1.22 2.673 13
-3.775 -1.188 2.659 20
-3.838 -1.168 2.643 5
-5.108 -1.507 2.51 0
-4.885 -1.399 2.518 0
-4.483 -1.25 2.545 1
-8.13 -2.212 2.151 0
-5.494 -1.464 2.409 6
0.0 -0.0 3.0 0
0.0 -0.0 3.0 0
0.0 -0.0 3.0 0
0.0 -0.0 3.0 0
0.0 -0.0 3.0 0
-45.368 -11.484 -3.106 3
0.0 -0.0 3.0 0
-3.195 -0.818 2.528 0
-3.071 -0.794 2.523 8
-3.069 -0.803 2.498 180
-3.085 -0.819 2.468 6
-3.1 -0.837 2.436 2
-2.973 -0.817 2.428 0
-4.854 -1.358 2.013 5
-2.731 -0.779 2.413 0
-2.811 -0.817 2.362 0
-1.215 -0.36 2.709 15
-1.194 -0.361 2.697 21
-1.174 -0.363 2.685 22
-4.297 -1.692 2.702 8
-4.037 -1.532 2.702 2
-4.743 -1.734 2.631 6
-4.991 -1.76 2.594 6
-3.843 -1.307 2.674 0
-3.768 -1.237 2.669 12
-3.787 -1.202 2.655 11
-3.839 -1.179 2.64 0
-5.02 -1.496 2.514 0
-4.812 -1.392 2.521 0
-4.429 -1.248 2.546 1
-8.054 -2.216 2.149 0
-5.481 -1.477 2.403 15
-5.555 -1.471 2.376 1
-5.592 -1.461 2.35 0
-5.535 -1.431 2.333 2
0.0 -0.0 3.0 0
-43.83 -11.222 -2.718 1
-45.355 -11.615 -3.176 2
-3.354 -0.862 2.522 0
-3.139 -0.813 2.531 0
-3.072 -0.803 2.517 8
-3.063 -0.81 2.494 51
-3.082 -0.827 2.463 5
-3.09 -0.841 2.432 2
-2.921 -0.81 2.433 0
-2.84 -0.801 2.418 0
-4.825 -1.387 1.955 3
-2.748 -0.805 2.371 0
-1.213 -0.362 2.707 15
-1.197 -0.365 2.694 21
-1.173 -0.364 2.684 26
-4.234 -1.678 2.704 13
-4.473 -1.709 2.668 7
-4.72 -1.739 2.63 14
-4.964 -1.764 2.593 6
-5.254 -1.801 2.551 9
-3.772 -1.249 2.665 2
-3.818 -1.223 2.649 10
-5.19 -1.609 2.508 0
-4.962 -1.493 2.515 0
-4.758 -1.391 2.521 0
-4.371 -1.245 2.547 1
-7.95 -2.212 2.151 0
-5.457 -1.488 2.399 21
-5.55 -1.487 2.369 1
-5.583 -1.476 2.343 1
0.0 -0.0 3.0 0
0.0 -0.0 3.0 0
-43.607 -11.296 -2.755 1
-45.452 -11.774 -3.26 3
-3.19 -0.83 2.54 0
-3.086 -0.807 2.534 5
-3.062 -0.809 2.514 31
-3.056 -0.816 2.49 8
-3.102 -0.84 2.454 2
-3.087 -0.849 2.428 2
-2.896 -0.809 2.433 0
-1.332 -0.379 2.725 2
-4.847 -1.404 1.942 1
-2.667 -0.787 2.385 0
-1.212 -0.364 2.705 15
-1.196 -0.366 2.693 22
-1.164 -0.363 2.684 27
-4.245 -1.693 2.701 13
-4.473 -1.721 2.665 9
-4.708 -1.747 2.629 11
-4.937 -1.768 2.592 14
-5.207 -1.801 2.551 5
-3.788 -1.266 2.661 1
-3.803 -1.229 2.648 2
-5.109 -1.599 2.511 0
-6.496 -1.974 2.359 0
-6.922 -2.044 2.296 1
-4.318 -1.243 2.547 1
-5.519 -1.553 2.404 0
-5.429 -1.498 2.395 23
-5.506 -1.492 2.366 2
-5.551 -1.485 2.339 1
0.0 -0.0 3.0 0
-44.007 -11.574 -2.645 2
-43.398 -11.373 -2.795 2
-3.401 -0.891 2.526 0
-3.179 -0.836 2.537 0
-3.08 -0.815 2.53 8
-3.063 -0.818 2.509 97
-3.068 -0.828 2.483 3
-3.099 -0.848 2.45 1
-2.947 -0.817 2.449 0
-2.882 -0.812 2.431 0
-1.342 -0.385 2.721 1
-1.334 -0.389 2.707 0
-2.115 -0.629 2.509 1
-1.215 -0.368 2.702 16
-1.191 -0.367 2.692 19
-1.171 -0.368 2.68 30
-4.089 -1.642 2.71 5
-4.442 -1.721 2.665 6
-4.682 -1.75 2.628 5
-4.929 -1.779 2.589 11
-5.18 -1.805 2.55 6
-5.442 -1.834 2.509 1
-3.837 -1.251 2.641 2
-5.032 -1.591 2.514 0
-4.804 -1.474 2.521 0
-6.858 -2.047 2.295 0
-4.268 -1.242 2.548 0
-5.51 -1.567 2.398 1
-5.412 -1.51 2.39 19
-5.467 -1.499 2.364 2
-5.5 -1.488 2.337 2
-44.648 -11.955 -2.575 3
0.0 -0.0 3.0 0
0.0 -0.0 3.0 0
-3.329 -0.882 2.531 0
-3.123 -0.83 2.54 1
-3.077 -0.822 2.525 8
-3.064 -0.827 2.503 18
-3.054 -0.832 2.48 2
-3.066 -0.847 2.45 1
-2.854 -0.798 2.461 0
-2.861 -0.813 2.431 0
-1.348 -0.39 2.717 0
-1.299 -0.382 2.712 3
-2.128 -0.637 2.502 0
-1.214 -0.37 2.7 13
-1.194 -0.371 2.689 16
-1.169 -0.37 2.678 29
-4.178 -1.689 2.702 6
-4.42 -1.725 2.665 8
-4.651 -1.751 2.628 6
-4.894 -1.78 2.589 6
-5.156 -1.812 2.548 16
-5.32 -1.808 2.516 0
-5.654 -1.861 2.466 1
-4.952 -1.58 2.517 0
-4.712 -1.461 2.525 0
-6.825 -2.058 2.291 2
-4.249 -1.25 2.545 0
-5.505 -1.583 2.392 1
-5.396 -1.522 2.385 19
-5.45 -1.512 2.358 2
-5.487 -1.502 2.331 2
0.0 -0.0 3.0 0
0.0 -0.0 3.0 0
0.0 -0.0 3.0 0
-3.219 -0.863 2.541 0
-3.093 -0.831 2.539 3
-3.066 -0.829 2.522 32
-3.061 -0.834 2.499 5
-3.067 -0.844 2.473 1
-3.018 -0.841 2.454 0
-2.779 -0.785 2.471 0
-2.862 -0.821 2.425 0
-1.328 -0.387 2.719 0
-1.316 -0.39 2.706 3
-1.3 -0.392 2.694 0
-1.217 -0.373 2.698 10
-1.193 -0.373 2.687 18
-1.168 -0.372 2.677 29
-4.177 -1.7 2.7 11
-4.412 -1.733 2.663 7
-4.632 -1.757 2.627 6
-4.867 -1.784 2.588 6
-5.136 -1.82 2.546 10
-5.263 -1.804 2.517 0
-5.686 -1.888 2.459 2
-4.886 -1.574 2.519 0
-6.376 -1.995 2.352 1
-6.766 -2.061 2.29 0
-4.184 -1.244 2.547 0
-5.507 -1.601 2.385 1
-5.391 -1.538 2.379 11
-5.43 -1.522 2.354 1
-5.528 -1.53 2.319 2
0.0 -0.0 3.0 0
0.0 -0.0 3.0 0
0.0 -0.0 3.0 0
-3.185 -0.863 2.541 0
-3.071 -0.834 2.538 8
-3.063 -0.836 2.517 69
-3.058 -0.842 2.494 2
-3.049 -0.847 2.471 0
-2.852 -0.802 2.479 0
-2.739 -0.78 2.474 0
-2.738 -0.792 2.445 0
-1.338 -0.393 2.714 2
-1.345 -0.402 2.697 2
-1.261 -0.383 2.7 5
-1.219 -0.377 2.695 3
-1.188 -0.373 2.687 21
-1.164 -0.372 2.676 29
-4.177 -1.711 2.698 9
-4.389 -1.737 2.662 13
-4.605 -1.76 2.626 15
-4.847 -1.79 2.587 9
-5.098 -1.82 2.546 6
-5.227 -1.807 2.516 8
-5.628 -1.886 2.459 1
-4.825 -1.568 2.52 0
-6.347 -2.006 2.348 0
-6.71 -2.065 2.289 1
0.0 -0.0 3.0 0
-5.529 -1.624 2.377 1
-5.386 -1.553 2.372 7
-5.417 -1.536 2.348 3
-5.53 -1.548 2.311 1
0.0 -0.0 3.0 0
0.0 -0.0 3.0 0
0.0 -0.0 3.0 0
-3.087 -0.846 2.55 5
-3.072 -0.844 2.532 9
-3.064 -0.845 2.512 10
-3.044 -0.846 2.492 2
-3.095 -0.868 2.457 1
-2.857 -0.811 2.473 0
-2.732 -0.786 2.47 0
-2.781 -0.812 2.432 0
-1.341 -0.397 2.712 0
-1.426 -0.429 2.677 1
-1.283 -0.393 2.693 4
-1.285 -0.4 2.676 0
-1.19 -0.377 2.684 21
-1.163 -0.374 2.675 29
-4.166 -1.717 2.697 14
-4.377 -1.744 2.661 12
-4.597 -1.769 2.624 11
-4.816 -1.793 2.586 18
-5.074 -1.828 2.544 6
-5.188 -1.809 2.515 10
-5.588 -1.889 2.458 0
-4.71 -1.546 2.527 0
-6.28 -2.004 2.349 1
-6.684 -2.077 2.285 0
-4.077 -1.238 2.55 0
-5.5 -1.634 2.373 1
-5.377 -1.567 2.367 4
-5.4 -1.549 2.343 1
-5.483 -1.552 2.309 1
0.0 -0.0 3.0 0
0.0 -0.0 3.0 0
-3.22 -0.893 2.545 0
-3.092 -0.856 2.545 3
-3.065 -0.851 2.528 33
-3.058 -0.853 2.508 4
-3.022 -0.849 2.49 0
-2.963 -0.84 2.475 0
-2.854 -0.818 2.469 0
-2.767 -0.803 2.458 0
-2.707 -0.796 2.443 0
-1.325 -0.395 2.713 1
-1.309 -0.397 2.701 3
-1.33 -0.41 2.68 3
-1.269 -0.398 2.678 5
-1.182 -0.377 2.684 20
-1.154 -0.374 2.675 25
-4.154 -1.724 2.696 13
-4.351 -1.745 2.661 7
-4.57 -1.772 2.623 6
-4.801 -1.8 2.584 7
-5.046 -1.831 2.543 13
-5.161 -1.814 2.514 1
-5.591 -1.907 2.453 2
-4.657 -1.542 2.529 0
-6.255 -2.015 2.345 1
-6.617 -2.077 2.285 0
-4.05 -1.241 2.548 1
-5.484 -1.645 2.368 1
-5.379 -1.585 2.36 4
-5.395 -1.564 2.336 1
-5.466 -1.565 2.303 1
0.0 -0.0 3.0 0
0.0 -0.0 3.0 0
-3.152 -0.884 2.55 0
-3.073 -0.861 2.542 7
-3.066 -0.86 2.523 45
-3.062 -0.863 2.502 2
-2.981 -0.845 2.492 0
-2.941 -0.841 2.474 0
-2.851 -0.825 2.465 0
-2.765 -0.81 2.454 0
-2.775 -0.824 2.423 0
-4.844 -1.458 1.94 4
-1.367 -0.418 2.685 2
-1.317 -0.409 2.68 3
-1.256 -0.397 2.679 5
-1.177 -0.378 2.683 20
-1.146 -0.374 2.675 23
-4.132 -1.726 2.696 9
-4.324 -1.746 2.661 7
-4.536 -1.772 2.623 6
-4.77 -1.803 2.584 6
-5.034 -1.842 2.541 32
-5.088 -1.804 2.517 0
-5.559 -1.913 2.452 0
-5.864 -1.96 2.401 0
-6.203 -2.017 2.345 0
-4.107 -1.303 2.551 0
-4.034 -1.249 2.545 2
-5.467 -1.658 2.364 1
-5.362 -1.597 2.355 3
-5.382 -1.577 2.331 1
-5.476 -1.585 2.294 1
0.0 -0.0 3.0 0
-3.272 -0.931 2.546 0
-3.076 -0.872 2.556 6
-3.074 -0.869 2.538 8
-3.056 -0.866 2.52 10
-3.044 -0.866 2.5 1
-2.978 -0.853 2.487 0
-2.916 -0.842 2.474 0
-2.841 -0.83 2.461 0
-2.826 -0.835 2.437 0
-2.694 -0.806 2.435 0
-2.094 -0.635 2.538 2
-1.34 -0.413 2.689 3
-1.305 -0.409 2.681 4
-1.24 -0.394 2.681 6
-1.176 -0.38 2.681 15
-1.144 -0.376 2.673 22
-4.113 -1.729 2.695 8
-4.305 -1.751 2.66 8
-4.52 -1.778 2.622 6
-4.75 -1.809 2.582 6
-4.992 -1.841 2.541 6
-7.127 -2.548 2.317 0
-4.786 -1.661 2.524 0
-5.824 -1.965 2.399 1
-6.155 -2.022 2.343 1
-4.02 -1.287 2.557 0
-3.992 -1.249 2.545 4
-5.484 -1.68 2.355 1
-5.368 -1.615 2.347 2
-5.38 -1.594 2.324 2
-5.524 -1.616 2.281 0
0.0 -0.0 3.0 0
-3.208 -0.923 2.55 0
-3.085 -0.883 2.55 6
-3.067 -0.877 2.534 29
-3.049 -0.873 2.516 3
-3.037 -0.873 2.496 0
-2.914 -0.844 2.493 0
-2.958 -0.863 2.461 0
-2.83 -0.834 2.459 0
-2.774 -0.827 2.442 0
-2.342 -0.707 2.505 0
-2.088 -0.639 2.536 3
-1.346 -0.417 2.685 3
-1.359 -0.429 2.665 3
-1.228 -0.393 2.682 6
-1.164 -0.378 2.683 15
-1.147 -0.379 2.67 23
-4.079 -1.726 2.696 11
-4.286 -1.755 2.659 10
-4.497 -1.782 2.621 13
-4.719 -1.812 2.582 11
-4.96 -1.845 2.54 4
-5.104 -1.84 2.507 0
-2.263 -0.792 2.773 4
-5.788 -1.97 2.398 1
-6.127 -2.031 2.34 0
-3.985 -1.289 2.556 0
