# .PCD v0.7 - Point Cloud Data file format
VERSION 0.7
FIELDS x y z intensity
SIZE 4 4 4 4
TYPE F F F F
COUNT 1 1 1 1
WIDTH 2205
HEIGHT 1
VIEWPOINT 0 0 0 1 0 0 0
POINTS 2205
DATA ascii
-5.049 -1.69 2.641 8
-3.83 -1.229 2.716 10
-3.718 -1.144 2.715 26
-3.714 -1.097 2.706 46
-3.752 -1.064 2.695 24
-3.827 -1.043 2.681 16
-5.914 -1.554 2.495 4
-5.865 -1.487 2.488 2
-5.538 -1.361 2.505 0
-5.174 -1.235 2.526 0
-5.047 -1.175 2.525 0
-4.842 -1.104 2.531 0
-7.14 -1.603 2.286 1
0.0 -0.0 3.0 0
-47.435 -10.468 -2.106 1
0.0 -0.0 3.0 0
0.0 -0.0 3.0 0
-49.49 -11.033 -3.116 2
0.0 -0.0 3.0 0
0.0 -0.0 3.0 0
0.0 -0.0 3.0 0
0.0 -0.0 3.0 0
-3.163 -0.77 2.481 0
-3.077 -0.766 2.463 9
-3.067 -0.783 2.431 71
-3.068 -0.803 2.395 1
-1.212 -0.325 2.746 2
-1.184 -0.325 2.736 1
-1.183 -0.333 2.72 10
-1.102 -0.318 2.724 11
-4.51 -1.653 2.709 9
-4.748 -1.67 2.675 7
-5.003 -1.687 2.641 5
-3.823 -1.237 2.715 8
-3.718 -1.154 2.712 21
-3.708 -1.105 2.704 46
-3.749 -1.073 2.692 22
-3.859 -1.063 2.675 14
-5.914 -1.57 2.49 3
-5.806 -1.489 2.487 1
-5.441 -1.353 2.507 0
-5.135 -1.24 2.524 1
-4.977 -1.174 2.526 0
-4.76 -1.099 2.533 0
-7.119 -1.619 2.279 2
0.0 -0.0 3.0 0
0.0 -0.0 3.0 0
-46.874 -10.467 -2.333 2
-49.95 -11.187 -2.948 2
-49.246 -11.117 -3.162 2
0.0 -0.0 3.0 0
0.0 -0.0 3.0 0
0.0 -0.0 3.0 0
-3.338 -0.802 2.479 0
-3.114 -0.765 2.484 2
-3.067 -0.771 2.46 11
-3.069 -0.789 2.427 9
-3.084 -0.813 2.387 1
-1.215 -0.328 2.744 4
-1.183 -0.328 2.735 2
-1.148 -0.326 2.727 5
-1.098 -0.319 2.723 12
-4.499 -1.66 2.707 16
-4.73 -1.675 2.674 13
-4.976 -1.69 2.641 5
-3.812 -1.243 2.713 8
-3.712 -1.162 2.71 18
-3.712 -1.116 2.701 35
-3.742 -1.082 2.69 30
-3.845 -1.07 2.673 17
-5.898 -1.583 2.485 14
-5.651 -1.467 2.495 0
-5.347 -1.346 2.51 0
-5.069 -1.24 2.524 3
-4.884 -1.167 2.528 0
-4.718 -1.105 2.531 0
-7.105 -1.639 2.27 1
0.0 -0.0 3.0 0
0.0 -0.0 3.0 0
-46.578 -10.538 -2.37 2
-49.706 -11.276 -2.995 2
-49.014 -11.202 -3.21 4
0.0 -0.0 3.0 0
0.0 -0.0 3.0 0
0.0 -0.0 3.0 0
-3.2 -0.778 2.495 0
-3.081 -0.764 2.485 9
-3.064 -0.777 2.456 71
-3.062 -0.795 2.423 3
-3.067 -0.815 2.386 0
-1.221 -0.333 2.74 3
-1.201 -0.335 2.729 2
-1.207 -0.344 2.711 4
-1.108 -0.323 2.719 12
-4.491 -1.668 2.706 14
-4.718 -1.683 2.673 15
-4.954 -1.696 2.64 11
-3.813 -1.254 2.711 10
-3.72 -1.174 2.707 16
-3.709 -1.126 2.698 27
-3.736 -1.091 2.687 22
-3.841 -1.08 2.67 14
-5.847 -1.587 2.484 2
-5.531 -1.451 2.5 0
-5.258 -1.34 2.512 0
-5.018 -1.243 2.523 4
-7.118 -1.722 2.304 0
-4.656 -1.104 2.531 0
-7.131 -1.666 2.258 2
0.0 -0.0 3.0 0
0.0 -0.0 3.0 0
-46.347 -10.623 -2.413 2
0.0 -0.0 3.0 0
-48.731 -11.275 -3.25 2
0.0 -0.0 3.0 0
0.0 -0.0 3.0 0
0.0 -0.0 3.0 0
-3.16 -0.775 2.497 0
-3.075 -0.77 2.481 11
-3.066 -0.785 2.45 111
-3.075 -0.805 2.415 1
-3.03 -0.811 2.389 0
-1.213 -0.333 2.74 2
-1.208 -0.339 2.725 4
-1.202 -0.345 2.71 3
-1.111 -0.327 2.716 13
-4.469 -1.671 2.705 8
-4.696 -1.687 2.672 6
-4.938 -1.703 2.638 13
-3.817 -1.265 2.708 8
-3.729 -1.187 2.704 15
-3.714 -1.137 2.695 25
-3.74 -1.102 2.684 21
-3.835 -1.089 2.667 16
-5.78 -1.585 2.485 1
-5.449 -1.446 2.502 0
-5.057 -1.304 2.525 0
-4.964 -1.245 2.522 3
-4.764 -1.167 2.528 0
-7.044 -1.692 2.282 2
-7.14 -1.69 2.248 5
0.0 -0.0 3.0 0
0.0 -0.0 3.0 0
-46.093 -10.701 -2.453 3
-49.178 -11.442 -3.084 2
0.0 -0.0 3.0 0
0.0 -0.0 3.0 0
0.0 -0.0 3.0 0
-3.264 -0.795 2.503 0
-3.088 -0.765 2.503 10
-3.072 -0.777 2.476 27
-3.06 -0.79 2.447 10
-3.065 -0.809 2.412 1
-3.009 -0.812 2.388 0
-1.219 -0.337 2.737 3
-1.199 -0.339 2.725 6
-1.186 -0.343 2.712 5
-1.128 -0.334 2.71 12
-4.435 -1.669 2.706 9
-4.654 -1.683 2.673 7
-4.912 -1.706 2.637 5
-3.841 -1.282 2.704 5
-3.737 -1.2 2.701 16
-3.711 -1.147 2.693 22
-3.737 -1.111 2.681 17
-3.831 -1.099 2.664 12
-5.641 -1.564 2.492 0
-5.356 -1.437 2.505 0
-4.922 -1.283 2.533 1
-4.918 -1.247 2.521 2
-9.247 -2.293 2.073 0
-7.065 -1.719 2.27 2
-4.391 -1.053 2.531 0
0.0 -0.0 3.0 0
0.0 -0.0 3.0 0
-45.819 -10.774 -2.489 2
0.0 -0.0 3.0 0
-48.29 -11.448 -3.346 2
0.0 -0.0 3.0 0
0.0 -0.0 3.0 0
-3.181 -0.783 2.511 0
-3.078 -0.771 2.499 60
-3.07 -0.783 2.472 255
-3.065 -0.798 2.441 3
-3.044 -0.81 2.412 0
-2.968 -0.808 2.391 0
-1.218 -0.339 2.735 3
-1.209 -0.345 2.721 8
-1.185 -0.345 2.711 9
-1.128 -0.335 2.709 13
-4.417 -1.673 2.705 9
-4.647 -1.692 2.671 6
-4.885 -1.71 2.637 4
-3.887 -1.308 2.698 5
-3.738 -1.209 2.698 14
-3.708 -1.156 2.69 24
-3.746 -1.125 2.677 16
-3.832 -1.11 2.661 12
-5.541 -1.552 2.496 0
-5.264 -1.428 2.508 0
-4.825 -1.273 2.537 1
-4.867 -1.249 2.52 1
-9.154 -2.299 2.071 0
-7.114 -1.752 2.256 1
0.0 -0.0 3.0 0
0.0 -0.0 3.0 0
0.0 -0.0 3.0 0
-45.565 -10.849 -2.528 2
0.0 -0.0 3.0 0
0.0 -0.0 3.0 0
0.0 -0.0 3.0 0
0.0 -0.0 3.0 0
-3.151 -0.784 2.51 0
-3.071 -0.776 2.496 16
-3.067 -0.79 2.467 255
-3.07 -0.807 2.435 2
-3.033 -0.814 2.409 0
-2.932 -0.805 2.394 0
-1.206 -0.338 2.736 6
-1.205 -0.345 2.721 12
-1.192 -0.349 2.707 10
-1.145 -0.343 2.702 14
-4.391 -1.674 2.705 12
-4.617 -1.693 2.671 11
-3.936 -1.387 2.705 1
-3.88 -1.316 2.696 0
-3.75 -1.224 2.695 14
-3.712 -1.167 2.687 24
-3.75 -1.137 2.674 16
-3.833 -1.121 2.657 16
-5.452 -1.543 2.499 0
-5.194 -1.425 2.509 0
-4.752 -1.268 2.538 1
0.0 -0.0 3.0 0
-9.062 -2.303 2.069 0
0.0 -0.0 3.0 0
0.0 -0.0 3.0 0
0.0 -0.0 3.0 0
0.0 -0.0 3.0 0
-45.257 -10.91 -2.559 3
0.0 -0.0 3.0 0
0.0 -0.0 3.0 0
0.0 -0.0 3.0 0
-3.27 -0.811 2.513 0
-3.072 -0.772 2.518 22
-3.073 -0.785 2.49 91
-3.061 -0.796 2.463 13
-3.075 -0.815 2.429 1
-3.031 -0.82 2.404 0
-2.922 -0.808 2.391 0
-1.213 -0.343 2.732 6
-1.207 -0.348 2.718 15
-1.187 -0.35 2.706 12
-1.159 -0.349 2.697 13
-4.379 -1.68 2.704 17
-4.605 -1.7 2.67 17
-3.914 -1.39 2.704 1
-5.092 -1.741 2.598 5
-3.762 -1.238 2.691 15
-3.717 -1.179 2.684 18
-3.758 -1.15 2.67 16
-3.837 -1.133 2.654 14
-5.359 -1.533 2.502 0
-5.117 -1.418 2.512 0
-4.683 -1.264 2.54 1
0.0 -0.0 3.0 0
-8.95 -2.302 2.07 0
0.0 -0.0 3.0 0
0.0 -0.0 3.0 0
0.0 -0.0 3.0 0
-45.31 -11.09 -2.409 2
-45.141 -11.017 -2.613 4
0.0 -0.0 3.0 0
0.0 -0.0 3.0 0
0.0 -0.0 3.0 0
-3.21 -0.804 2.517 0
-3.073 -0.78 2.512 9
-3.074 -0.793 2.485 255
-3.077 -0.808 2.455 5
-3.046 -0.815 2.429 0
-2.968 -0.81 2.412 0
-2.919 -0.813 2.387 0
-1.211 -0.345 2.73 3
-1.218 -0.353 2.714 18
-1.186 -0.352 2.705 16
-1.166 -0.353 2.693 14
-4.372 -1.688 2.702 9
-4.579 -1.702 2.669 7
-3.899 -1.395 2.703 4
-5.057 -1.742 2.598 8
-3.804 -1.262 2.685 8
-3.733 -1.195 2.68 15
-3.759 -1.16 2.667 17
-3.841 -1.146 2.649 16
-5.274 -1.524 2.505 0
-5.058 -1.417 2.512 0
-4.633 -1.264 2.54 1
0.0 -0.0 3.0 0
-5.553 -1.446 2.416 0
0.0 -0.0 3.0 0
0.0 -0.0 3.0 0
0.0 -0.0 3.0 0
0.0 -0.0 3.0 0
-44.871 -11.085 -2.648 2
0.0 -0.0 3.0 0
0.0 -0.0 3.0 0
0.0 -0.0 3.0 0
-3.15 -0.798 2.521 0
-3.067 -0.786 2.509 9
-3.067 -0.799 2.481 255
-3.086 -0.818 2.448 5
-3.032 -0.818 2.427 0
-4.912 -1.352 2.018 5
-2.841 -0.798 2.399 0
-1.214 -0.348 2.728 0
-1.217 -0.356 2.712 20
-1.193 -0.356 2.701 16
-1.165 -0.355 2.692 18
-4.335 -1.685 2.703 8
-4.537 -1.698 2.67 5
-4.801 -1.73 2.632 4
-5.041 -1.75 2.596 18
-3.819 -1.278 2.681 6
-3.748 -1.21 2.676 14
-3.767 -1.173 2.664 16
-3.842 -1.158 2.646 8
-5.189 -1.515 2.508 0
-4.97 -1.408 2.515 0
-4.56 -1.258 2.542 1
-8.179 -2.201 2.155 0
-5.548 -1.461 2.41 2
0.0 -0.0 3.0 0
-46.586 -11.884 -2.291 2
0.0 -0.0 3.0 0
-5.552 -1.392 2.321 1
0.0 -0.0 3.0 0
-45.27 -11.325 -3.022 2
0.0 -0.0 3.0 0
-3.248 -0.823 2.525 0
-3.07 -0.786 2.528 11
-3.068 -0.795 2.503 32
-3.069 -0.807 2.476 15
-3.091 -0.827 2.442 3
-3.018 -0.821 2.425 0
-4.881 -1.355 2.016 7
-2.847 -0.805 2.393 0
-2.843 -0.821 2.359 0
-1.216 -0.358 2.71 19
-1.188 -0.357 2.7 18
-1.171 -0.359 2.688 20
-4.305 -1.685 2.703 11
-4.492 -1.693 2.671 5
-4.759 -1.728 2.633 5
-5.026 -1.758 2.594 7
-3.835 -1.294 2.677 5
-3.756 -1.223 2.672 12
-3.775 -1.188 2.659 21
-3.838 -1.168 2.643 5
-5.108 -1.507 2.51 0
-4.862 -1.392 2.521 0
-4.494 -1.254 2.544 1
-8.141 -2.215 2.15 0
-5.501 -1.467 2.407 6
0.0 -0.0 3.0 0
0.0 -0.0 3.0 0
0.0 -0.0 3.0 0
0.0 -0.0 3.0 0
0.0 -0.0 3.0 0
-45.38 -11.487 -3.108 3
-3.43 -0.872 2.517 0
-3.203 -0.82 2.527 0
-3.079 -0.796 2.522 8
-3.069 -0.803 2.498 182
-3.085 -0.819 2.468 6
-3.104 -0.838 2.435 2
-2.947 -0.81 2.433 0
-2.843 -0.795 2.422 0
-2.75 -0.784 2.409 0
-2.822 -0.821 2.359 0
-1.211 -0.359 2.709 15
-1.19 -0.36 2.698 20
-1.177 -0.364 2.684 21
-4.282 -1.687 2.703 9
-4.048 -1.537 2.701 2
-4.743 -1.734 2.631 6
-4.991 -1.76 2.594 6
-3.816 -1.298 2.676 0
-3.772 -1.239 2.668 13
-3.779 -1.2 2.656 11
-3.85 -1.183 2.638 0
-5.016 -1.494 2.515 0
-4.831 -1.398 2.519 0
-4.437 -1.251 2.545 1
-8.038 -2.212 2.151 0
-5.477 -1.476 2.404 15
-5.582 -1.478 2.373 1
-5.569 -1.455 2.352 0
-5.535 -1.431 2.333 2
0.0 -0.0 3.0 0
-43.834 -11.223 -2.718 2
-45.34 -11.61 -3.173 2
0.0 -0.0 3.0 0
-3.139 -0.813 2.531 1
-3.072 -0.803 2.517 8
-3.066 -0.81 2.494 51
-3.086 -0.828 2.462 5
-3.086 -0.84 2.433 2
-2.914 -0.807 2.435 0
-2.81 -0.792 2.424 0
-4.817 -1.385 1.956 3
-2.752 -0.806 2.37 0
-1.217 -0.363 2.706 15
-1.193 -0.363 2.695 22
-1.173 -0.364 2.684 26
-4.241 -1.681 2.704 13
-4.477 -1.711 2.667 7
-4.72 -1.739 2.63 14
-4.964 -1.764 2.593 6
-5.25 -1.8 2.551 9
-3.768 -1.249 2.665 2
-3.818 -1.223 2.649 10
-5.198 -1.611 2.507 0
-4.962 -1.493 2.515 0
-6.955 -2.033 2.3 0
-4.367 -1.245 2.547 1
-7.939 -2.209 2.152 0
-5.453 -1.487 2.399 21
-5.542 -1.485 2.37 1
-5.575 -1.474 2.344 1
0.0 -0.0 3.0 0
0.0 -0.0 3.0 0
-43.61 -11.297 -2.756 1
-45.445 -11.772 -3.259 3
-3.209 -0.835 2.537 0
-3.086 -0.807 2.534 5
-3.062 -0.809 2.514 31
-3.056 -0.816 2.49 8
-3.095 -0.838 2.456 2
-3.079 -0.846 2.429 2
-2.93 -0.819 2.426 0
-1.336 -0.38 2.724 2
-4.843 -1.403 1.943 1
-2.675 -0.789 2.384 0
-1.216 -0.365 2.704 15
-1.196 -0.366 2.693 21
-1.164 -0.363 2.684 27
-4.237 -1.691 2.702 13
-4.476 -1.723 2.665 9
-4.712 -1.749 2.628 11
-4.937 -1.768 2.592 14
-5.207 -1.801 2.551 5
-3.78 -1.263 2.661 1
-3.814 -1.232 2.647 2
-5.151 -1.612 2.507 0
-4.862 -1.478 2.52 0
-6.93 -2.047 2.295 1
-4.31 -1.242 2.548 1
-5.519 -1.553 2.404 0
-5.429 -1.498 2.395 22
-5.499 -1.491 2.367 2
-5.547 -1.484 2.339 1
0.0 -0.0 3.0 0
-44.003 -11.573 -2.644 2
-43.421 -11.379 -2.798 2
-3.451 -0.904 2.519 0
-3.183 -0.837 2.536 0
-3.08 -0.815 2.53 8
-3.071 -0.819 2.508 96
-3.068 -0.828 2.483 3
-3.099 -0.848 2.45 1
-2.906 -0.806 2.456 0
-2.878 -0.812 2.432 0
-1.338 -0.384 2.721 1
-1.311 -0.382 2.712 0
-2.118 -0.63 2.508 1
-1.211 -0.367 2.703 16
-1.187 -0.366 2.693 18
-1.167 -0.367 2.681 29
-4.067 -1.634 2.712 5
-4.454 -1.726 2.665 6
-4.685 -1.752 2.628 5
-4.925 -1.778 2.59 11
-5.18 -1.805 2.55 6
-5.438 -1.833 2.509 1
-3.837 -1.251 2.641 3
-5.059 -1.6 2.511 0
-4.804 -1.474 2.521 0
-6.862 -2.048 2.295 0
-4.26 -1.241 2.548 0
-5.521 -1.57 2.397 1
-5.405 -1.508 2.391 19
-5.47 -1.5 2.363 2
-5.5 -1.488 2.337 2
-44.625 -11.95 -2.572 3
0.0 -0.0 3.0 0
0.0 -0.0 3.0 0
0.0 -0.0 3.0 0
-3.115 -0.828 2.541 1
-3.077 -0.822 2.525 9
-3.068 -0.827 2.503 19
-3.062 -0.834 2.479 2
-3.062 -0.845 2.451 0
-2.876 -0.805 2.457 0
-2.883 -0.82 2.426 0
-1.364 -0.394 2.714 0
-1.291 -0.38 2.714 3
-2.139 -0.641 2.5 0
-1.214 -0.37 2.7 13
-1.194 -0.371 2.689 16
-1.169 -0.37 2.678 30
-4.167 -1.685 2.703 6
-4.427 -1.728 2.664 8
-4.655 -1.753 2.627 6
-4.894 -1.78 2.589 6
-5.149 -1.81 2.549 16
-5.324 -1.81 2.515 0
-5.658 -1.862 2.466 1
-4.974 -1.588 2.515 0
-6.423 -1.991 2.353 0
-6.818 -2.056 2.292 1
-4.226 -1.244 2.547 0
-5.509 -1.584 2.392 1
-5.403 -1.524 2.384 20
-5.446 -1.511 2.359 2
-5.487 -1.502 2.331 2
0.0 -0.0 3.0 0
0.0 -0.0 3.0 0
0.0 -0.0 3.0 0
-3.215 -0.862 2.542 0
-3.097 -0.832 2.539 3
-3.062 -0.828 2.522 32
-3.053 -0.832 2.5 5
-3.07 -0.845 2.472 1
-2.999 -0.836 2.457 0
-2.809 -0.793 2.465 0
-2.865 -0.822 2.424 0
-1.306 -0.381 2.723 0
-1.32 -0.391 2.705 3
-1.293 -0.39 2.695 0
-1.209 -0.371 2.699 10
-1.189 -0.371 2.689 18
-1.168 -0.372 2.677 30
-4.166 -1.696 2.701 11
-4.404 -1.731 2.664 8
-4.632 -1.757 2.627 6
-4.867 -1.784 2.588 6
-5.144 -1.823 2.546 10
-5.262 -1.805 2.516 0
-5.69 -1.89 2.458 2
-4.879 -1.571 2.52 0
-6.376 -1.995 2.352 1
-6.766 -2.061 2.29 0
-4.18 -1.244 2.547 0
-5.5 -1.599 2.386 1
-5.395 -1.539 2.378 12
-5.426 -1.522 2.354 1
-5.543 -1.535 2.317 2
0.0 -0.0 3.0 0
0.0 -0.0 3.0 0
-3.436 -0.932 2.525 0
-3.174 -0.86 2.543 0
-3.071 -0.834 2.538 8
-3.063 -0.836 2.517 70
-3.062 -0.843 2.494 2
-3.037 -0.844 2.473 0
-2.852 -0.802 2.479 0
-2.739 -0.78 2.474 0
-2.75 -0.796 2.443 0
-1.323 -0.389 2.717 2
-1.334 -0.399 2.7 2
-1.269 -0.386 2.699 5
-1.219 -0.377 2.695 3
-1.188 -0.373 2.687 21
-1.164 -0.372 2.676 29
-4.173 -1.709 2.699 10
-4.389 -1.737 2.662 14
-4.609 -1.761 2.626 15
-4.84 -1.788 2.587 9
-5.094 -1.819 2.546 6
-5.223 -1.806 2.516 8
-5.628 -1.886 2.459 0
-4.806 -1.562 2.522 0
-6.324 -1.998 2.351 0
-6.717 -2.067 2.288 1
0.0 -0.0 3.0 0
-5.525 -1.623 2.377 1
-5.389 -1.554 2.372 7
-5.409 -1.534 2.349 3
-5.53 -1.548 2.311 1
0.0 -0.0 3.0 0
0.0 -0.0 3.0 0
-3.318 -0.91 2.536 0
-3.091 -0.847 2.55 5
-3.072 -0.844 2.532 9
-3.057 -0.844 2.513 10
-3.048 -0.847 2.491 2
-3.095 -0.868 2.457 1
-2.872 -0.815 2.47 0
-2.744 -0.789 2.468 0
-2.815 -0.821 2.425 0
-1.337 -0.396 2.712 0
-4.854 -1.462 1.898 0
-1.286 -0.394 2.692 4
-1.292 -0.402 2.674 0
-1.187 -0.376 2.685 21
-1.159 -0.373 2.676 29
-4.166 -1.717 2.697 14
-4.374 -1.743 2.661 11
-4.597 -1.769 2.624 11
-4.816 -1.793 2.586 18
-5.074 -1.828 2.544 6
-5.192 -1.811 2.515 9
-5.6 -1.894 2.457 0
-4.745 -1.556 2.524 0
-6.28 -2.004 2.349 1
-6.68 -2.076 2.285 0
-4.099 -1.244 2.547 0
-5.5 -1.634 2.373 1
-5.38 -1.569 2.366 4
-5.392 -1.546 2.344 1
-5.475 -1.55 2.31 1
0.0 -0.0 3.0 0
0.0 -0.0 3.0 0
-3.22 -0.893 2.545 0
-3.092 -0.856 2.545 3
-3.062 -0.849 2.529 34
-3.054 -0.851 2.509 4
-3.014 -0.846 2.491 0
-2.967 -0.841 2.475 0
-2.862 -0.82 2.467 0
-2.752 -0.798 2.462 0
-2.71 -0.797 2.442 0
-1.325 -0.395 2.713 1
-1.312 -0.398 2.7 3
-1.33 -0.41 2.68 3
-1.272 -0.399 2.677 6
-1.182 -0.377 2.684 20
-1.154 -0.374 2.675 25
-4.162 -1.727 2.696 13
-4.351 -1.745 2.661 7
-4.57 -1.772 2.623 6
-4.808 -1.804 2.584 7
-5.043 -1.83 2.544 13
-5.153 -1.812 2.514 1
-5.587 -1.905 2.454 2
-4.676 -1.548 2.527 0
-6.274 -2.021 2.343 1
-4.195 -1.317 2.547 0
-4.046 -1.241 2.548 1
-5.487 -1.647 2.368 0
-5.375 -1.583 2.36 4
-5.402 -1.566 2.335 1
-5.458 -1.562 2.305 1
0.0 -0.0 3.0 0
0.0 -0.0 3.0 0
-3.163 -0.886 2.548 0
-3.085 -0.863 2.541 7
-3.066 -0.86 2.523 45
-3.058 -0.861 2.503 2
-2.985 -0.846 2.491 0
-2.926 -0.837 2.477 0
-2.859 -0.827 2.463 0
-2.78 -0.813 2.451 0
-2.787 -0.827 2.421 0
-4.851 -1.461 1.939 4
-1.367 -0.418 2.685 2
-1.317 -0.409 2.68 3
-1.253 -0.396 2.68 5
-1.173 -0.376 2.684 20
-1.146 -0.374 2.675 23
-4.132 -1.726 2.696 9
-4.317 -1.743 2.661 7
-4.543 -1.774 2.623 6
-4.77 -1.803 2.584 6
-5.038 -1.843 2.54 31
-5.08 -1.802 2.517 0
-5.559 -1.913 2.452 0
-5.864 -1.96 2.401 0
-6.199 -2.016 2.345 0
-4.122 -1.306 2.55 0
-4.03 -1.249 2.545 2
-5.471 -1.659 2.363 1
-5.366 -1.598 2.354 3
-5.386 -1.578 2.33 1
-5.483 -1.587 2.294 1
0.0 -0.0 3.0 0
-3.283 -0.935 2.544 0
-3.076 -0.872 2.556 6
-3.074 -0.869 2.538 8
-3.056 -0.866 2.52 10
-3.036 -0.864 2.501 1
-2.971 -0.851 2.489 0
-2.908 -0.84 2.475 0
-2.864 -0.836 2.457 0
-2.811 -0.83 2.44 0
-2.705 -0.809 2.433 0
-2.094 -0.635 2.538 2
-1.34 -0.413 2.689 3
-1.305 -0.409 2.681 4
-1.244 -0.395 2.68 6
-1.172 -0.379 2.682 15
-1.148 -0.377 2.672 23
-4.117 -1.731 2.695 8
-4.301 -1.749 2.66 8
-4.524 -1.78 2.622 6
-4.754 -1.81 2.582 6
-4.995 -1.843 2.541 6
-7.131 -2.551 2.317 0
-5.508 -1.912 2.452 0
-5.828 -1.966 2.399 1
-6.155 -2.022 2.343 1
-4.039 -1.293 2.555 0
-4.004 -1.253 2.544 4
-5.465 -1.674 2.357 1
-5.364 -1.614 2.348 2
-5.376 -1.593 2.324 2
-5.516 -1.614 2.281 0
0.0 -0.0 3.0 0
-3.204 -0.922 2.55 0
-3.085 -0.883 2.55 6
-3.063 -0.876 2.534 29
-3.052 -0.874 2.515 3
-3.033 -0.872 2.497 0
-2.888 -0.835 2.498 0
-2.966 -0.864 2.46 0
-2.815 -0.829 2.462 0
-2.804 -0.835 2.437 0
-2.357 -0.711 2.502 0
-2.091 -0.64 2.535 3
-1.346 -0.417 2.685 3
-1.359 -0.429 2.665 3
-1.224 -0.391 2.683 6
-1.171 -0.38 2.681 15
-1.143 -0.377 2.672 23
-4.083 -1.728 2.695 11
-4.286 -1.755 2.659 10
-4.501 -1.783 2.621 14
-4.719 -1.812 2.582 11
-4.964 -1.845 2.54 5
-5.081 -1.833 2.509 0
-2.263 -0.792 2.773 4
-5.796 -1.973 2.397 1
-6.119 -2.028 2.341 0
-3.978 -1.286 2.557 0
-3.962 -1.253 2.544 5
-5.475 -1.695 2.35 1
-5.37 -1.634 2.34 2
-5.379 -1.61 2.317 3
-5.549 -1.641 2.27 1
0.0 -0.0 3.0 0
-3.166 -0.921 2.551 0
-3.081 -0.892 2.545 6
-3.068 -0.887 2.528 25
-3.061 -0.885 2.509 2
-2.985 -0.866 2.5 0
-2.855 -0.834 2.499 0
-2.815 -0.828 2.482 0
-2.835 -0.843 2.452 0
-2.787 -0.837 2.435 0
-2.107 -0.641 2.551 2
-2.078 -0.641 2.534 3
-1.609 -0.503 2.621 17
-1.388 -0.441 2.656 23
-1.208 -0.389 2.685 8
-1.166 -0.382 2.68 18
-1.146 -0.381 2.669 23
-4.071 -1.734 2.694 9
-4.271 -1.761 2.658 19
-4.489 -1.791 2.619 13
-4.707 -1.82 2.58 15
-4.933 -1.849 2.539 5
-5.121 -1.863 2.501 1
-2.26 -0.798 2.771 9
-5.745 -1.973 2.397 0
-6.079 -2.034 2.339 0
-3.94 -1.286 2.557 0
-3.942 -1.259 2.542 6
-5.503 -1.722 2.339 0
-5.38 -1.654 2.332 2
-5.377 -1.627 2.31 6
-5.543 -1.657 2.262 1
-3.251 -0.962 2.552 0
-3.095 -0.909 2.557 3
-3.075 -0.899 2.542 10
-3.057 -0.893 2.525 7
-3.043 -0.889 2.507 1
-2.948 -0.865 2.501 0
-2.806 -0.828 2.502 0
-2.816 -0.837 2.477 0
-2.874 -0.862 2.44 0
-2.735 -0.829 2.441 0
-2.098 -0.644 2.549 2
-2.076 -0.645 2.531 6
-2.039 -0.643 2.516 9
-1.412 -0.452 2.647 23
-1.203 -0.39 2.684 7
-1.165 -0.383 2.678 23
-1.141 -0.382 2.668 25
-4.053 -1.737 2.694 12
-4.251 -1.765 2.657 8
-4.462 -1.793 2.619 6
-4.683 -1.825 2.579 6
-4.876 -1.841 2.541 0
-5.134 -1.883 2.495 2
-2.262 -0.805 2.769 10
-5.716 -1.98 2.395 2
-6.042 -2.04 2.337 1
-3.894 -1.283 2.558 0
-3.916 -1.263 2.54 5
-7.203 -2.275 2.127 0
-5.378 -1.67 2.325 1
-5.375 -1.644 2.302 18
-5.522 -1.668 2.257 0
-3.187 -0.953 2.555 0
-3.084 -0.916 2.553 6
-3.068 -0.907 2.538 27
-3.05 -0.9 2.522 2
-3.043 -0.899 2.502 0
-3.016 -0.894 2.484 0
-2.743 -0.817 2.509 0
-2.734 -0.82 2.488 0
-2.796 -0.846 2.451 0
-2.852 -0.872 2.412 0
-2.077 -0.642 2.55 3
-2.066 -0.647 2.53 7
-2.041 -0.648 2.511 10
-1.507 -0.485 2.621 19
-1.209 -0.395 2.68 12
-1.171 -0.388 2.674 26
-1.143 -0.385 2.666 24
-2.378 -1.026 2.819 0
-2.311 -0.966 2.812 1
-4.431 -1.795 2.619 7
-4.653 -1.827 2.578 6
-4.748 -1.808 2.549 0
-2.26 -0.835 2.776 5
-2.263 -0.813 2.767 10
-5.699 -1.993 2.391 1
-5.976 -2.037 2.338 0
-3.83 -1.274 2.561 0
-3.885 -1.265 2.539 3
-7.161 -2.286 2.122 1
-5.392 -1.692 2.317 2
-5.385 -1.663 2.294 26
-5.505 -1.681 2.252 0
-3.146 -0.951 2.557 0
-3.081 -0.924 2.549 5
-3.068 -0.916 2.533 16
-3.039 -0.906 2.518 1
-2.972 -0.887 2.508 0
-3.055 -0.914 2.472 0
-2.797 -0.841 2.495 0
-2.697 -0.816 2.49 0
-2.732 -0.835 2.458 0
-2.103 -0.648 2.563 2
-2.067 -0.645 2.549 4
-2.061 -0.651 2.527 8
-2.042 -0.654 2.507 10
-1.609 -0.522 2.593 18
-1.208 -0.397 2.678 13
-1.162 -0.388 2.674 25
-1.142 -0.387 2.664 24
-2.342 -1.018 2.821 8
-2.32 -0.976 2.81 3
-4.419 -1.802 2.617 6
-4.629 -1.831 2.577 6
-4.724 -1.812 2.548 0
-2.265 -0.845 2.774 8
-2.253 -0.816 2.766 8
-5.644 -1.991 2.391 0
-5.932 -2.041 2.337 2
-3.799 -1.276 2.561 0
-3.866 -1.272 2.537 2
-7.082 -2.283 2.124 0
-5.42 -1.718 2.306 1
-5.387 -1.682 2.286 11
-3.248 -1.002 2.554 0
-3.108 -0.949 2.558 2
-3.074 -0.933 2.545 12
-3.057 -0.923 2.53 6
-3.029 -0.912 2.515 0
-2.973 -0.895 2.504 0
-2.957 -0.894 2.484 0
-2.813 -0.854 2.487 0
-2.713 -0.829 2.482 0
-4.851 -1.495 2.029 3
-2.09 -0.65 2.562 2
-2.069 -0.651 2.544 6
-2.055 -0.654 2.525 9
-2.04 -0.658 2.504 10
-2.014 -0.658 2.486 10
-1.207 -0.4 2.676 9
-1.165 -0.391 2.672 25
-1.141 -0.388 2.662 25
-2.303 -1.007 2.822 7
-2.317 -0.982 2.809 3
-4.4 -1.807 2.616 12
-4.609 -1.836 2.576 12
-4.704 -1.819 2.546 8
-2.259 -0.849 2.772 10
-2.247 -0.821 2.765 11
-5.605 -1.994 2.39 1
-5.892 -2.045 2.336 2
-3.735 -1.267 2.564 0
-3.832 -1.272 2.537 1
-7.052 -2.296 2.119 1
-5.46 -1.748 2.294 0
-5.392 -1.701 2.278 3
-3.165 -0.986 2.561 0
-3.079 -0.95 2.557 6
-3.067 -0.94 2.542 22
-3.054 -0.931 2.526 1
-2.98 -0.906 2.518 0
-2.879 -0.876 2.514 0
-2.932 -0.894 2.484 0
-2.802 -0.858 2.484 0
-2.729 -0.842 2.474 0
-2.145 -0.667 2.567 1
-2.076 -0.651 2.561 3
-2.059 -0.653 2.543 7
-2.049 -0.657 2.522 10
-2.038 -0.662 2.501 11
-2.023 -0.666 2.48 9
-1.209 -0.403 2.673 8
-1.164 -0.393 2.67 26
-1.136 -0.39 2.661 25
-2.253 -0.991 2.825 5
-2.329 -0.994 2.807 2
-2.299 -0.951 2.798 4
-4.597 -1.846 2.574 15
-2.264 -0.882 2.78 1
-2.253 -0.853 2.771 10
-2.248 -0.828 2.762 11
-5.572 -2.0 2.388 0
-5.87 -2.057 2.332 2
-3.701 -1.267 2.564 0
0.0 -0.0 3.0 0
-6.991 -2.298 2.118 0
-7.422 -2.399 2.031 0
-3.304 -1.053 2.553 0
-3.112 -0.98 2.564 1
-3.079 -0.96 2.552 5
-3.063 -0.949 2.537 10
-3.058 -0.942 2.52 1
-2.954 -0.908 2.517 0
-2.849 -0.876 2.514 0
-2.94 -0.905 2.477 0
-2.863 -0.886 2.468 0
-2.655 -0.826 2.484 0
-2.094 -0.657 2.573 2
-2.067 -0.654 2.559 4
-2.049 -0.655 2.541 8
-2.043 -0.66 2.52 11
-2.036 -0.666 2.498 11
-2.021 -0.67 2.477 8
-1.193 -0.401 2.676 8
-1.166 -0.397 2.667 23
-1.139 -0.393 2.658 24
-2.24 -0.993 2.825 3
-2.294 -0.986 2.808 3
-2.315 -0.964 2.795 4
-2.25 -0.91 2.79 6
-2.258 -0.887 2.779 9
-2.247 -0.858 2.77 8
-2.246 -0.835 2.76 8
-5.536 -2.005 2.387 0
-5.834 -2.063 2.33 1
-3.663 -1.266 2.564 0
0.0 -0.0 3.0 0
-6.942 -2.305 2.115 0
-7.368 -2.406 2.028 0
-3.213 -1.034 2.561 0
-3.094 -0.984 2.562 2
-3.068 -0.966 2.549 14
-3.056 -0.956 2.534 4
-3.04 -0.946 2.518 0
-3.0 -0.931 2.505 0
-2.816 -0.874 2.516 0
-3.008 -0.935 2.46 1
-2.774 -0.866 2.48 0
-2.453 -0.77 2.519 0
-2.096 -0.663 2.569 2
-2.061 -0.657 2.557 6
-2.04 -0.658 2.539 9
-2.037 -0.663 2.518 11
-2.033 -0.67 2.495 11
-2.022 -0.675 2.473 7
-1.192 -0.403 2.674 5
-1.165 -0.399 2.665 22
-1.137 -0.395 2.657 26
-2.248 -1.003 2.823 5
-2.28 -0.987 2.808 6
-2.312 -0.971 2.794 5
-2.255 -0.918 2.788 10
-2.252 -0.891 2.778 11
-2.244 -0.864 2.768 10
-2.24 -0.839 2.759 2
-5.504 -2.011 2.385 1
-5.813 -2.074 2.326 0
-3.607 -1.258 2.567 0
0.0 -0.0 3.0 0
-6.874 -2.304 2.115 0
-3.233 -1.066 2.569 0
-3.172 -1.031 2.562 0
-3.075 -0.988 2.56 6
-3.068 -0.976 2.545 20
-3.06 -0.967 2.529 1
-3.014 -0.947 2.517 0
-2.899 -0.908 2.517 0
-4.842 -1.518 2.159 4
-2.843 -0.892 2.485 0
-2.767 -0.872 2.476 0
-2.121 -0.672 2.58 1
-2.079 -0.664 2.569 3
-2.058 -0.662 2.554 7
-2.038 -0.662 2.536 10
-2.038 -0.669 2.514 11
-2.031 -0.675 2.491 9
-2.024 -0.68 2.469 7
-1.187 -0.404 2.672 3
-1.156 -0.399 2.666 21
-1.136 -0.397 2.655 25
-2.249 -1.01 2.822 10
-2.267 -0.987 2.808 6
-2.313 -0.978 2.792 6
-2.26 -0.928 2.786 13
-2.249 -0.897 2.776 2
-2.245 -0.872 2.766 9
-2.23 -0.843 2.758 0
-5.479 -2.019 2.383 1
-5.765 -2.075 2.326 0
-6.092 -2.144 2.262 1
0.0 -0.0 3.0 0
-6.833 -2.313 2.112 1
-3.166 -1.055 2.574 3
-3.101 -1.018 2.568 3
-3.083 -1.001 2.554 5
-3.058 -0.982 2.542 9
-3.031 -0.967 2.529 1
-2.984 -0.947 2.517 0
-3.02 -0.955 2.492 0
-2.768 -0.876 2.515 0
-2.851 -0.903 2.478 0
-2.681 -0.853 2.488 0
-2.096 -0.67 2.582 2
-2.076 -0.668 2.566 4
-2.049 -0.665 2.552 8
-2.035 -0.667 2.533 11
-2.036 -0.674 2.511 11
-2.033 -0.68 2.487 9
-2.032 -0.689 2.462 6
-1.215 -0.416 2.663 1
-1.159 -0.402 2.663 18
-1.135 -0.399 2.653 23
-2.2 -0.993 2.825 8
-2.264 -0.993 2.807 7
-2.318 -0.987 2.79 10
-2.257 -0.933 2.784 16
-2.254 -0.907 2.774 4
-2.243 -0.878 2.765 7
-2.246 -0.856 2.755 0
-5.432 -2.019 2.383 0
-5.688 -2.065 2.329 0
-6.059 -2.152 2.259 3
-6.402 -2.23 2.188 0
-6.791 -2.321 2.109 0
-3.155 -1.061 2.571 6
-3.086 -1.023 2.566 5
-3.072 -1.007 2.552 14
-3.05 -0.99 2.539 3
-3.05 -0.983 2.521 0
-4.852 -1.555 2.208 0
-3.08 -0.985 2.476 1
-2.69 -0.859 2.524 0
-2.709 -0.866 2.5 0
-2.304 -0.74 2.555 0
-2.082 -0.672 2.58 3
-2.063 -0.67 2.565 6
-2.043 -0.668 2.549 10
-2.033 -0.672 2.53 11
-2.03 -0.677 2.508 11
-2.034 -0.686 2.483 8
-2.048 -0.699 2.454 7
-2.055 -0.709 2.426 6
-1.157 -0.404 2.661 14
-1.13 -0.4 2.652 17
-2.201 -1.0 2.824 8
-2.244 -0.991 2.807 7
-2.323 -0.995 2.788 11
-2.254 -0.939 2.783 25
-2.248 -0.911 2.773 10
-2.226 -0.877 2.765 0
-5.148 -1.979 2.433 1
-5.396 -2.023 2.381 1
-5.577 -2.043 2.336 0
-6.026 -2.159 2.256 0
-6.376 -2.242 2.184 0
-3.257 -1.124 2.569 0
-3.144 -1.068 2.569 10
-3.079 -1.031 2.562 5
-3.065 -1.014 2.548 15
-3.066 -1.005 2.531 1
-2.941 -0.958 2.533 0
-2.966 -0.96 2.511 0
-2.923 -0.943 2.498 0
-2.71 -0.874 2.515 0
-2.751 -0.888 2.487 0
-2.103 -0.681 2.591 2
-2.084 -0.678 2.576 3
-2.06 -0.675 2.562 7
-2.037 -0.672 2.547 11
-2.031 -0.676 2.527 10
-2.028 -0.682 2.505 10
-2.039 -0.693 2.478 7
-2.046 -0.703 2.451 7
-2.052 -0.713 2.423 7
-1.156 -0.406 2.659 14
-1.129 -0.402 2.651 15
-2.205 -1.009 2.822 10
-2.234 -0.993 2.807 9
-2.327 -1.005 2.786 13
-2.252 -0.945 2.782 23
-2.242 -0.915 2.772 9
-2.23 -0.887 2.762 0
-5.12 -1.985 2.431 0
-5.375 -2.032 2.379 1
-5.619 -2.077 2.325 0
-5.981 -2.163 2.255 0
-6.298 -2.235 2.186 0
-3.317 -1.155 2.557 0
-3.14 -1.077 2.565 23
-3.083 -1.042 2.558 5
-3.054 -1.021 2.545 8
-3.085 -1.021 2.524 1
-2.96 -0.973 2.526 0
-2.933 -0.958 2.512 0
-2.965 -0.966 2.487 0
-2.744 -0.893 2.505 0
-4.852 -1.581 2.087 3
-2.089 -0.683 2.589 2
-2.074 -0.681 2.574 5
-2.054 -0.679 2.559 9
-2.038 -0.678 2.543 11
-2.025 -0.679 2.524 11
-2.029 -0.688 2.5 9
-2.055 -0.703 2.47 7
-2.044 -0.707 2.448 8
-2.039 -0.713 2.423 8
-1.151 -0.408 2.658 12
-1.131 -0.405 2.648 15
-2.228 -1.026 2.819 14
-2.213 -0.99 2.808 10
-2.306 -1.003 2.787 12
-2.249 -0.951 2.78 21
-2.232 -0.919 2.771 0
-2.235 -0.896 2.76 0
-5.088 -1.988 2.43 0
-5.328 -2.032 2.379 0
-5.59 -2.085 2.323 1
-5.971 -2.179 2.25 0
-6.276 -2.247 2.182 1
-3.178 -1.117 2.571 1
-3.11 -1.077 2.565 19
-3.064 -1.045 2.556 15
-3.051 -1.029 2.542 2
-3.066 -1.025 2.522 0
-2.916 -0.967 2.528 0
-2.881 -0.951 2.515 0
-2.894 -0.952 2.494 0
-2.673 -0.879 2.513 0
-2.146 -0.706 2.593 0
-2.083 -0.687 2.587 3
-2.064 -0.683 2.573 7
-2.045 -0.681 2.558 9
-2.036 -0.683 2.539 11
-2.03 -0.686 2.52 10
-2.031 -0.693 2.497 8
-2.06 -0.71 2.465 8
-2.041 -0.711 2.444 8
-2.026 -0.714 2.422 8
-1.168 -0.416 2.651 10
-1.133 -0.408 2.645 14
-2.208 -1.023 2.82 14
-2.221 -1.0 2.806 10
-2.296 -1.005 2.786 16
-2.25 -0.959 2.779 21
-2.229 -0.925 2.769 0
-4.823 -1.948 2.478 2
-5.049 -1.989 2.43 1
-5.311 -2.042 2.376 0
-5.554 -2.089 2.321 1
0.0 -0.0 3.0 0
-6.212 -2.245 2.183 0
-3.152 -1.119 2.571 1
-3.103 -1.084 2.562 11
-3.068 -1.057 2.551 13
-3.039 -1.035 2.539 1
-3.085 -1.041 2.514 0
-4.846 -1.623 2.208 2
-2.817 -0.938 2.522 0
-2.995 -0.995 2.471 1
-2.689 -0.892 2.505 0
-2.107 -0.699 2.596 2
-2.073 -0.69 2.585 4
-2.058 -0.688 2.57 8
-2.042 -0.686 2.554 10
-2.03 -0.687 2.537 11
-2.027 -0.691 2.516 9
-2.039 -0.702 2.49 7
-2.054 -0.713 2.462 8
-2.039 -0.715 2.441 8
-2.005 -0.711 2.425 8
-1.167 -0.418 2.649 9
-1.143 -0.414 2.64 11
-2.198 -1.026 2.819 11
-2.215 -1.004 2.805 12
-2.316 -1.021 2.783 15
-2.255 -0.968 2.777 21
-2.237 -0.935 2.767 0
-4.784 -1.948 2.478 0
-5.02 -1.994 2.428 0
-5.271 -2.044 2.375 1
-5.558 -2.109 2.315 0
0.0 -0.0 3.0 0
-6.179 -2.253 2.18 0
-3.126 -1.119 2.57 2
-3.088 -1.089 2.56 10
-3.061 -1.065 2.548 7
-3.006 -1.034 2.54 0
-3.1 -1.056 2.508 1
-2.834 -0.958 2.533 0
-4.85 -1.631 2.169 2
-2.823 -0.946 2.497 0
-4.841 -1.621 2.101 3
-2.093 -0.701 2.595 2
-2.067 -0.694 2.583 6
-2.045 -0.689 2.569 9
-2.044 -0.692 2.551 10
-2.027 -0.691 2.534 10
-2.021 -0.695 2.513 8
-2.052 -0.711 2.483 7
-2.052 -0.718 2.459 8
-2.026 -0.716 2.441 8
-1.992 -0.711 2.424 8
-1.954 -0.705 2.408 6
-1.16 -0.423 2.632 10
-2.188 -1.028 2.819 10
-2.216 -1.011 2.803 13
-2.298 -1.02 2.783 14
-2.26 -0.977 2.774 14
-4.525 -1.904 2.525 0
-4.757 -1.952 2.477 0
-4.989 -1.997 2.427 0
-5.224 -2.043 2.375 0
-3.362 -1.286 2.582 0
-3.365 -1.261 2.566 0
-3.214 -1.183 2.57 0
-3.096 -1.119 2.57 7
-3.066 -1.092 2.559 13
-3.076 -1.08 2.541 1
-3.014 -1.046 2.534 0
-3.134 -1.078 2.498 1
-2.905 -0.992 2.516 0
-4.848 -1.646 2.161 2
-2.794 -0.945 2.497 0
-2.119 -0.716 2.603 1
-2.087 -0.706 2.593 3
-2.061 -0.698 2.58 8
-2.042 -0.694 2.566 10
-2.034 -0.695 2.549 10
-2.032 -0.698 2.529 10
-2.034 -0.704 2.507 7
-2.06 -0.719 2.478 8
-2.049 -0.722 2.456 8
-2.009 -0.714 2.442 9
-1.986 -0.713 2.422 8
-1.941 -0.705 2.409 9
-1.173 -0.43 2.626 5
-2.164 -1.022 2.82 13
-2.206 -1.014 2.803 13
-2.285 -1.021 2.783 14
-2.279 -0.992 2.771 5
-4.494 -1.906 2.525 0
-4.743 -1.962 2.474 0
-4.96 -2.002 2.426 0
-5.207 -2.053 2.372 0
-3.299 -1.273 2.586 3
-3.313 -1.252 2.569 1
-3.192 -1.185 2.569 0
-3.089 -1.126 2.568 5
-3.066 -1.102 2.555 10
-3.083 -1.093 2.536 1
-2.958 -1.037 2.538 0
-3.1 -1.077 2.498 1
-2.794 -0.963 2.53 0
-2.871 -0.984 2.499 0
-2.738 -0.935 2.503 0
-2.102 -0.716 2.603 2
-2.069 -0.705 2.593 5
-2.051 -0.701 2.579 9
-2.036 -0.698 2.564 11
-2.035 -0.701 2.545 10
-2.026 -0.702 2.526 9
-2.035 -0.71 2.503 6
-2.054 -0.722 2.475 8
-2.047 -0.727 2.452 9
-2.003 -0.717 2.44 8
-1.962 -0.71 2.425 8
-1.931 -0.706 2.407 9
-1.904 -0.703 2.389 11
-2.165 -1.029 2.818 15
-2.232 -1.033 2.799 12
-2.26 -1.018 2.784 12
-2.28 -1.0 2.769 5
-4.466 -1.908 2.524 1
-4.705 -1.961 2.474 2
-4.94 -2.01 2.424 1
-5.175 -2.057 2.371 1
-3.321 -1.293 2.58 1
-3.283 -1.252 2.569 1
-3.084 -1.155 2.58 10
-3.077 -1.133 2.565 9
-3.051 -1.106 2.553 4
-3.098 -1.109 2.529 0
-2.995 -1.06 2.528 0
-3.082 -1.08 2.496 1
-2.828 -0.984 2.52 0
-4.847 -1.677 2.146 2
-2.34 -0.807 2.571 0
-2.088 -0.719 2.601 3
-2.063 -0.71 2.59 6
-2.049 -0.706 2.576 10
-2.037 -0.704 2.56 11
-2.033 -0.706 2.542 10
-2.027 -0.708 2.522 8
-2.051 -0.722 2.495 7
-2.048 -0.726 2.473 9
-2.03 -0.725 2.453 9
-1.989 -0.717 2.44 8
-1.949 -0.71 2.425 8
-1.915 -0.704 2.409 10
-1.898 -0.706 2.387 13
-2.194 -1.051 2.815 13
-2.24 -1.044 2.797 14
-2.235 -1.014 2.785 11
-2.281 -1.007 2.767 8
-4.464 -1.922 2.521 2
-4.699 -1.974 2.471 0
-4.904 -2.011 2.423 0
-5.161 -2.069 2.368 0
-3.28 -1.288 2.582 1
-3.257 -1.253 2.569 1
-3.076 -1.163 2.577 5
-3.066 -1.139 2.563 11
-3.043 -1.114 2.55 1
-3.117 -1.125 2.522 0
-2.872 -1.026 2.543 0
-3.074 -1.088 2.493 1
-4.855 -1.705 2.168 2
-2.726 -0.951 2.515 0
-2.11 -0.734 2.61 1
-2.074 -0.721 2.601 3
-2.061 -0.715 2.587 8
-2.046 -0.711 2.573 10
-2.031 -0.708 2.557 11
-2.03 -0.711 2.538 9
-2.032 -0.715 2.517 7
-2.052 -0.728 2.491 8
-2.049 -0.731 2.469 8
-2.016 -0.727 2.452 9
-1.969 -0.716 2.441 8
-1.935 -0.71 2.425 8
-1.909 -0.707 2.407 10
-1.896 -0.709 2.383 19
-2.217 -1.069 2.812 10
-2.209 -1.036 2.799 13
-2.244 -1.024 2.782 13
-2.281 -1.015 2.766 10
-4.415 -1.915 2.523 0
-4.656 -1.971 2.472 0
-4.891 -2.022 2.42 0
-5.121 -2.07 2.367 0
-3.276 -1.297 2.579 1
-3.212 -1.246 2.571 1
-3.065 -1.169 2.575 14
-3.074 -1.152 2.558 9
-3.047 -1.126 2.545 0
-3.165 -1.153 2.511 1
-2.962 -1.067 2.525 0
-3.059 -1.092 2.491 1
-2.835 -1.005 2.51 0
-4.85 -1.71 2.129 2
-2.108 -0.739 2.607 2
-2.072 -0.726 2.598 5
-2.047 -0.717 2.586 9
-2.04 -0.715 2.57 11
-2.032 -0.715 2.553 11
-2.035 -0.719 2.533 8
-2.033 -0.722 2.513 6
-2.046 -0.731 2.488 8
-2.043 -0.735 2.466 9
-2.007 -0.728 2.451 9
-1.956 -0.716 2.441 9
-1.926 -0.711 2.424 8
-1.903 -0.709 2.405 11
-1.897 -0.714 2.379 36
-2.182 -1.058 2.813 16
-2.181 -1.029 2.8 14
-2.248 -1.034 2.78 13
-2.26 -1.013 2.766 5
-4.402 -1.923 2.521 0
-4.64 -1.979 2.47 0
-4.848 -2.02 2.421 1
-5.067 -2.065 2.369 0
-3.253 -1.299 2.578 3
-3.197 -1.251 2.569 1
-3.065 -1.179 2.571 23
-3.059 -1.156 2.556 3
0.0 -0.0 3.0 0
-3.168 -1.165 2.505 1
-2.817 -1.024 2.544 0
-3.0 -1.08 2.496 0
-2.709 -0.969 2.527 0
-2.155 -0.766 2.61 0
-2.083 -0.737 2.608 3
-2.066 -0.73 2.595 8
-2.048 -0.724 2.582 10
-2.037 -0.721 2.567 11
-2.03 -0.72 2.55 10
-2.032 -0.723 2.53 7
-2.057 -0.736 2.503 7
-2.043 -0.736 2.485 8
-2.026 -0.735 2.466 9
-1.99 -0.727 2.452 9
-1.946 -0.717 2.44 8
-1.913 -0.711 2.425 9
-1.897 -0.712 2.403 12
-1.891 -0.716 2.378 18
-2.168 -1.058 2.813 18
-2.167 -1.03 2.8 13
-2.238 -1.036 2.78 11
-2.276 -1.027 2.763 8
-4.382 -1.929 2.519 0
-4.601 -1.977 2.47 1
-4.838 -2.032 2.417 1
-5.05 -2.075 2.366 1
-3.22 -1.296 2.579 1
-3.093 -1.221 2.58 1
-3.047 -1.182 2.57 26
-3.099 -1.183 2.546 1
-3.121 -1.173 2.526 0
-3.168 -1.176 2.501 2
-4.803 -1.763 2.215 0
-2.914 -1.059 2.506 0
-2.769 -1.0 2.512 0
-2.107 -0.756 2.615 2
-2.076 -0.742 2.606 4
-2.052 -0.732 2.594 9
-2.042 -0.728 2.58 10
-2.031 -0.725 2.564 11
-2.027 -0.725 2.547 10
-2.037 -0.731 2.525 6
-2.05 -0.74 2.501 8
-2.041 -0.741 2.481 8
-2.02 -0.738 2.464 9
-1.976 -0.727 2.452 9
-1.933 -0.717 2.44 9
-1.907 -0.713 2.422 9
-1.898 -0.717 2.399 20
-1.868 -0.712 2.381 17
-2.148 -1.055 2.814 22
-2.211 -1.058 2.794 15
-2.206 -1.028 2.781 11
-2.273 -1.033 2.762 6
-4.38 -1.943 2.516 1
-4.599 -1.992 2.466 0
-4.796 -2.03 2.418 0
-5.021 -2.08 2.364 0
-3.142 -1.276 2.586 0
-3.06 -1.218 2.58 1
-3.024 -1.184 2.569 10
-3.191 -1.228 2.529 1
-3.928 -1.49 2.398 2
-3.168 -1.186 2.497 1
-2.788 -1.032 2.54 0
-2.881 -1.057 2.507 0
-3.911 -1.424 2.305 0
-2.09 -0.757 2.614 2
-2.07 -0.746 2.603 5
-2.046 -0.736 2.592 10
-2.039 -0.733 2.577 10
-2.032 -0.731 2.561 11
-2.032 -0.733 2.542 9
-2.049 -0.742 2.518 6
-2.048 -0.744 2.498 9
-2.031 -0.742 2.48 8
-2.003 -0.737 2.465 9
-1.959 -0.726 2.453 9
-1.919 -0.717 2.44 9
-1.901 -0.716 2.421 10
-1.892 -0.719 2.397 35
-1.879 -0.72 2.374 11
-2.148 -1.062 2.813 25
-2.176 -1.048 2.796 14
-2.214 -1.039 2.779 10
-2.266 -1.038 2.76 8
-4.364 -1.95 2.514 1
-4.56 -1.99 2.467 0
-4.768 -2.034 2.417 0
-3.175 -1.325 2.595 1
-3.105 -1.271 2.587 0
-3.034 -1.218 2.581 1
-3.006 -1.186 2.568 7
-3.224 -1.251 2.52 1
-3.89 -1.488 2.399 2
-3.153 -1.192 2.494 1
-2.762 -1.032 2.54 0
-2.862 -1.059 2.506 0
-2.14 -0.786 2.616 1
-2.084 -0.762 2.612 3
-2.06 -0.75 2.601 7
-2.047 -0.743 2.588 11
-2.037 -0.739 2.574 11
-2.03 -0.737 2.557 10
-2.033 -0.739 2.538 8
-2.061 -0.752 2.512 7
-2.042 -0.748 2.495 8
-2.014 -0.742 2.48 9
-1.986 -0.736 2.465 9
-1.949 -0.728 2.452 9
-1.91 -0.718 2.439 9
-1.898 -0.719 2.417 13
-1.893 -0.724 2.393 16
-1.866 -0.72 2.374 18
-2.149 -1.069 2.811 21
-2.184 -1.059 2.794 15
-2.237 -1.057 2.775 11
-2.26 -1.042 2.759 3
-4.322 -1.945 2.515 0
-4.529 -1.992 2.466 0
-4.736 -2.037 2.416 0
-3.185 -1.34 2.59 1
-3.06 -1.263 2.59 1
-3.012 -1.219 2.58 1
-2.991 -1.191 2.567 5
0.0 -0.0 3.0 0
-3.017 -1.165 2.529 0
-3.138 -1.196 2.492 1
-2.888 -1.089 2.515 0
-2.848 -1.064 2.504 0
-2.115 -0.785 2.617 2
-2.074 -0.764 2.611 4
-2.054 -0.754 2.599 8
-2.04 -0.747 2.586 11
-2.034 -0.744 2.571 11
-2.027 -0.742 2.554 10
-2.034 -0.746 2.534 7
-2.051 -0.755 2.51 8
-2.043 -0.754 2.491 9
-2.004 -0.744 2.479 9
-1.976 -0.738 2.464 9
-1.936 -0.728 2.451 9
-1.904 -0.721 2.437 10
-1.889 -0.721 2.416 20
-1.873 -0.721 2.395 13
-1.86 -0.722 2.372 26
-2.171 -1.088 2.808 22
-2.192 -1.07 2.792 15
-2.244 -1.068 2.773 9
-2.268 -1.053 2.757 2
-4.305 -1.952 2.513 0
-4.497 -1.993 2.466 1
-4.722 -2.047 2.413 1
-3.163 -1.342 2.59 1
-3.023 -1.258 2.591 1
-2.96 -1.209 2.584 0
-2.976 -1.195 2.565 3
-3.293 -1.301 2.501 1
-3.006 -1.171 2.527 0
-3.126 -1.202 2.49 1
-2.677 -1.019 2.546 0
-2.744 -1.034 2.518 0
-2.094 -0.784 2.618 2
-2.067 -0.769 2.608 6
-2.051 -0.759 2.596 9
-2.038 -0.753 2.583 12
-2.031 -0.75 2.567 10
-2.028 -0.748 2.55 9
-2.053 -0.759 2.526 8
-2.049 -0.759 2.507 8
-2.025 -0.753 2.492 9
-1.99 -0.745 2.478 9
-1.962 -0.738 2.463 10
-1.926 -0.73 2.45 9
-1.894 -0.722 2.436 12
-1.89 -0.726 2.412 33
-1.878 -0.728 2.389 10
-1.854 -0.725 2.37 64
-2.129 -1.073 2.811 21
-2.193 -1.077 2.791 16
-2.206 -1.057 2.775 8
-2.265 -1.059 2.756 1
-4.281 -1.956 2.512 0
-4.491 -2.005 2.463 1
-3.197 -1.396 2.6 0
-3.159 -1.351 2.587 2
-3.016 -1.265 2.589 1
-2.93 -1.206 2.585 0
-2.961 -1.199 2.563 2
-3.315 -1.321 2.493 2
-2.898 -1.139 2.54 0
-3.144 -1.22 2.482 1
-2.736 -1.051 2.532 0
-2.114 -0.804 2.625 1
-2.076 -0.784 2.618 3
-2.061 -0.773 2.606 7
-2.045 -0.764 2.594 10
-2.035 -0.758 2.58 12
-2.029 -0.755 2.564 10
-2.025 -0.753 2.547 8
-2.054 -0.765 2.522 8
-2.05 -0.766 2.503 8
-2.019 -0.757 2.489 9
-1.98 -0.747 2.477 9
-1.942 -0.736 2.466 9
-1.917 -0.731 2.449 10
-1.895 -0.727 2.432 16
-1.891 -0.731 2.408 12
-1.872 -0.73 2.388 14
-1.856 -0.729 2.366 156
-2.127 -1.079 2.81 29
-2.215 -1.096 2.787 17
-2.224 -1.073 2.772 9
-2.251 -1.06 2.755 2
-4.254 -1.957 2.512 1
-4.456 -2.005 2.463 0
-3.175 -1.397 2.599 0
-3.162 -1.363 2.583 5
-2.975 -1.258 2.591 2
-2.886 -1.197 2.588 0
-3.045 -1.243 2.548 1
-3.31 -1.33 2.49 2
-2.931 -1.162 2.531 0
-3.015 -1.18 2.499 0
-4.022 -1.557 2.307 1
-2.103 -0.807 2.624 2
-2.074 -0.79 2.615 4
-2.054 -0.777 2.604 9
-2.035 -0.766 2.593 11
-2.025 -0.761 2.578 11
-2.033 -0.762 2.56 9
-2.041 -0.766 2.54 7
-2.052 -0.771 2.518 9
-2.043 -0.77 2.5 8
-1.998 -0.756 2.49 9
-1.963 -0.746 2.478 9
-1.939 -0.74 2.462 9
-1.911 -0.734 2.447 9
-1.889 -0.73 2.429 25
-1.87 -0.728 2.41 10
-1.855 -0.728 2.39 25
-1.853 -0.733 2.363 97
-2.12 -1.082 2.809 36
-2.165 -1.078 2.79 20
-2.25 -1.093 2.768 11
-2.255 -1.069 2.753 1
-4.248 -1.968 2.509 0
-4.425 -2.006 2.463 0
-3.171 -1.406 2.597 1
-3.15 -1.369 2.581 3
-2.96 -1.261 2.59 2
-2.871 -1.202 2.586 0
-3.198 -1.317 2.521 1
0.0 -0.0 3.0 0
-2.931 -1.172 2.526 0
-2.897 -1.143 2.515 0
-2.174 -0.849 2.622 0
-2.082 -0.806 2.624 2
-2.063 -0.793 2.613 6
-2.044 -0.78 2.603 10
-2.036 -0.773 2.589 11
-2.03 -0.769 2.574 11
-2.031 -0.768 2.556 8
-2.053 -0.777 2.533 9
-2.042 -0.773 2.517 9
-2.03 -0.771 2.5 8
-1.988 -0.757 2.489 9
-1.95 -0.746 2.478 9
-1.922 -0.739 2.463 10
-1.904 -0.737 2.445 12
-1.89 -0.735 2.425 31
-1.872 -0.733 2.406 9
-1.856 -0.732 2.385 106
-1.84 -0.732 2.364 27
-2.117 -1.087 2.808 35
-2.18 -1.093 2.788 25
-2.247 -1.099 2.766 11
-4.041 -1.93 2.554 1
-4.214 -1.967 2.51 0
-3.197 -1.46 2.609 0
-3.159 -1.412 2.595 1
-3.139 -1.374 2.58 6
-2.927 -1.257 2.591 2
-2.842 -1.199 2.587 0
-3.234 -1.343 2.511 1
-3.32 -1.357 2.479 2
-2.909 -1.173 2.526 0
-2.842 -1.131 2.52 0
-2.108 -0.83 2.63 1
-2.076 -0.81 2.622 3
-2.057 -0.797 2.611 8
-2.045 -0.787 2.599 10
-2.033 -0.779 2.586 11
-2.031 -0.776 2.57 11
-2.032 -0.775 2.552 7
-2.054 -0.783 2.529 9
-2.043 -0.78 2.513 9
-2.016 -0.772 2.499 9
-1.967 -0.755 2.491 9
-1.936 -0.747 2.477 9
-1.912 -0.741 2.462 10
-1.902 -0.741 2.442 15
-1.88 -0.737 2.424 15
-1.869 -0.737 2.403 16
-1.853 -0.736 2.382 245
-1.834 -0.734 2.362 16
-2.114 -1.093 2.807 28
-2.184 -1.102 2.786 16
-2.215 -1.09 2.768 9
-4.028 -1.938 2.553 1
-4.201 -1.975 2.508 0
-3.185 -1.466 2.607 0
-3.159 -1.422 2.592 4
-3.12 -1.377 2.579 4
-2.905 -1.258 2.591 2
-2.802 -1.192 2.59 0
-3.248 -1.36 2.505 1
-3.345 -1.378 2.471 2
-2.916 -1.186 2.521 0
-3.923 -1.575 2.331 1
-2.091 -0.831 2.63 2
-2.069 -0.815 2.62 5
-2.054 -0.802 2.609 9
-2.039 -0.792 2.597 10
-2.034 -0.786 2.582 10
-2.028 -0.782 2.567 10
-2.051 -0.789 2.544 8
-2.044 -0.786 2.528 10
-2.033 -0.782 2.511 9
-1.999 -0.771 2.499 9
-1.965 -0.759 2.488 9
-1.916 -0.744 2.479 9
-1.906 -0.744 2.46 11
-1.896 -0.744 2.44 28
-1.871 -0.738 2.423 15
-1.856 -0.737 2.403 47
-1.851 -0.74 2.379 130
-1.817 -0.732 2.364 18
-2.111 -1.099 2.806 28
-2.203 -1.119 2.783 16
-2.223 -1.102 2.766 8
-4.001 -1.938 2.553 0
-4.177 -1.978 2.507 0
-3.159 -1.464 2.608 1
-3.151 -1.43 2.59 3
-3.094 -1.376 2.579 3
-2.876 -1.255 2.592 2
-2.787 -1.195 2.588 1
-3.262 -1.377 2.499 1
-3.464 -1.44 2.447 3
-2.905 -1.191 2.519 0
-2.149 -0.87 2.631 1
-2.073 -0.831 2.63 3
-2.063 -0.819 2.618 7
-2.051 -0.809 2.606 10
-2.032 -0.796 2.594 11
-2.031 -0.792 2.579 10
-2.032 -0.79 2.562 9
-2.055 -0.797 2.54 8
-2.048 -0.794 2.523 9
-2.019 -0.783 2.511 9
-1.989 -0.773 2.498 9
-1.944 -0.758 2.489 9
-1.909 -0.747 2.477 10
-1.9 -0.746 2.458 14
-1.897 -0.75 2.435 24
-1.857 -0.738 2.424 38
-1.85 -0.739 2.402 255
-1.838 -0.739 2.38 28
-1.801 -0.73 2.366 13
-2.112 -1.106 2.805 31
-2.157 -1.103 2.786 19
-2.241 -1.119 2.762 9
-3.952 -1.928 2.555 0
-3.249 -1.55 2.614 0
-3.148 -1.47 2.606 1
-3.154 -1.442 2.587 7
-2.966 -1.329 2.594 1
-2.85 -1.254 2.592 2
-2.747 -1.187 2.591 1
-3.232 -1.376 2.499 1
-3.346 -1.402 2.462 2
-2.912 -1.204 2.513 1
-2.11 -0.862 2.634 2
-2.078 -0.84 2.626 4
-2.056 -0.824 2.616 8
-2.041 -0.811 2.604 10
-2.03 -0.801 2.592 11
-2.028 -0.797 2.576 9
-2.033 -0.797 2.558 8
-2.049 -0.801 2.537 9
-2.038 -0.796 2.522 9
-2.005 -0.784 2.51 9
-1.979 -0.775 2.497 9
-1.93 -0.758 2.489 9
-1.907 -0.752 2.474 9
-1.897 -0.751 2.454 19
-1.865 -0.742 2.441 20
-1.855 -0.742 2.42 44
-1.847 -0.743 2.398 255
-1.835 -0.743 2.376 19
-1.781 -0.726 2.369 20
-2.106 -1.11 2.804 36
-2.154 -1.108 2.785 31
-2.242 -1.126 2.761 8
-3.929 -1.93 2.554 0
-3.187 -1.531 2.618 0
-3.161 -1.487 2.602 4
-3.138 -1.446 2.585 2
-2.894 -1.307 2.6 1
-2.824 -1.253 2.593 1
-2.739 -1.193 2.589 1
-3.144 -1.349 2.509 1
-3.684 -1.556 2.403 3
-2.867 -1.196 2.517 0
-2.088 -0.86 2.635 2
-2.067 -0.843 2.625 5
-2.046 -0.827 2.615 9
-2.049 -0.821 2.599 10
-2.03 -0.808 2.588 10
-2.033 -0.806 2.572 8
-2.056 -0.812 2.55 9
-2.05 -0.808 2.534 9
-2.032 -0.8 2.519 9
-1.992 -0.785 2.509 10
-1.954 -0.771 2.499 9
-1.917 -0.758 2.489 10
-1.897 -0.753 2.473 12
-1.895 -0.755 2.451 30
-1.881 -0.753 2.432 11
-1.849 -0.744 2.418 255
-1.848 -0.749 2.394 255
-1.819 -0.741 2.378 18
-1.775 -0.728 2.367 21
-2.099 -1.113 2.804 36
-2.155 -1.116 2.783 31
-2.235 -1.131 2.76 8
-3.927 -1.943 2.551 1
-3.154 -1.525 2.62 1
-3.15 -1.492 2.6 3
-3.13 -1.453 2.583 2
-2.882 -1.312 2.599 1
-2.791 -1.248 2.595 1
-2.692 -1.182 2.593 1
-3.114 -1.347 2.51 1
-3.672 -1.565 2.399 2
-2.117 -0.89 2.64 1
-2.078 -0.863 2.634 3
-2.061 -0.848 2.623 7
-2.04 -0.831 2.612 10
-2.036 -0.823 2.599 11
-2.035 -0.817 2.584 10
-2.03 -0.811 2.569 8
-2.053 -0.818 2.547 10
-2.05 -0.815 2.53 9
-2.011 -0.798 2.52 10
-1.981 -0.787 2.508 9
-1.944 -0.773 2.498 9
-1.907 -0.76 2.487 10
-1.894 -0.757 2.47 15
-1.892 -0.76 2.448 19
-1.878 -0.758 2.429 15
-1.846 -0.748 2.415 255
-1.842 -0.751 2.392 39
-1.802 -0.739 2.38 12
-1.765 -0.729 2.367 17
-2.103 -1.122 2.802 53
-2.155 -1.123 2.782 36
-2.242 -1.142 2.757 9
-3.238 -1.612 2.628 0
-3.156 -1.537 2.617 1
-3.145 -1.5 2.598 6
-3.093 -1.446 2.585 0
-2.824 -1.295 2.604 1
-2.769 -1.247 2.595 1
-2.67 -1.182 2.593 1
-3.011 -1.313 2.522 1
-3.674 -1.578 2.394 3
-2.106 -0.893 2.639 2
-2.068 -0.866 2.632 4
-2.054 -0.851 2.621 9
-2.044 -0.839 2.609 10
-2.033 -0.829 2.596 10
-2.036 -0.824 2.58 9
-2.041 -0.822 2.563 7
-2.05 -0.823 2.544 10
-2.037 -0.816 2.529 10
-2.001 -0.801 2.519 10
-1.964 -0.787 2.508 9
-1.931 -0.774 2.498 9
-1.904 -0.765 2.484 10
-1.895 -0.764 2.465 22
-1.882 -0.761 2.447 14
-1.858 -0.755 2.431 32
-1.847 -0.754 2.411 255
-1.836 -0.753 2.39 31
-1.782 -0.736 2.383 20
-1.766 -0.733 2.362 28
-2.1 -1.127 2.801 90
-2.152 -1.129 2.781 38
-2.25 -1.153 2.755 8
0.0 -0.0 3.0 0
-3.155 -1.548 2.614 3
-3.133 -1.506 2.596 2
0.0 -0.0 3.0 0
-2.798 -1.293 2.605 1
-2.733 -1.24 2.597 1
-2.648 -1.182 2.593 1
-2.993 -1.316 2.521 1
-2.213 -0.958 2.632 0
-2.089 -0.892 2.639 2
-2.065 -0.872 2.63 5
-2.044 -0.855 2.619 9
-2.034 -0.842 2.607 10
-2.026 -0.833 2.594 10
-2.033 -0.83 2.577 9
-2.06 -0.837 2.555 8
-2.044 -0.827 2.541 10
-2.023 -0.817 2.528 9
-1.987 -0.802 2.518 10
-1.954 -0.788 2.508 10
-1.921 -0.776 2.496 10
-1.891 -0.765 2.484 13
-1.885 -0.765 2.464 30
-1.876 -0.764 2.445 10
-1.858 -0.76 2.427 149
-1.848 -0.759 2.407 255
-1.819 -0.751 2.392 21
-1.776 -0.738 2.381 20
-1.76 -0.735 2.361 23
-2.101 -1.135 2.8 118
-2.149 -1.135 2.779 39
-2.236 -1.154 2.755 5
-3.179 -1.604 2.63 1
-3.154 -1.559 2.611 4
-3.14 -1.52 2.593 2
-4.408 -2.092 2.4 0
-2.78 -1.294 2.604 2
-2.7 -1.235 2.599 1
-2.64 -1.187 2.591 0
-2.974 -1.318 2.52 1
-2.109 -0.921 2.647 2
-2.075 -0.894 2.639 3
-2.058 -0.877 2.628 7
-2.041 -0.86 2.617 10
-2.034 -0.849 2.604 10
-2.034 -0.843 2.589 10
-2.033 -0.838 2.573 8
-2.05 -0.84 2.553 9
-2.044 -0.834 2.537 11
-2.016 -0.821 2.526 9
-1.966 -0.8 2.519 10
-1.933 -0.786 2.509 9
-1.914 -0.779 2.494 10
-1.895 -0.772 2.479 16
-1.883 -0.77 2.461 15
-1.87 -0.767 2.443 16
-1.852 -0.763 2.425 255
-1.838 -0.76 2.406 84
-1.795 -0.746 2.396 15
-1.77 -0.739 2.38 16
-1.754 -0.737 2.359 17
-2.094 -1.138 2.799 96
-2.149 -1.142 2.778 43
-2.236 -1.162 2.753 3
-3.16 -1.607 2.629 1
-3.146 -1.566 2.61 7
-3.057 -1.491 2.601 0
-4.394 -2.101 2.398 1
-2.751 -1.29 2.606 2
-2.667 -1.229 2.601 1
-2.622 -1.189 2.591 1
-3.775 -1.686 2.386 1
-2.095 -0.922 2.646 2
-2.068 -0.899 2.637 5
-2.055 -0.882 2.626 8
-2.038 -0.866 2.614 10
-2.031 -0.856 2.601 10
-2.038 -0.852 2.585 9
-2.052 -0.852 2.566 8
-2.047 -0.845 2.551 9
-2.034 -0.837 2.536 10
-1.995 -0.819 2.527 10
-1.959 -0.803 2.517 10
-1.927 -0.79 2.506 10
-1.908 -0.783 2.492 11
-1.893 -0.777 2.476 27
-1.869 -0.769 2.461 10
-1.856 -0.767 2.443 31
-1.853 -0.769 2.421 255
-1.843 -0.767 2.401 205
-1.779 -0.744 2.398 18
-1.764 -0.742 2.378 25
-1.755 -0.742 2.355 11
-2.094 -1.146 2.798 70
-2.15 -1.15 2.776 39
-2.258 -1.181 2.749 2
-3.159 -1.617 2.627 3
-3.12 -1.564 2.61 1
-4.186 -2.056 2.449 0
-4.384 -2.111 2.395 0
-2.729 -1.29 2.605 2
-2.638 -1.226 2.602 1
-2.579 -1.178 2.594 1
-2.143 -0.965 2.649 1
-2.081 -0.923 2.646 2
-2.062 -0.903 2.635 5
-2.049 -0.887 2.624 9
-2.028 -0.869 2.613 10
-2.028 -0.861 2.599 10
-2.035 -0.857 2.582 8
-2.056 -0.861 2.561 9
-2.044 -0.851 2.547 9
-2.02 -0.838 2.536 10
-1.982 -0.82 2.527 9
-1.942 -0.803 2.518 10
-1.917 -0.791 2.506 10
-1.902 -0.786 2.49 12
-1.886 -0.781 2.473 20
-1.866 -0.774 2.458 9
-1.857 -0.773 2.439 105
-1.847 -0.771 2.419 77
-1.826 -0.766 2.402 40
-1.773 -0.746 2.396 18
-1.758 -0.744 2.376 21
-1.753 -0.746 2.351 6
-2.098 -1.156 2.796 79
-2.139 -1.152 2.776 23
-2.275 -1.198 2.745 2
-3.165 -1.631 2.624 4
-3.134 -1.581 2.606 1
-4.162 -2.059 2.448 0
-4.321 -2.096 2.399 0
-2.7 -1.286 2.607 2
-2.627 -1.23 2.6 1
-2.55 -1.174 2.596 2
-2.1 -0.953 2.653 2
-2.071 -0.926 2.645 4
-2.051 -0.906 2.634 7
-2.046 -0.893 2.621 9
-2.032 -0.878 2.609 10
-2.029 -0.868 2.595 9
-2.036 -0.865 2.578 6
-2.05 -0.865 2.559 10
-2.041 -0.857 2.545 9
-2.003 -0.838 2.536 10
-1.971 -0.822 2.525 10
-1.929 -0.803 2.517 10
-1.907 -0.793 2.504 10
-1.895 -0.789 2.487 18
-1.866 -0.778 2.476 13
-1.857 -0.776 2.457 20
-1.851 -0.775 2.437 242
-1.837 -0.772 2.418 23
-1.781 -0.751 2.413 29
-1.77 -0.75 2.392 16
-1.755 -0.748 2.373 16
-1.743 -0.746 2.351 4
-2.095 -1.161 2.795 99
-2.14 -1.159 2.775 15
-2.268 -1.202 2.745 0
-3.153 -1.636 2.622 7
-3.069 -1.559 2.611 0
-4.131 -2.058 2.449 0
-4.318 -2.11 2.395 0
-2.681 -1.287 2.607 2
-2.591 -1.222 2.603 1
-2.521 -1.17 2.597 2
-2.09 -0.956 2.652 2
-2.068 -0.932 2.642 5
-2.052 -0.913 2.631 8
-2.039 -0.897 2.619 9
-2.029 -0.884 2.606 10
-2.03 -0.875 2.592 8
-2.051 -0.879 2.571 8
-2.047 -0.871 2.556 10
-2.031 -0.859 2.543 9
-1.989 -0.838 2.535 11
-1.958 -0.823 2.525 10
-1.922 -0.807 2.515 10
-1.904 -0.798 2.501 12
-1.9 -0.797 2.482 27
-1.873 -0.787 2.469 9
-1.854 -0.78 2.454 40
-1.848 -0.779 2.434 205
-1.827 -0.774 2.417 27
-1.782 -0.757 2.409 22
-1.76 -0.751 2.392 30
-1.749 -0.75 2.371 10
-1.727 -0.744 2.354 2
-2.096 -1.168 2.794 85
-2.15 -1.173 2.772 10
-3.178 -1.695 2.64 3
-3.155 -1.648 2.62 1
-3.945 -2.019 2.497 0
-4.103 -2.059 2.448 0
-4.29 -2.112 2.394 0
-2.645 -1.279 2.609 2
-2.569 -1.221 2.603 1
-2.313 -1.082 2.627 2
-2.083 -0.961 2.65 2
-2.057 -0.934 2.641 7
-2.042 -0.916 2.63 9
-2.036 -0.903 2.617 9
-2.033 -0.892 2.603 9
-2.03 -0.883 2.588 7
-2.048 -0.884 2.569 9
-2.051 -0.88 2.552 10
-2.017 -0.86 2.543 9
-1.979 -0.841 2.534 11
-1.94 -0.822 2.526 10
-1.912 -0.808 2.514 10
-1.901 -0.803 2.498 15
-1.897 -0.802 2.479 13
-1.864 -0.788 2.469 12
-1.847 -0.783 2.452 143
-1.842 -0.783 2.431 34
-1.814 -0.773 2.418 12
-1.768 -0.756 2.409 19
-1.761 -0.756 2.388 19
-1.75 -0.755 2.367 6
-1.731 -0.75 2.348 1
-2.092 -1.174 2.793 50
-2.151 -1.18 2.771 8
-3.159 -1.696 2.639 4
-3.154 -1.659 2.617 1
-3.935 -2.028 2.494 0
-4.086 -2.065 2.447 0
-4.273 -2.119 2.392 0
-2.631 -1.281 2.608 2
-2.54 -1.216 2.605 1
-2.27 -1.07 2.632 2
-2.069 -0.961 2.65 4
-2.054 -0.941 2.639 7
-2.038 -0.922 2.628 9
-2.037 -0.911 2.614 9
-2.027 -0.897 2.601 9
-2.042 -0.895 2.582 8
-2.041 -0.889 2.567 9
-2.037 -0.88 2.551 10
-2.0 -0.86 2.543 9
-1.965 -0.842 2.533 11
-1.923 -0.821 2.526 10
-1.906 -0.812 2.512 11
-1.898 -0.808 2.495 26
-1.887 -0.803 2.479 10
-1.857 -0.792 2.466 23
-1.845 -0.787 2.449 242
-1.835 -0.785 2.43 20
-1.787 -0.766 2.422 20
-1.762 -0.759 2.407 23
-1.752 -0.756 2.387 14
-1.737 -0.754 2.368 3
-1.711 -0.746 2.351 1
-2.096 -1.183 2.791 29
-2.158 -1.192 2.768 7
-3.158 -1.707 2.637 6
0.0 -0.0 3.0 0
-3.912 -2.03 2.494 0
-4.066 -2.069 2.446 0
-4.249 -2.122 2.391 0
-2.602 -1.276 2.61 2
-2.504 -1.209 2.607 0
-2.277 -1.081 2.628 3
-2.062 -0.966 2.648 5
-2.051 -0.946 2.637 8
-2.035 -0.928 2.625 9
-2.033 -0.916 2.611 9
-2.031 -0.906 2.597 8
-2.049 -0.905 2.578 8
-2.045 -0.898 2.562 9
-2.023 -0.881 2.551 10
-1.986 -0.861 2.542 9
-1.944 -0.839 2.535 11
-1.917 -0.825 2.524 10
-1.899 -0.815 2.51 12
-1.895 -0.813 2.492 25
-1.88 -0.807 2.476 9
-1.851 -0.794 2.464 64
-1.838 -0.79 2.447 120
-1.818 -0.783 2.431 20
-1.777 -0.767 2.422 19
-1.756 -0.761 2.405 30
-1.749 -0.761 2.384 8
-1.727 -0.754 2.367 2
