# .PCD v0.7 - Point Cloud Data file format
VERSION 0.7
FIELDS x y z intensity
SIZE 4 4 4 4
TYPE F F F F
COUNT 1 1 1 1
WIDTH 1997
HEIGHT 1
VIEWPOINT 0 0 0 1 0 0 0
POINTS 1997
DATA ascii
-1.284 -19.534 -4.499 41
-1.245 -18.786 -4.59 8
-1.199 -18.0 -4.641 7
-1.16 -17.281 -4.694 8
-1.121 -16.609 -4.745 8
-1.086 -15.965 -4.787 31
-1.053 -15.393 -4.843 7
-1.019 -14.82 -4.88 7
-0.992 -14.296 -4.925 9
-0.964 -13.828 -4.983 8
-0.94 -13.354 -5.024 7
-0.91 -12.864 -5.038 13
-0.889 -12.45 -5.085 10
-0.865 -12.04 -5.121 10
-0.843 -11.634 -5.146 10
-0.821 -11.258 -5.179 12
-0.802 -10.89 -5.206 11
-0.782 -10.548 -5.241 14
-0.761 -10.204 -5.263 12
-0.744 -9.869 -5.281 13
-0.724 -9.545 -5.298 45
-2.417 -37.505 -3.613 7
-2.161 -33.268 -3.467 12
-2.098 -32.143 -3.832 14
-1.974 -30.003 -3.927 6
-1.859 -28.112 -4.009 7
-1.761 -26.419 -4.079 4
-1.67 -24.93 -4.149 6
-1.59 -23.618 -4.221 5
-1.523 -22.444 -4.292 5
-1.456 -21.347 -4.35 31
-1.407 -20.416 -4.431 10
-1.35 -19.534 -4.499 39
-1.308 -18.783 -4.589 8
-1.26 -18.0 -4.641 8
-1.22 -17.281 -4.694 8
-1.179 -16.613 -4.747 8
-1.142 -15.966 -4.787 38
-1.107 -15.39 -4.842 8
-1.072 -14.818 -4.879 8
-1.043 -14.297 -4.925 8
-1.015 -13.829 -4.984 8
-0.989 -13.362 -5.029 7
-0.958 -12.864 -5.039 26
-0.935 -12.448 -5.084 10
-0.909 -12.034 -5.117 9
-0.887 -11.636 -5.147 10
-0.864 -11.259 -5.18 12
-0.844 -10.889 -5.205 12
-0.822 -10.543 -5.237 13
-0.802 -10.205 -5.264 12
-0.783 -9.873 -5.284 14
-0.763 -9.549 -5.301 42
-2.315 -34.275 -3.044 6
-2.266 -33.286 -3.47 17
-2.201 -32.16 -3.836 14
-2.069 -30.009 -3.928 6
-1.949 -28.118 -4.011 7
-1.846 -26.421 -4.08 4
-1.751 -24.94 -4.151 6
-1.668 -23.624 -4.223 5
-1.597 -22.443 -4.292 5
-1.526 -21.342 -4.349 31
-1.475 -20.416 -4.431 9
-1.416 -19.538 -4.5 24
-1.372 -18.787 -4.59 8
-1.322 -17.997 -4.639 7
-1.279 -17.281 -4.694 8
-1.237 -16.613 -4.747 8
-1.199 -15.97 -4.789 36
-1.162 -15.39 -4.842 8
-1.125 -14.814 -4.877 8
-1.094 -14.294 -4.923 8
-1.065 -13.829 -4.984 8
-1.038 -13.363 -5.029 7
-1.006 -12.869 -5.041 8
-0.981 -12.442 -5.08 10
-0.954 -12.028 -5.113 9
-0.932 -11.637 -5.148 10
-0.907 -11.26 -5.181 13
-0.886 -10.89 -5.206 12
-0.863 -10.541 -5.235 11
-0.841 -10.2 -5.26 11
-0.822 -9.874 -5.286 13
-0.801 -9.55 -5.302 40
-2.425 -34.334 -3.054 36
-2.368 -33.259 -3.465 15
-2.303 -32.172 -3.838 16
-2.166 -30.026 -3.932 7
-2.039 -28.115 -4.01 7
-1.931 -26.42 -4.079 5
-1.832 -24.942 -4.152 6
-1.745 -23.631 -4.225 6
-1.671 -22.45 -4.294 5
-1.598 -21.349 -4.351 32
-1.544 -20.422 -4.433 9
-1.482 -19.537 -4.5 11
-1.436 -18.789 -4.591 8
-1.384 -18.0 -4.641 7
-1.339 -17.281 -4.694 8
-1.295 -16.613 -4.747 8
-1.255 -15.97 -4.789 40
-1.217 -15.398 -4.846 8
-1.178 -14.822 -4.881 8
-1.146 -14.298 -4.926 9
-1.115 -13.826 -4.983 8
-1.087 -13.36 -5.027 7
-1.054 -12.873 -5.044 8
-1.028 -12.453 -5.087 10
-1.0 -12.032 -5.116 10
-0.976 -11.634 -5.146 10
-0.951 -11.265 -5.184 12
-0.928 -10.894 -5.209 10
-0.904 -10.538 -5.233 11
-0.881 -10.198 -5.258 12
-0.861 -9.869 -5.281 14
-0.839 -9.546 -5.298 42
-2.523 -34.216 -3.033 26
-2.472 -33.268 -3.467 19
-2.405 -32.185 -3.841 18
-2.26 -30.019 -3.931 6
-2.13 -28.128 -4.013 7
-2.016 -26.426 -4.081 3
-1.913 -24.94 -4.151 6
-1.823 -23.629 -4.224 4
-1.745 -22.452 -4.295 5
-1.668 -21.341 -4.348 32
-1.613 -20.425 -4.434 9
-1.549 -19.552 -4.505 10
-1.5 -18.786 -4.59 8
-1.445 -18.0 -4.641 8
-1.399 -17.284 -4.695 8
-1.353 -16.616 -4.748 8
-1.311 -15.973 -4.791 40
-1.271 -15.391 -4.842 8
-1.231 -14.819 -4.879 8
-1.198 -14.298 -4.926 9
-1.165 -13.83 -4.985 8
-1.135 -13.357 -5.026 7
-1.1 -12.86 -5.036 8
-1.074 -12.447 -5.083 10
-1.045 -12.03 -5.114 10
-1.02 -11.635 -5.147 9
-0.994 -11.259 -5.18 12
-0.97 -10.895 -5.21 11
-0.945 -10.536 -5.232 12
-0.922 -10.202 -5.262 12
-0.901 -9.873 -5.284 13
-0.878 -9.547 -5.299 44
-2.62 -34.103 -3.013 29
-2.575 -33.256 -3.464 15
-2.507 -32.193 -3.843 14
-2.357 -30.036 -3.934 6
-2.22 -28.134 -4.015 6
-2.102 -26.435 -4.083 4
-1.993 -24.93 -4.149 6
-1.901 -23.643 -4.228 6
-1.82 -22.458 -4.297 6
-1.739 -21.34 -4.348 32
-1.681 -20.424 -4.434 9
-1.615 -19.554 -4.506 9
-1.564 -18.788 -4.591 8
-1.507 -18.0 -4.64 8
-1.459 -17.284 -4.695 8
-1.41 -16.605 -4.743 8
-1.367 -15.97 -4.789 40
-1.326 -15.398 -4.846 8
-1.284 -14.822 -4.881 8
-1.249 -14.298 -4.926 9
-1.215 -13.827 -4.983 8
-1.185 -13.361 -5.028 7
-1.148 -12.867 -5.04 8
-1.121 -12.45 -5.085 10
-1.09 -12.033 -5.117 10
-1.063 -11.629 -5.142 10
-1.036 -11.253 -5.175 12
-1.013 -10.899 -5.213 10
-0.987 -10.54 -5.235 12
-0.962 -10.2 -5.26 12
-0.94 -9.874 -5.285 15
-0.917 -9.551 -5.302 41
-2.719 -34.013 -2.997 28
-2.678 -33.244 -3.462 15
-2.608 -32.194 -3.843 13
-2.453 -30.048 -3.937 6
-2.31 -28.143 -4.017 7
-2.187 -26.428 -4.081 5
-2.075 -24.936 -4.15 7
-1.978 -23.641 -4.228 6
-1.895 -22.472 -4.302 5
-1.809 -21.334 -4.346 30
-1.75 -20.426 -4.435 7
-1.681 -19.553 -4.506 9
-1.628 -18.791 -4.592 7
-1.569 -17.999 -4.64 8
-1.519 -17.287 -4.697 8
-1.469 -16.615 -4.748 7
-1.423 -15.969 -4.788 39
-1.38 -15.394 -4.843 8
-1.337 -14.826 -4.883 8
-1.301 -14.298 -4.926 9
-1.266 -13.831 -4.985 8
-1.234 -13.364 -5.03 7
-1.195 -12.864 -5.038 9
-1.167 -12.444 -5.081 10
-1.135 -12.031 -5.115 8
-1.108 -11.636 -5.148 10
-1.08 -11.257 -5.179 12
-1.055 -10.892 -5.208 11
-1.028 -10.538 -5.233 12
-1.002 -10.201 -5.261 13
-0.979 -9.869 -5.281 13
-0.955 -9.552 -5.303 39
-2.825 -34.028 -3.0 30
-2.784 -33.275 -3.468 22
-2.71 -32.201 -3.845 14
-2.549 -30.056 -3.939 6
-2.402 -28.155 -4.02 7
-2.273 -26.437 -4.084 6
-2.156 -24.938 -4.151 7
-2.055 -23.638 -4.227 6
-1.969 -22.47 -4.301 4
-1.882 -21.351 -4.352 30
-1.819 -20.429 -4.436 7
-1.747 -19.556 -4.507 9
-1.692 -18.789 -4.591 8
-1.631 -18.001 -4.641 7
-1.579 -17.286 -4.696 8
-1.527 -16.615 -4.748 7
-1.48 -15.972 -4.79 37
-1.435 -15.397 -4.845 7
-1.39 -14.825 -4.883 8
-1.352 -14.298 -4.926 8
-1.316 -13.827 -4.983 8
-1.283 -13.361 -5.028 8
-1.243 -12.864 -5.038 8
-1.213 -12.445 -5.082 9
-1.181 -12.031 -5.115 10
-1.152 -11.63 -5.143 11
-1.123 -11.26 -5.181 12
-1.097 -10.893 -5.209 12
-1.069 -10.541 -5.236 11
-1.042 -10.198 -5.258 12
-1.019 -9.873 -5.284 13
-0.994 -9.553 -5.304 40
-2.932 -34.035 -3.001 29
-2.884 -33.224 -3.458 34
-2.812 -32.205 -3.845 13
-2.646 -30.071 -3.943 6
-2.491 -28.151 -4.019 7
-2.358 -26.438 -4.084 5
-2.238 -24.947 -4.153 6
-2.133 -23.644 -4.229 6
-2.043 -22.471 -4.301 5
-1.954 -21.361 -4.355 32
-1.887 -20.427 -4.435 6
-1.813 -19.554 -4.506 9
-1.757 -18.8 -4.596 7
-1.693 -18.004 -4.642 7
-1.639 -17.285 -4.696 7
-1.585 -16.618 -4.749 7
-1.536 -15.975 -4.791 9
-1.489 -15.393 -4.843 8
-1.443 -14.825 -4.883 8
-1.404 -14.298 -4.926 9
-1.366 -13.823 -4.981 8
-1.331 -13.357 -5.026 7
-1.291 -12.867 -5.04 8
-1.26 -12.448 -5.084 10
-1.226 -12.031 -5.115 10
-1.197 -11.64 -5.15 11
-1.166 -11.255 -5.177 10
-1.139 -10.89 -5.206 9
-1.11 -10.542 -5.237 12
-1.082 -10.199 -5.259 10
-1.058 -9.871 -5.282 13
-1.032 -9.547 -5.299 40
-3.034 -33.998 -2.995 30
-2.991 -33.258 -3.465 39
-2.915 -32.223 -3.849 14
-2.742 -30.076 -3.944 6
-2.583 -28.167 -4.023 7
-2.445 -26.458 -4.089 5
-2.319 -24.951 -4.154 7
-2.211 -23.649 -4.23 6
-2.118 -22.473 -4.302 5
-2.025 -21.367 -4.357 28
-1.955 -20.422 -4.433 8
-1.879 -19.552 -4.505 9
-1.821 -18.798 -4.595 7
-1.755 -18.002 -4.642 8
-1.699 -17.292 -4.699 8
-1.643 -16.617 -4.749 8
-1.592 -15.974 -4.791 9
-1.544 -15.396 -4.845 8
-1.496 -14.824 -4.882 8
-1.455 -14.29 -4.921 9
-1.417 -13.826 -4.983 8
-1.381 -13.361 -5.028 8
-1.339 -12.867 -5.04 9
-1.307 -12.451 -5.086 9
-1.272 -12.034 -5.117 9
-1.241 -11.633 -5.146 10
-1.21 -11.261 -5.182 11
-1.182 -10.898 -5.212 11
-1.152 -10.546 -5.239 13
-1.122 -10.196 -5.257 12
-1.097 -9.871 -5.283 13
-0.96 -8.564 -4.445 11
-3.149 -34.099 -3.013 26
-3.087 -33.166 -3.447 37
-3.017 -32.23 -3.851 14
-2.839 -30.086 -3.946 7
-2.674 -28.171 -4.024 7
-2.53 -26.45 -4.087 6
-2.401 -24.96 -4.157 7
-2.289 -23.654 -4.232 6
-2.192 -22.474 -4.302 5
-2.097 -21.375 -4.36 32
-2.024 -20.431 -4.436 9
-1.946 -19.554 -4.506 9
-1.886 -18.8 -4.596 7
-1.817 -18.005 -4.643 7
-1.758 -17.287 -4.697 8
-1.701 -16.623 -4.751 8
-1.649 -15.977 -4.792 9
-1.599 -15.399 -4.846 4
-1.549 -14.82 -4.88 8
-1.507 -14.298 -4.925 9
-1.467 -13.825 -4.982 7
-1.43 -13.36 -5.027 8
-1.386 -12.864 -5.038 9
-1.353 -12.448 -5.084 10
-1.317 -12.031 -5.115 9
-1.286 -11.64 -5.15 11
-1.253 -11.261 -5.182 11
-1.223 -10.895 -5.21 11
-1.193 -10.539 -5.234 12
-1.164 -10.203 -5.262 11
-1.136 -9.868 -5.281 13
-0.986 -8.49 -4.38 12
-3.254 -34.089 -3.011 29
-3.186 -33.122 -3.438 40
-3.12 -32.24 -3.853 14
-2.935 -30.097 -3.949 6
-2.765 -28.182 -4.027 7
-2.616 -26.454 -4.088 5
-2.483 -24.968 -4.159 6
-2.367 -23.658 -4.233 6
-2.267 -22.479 -4.304 5
-2.169 -21.376 -4.36 27
-2.093 -20.432 -4.437 18
-2.012 -19.556 -4.507 8
-1.95 -18.798 -4.595 5
-1.878 -18.0 -4.64 7
-1.818 -17.285 -4.696 7
-1.759 -16.618 -4.749 8
-1.705 -15.976 -4.792 9
-1.654 -15.401 -4.847 6
-1.602 -14.816 -4.878 8
-1.559 -14.297 -4.925 9
-1.517 -13.826 -4.982 8
-1.479 -13.36 -5.027 8
-1.434 -12.87 -5.042 9
-1.4 -12.447 -5.083 9
-1.362 -12.028 -5.113 10
-1.329 -11.633 -5.146 10
-1.296 -11.262 -5.182 12
-1.266 -10.895 -5.21 11
-1.234 -10.543 -5.237 11
-1.204 -10.2 -5.26 12
-1.176 -9.872 -5.283 13
-1.009 -8.401 -4.303 11
-3.342 -33.911 -2.979 15
-3.292 -33.143 -3.442 37
-3.222 -32.247 -3.854 14
-3.033 -30.116 -3.953 7
-2.856 -28.193 -4.029 7
-2.702 -26.458 -4.089 5
-2.565 -24.972 -4.161 6
-2.445 -23.654 -4.232 5
-2.342 -22.483 -4.305 4
-2.241 -21.389 -4.365 25
-2.162 -20.429 -4.436 22
-2.079 -19.562 -4.509 9
-2.013 -18.792 -4.593 5
-1.941 -18.005 -4.643 7
-1.879 -17.291 -4.698 7
-1.818 -16.627 -4.753 8
-1.761 -15.974 -4.791 9
-1.708 -15.393 -4.843 6
-1.655 -14.814 -4.877 7
-1.61 -14.292 -4.922 9
-1.568 -13.825 -4.982 8
-1.527 -13.352 -5.023 8
-1.481 -12.863 -5.038 8
-1.446 -12.447 -5.083 9
-1.408 -12.031 -5.115 9
-1.374 -11.637 -5.148 10
-1.34 -11.262 -5.182 11
-1.307 -10.888 -5.205 11
-1.275 -10.536 -5.232 11
-1.245 -10.206 -5.265 12
-1.051 -8.533 -4.16 11
-1.032 -8.311 -4.224 9
-3.463 -34.058 -3.005 35
-3.389 -33.079 -3.43 38
-3.323 -32.233 -3.851 27
-3.129 -30.118 -3.953 7
-2.947 -28.195 -4.03 6
-2.789 -26.473 -4.093 6
-2.647 -24.971 -4.16 7
-2.524 -23.666 -4.235 6
-2.418 -22.496 -4.309 5
-2.313 -21.386 -4.364 22
-2.229 -20.415 -4.431 33
-2.146 -19.567 -4.511 9
-2.077 -18.79 -4.592 5
-2.003 -18.007 -4.643 7
-1.939 -17.289 -4.697 7
-1.877 -16.629 -4.754 8
-1.818 -15.98 -4.794 9
-1.763 -15.395 -4.844 8
-1.708 -14.813 -4.876 8
-1.662 -14.295 -4.924 9
-1.618 -13.824 -4.981 8
-1.577 -13.355 -5.024 7
-1.529 -12.866 -5.04 8
-1.493 -12.447 -5.083 9
-1.453 -12.03 -5.115 10
-1.418 -11.636 -5.148 10
-1.382 -11.258 -5.179 11
-1.35 -10.891 -5.207 11
-1.317 -10.54 -5.235 12
-1.284 -10.2 -5.26 12
-1.073 -8.439 -4.081 10
-1.052 -8.203 -4.131 9
-3.559 -33.965 -2.989 17
-3.492 -33.064 -3.427 30
-3.429 -32.27 -3.859 15
-3.226 -30.128 -3.956 6
-3.038 -28.202 -4.032 6
-2.875 -26.476 -4.094 4
-2.728 -24.975 -4.161 6
-2.602 -23.67 -4.237 6
-2.492 -22.492 -4.308 5
-2.384 -21.39 -4.365 23
-2.297 -20.413 -4.43 27
-2.212 -19.567 -4.511 9
-2.141 -18.788 -4.591 7
-2.065 -18.008 -4.644 7
-1.998 -17.283 -4.695 7
-1.934 -16.623 -4.752 8
-1.874 -15.979 -4.793 9
-1.818 -15.397 -4.845 8
-1.761 -14.813 -4.876 7
-1.714 -14.297 -4.925 9
-1.669 -13.826 -4.983 8
-1.626 -13.358 -5.026 6
-1.577 -12.865 -5.039 8
-1.539 -12.446 -5.082 10
-1.499 -12.03 -5.114 10
-1.463 -11.636 -5.148 10
-1.426 -11.261 -5.182 12
-1.392 -10.891 -5.207 11
-1.357 -10.533 -5.23 11
-1.112 -8.561 -3.932 0
-1.095 -8.351 -4.007 13
-1.076 -8.135 -4.072 11
-3.678 -34.087 -3.01 39
-3.603 -33.136 -3.441 30
-3.532 -32.283 -3.862 13
-3.324 -30.149 -3.96 7
-3.13 -28.209 -4.033 7
-2.96 -26.474 -4.094 4
-2.811 -24.982 -4.163 7
-2.681 -23.681 -4.24 6
-2.566 -22.492 -4.308 5
-2.457 -21.398 -4.368 24
-2.367 -20.421 -4.433 13
-2.279 -19.568 -4.512 9
-2.206 -18.789 -4.591 7
-2.128 -18.01 -4.645 7
-2.059 -17.288 -4.697 7
-1.992 -16.622 -4.751 7
-1.931 -15.977 -4.792 9
-1.873 -15.399 -4.846 8
-1.815 -14.818 -4.879 7
-1.765 -14.292 -4.922 8
-1.72 -13.828 -4.984 8
-1.675 -13.357 -5.025 5
-1.625 -12.868 -5.041 8
-1.586 -12.445 -5.082 11
-1.544 -12.032 -5.116 8
-1.507 -11.632 -5.145 10
-1.469 -11.26 -5.181 11
-1.435 -10.894 -5.209 11
-1.399 -10.537 -5.232 11
-1.137 -8.494 -3.878 10
-1.118 -8.272 -3.941 10
-1.097 -8.048 -3.996 12
-3.781 -34.064 -3.006 35
-3.702 -33.086 -3.431 37
-3.634 -32.279 -3.861 14
-3.422 -30.158 -3.963 6
-3.222 -28.222 -4.037 6
-3.048 -26.492 -4.099 4
-2.893 -24.988 -4.165 6
-2.758 -23.677 -4.239 6
-2.641 -22.495 -4.309 5
-2.529 -21.402 -4.369 23
-2.439 -20.444 -4.441 10
-2.346 -19.576 -4.515 9
-2.27 -18.786 -4.59 8
-2.189 -18.007 -4.644 8
-2.119 -17.29 -4.698 7
-2.051 -16.623 -4.752 7
-1.987 -15.979 -4.793 9
-1.927 -15.39 -4.842 8
-1.867 -14.809 -4.874 7
-1.817 -14.294 -4.923 9
-1.77 -13.827 -4.983 8
-1.724 -13.355 -5.025 7
-1.673 -12.867 -5.04 9
-1.633 -12.448 -5.084 10
-1.59 -12.035 -5.118 10
-1.551 -11.631 -5.144 10
-1.513 -11.26 -5.181 12
-1.477 -10.891 -5.207 11
-1.441 -10.539 -5.234 10
-1.159 -8.414 -3.813 12
-1.142 -8.205 -3.885 8
-1.119 -7.977 -3.934 7
-3.883 -34.022 -2.999 29
-3.807 -33.098 -3.434 32
-3.735 -32.273 -3.86 18
-3.52 -30.175 -3.966 6
-3.314 -28.235 -4.04 6
-3.135 -26.499 -4.1 4
-2.975 -24.987 -4.165 6
-2.838 -23.688 -4.242 5
-2.718 -22.514 -4.315 5
-2.601 -21.409 -4.372 18
-2.507 -20.44 -4.44 9
-2.412 -19.569 -4.512 9
-2.334 -18.79 -4.592 8
-2.251 -18.004 -4.642 7
-2.18 -17.294 -4.7 7
-2.109 -16.621 -4.75 7
-2.044 -15.979 -4.794 9
-1.983 -15.395 -4.844 7
-1.921 -14.818 -4.879 7
-1.869 -14.296 -4.924 8
-1.82 -13.826 -4.982 7
-1.774 -13.358 -5.026 8
-1.721 -12.869 -5.041 8
-1.679 -12.447 -5.083 10
-1.635 -12.031 -5.115 10
-1.596 -11.634 -5.146 9
-1.556 -11.259 -5.18 12
-1.519 -10.89 -5.206 11
-1.201 -8.54 -3.672 5
-1.181 -8.334 -3.749 12
-1.162 -8.117 -3.811 10
-1.378 -9.546 -5.298 27
-3.999 -34.108 -3.014 39
-3.915 -33.133 -3.44 44
-3.84 -32.292 -3.864 14
-3.618 -30.187 -3.969 6
-3.406 -28.241 -4.041 6
-3.222 -26.513 -4.104 4
-3.057 -24.993 -4.167 6
-2.917 -23.694 -4.244 6
-2.793 -22.509 -4.314 6
-2.673 -21.409 -4.372 17
-2.577 -20.448 -4.442 9
-2.48 -19.581 -4.516 9
-2.398 -18.783 -4.589 7
-2.314 -18.005 -4.643 7
-2.24 -17.292 -4.699 8
-2.167 -16.622 -4.751 8
-2.101 -15.981 -4.795 9
-2.037 -15.394 -4.843 7
-1.975 -14.82 -4.88 8
-1.92 -14.291 -4.921 9
-1.872 -13.831 -4.985 5
-1.823 -13.356 -5.025 8
-1.769 -12.865 -5.039 8
-1.726 -12.446 -5.083 9
-1.681 -12.034 -5.117 10
-1.641 -11.64 -5.15 10
-1.599 -11.255 -5.177 10
-1.562 -10.893 -5.208 10
-1.224 -8.466 -3.614 12
-1.203 -8.256 -3.686 8
-1.183 -8.036 -3.743 10
-1.417 -9.549 -5.301 37
-4.121 -34.24 -3.038 29
-4.027 -33.196 -3.453 40
-3.944 -32.308 -3.867 13
-3.716 -30.2 -3.972 6
-3.498 -28.25 -4.043 6
-3.308 -26.51 -4.103 5
-3.139 -24.995 -4.167 6
-2.995 -23.693 -4.244 6
-2.869 -22.524 -4.318 5
-2.746 -21.42 -4.375 15
-2.646 -20.444 -4.441 9
-2.546 -19.577 -4.515 9
-2.463 -18.788 -4.591 8
-2.376 -18.009 -4.644 7
-2.301 -17.296 -4.701 8
-2.226 -16.619 -4.75 8
-2.157 -15.979 -4.793 9
-2.094 -15.402 -4.848 7
-2.028 -14.821 -4.881 8
-1.973 -14.296 -4.924 8
-1.921 -13.822 -4.98 5
-1.872 -13.354 -5.024 8
-1.817 -12.866 -5.04 7
-1.773 -12.445 -5.082 10
-1.726 -12.029 -5.113 10
-1.685 -11.633 -5.145 10
-1.643 -11.258 -5.179 10
-1.604 -10.892 -5.208 11
-1.245 -8.387 -3.553 9
-1.223 -8.171 -3.616 9
-1.203 -7.957 -3.676 6
-1.455 -9.546 -5.298 38
-4.211 -34.099 -3.013 5
-4.138 -33.25 -3.463 39
-4.047 -32.311 -3.868 14
-3.814 -30.211 -3.975 6
-3.591 -28.266 -4.048 6
-3.397 -26.527 -4.108 5
-3.222 -25.005 -4.17 6
-3.074 -23.699 -4.246 6
-2.943 -22.515 -4.316 5
-2.816 -21.405 -4.37 30
-2.716 -20.451 -4.443 9
-2.612 -19.573 -4.513 9
-2.528 -18.791 -4.592 8
-2.438 -18.006 -4.643 7
-2.361 -17.292 -4.699 8
-2.284 -16.62 -4.75 8
-2.213 -15.972 -4.79 9
-2.148 -15.399 -4.846 7
-2.083 -14.829 -4.885 7
-2.025 -14.294 -4.923 8
-1.972 -13.824 -4.981 8
-1.921 -13.349 -5.021 8
-1.865 -12.865 -5.039 8
-1.819 -12.443 -5.081 8
-1.772 -12.028 -5.113 10
-1.729 -11.631 -5.144 10
-1.686 -11.257 -5.179 11
-1.287 -8.509 -3.412 10
-1.265 -8.297 -3.482 6
-1.242 -8.081 -3.544 8
-1.532 -9.874 -5.285 11
-1.494 -9.546 -5.298 40
-4.344 -34.305 -3.049 2
-4.255 -33.342 -3.481 32
-4.15 -32.314 -3.869 13
-3.91 -30.208 -3.974 7
-3.683 -28.267 -4.048 6
-3.483 -26.528 -4.108 5
-3.306 -25.018 -4.174 6
-3.153 -23.709 -4.249 6
-3.018 -22.514 -4.315 5
-2.888 -21.407 -4.371 31
-2.785 -20.454 -4.444 9
-2.68 -19.577 -4.515 9
-2.593 -18.791 -4.592 8
-2.5 -18.002 -4.642 7
-2.42 -17.286 -4.696 8
-2.343 -16.621 -4.75 8
-2.271 -15.98 -4.794 9
-2.204 -15.403 -4.848 8
-2.136 -14.823 -4.882 7
-2.077 -14.295 -4.924 8
-2.023 -13.822 -4.98 8
-1.971 -13.354 -5.024 8
-1.913 -12.867 -5.04 8
-1.867 -12.448 -5.084 9
-1.817 -12.023 -5.11 9
-1.774 -11.634 -5.146 10
-1.73 -11.259 -5.18 12
-1.318 -8.497 -3.403 8
-1.284 -8.209 -3.413 8
-1.261 -7.998 -3.477 12
-1.571 -9.867 -5.279 13
-1.533 -9.548 -5.3 38
-4.926 -37.965 -3.694 7
-4.363 -33.361 -3.485 22
-4.255 -32.325 -3.871 12
-4.007 -30.211 -3.975 6
-3.775 -28.275 -4.05 7
-3.571 -26.536 -4.11 5
-3.388 -25.02 -4.174 6
-3.232 -23.711 -4.249 5
-3.096 -22.535 -4.322 5
-2.961 -21.413 -4.373 33
-2.854 -20.453 -4.444 9
-2.747 -19.58 -4.516 9
-2.657 -18.791 -4.592 8
-2.563 -18.006 -4.643 8
-2.481 -17.286 -4.696 8
-2.401 -16.617 -4.749 8
-2.326 -15.97 -4.789 9
-2.26 -15.408 -4.851 8
-2.189 -14.824 -4.882 8
-2.129 -14.296 -4.924 8
-2.074 -13.823 -4.981 8
-2.019 -13.346 -5.019 7
-1.961 -12.865 -5.039 6
-1.914 -12.447 -5.083 9
-1.864 -12.032 -5.115 9
-1.818 -11.629 -5.143 9
-1.773 -11.255 -5.177 11
-1.351 -8.493 -3.4 4
-1.316 -8.209 -3.414 2
-1.285 -7.948 -3.437 5
-1.611 -9.87 -5.282 15
-1.571 -9.541 -5.294 39
-5.049 -37.996 -3.7 6
-4.47 -33.379 -3.488 28
-4.358 -32.328 -3.871 12
-4.104 -30.207 -3.974 7
-3.867 -28.279 -4.051 7
-3.658 -26.545 -4.113 5
-3.472 -25.029 -4.177 7
-3.312 -23.72 -4.252 6
-3.171 -22.533 -4.321 5
-3.034 -21.419 -4.375 16
-2.924 -20.456 -4.445 9
-2.814 -19.579 -4.516 9
-2.722 -18.791 -4.592 8
-2.626 -18.005 -4.643 7
-2.541 -17.286 -4.696 8
-2.459 -16.614 -4.747 8
-2.384 -15.974 -4.791 9
-2.314 -15.402 -4.848 8
-2.243 -14.825 -4.883 8
-2.182 -14.301 -4.927 8
-2.126 -13.831 -4.985 7
-2.069 -13.347 -5.02 7
-2.008 -12.863 -5.038 8
-1.96 -12.445 -5.082 9
-1.909 -12.027 -5.112 10
-1.863 -11.631 -5.144 8
-1.817 -11.257 -5.178 11
-1.773 -10.885 -5.202 11
-1.365 -8.312 -3.494 5
-1.315 -7.942 -3.431 4
-1.651 -9.869 -5.281 14
-1.61 -9.544 -5.297 36
-5.17 -38.013 -3.703 6
-4.579 -33.4 -3.492 23
-4.461 -32.333 -3.873 13
-4.203 -30.222 -3.977 7
-3.957 -28.271 -4.049 7
-3.745 -26.546 -4.113 5
-3.554 -25.03 -4.177 6
-3.392 -23.729 -4.255 6
-3.247 -22.539 -4.323 5
-3.108 -21.433 -4.38 14
-2.994 -20.458 -4.446 9
-2.881 -19.582 -4.517 9
-2.788 -18.797 -4.595 8
-2.688 -18.005 -4.643 8
-2.603 -17.293 -4.699 8
-2.518 -16.614 -4.747 8
-2.44 -15.97 -4.789 9
-2.371 -15.41 -4.852 8
-2.297 -14.829 -4.885 7
-2.234 -14.299 -4.926 8
-2.176 -13.826 -4.982 7
-2.119 -13.349 -5.021 7
-2.057 -12.864 -5.038 7
-2.008 -12.45 -5.085 9
-1.955 -12.028 -5.113 10
-1.907 -11.626 -5.141 8
-1.86 -11.255 -5.177 12
-1.817 -10.89 -5.206 12
-1.434 -8.524 -3.66 0
-1.348 -7.948 -3.436 1
-1.69 -9.865 -5.278 13
-1.649 -9.544 -5.296 38
-5.294 -38.044 -3.708 7
-4.687 -33.421 -3.496 29
-4.565 -32.34 -3.874 16
-4.301 -30.232 -3.98 7
-4.05 -28.278 -4.051 6
-3.835 -26.569 -4.119 5
-3.637 -25.034 -4.178 6
-3.47 -23.73 -4.255 6
-3.322 -22.54 -4.324 5
-3.181 -21.442 -4.383 12
-3.064 -20.464 -4.448 9
-2.949 -19.588 -4.519 9
-2.852 -18.792 -4.593 8
-2.751 -18.008 -4.644 8
-2.663 -17.293 -4.7 8
-2.577 -16.618 -4.749 8
-2.496 -15.968 -4.788 9
-2.425 -15.406 -4.85 8
-2.351 -14.827 -4.884 8
-2.286 -14.299 -4.926 8
-2.226 -13.823 -4.981 7
-2.168 -13.35 -5.021 7
-2.106 -12.869 -5.041 7
-2.054 -12.441 -5.079 9
-2.0 -12.027 -5.112 9
-1.952 -11.631 -5.144 9
-1.903 -11.25 -5.174 12
-1.859 -10.888 -5.205 12
-1.813 -10.532 -5.229 11
-1.483 -8.543 -3.918 3
-1.395 -7.96 -3.679 5
-1.687 -9.542 -5.295 40
-5.415 -38.055 -3.71 6
-4.794 -33.426 -3.497 22
-4.669 -32.345 -3.875 13
-4.401 -30.249 -3.984 7
-4.146 -28.312 -4.059 7
-3.923 -26.576 -4.121 5
-3.722 -25.05 -4.183 6
-3.551 -23.743 -4.259 6
-3.399 -22.549 -4.327 5
-3.256 -21.456 -4.388 12
-3.134 -20.466 -4.449 10
-3.015 -19.583 -4.517 9
-2.918 -18.799 -4.595 8
-2.814 -18.011 -4.645 8
-2.724 -17.296 -4.701 8
-2.636 -16.621 -4.75 8
-2.554 -15.971 -4.79 9
-2.48 -15.403 -4.848 8
-2.405 -14.827 -4.884 8
-2.338 -14.296 -4.925 8
-2.277 -13.823 -4.981 7
-2.217 -13.347 -5.02 7
-2.155 -12.873 -5.044 7
-2.101 -12.443 -5.08 9
-2.047 -12.028 -5.113 10
-1.997 -11.629 -5.142 9
-1.948 -11.256 -5.178 11
-1.901 -10.884 -5.201 12
-1.855 -10.534 -5.23 11
-1.811 -10.196 -5.256 13
-1.516 -8.451 -4.091 0
-1.488 -8.223 -4.148 1
-5.539 -38.086 -3.716 6
-4.901 -33.439 -3.5 22
-4.774 -32.355 -3.877 13
-4.5 -30.26 -3.986 6
-4.237 -28.304 -4.057 7
-4.011 -26.583 -4.123 4
-3.805 -25.054 -4.184 6
-3.63 -23.743 -4.259 5
-3.476 -22.558 -4.329 4
-3.328 -21.457 -4.388 11
-3.204 -20.468 -4.45 10
-3.083 -19.586 -4.518 9
-2.982 -18.797 -4.595 8
-2.878 -18.014 -4.646 7
-2.786 -17.299 -4.702 5
-2.694 -16.614 -4.747 8
-2.611 -15.97 -4.789 9
-2.536 -15.406 -4.85 7
-2.458 -14.828 -4.884 8
-2.39 -14.296 -4.925 8
-2.328 -13.821 -4.98 7
-2.267 -13.344 -5.018 7
-2.203 -12.874 -5.044 7
-2.149 -12.447 -5.083 9
-2.093 -12.029 -5.114 8
-2.042 -11.631 -5.144 8
-1.991 -11.25 -5.174 10
-1.943 -10.882 -5.2 12
-1.897 -10.533 -5.229 13
-1.852 -10.197 -5.258 13
-1.557 -8.493 -4.127 5
-1.476 -7.977 -3.934 4
-5.664 -38.12 -3.722 6
-5.009 -33.451 -3.502 21
-4.877 -32.356 -3.877 13
-4.597 -30.258 -3.986 7
-4.332 -28.325 -4.062 7
-4.099 -26.595 -4.126 5
-3.889 -25.065 -4.187 6
-3.708 -23.736 -4.257 5
-3.553 -22.57 -4.334 3
-3.401 -21.458 -4.388 9
-3.275 -20.477 -4.453 9
-3.15 -19.584 -4.518 9
-3.048 -18.804 -4.597 7
-2.941 -18.016 -4.647 7
-2.847 -17.302 -4.703 8
-2.754 -16.623 -4.752 8
-2.669 -15.978 -4.793 9
-2.591 -15.403 -4.848 8
-2.512 -14.828 -4.884 8
-2.443 -14.297 -4.925 9
-2.379 -13.822 -4.98 7
-2.316 -13.341 -5.016 7
-2.251 -12.871 -5.043 7
-2.196 -12.448 -5.084 9
-2.139 -12.031 -5.115 10
-2.086 -11.628 -5.142 7
-2.035 -11.252 -5.175 10
-1.986 -10.884 -5.202 11
-1.937 -10.528 -5.226 13
-1.892 -10.193 -5.254 12
-1.849 -9.864 -5.277 15
-1.548 -8.189 -4.118 4
-5.127 -33.789 -2.958 5
-5.115 -33.452 -3.502 19
-4.982 -32.364 -3.879 13
-4.699 -30.286 -3.992 7
-4.424 -28.328 -4.063 7
-4.188 -26.605 -4.129 5
-3.974 -25.08 -4.192 7
-3.788 -23.747 -4.26 5
-3.629 -22.571 -4.334 4
-3.474 -21.463 -4.39 10
-3.345 -20.479 -4.454 10
-3.219 -19.596 -4.522 10
-3.113 -18.802 -4.596 8
-3.003 -18.012 -4.646 8
-2.908 -17.301 -4.703 7
-2.813 -16.623 -4.752 8
-2.725 -15.973 -4.791 9
-2.646 -15.399 -4.846 7
-2.565 -14.824 -4.882 7
-2.494 -14.29 -4.921 9
-2.429 -13.815 -4.976 7
-2.366 -13.345 -5.019 7
-2.3 -12.876 -5.046 8
-2.243 -12.446 -5.082 9
-2.184 -12.025 -5.111 9
-2.131 -11.629 -5.143 6
-2.079 -11.253 -5.176 12
-2.03 -10.885 -5.202 11
-1.98 -10.53 -5.227 11
-1.932 -10.192 -5.253 13
-1.888 -9.862 -5.275 14
-1.658 -8.583 -4.461 2
-5.235 -33.802 -2.96 9
-5.225 -33.471 -3.506 27
-5.086 -32.368 -3.88 13
-4.798 -30.295 -3.994 7
-4.518 -28.337 -4.065 7
-4.274 -26.596 -4.126 5
-4.058 -25.087 -4.194 6
-3.871 -23.771 -4.267 6
-3.705 -22.571 -4.334 5
-3.547 -21.464 -4.391 11
-3.414 -20.472 -4.451 10
-3.287 -19.598 -4.523 19
-3.178 -18.8 -4.596 8
-3.066 -18.014 -4.646 7
-2.968 -17.296 -4.701 8
-2.871 -16.619 -4.75 8
-2.783 -15.973 -4.791 9
-2.702 -15.402 -4.848 7
-2.619 -14.82 -4.88 8
-2.547 -14.294 -4.923 9
-2.48 -13.815 -4.976 7
-2.416 -13.346 -5.019 7
-2.348 -12.873 -5.044 7
-2.29 -12.446 -5.082 9
-2.23 -12.026 -5.112 10
-2.176 -11.627 -5.141 5
-2.122 -11.248 -5.172 11
-2.072 -10.884 -5.201 10
-2.021 -10.528 -5.226 12
-1.973 -10.194 -5.255 12
-1.927 -9.858 -5.272 14
-1.882 -9.54 -5.293 38
-5.351 -33.864 -2.971 17
-5.333 -33.483 -3.508 21
-5.19 -32.368 -3.88 12
-4.897 -30.3 -3.995 6
-4.614 -28.358 -4.071 7
-4.365 -26.621 -4.133 5
-4.142 -25.09 -4.195 7
-3.95 -23.766 -4.266 5
-3.781 -22.571 -4.334 5
-3.62 -21.468 -4.392 10
-3.486 -20.484 -4.456 9
-3.352 -19.588 -4.519 35
-3.244 -18.806 -4.598 8
-3.128 -18.008 -4.644 7
-3.028 -17.294 -4.7 8
-2.932 -16.624 -4.752 8
-2.84 -15.976 -4.792 9
-2.757 -15.398 -4.846 7
-2.673 -14.823 -4.882 7
-2.599 -14.294 -4.923 9
-2.532 -13.819 -4.978 7
-2.465 -13.343 -5.017 8
-2.396 -12.87 -5.042 8
-2.337 -12.443 -5.081 10
-2.276 -12.026 -5.112 9
-2.221 -11.628 -5.142 6
-2.166 -11.249 -5.173 12
-2.114 -10.881 -5.2 10
-2.062 -10.526 -5.224 12
-2.013 -10.189 -5.251 12
-1.968 -9.862 -5.275 14
-1.92 -9.539 -5.292 36
-5.415 -33.595 -2.924 26
-5.44 -33.49 -3.51 21
-5.295 -32.376 -3.882 12
-4.996 -30.308 -3.997 7
-4.709 -28.375 -4.075 7
-4.454 -26.628 -4.135 5
-4.226 -25.096 -4.196 6
-4.032 -23.781 -4.271 6
-3.858 -22.579 -4.336 5
-3.695 -21.476 -4.395 10
-3.556 -20.485 -4.456 9
-3.419 -19.586 -4.518 41
-3.309 -18.803 -4.597 7
-3.192 -18.014 -4.646 7
-3.09 -17.301 -4.703 8
-2.99 -16.62 -4.75 8
-2.897 -15.975 -4.792 9
-2.813 -15.397 -4.845 7
-2.727 -14.823 -4.881 8
-2.652 -14.293 -4.923 9
-2.583 -13.819 -4.978 7
-2.516 -13.347 -5.019 8
-2.445 -12.873 -5.044 8
-2.384 -12.443 -5.081 9
-2.321 -12.02 -5.108 9
-2.267 -11.632 -5.145 10
-2.21 -11.25 -5.174 11
-2.158 -10.882 -5.2 11
-2.105 -10.527 -5.225 13
-2.055 -10.193 -5.254 11
-2.008 -9.861 -5.274 14
-1.958 -9.535 -5.288 30
-5.517 -33.571 -2.919 15
-5.551 -33.516 -3.515 29
-5.399 -32.379 -3.882 12
-5.096 -30.32 -4.0 6
-4.801 -28.376 -4.075 8
-4.543 -26.641 -4.138 5
-4.312 -25.114 -4.201 7
-4.111 -23.784 -4.271 6
-3.937 -22.597 -4.342 5
-3.768 -21.48 -4.396 9
-3.627 -20.489 -4.457 9
-3.488 -19.591 -4.52 32
-3.375 -18.808 -4.599 8
-3.255 -18.012 -4.646 7
-3.15 -17.292 -4.699 8
-3.049 -16.618 -4.749 8
-2.954 -15.973 -4.791 9
-2.867 -15.393 -4.843 8
-2.781 -14.823 -4.881 8
-2.704 -14.289 -4.921 9
-2.634 -13.819 -4.978 8
-2.565 -13.34 -5.015 8
-2.493 -12.87 -5.042 8
-2.431 -12.441 -5.079 9
-2.368 -12.025 -5.111 10
-2.311 -11.627 -5.141 10
-2.254 -11.25 -5.174 10
-2.201 -10.884 -5.201 11
-2.147 -10.528 -5.225 11
-2.095 -10.188 -5.25 12
-2.047 -9.856 -5.271 14
-1.998 -9.536 -5.289 36
-5.595 -33.406 -2.89 28
-5.657 -33.507 -3.513 21
-5.504 -32.382 -3.883 12
-5.198 -30.343 -4.005 7
-4.896 -28.388 -4.078 7
-4.634 -26.657 -4.143 5
-4.395 -25.113 -4.201 6
-4.193 -23.794 -4.275 5
-4.014 -22.6 -4.343 5
-3.841 -21.48 -4.396 9
-3.698 -20.493 -4.459 9
-3.555 -19.587 -4.519 15
-3.441 -18.809 -4.599 8
-3.318 -18.013 -4.646 7
-3.213 -17.3 -4.702 8
-3.108 -16.62 -4.75 7
-3.012 -15.972 -4.79 9
-2.924 -15.396 -4.844 8
-2.834 -14.815 -4.877 8
-2.756 -14.289 -4.92 8
-2.685 -13.818 -4.978 8
-2.615 -13.342 -5.017 8
-2.541 -12.867 -5.04 8
-2.479 -12.445 -5.082 9
-2.414 -12.025 -5.111 9
-2.356 -11.627 -5.141 10
-2.297 -11.248 -5.172 11
-2.243 -10.881 -5.2 11
-2.189 -10.529 -5.226 11
-2.136 -10.189 -5.251 12
-2.087 -9.858 -5.272 14
-2.036 -9.534 -5.288 36
-5.743 -33.65 -2.933 2
-5.766 -33.521 -3.516 21
-5.61 -32.393 -3.885 12
-5.298 -30.354 -4.008 6
-4.99 -28.396 -4.08 7
-4.723 -26.662 -4.144 5
-4.481 -25.126 -4.205 7
-4.273 -23.796 -4.275 5
-4.089 -22.596 -4.342 5
-3.915 -21.483 -4.397 10
-3.768 -20.493 -4.459 8
-3.626 -19.607 -4.526 10
-3.507 -18.813 -4.601 8
-3.382 -18.018 -4.648 7
-3.273 -17.294 -4.7 8
-3.168 -16.622 -4.751 8
-3.069 -15.97 -4.789 9
-2.979 -15.394 -4.844 7
-2.888 -14.814 -4.877 8
-2.808 -14.284 -4.918 8
-2.736 -13.814 -4.976 7
-2.666 -13.346 -5.019 8
-2.59 -12.867 -5.04 8
-2.526 -12.441 -5.079 9
-2.46 -12.022 -5.109 9
-2.4 -11.621 -5.137 10
-2.342 -11.248 -5.172 10
-2.286 -10.882 -5.2 11
-2.231 -10.53 -5.227 12
-2.177 -10.187 -5.249 14
-2.127 -9.856 -5.27 13
-2.076 -9.536 -5.289 34
-6.665 -38.342 -3.761 6
-5.877 -33.543 -3.52 22
-5.715 -32.399 -3.887 14
-5.399 -30.369 -4.011 7
-5.087 -28.416 -4.085 7
-4.814 -26.682 -4.149 5
-4.565 -25.132 -4.206 5
-4.355 -23.81 -4.279 6
-4.167 -22.606 -4.345 5
-3.99 -21.494 -4.401 9
-3.84 -20.501 -4.462 9
-3.695 -19.611 -4.528 8
-3.573 -18.814 -4.601 8
-3.445 -18.015 -4.647 7
-3.334 -17.296 -4.701 8
-3.227 -16.62 -4.75 8
-3.126 -15.969 -4.788 9
-3.035 -15.393 -4.843 7
-2.942 -14.812 -4.876 9
-2.862 -14.29 -4.921 8
-2.788 -13.817 -4.977 7
-2.715 -13.342 -5.017 7
-2.638 -12.867 -5.04 8
-2.574 -12.441 -5.08 10
-2.506 -12.022 -5.109 9
-2.446 -11.628 -5.142 11
-2.386 -11.249 -5.173 11
-2.328 -10.876 -5.196 13
-2.273 -10.528 -5.226 12
-2.217 -10.182 -5.245 11
-2.167 -9.857 -5.271 12
-2.115 -9.537 -5.29 33
-6.789 -38.358 -3.763 6
-5.989 -33.571 -3.526 28
-5.821 -32.409 -3.889 14
-5.503 -30.395 -4.017 6
-5.182 -28.427 -4.088 7
-4.904 -26.691 -4.152 5
-4.65 -25.137 -4.208 6
-4.435 -23.812 -4.28 6
-4.247 -22.624 -4.351 4
-4.063 -21.493 -4.401 9
-3.911 -20.505 -4.463 9
-3.762 -19.611 -4.528 9
-3.639 -18.815 -4.602 8
-3.509 -18.02 -4.649 5
-3.396 -17.297 -4.701 8
-3.287 -16.625 -4.753 8
-3.183 -15.967 -4.788 9
-3.091 -15.395 -4.844 7
-2.997 -14.815 -4.877 8
-2.914 -14.286 -4.919 9
-2.838 -13.813 -4.975 7
-2.764 -13.334 -5.012 8
-2.687 -12.866 -5.04 8
-2.62 -12.437 -5.077 9
-2.553 -12.022 -5.109 9
-2.49 -11.621 -5.137 10
-2.428 -11.24 -5.166 11
-2.371 -10.876 -5.196 11
-2.315 -10.532 -5.228 11
-2.259 -10.186 -5.249 12
-2.206 -9.852 -5.266 13
-2.153 -9.532 -5.286 28
-6.918 -38.399 -3.771 7
-6.093 -33.553 -3.522 32
-5.926 -32.41 -3.889 14
-5.606 -30.42 -4.023 6
-5.276 -28.435 -4.09 7
-4.993 -26.699 -4.154 5
-4.736 -25.149 -4.211 6
-4.517 -23.821 -4.283 6
-4.324 -22.626 -4.352 5
-4.138 -21.504 -4.404 8
-3.982 -20.508 -4.464 9
-3.833 -19.622 -4.532 9
-3.706 -18.823 -4.605 8
-3.572 -18.016 -4.648 7
-3.457 -17.294 -4.7 8
-3.346 -16.623 -4.751 8
-3.242 -15.972 -4.79 9
-3.146 -15.389 -4.841 7
-3.051 -14.813 -4.876 8
-2.967 -14.289 -4.92 8
-2.89 -13.812 -4.974 7
-2.815 -13.34 -5.016 8
-2.736 -12.866 -5.04 8
-2.669 -12.441 -5.079 9
-2.599 -12.022 -5.109 9
-2.536 -11.625 -5.14 10
-2.474 -11.247 -5.171 10
-2.415 -10.878 -5.197 12
-2.355 -10.52 -5.219 12
-2.299 -10.183 -5.246 14
-2.248 -9.858 -5.272 14
-2.193 -9.533 -5.287 35
-7.044 -38.421 -3.775 7
-6.207 -33.589 -3.529 23
-6.031 -32.412 -3.889 14
-5.709 -30.438 -4.027 7
-5.372 -28.445 -4.092 7
-5.084 -26.71 -4.157 4
-4.821 -25.153 -4.213 7
-4.598 -23.827 -4.285 6
-4.403 -22.636 -4.355 5
-4.213 -21.509 -4.406 8
-4.054 -20.514 -4.467 9
-3.9 -19.617 -4.53 8
-3.772 -18.823 -4.605 8
-3.636 -18.017 -4.648 7
-3.519 -17.295 -4.7 8
-3.405 -16.617 -4.749 8
-3.299 -15.97 -4.789 9
-3.201 -15.384 -4.839 8
-3.106 -14.818 -4.879 8
-3.019 -14.284 -4.918 8
-2.941 -13.81 -4.973 7
-2.864 -13.332 -5.011 8
-2.784 -12.862 -5.037 8
-2.717 -12.444 -5.081 9
-2.645 -12.018 -5.106 10
-2.581 -11.621 -5.137 10
-2.517 -11.244 -5.169 10
-2.457 -10.875 -5.195 11
-2.398 -10.523 -5.222 12
-2.34 -10.181 -5.244 13
-2.287 -9.853 -5.268 13
-2.232 -9.531 -5.285 35
-7.174 -38.461 -3.782 6
-6.322 -33.628 -3.537 22
-6.137 -32.421 -3.891 13
-5.81 -30.448 -4.029 6
-5.468 -28.46 -4.096 7
-5.173 -26.714 -4.158 4
-4.907 -25.166 -4.216 6
-4.68 -23.835 -4.287 6
-4.48 -22.637 -4.355 4
-4.288 -21.515 -4.408 10
-4.125 -20.517 -4.468 12
-3.969 -19.621 -4.532 9
-3.838 -18.823 -4.605 8
-3.701 -18.025 -4.651 7
-3.581 -17.299 -4.702 8
-3.465 -16.621 -4.75 8
-3.358 -15.975 -4.792 9
-3.258 -15.386 -4.839 7
-3.16 -14.813 -4.876 8
-3.072 -14.282 -4.917 9
-2.993 -13.813 -4.975 7
-2.915 -13.339 -5.015 7
-2.833 -12.861 -5.037 8
-2.764 -12.44 -5.078 9
-2.692 -12.022 -5.109 9
-2.626 -11.621 -5.137 10
-2.561 -11.241 -5.167 11
-2.5 -10.875 -5.195 11
-2.44 -10.524 -5.222 9
-2.381 -10.181 -5.245 12
-2.326 -9.848 -5.263 14
-2.27 -9.525 -5.28 35
-7.305 -38.506 -3.79 7
-6.432 -33.64 -3.539 22
-6.244 -32.429 -3.893 14
-5.914 -30.472 -4.035 6
-5.562 -28.462 -4.096 7
-5.265 -26.733 -4.163 5
-4.993 -25.174 -4.218 6
-4.763 -23.852 -4.292 6
-4.558 -22.643 -4.357 4
-4.362 -21.521 -4.41 9
-4.194 -20.509 -4.465 33
-4.038 -19.628 -4.534 9
-3.904 -18.825 -4.606 8
-3.764 -18.021 -4.649 6
-3.641 -17.292 -4.699 8
-3.526 -16.625 -4.753 7
-3.414 -15.969 -4.788 9
-3.314 -15.387 -4.84 7
-3.214 -14.815 -4.877 8
-3.125 -14.284 -4.918 9
-3.045 -13.815 -4.976 7
-2.966 -13.341 -5.016 7
-2.882 -12.863 -5.038 8
-2.811 -12.435 -5.076 10
-2.737 -12.014 -5.104 10
-2.672 -11.624 -5.139 10
-2.606 -11.243 -5.169 10
-2.544 -10.874 -5.194 11
-2.482 -10.521 -5.22 11
-2.422 -10.179 -5.243 13
-2.367 -9.851 -5.266 13
-2.309 -9.526 -5.281 29
-7.43 -38.518 -3.792 6
-6.537 -33.625 -3.536 34
-6.348 -32.425 -3.892 14
-6.015 -30.481 -4.037 6
-5.658 -28.476 -4.1 7
-5.355 -26.739 -4.165 5
-5.079 -25.185 -4.222 6
-4.845 -23.856 -4.294 6
-4.635 -22.644 -4.357 5
-4.437 -21.527 -4.412 10
-4.265 -20.511 -4.465 24
-4.106 -19.623 -4.533 8
-3.97 -18.825 -4.606 8
-3.829 -18.028 -4.653 7
-3.704 -17.3 -4.702 8
-3.585 -16.623 -4.751 8
-3.472 -15.97 -4.789 8
-3.37 -15.388 -4.84 7
-3.269 -14.817 -4.878 8
-3.178 -14.282 -4.917 8
-3.097 -13.813 -4.975 8
-3.015 -13.333 -5.011 8
-2.932 -12.866 -5.04 7
-2.859 -12.438 -5.077 10
-2.785 -12.02 -5.108 10
-2.716 -11.617 -5.135 9
-2.649 -11.24 -5.166 9
-2.587 -10.875 -5.195 11
-2.524 -10.521 -5.22 13
-2.463 -10.179 -5.243 12
-2.406 -9.846 -5.261 14
-2.348 -9.524 -5.279 38
-7.565 -38.581 -3.803 6
-6.654 -33.667 -3.544 22
-6.454 -32.429 -3.893 14
-6.117 -30.493 -4.04 6
-5.753 -28.481 -4.101 6
-5.448 -26.757 -4.17 5
-5.166 -25.196 -4.225 6
-4.926 -23.86 -4.295 6
-4.714 -22.653 -4.36 5
-4.512 -21.533 -4.414 9
-4.338 -20.517 -4.467 24
-4.176 -19.633 -4.536 8
-4.036 -18.821 -4.604 8
-3.892 -18.024 -4.651 7
-3.766 -17.3 -4.702 8
-3.644 -16.619 -4.75 8
-3.531 -15.974 -4.791 9
-3.428 -15.392 -4.843 7
-3.323 -14.81 -4.875 8
-3.231 -14.28 -4.916 9
-3.149 -13.815 -4.976 8
-3.066 -13.338 -5.014 7
-2.98 -12.862 -5.037 8
-2.907 -12.437 -5.077 10
-2.831 -12.02 -5.107 10
-2.761 -11.617 -5.134 10
-2.694 -11.24 -5.166 12
-2.63 -10.875 -5.195 12
-2.566 -10.521 -5.22 10
-2.503 -10.174 -5.239 12
-2.447 -9.849 -5.264 12
-2.388 -9.524 -5.279 32
-7.691 -38.597 -3.806 6
-6.766 -33.685 -3.548 18
-6.56 -32.433 -3.894 14
-6.222 -30.517 -4.045 6
-5.852 -28.506 -4.107 7
-5.538 -26.764 -4.171 5
-5.252 -25.203 -4.227 6
-5.009 -23.872 -4.298 6
-4.794 -22.668 -4.365 5
-4.588 -21.542 -4.417 10
-4.407 -20.511 -4.465 19
-4.246 -19.638 -4.538 9
-4.103 -18.827 -4.607 8
-3.956 -18.024 -4.651 7
-3.827 -17.296 -4.701 8
-3.705 -16.623 -4.752 8
-3.589 -15.971 -4.789 9
-3.484 -15.393 -4.843 7
-3.378 -14.815 -4.877 8
-3.283 -14.275 -4.913 9
-3.2 -13.81 -4.973 8
-3.117 -13.336 -5.013 7
-3.028 -12.857 -5.034 8
-2.954 -12.433 -5.074 9
-2.877 -12.016 -5.105 9
-2.807 -11.62 -5.136 9
-2.737 -11.237 -5.164 10
-2.673 -10.871 -5.192 11
-2.608 -10.518 -5.217 10
-2.544 -10.173 -5.238 12
-2.486 -9.843 -5.259 13
-2.427 -9.525 -5.28 34
-7.825 -38.647 -3.815 7
-6.883 -33.726 -3.556 19
-6.668 -32.443 -3.896 14
-6.325 -30.533 -4.049 6
-5.952 -28.53 -4.113 7
-5.632 -26.785 -4.177 4
-5.34 -25.218 -4.231 5
-5.09 -23.871 -4.298 6
-4.873 -22.672 -4.367 5
-4.662 -21.539 -4.416 7
-4.481 -20.52 -4.469 11
-4.314 -19.637 -4.538 9
-4.171 -18.833 -4.609 8
-4.019 -18.019 -4.649 7
-3.89 -17.3 -4.702 8
-3.765 -16.623 -4.752 8
-3.646 -15.968 -4.788 8
-3.542 -15.397 -4.845 7
-3.433 -14.816 -4.878 7
-3.337 -14.279 -4.915 8
-3.251 -13.808 -4.972 6
-3.166 -13.331 -5.01 7
-3.079 -12.866 -5.039 8
-3.001 -12.432 -5.073 10
-2.924 -12.014 -5.104 10
-2.851 -11.612 -5.131 10
-2.781 -11.236 -5.163 11
-2.717 -10.874 -5.194 11
-2.651 -10.521 -5.22 11
-2.587 -10.177 -5.241 10
-2.526 -9.844 -5.26 14
-2.466 -9.522 -5.277 32
-7.957 -38.69 -3.822 6
-6.992 -33.724 -3.555 31
-6.773 -32.442 -3.896 14
-6.428 -30.545 -4.052 6
-6.046 -28.531 -4.114 7
-5.723 -26.794 -4.179 5
-5.426 -25.224 -4.233 6
-5.176 -23.894 -4.305 6
-4.953 -22.684 -4.371 5
-4.738 -21.547 -4.419 8
-4.555 -20.536 -4.474 9
-4.384 -19.639 -4.539 9
-4.236 -18.828 -4.607 8
-4.086 -18.033 -4.655 7
-3.953 -17.306 -4.705 5
-3.825 -16.623 -4.751 8
-3.705 -15.971 -4.79 9
-3.599 -15.397 -4.845 8
-3.489 -14.82 -4.88 7
-3.391 -14.28 -4.916 9
-3.303 -13.809 -4.973 6
-3.218 -13.337 -5.013 7
-3.126 -12.857 -5.034 9
-3.048 -12.427 -5.07 9
-2.97 -12.014 -5.103 9
-2.897 -11.615 -5.133 10
-2.827 -11.238 -5.165 9
-2.759 -10.867 -5.189 11
-2.692 -10.514 -5.215 11
-2.628 -10.177 -5.241 11
-2.566 -9.841 -5.258 13
-2.505 -9.523 -5.278 33
-8.087 -38.716 -3.827 6
-7.094 -33.696 -3.55 23
-6.881 -32.452 -3.898 15
-6.532 -30.563 -4.056 6
-6.144 -28.547 -4.118 6
-5.813 -26.796 -4.18 4
-5.514 -25.239 -4.237 6
-5.258 -23.897 -4.306 5
-5.034 -22.699 -4.375 4
-4.814 -21.555 -4.422 11
-4.627 -20.538 -4.475 9
-4.454 -19.648 -4.542 9
-4.304 -18.834 -4.609 8
-4.15 -18.029 -4.653 7
-4.013 -17.294 -4.7 7
-3.885 -16.623 -4.751 7
-3.764 -15.975 -4.792 8
-3.655 -15.398 -4.846 8
-3.544 -14.818 -4.879 8
-3.443 -14.278 -4.914 9
-3.355 -13.806 -4.971 6
-3.266 -13.328 -5.008 8
-3.177 -12.862 -5.037 8
-3.097 -12.432 -5.074 10
-3.017 -12.012 -5.102 10
-2.944 -11.617 -5.134 10
-2.87 -11.234 -5.162 10
-2.802 -10.866 -5.188 11
-2.735 -10.517 -5.217 13
-2.669 -10.173 -5.238 13
-2.606 -9.841 -5.257 13
-2.544 -9.52 -5.276 33
-8.221 -38.765 -3.835 7
-7.189 -33.629 -3.537 22
-6.988 -32.456 -3.899 16
-6.636 -30.577 -4.059 6
-6.241 -28.555 -4.12 7
-5.905 -26.809 -4.183 5
-5.602 -25.252 -4.241 6
-5.34 -23.903 -4.308 5
-5.11 -22.695 -4.374 5
-4.888 -21.556 -4.422 15
-4.7 -20.542 -4.477 9
-4.524 -19.65 -4.543 9
-4.371 -18.836 -4.61 8
-4.214 -18.03 -4.653 7
-4.077 -17.301 -4.703 8
-3.946 -16.625 -4.753 8
-3.823 -15.975 -4.792 9
-3.713 -15.402 -4.848 8
-3.598 -14.815 -4.877 8
-3.497 -14.279 -4.915 9
-3.407 -13.805 -4.97 8
-3.318 -13.332 -5.011 8
-3.227 -12.863 -5.038 8
-3.145 -12.431 -5.073 9
-3.062 -12.007 -5.099 10
-2.988 -11.612 -5.131 10
-2.915 -11.237 -5.164 9
-2.846 -10.869 -5.19 11
-2.778 -10.52 -5.219 13
-2.709 -10.17 -5.236 12
-2.646 -9.838 -5.255 13
-2.585 -9.523 -5.278 34
-8.356 -38.809 -3.843 7
-7.303 -33.652 -3.541 13
-7.095 -32.461 -3.9 16
-6.74 -30.596 -4.064 6
-6.341 -28.579 -4.125 7
-5.997 -26.818 -4.186 5
-5.689 -25.261 -4.243 7
-5.425 -23.918 -4.312 6
-5.19 -22.702 -4.376 5
-4.961 -21.548 -4.42 28
-4.771 -20.543 -4.477 10
-4.593 -19.651 -4.543 9
-4.438 -18.838 -4.611 7
-4.28 -18.036 -4.656 7
-4.139 -17.3 -4.702 8
-4.007 -16.629 -4.754 5
-3.879 -15.968 -4.788 9
-3.769 -15.398 -4.846 8
-3.653 -14.815 -4.877 8
-3.551 -14.283 -4.917 9
-3.458 -13.802 -4.969 8
-3.368 -13.33 -5.009 7
-3.275 -12.858 -5.035 8
-3.193 -12.429 -5.072 9
-3.11 -12.009 -5.1 10
-3.035 -11.615 -5.133 10
-2.958 -11.23 -5.159 10
-2.889 -10.865 -5.188 11
-2.82 -10.516 -5.216 12
-2.752 -10.173 -5.238 11
-2.688 -9.841 -5.257 14
-2.621 -9.511 -5.268 28
-7.299 -33.404 -2.89 5
-7.419 -33.681 -3.547 17
-7.202 -32.466 -3.901 15
-6.844 -30.61 -4.067 6
-6.436 -28.578 -4.125 7
-6.092 -26.838 -4.191 5
-5.777 -25.27 -4.246 7
-5.509 -23.927 -4.315 5
-5.269 -22.705 -4.377 5
-5.037 -21.552 -4.421 20
-4.844 -20.548 -4.479 9
-4.663 -19.655 -4.545 9
-4.506 -18.842 -4.613 7
-4.343 -18.031 -4.654 7
-4.201 -17.299 -4.702 7
-4.068 -16.631 -4.755 4
-3.939 -15.974 -4.791 9
-3.826 -15.401 -4.847 8
-3.707 -14.812 -4.875 8
-3.604 -14.276 -4.913 8
-3.511 -13.806 -4.971 7
-3.42 -13.331 -5.01 7
-3.324 -12.856 -5.033 8
-3.242 -12.43 -5.072 9
-3.156 -12.004 -5.097 10
-3.08 -11.614 -5.132 10
-3.004 -11.235 -5.163 10
-2.933 -10.867 -5.189 10
-2.862 -10.513 -5.213 12
-2.793 -10.173 -5.238 11
-2.726 -9.834 -5.252 13
-2.662 -9.514 -5.271 36
-8.627 -38.905 -3.86 7
-7.519 -33.639 -3.539 30
-7.309 -32.467 -3.901 16
-6.95 -30.631 -4.072 6
-6.538 -28.612 -4.134 7
-6.183 -26.841 -4.192 5
-5.864 -25.279 -4.249 6
-5.592 -23.937 -4.318 6
-5.351 -22.723 -4.383 4
-5.115 -21.567 -4.426 13
-4.918 -20.555 -4.482 9
-4.733 -19.656 -4.545 9
-4.573 -18.841 -4.612 7
-4.409 -18.036 -4.656 8
-4.265 -17.304 -4.704 7
-4.128 -16.626 -4.753 8
-3.997 -15.97 -4.789 9
-3.883 -15.401 -4.847 8
-3.763 -14.812 -4.875 8
-3.656 -14.274 -4.912 9
-3.564 -13.807 -4.971 7
-3.47 -13.328 -5.009 8
-3.373 -12.854 -5.032 8
-3.29 -12.432 -5.073 10
-3.204 -12.01 -5.101 10
-3.126 -11.612 -5.131 10
-3.048 -11.23 -5.159 12
-2.977 -10.867 -5.189 10
-2.904 -10.512 -5.213 11
-2.834 -10.168 -5.234 12
-2.767 -9.834 -5.252 14
-2.7 -9.511 -5.268 34
-8.761 -38.944 -3.867 6
-7.653 -33.747 -3.56 22
-7.416 -32.472 -3.902 15
-7.055 -30.644 -4.075 6
-6.634 -28.612 -4.134 7
-6.276 -26.857 -4.196 5
-5.953 -25.291 -4.252 7
-5.676 -23.943 -4.32 6
-5.428 -22.718 -4.382 5
-5.194 -21.585 -4.432 7
-4.99 -20.555 -4.482 9
-4.802 -19.656 -4.545 8
-4.641 -18.845 -4.614 8
-4.475 -18.042 -4.658 7
-4.329 -17.31 -4.707 8
-4.19 -16.633 -4.756 8
-4.056 -15.972 -4.79 8
-3.939 -15.398 -4.845 8
-3.817 -14.808 -4.874 7
-3.71 -14.274 -4.912 9
-3.616 -13.807 -4.971 7
-3.522 -13.333 -5.011 5
-3.422 -12.855 -5.033 8
-3.337 -12.426 -5.07 9
-3.25 -12.004 -5.097 10
-3.171 -11.61 -5.129 10
-3.093 -11.229 -5.158 11
-3.018 -10.859 -5.183 11
-2.947 -10.511 -5.212 12
-2.875 -10.168 -5.234 11
-2.809 -9.839 -5.256 13
-2.74 -9.511 -5.268 34
-8.9 -39.002 -3.877 7
-7.753 -33.705 -3.552 31
-7.525 -32.481 -3.904 14
-7.163 -30.672 -4.081 6
-6.731 -28.617 -4.135 7
-6.373 -26.883 -4.203 4
-6.041 -25.304 -4.256 6
-5.76 -23.955 -4.324 6
-5.509 -22.728 -4.385 5
-5.271 -21.592 -4.435 7
-5.064 -20.562 -4.484 9
-4.874 -19.664 -4.548 6
-4.707 -18.843 -4.613 8
-4.539 -18.04 -4.657 7
-4.392 -17.312 -4.708 8
-4.251 -16.634 -4.757 7
-4.116 -15.975 -4.792 8
-3.997 -15.4 -4.847 8
-3.872 -14.808 -4.874 8
-3.763 -14.27 -4.91 9
-3.668 -13.804 -4.97 8
-3.572 -13.33 -5.009 5
-3.472 -12.855 -5.033 8
-3.385 -12.424 -5.068 10
-3.297 -12.006 -5.098 10
-3.215 -11.602 -5.124 10
-3.138 -11.231 -5.16 10
-3.064 -10.864 -5.187 11
-2.988 -10.507 -5.209 13
-2.917 -10.168 -5.234 12
-2.849 -9.836 -5.253 14
-2.779 -9.507 -5.265 30
-9.033 -39.034 -3.883 7
-7.891 -33.827 -3.575 16
-7.631 -32.477 -3.903 13
-7.27 -30.697 -4.087 6
-6.834 -28.651 -4.143 7
-6.463 -26.88 -4.202 4
-6.13 -25.316 -4.259 7
-5.844 -23.96 -4.325 6
-5.59 -22.741 -4.389 5
-5.349 -21.605 -4.439 8
-5.138 -20.569 -4.486 10
-4.943 -19.665 -4.549 5
-4.775 -18.843 -4.613 7
-4.605 -18.041 -4.658 7
-4.454 -17.31 -4.707 8
-4.311 -16.633 -4.756 8
-4.174 -15.973 -4.791 9
-4.055 -15.403 -4.848 8
-3.928 -14.807 -4.873 8
-3.818 -14.273 -4.912 9
-3.722 -13.807 -4.971 8
-3.624 -13.331 -5.01 5
-3.521 -12.85 -5.029 7
-3.433 -12.421 -5.067 9
-3.344 -12.004 -5.096 10
-3.263 -11.61 -5.129 10
-3.182 -11.225 -5.156 11
-3.107 -10.863 -5.186 11
-3.031 -10.506 -5.208 12
-2.958 -10.167 -5.233 12
-2.891 -9.838 -5.255 12
-2.819 -9.507 -5.264 25
-9.175 -39.098 -3.894 7
-8.03 -33.948 -3.599 21
-7.74 -32.484 -3.905 12
-7.376 -30.713 -4.091 6
-6.932 -28.66 -4.146 7
-6.558 -26.898 -4.207 4
-6.217 -25.316 -4.259 6
-5.928 -23.969 -4.328 6
-5.669 -22.739 -4.388 5
-5.425 -21.608 -4.44 7
-5.212 -20.576 -4.489 9
-5.016 -19.675 -4.553 4
-4.842 -18.844 -4.613 5
-4.669 -18.038 -4.657 8
-4.516 -17.307 -4.706 8
-4.373 -16.634 -4.757 7
-4.233 -15.972 -4.79 9
-4.112 -15.401 -4.847 8
-3.984 -14.81 -4.875 8
-3.872 -14.273 -4.912 8
-3.772 -13.801 -4.968 8
-3.674 -13.327 -5.008 6
-3.571 -12.854 -5.032 8
-3.482 -12.423 -5.067 10
-3.392 -12.004 -5.097 10
-3.309 -11.608 -5.128 10
-3.226 -11.224 -5.155 10
-3.151 -10.862 -5.185 11
-3.072 -10.501 -5.204 13
-2.998 -10.16 -5.227 12
-2.93 -9.834 -5.252 13
-2.859 -9.509 -5.266 21
-9.307 -39.121 -3.898 7
-8.163 -34.039 -3.616 23
-7.848 -32.492 -3.906 11
-7.485 -30.74 -4.097 6
-7.034 -28.681 -4.151 7
-6.654 -26.919 -4.213 5
-6.306 -25.327 -4.263 6
-6.012 -23.974 -4.329 5
-5.751 -22.752 -4.392 4
-5.504 -21.621 -4.445 8
-5.286 -20.582 -4.491 9
-5.085 -19.672 -4.551 4
-4.911 -18.851 -4.616 8
-4.733 -18.035 -4.655 8
-4.58 -17.312 -4.708 8
-4.434 -16.636 -4.758 8
-4.292 -15.974 -4.791 8
-4.168 -15.397 -4.845 8
-4.038 -14.806 -4.872 8
-3.928 -14.279 -4.915 8
-3.826 -13.804 -4.97 8
-3.724 -13.324 -5.006 8
-3.62 -12.851 -5.03 8
-3.53 -12.42 -5.066 10
-3.438 -12.002 -5.096 10
-3.355 -11.606 -5.127 9
-3.272 -11.225 -5.156 11
-3.193 -10.856 -5.181 10
-3.117 -10.506 -5.208 12
-3.042 -10.164 -5.231 12
-2.971 -9.833 -5.251 14
-2.899 -9.508 -5.265 22
-9.447 -39.173 -3.907 7
-8.274 -34.037 -3.616 36
-7.957 -32.498 -3.908 15
-7.589 -30.747 -4.099 6
-7.135 -28.701 -4.156 7
-6.748 -26.929 -4.216 5
-6.399 -25.353 -4.27 7
-6.096 -23.982 -4.332 5
-5.835 -22.771 -4.399 4
-5.58 -21.623 -4.445 8
-5.359 -20.585 -4.492 9
-5.156 -19.678 -4.554 5
-4.98 -18.855 -4.618 6
-4.799 -18.039 -4.657 7
-4.642 -17.306 -4.705 8
-4.494 -16.631 -4.755 8
-4.354 -15.983 -4.796 8
-4.227 -15.402 -4.848 8
-4.094 -14.805 -4.872 8
-3.98 -14.272 -4.911 7
-3.879 -13.804 -4.97 8
-3.777 -13.327 -5.008 7
-3.669 -12.844 -5.026 8
-3.579 -12.424 -5.068 8
-3.485 -12.0 -5.094 10
-3.4 -11.604 -5.125 10
-3.317 -11.226 -5.156 11
-3.238 -10.858 -5.182 11
-3.158 -10.502 -5.205 12
-3.084 -10.166 -5.232 12
-3.012 -9.833 -5.251 12
-2.938 -9.505 -5.262 16
-9.595 -39.26 -3.923 12
-8.394 -34.07 -3.622 30
-8.065 -32.501 -3.908 14
-7.7 -30.781 -4.106 6
-7.234 -28.71 -4.158 7
-6.841 -26.939 -4.218 5
-6.489 -25.367 -4.274 6
-6.183 -23.997 -4.337 5
-5.913 -22.769 -4.398 5
-5.658 -21.629 -4.447 10
-5.434 -20.595 -4.496 9
-5.226 -19.678 -4.554 8
-5.048 -18.854 -4.617 5
-4.867 -18.046 -4.66 7
-4.704 -17.304 -4.704 8
-4.556 -16.635 -4.757 8
-4.412 -15.978 -4.793 9
-4.283 -15.398 -4.845 8
-4.149 -14.804 -4.871 8
-4.034 -14.271 -4.911 7
-3.93 -13.8 -4.967 8
-3.826 -13.321 -5.004 8
-3.721 -12.851 -5.03 8
-3.627 -12.421 -5.066 9
-3.532 -11.997 -5.092 10
-3.445 -11.598 -5.121 9
-3.361 -11.222 -5.153 10
-3.281 -10.856 -5.181 11
-3.201 -10.5 -5.203 12
-3.124 -10.159 -5.226 12
-3.052 -9.831 -5.249 12
-2.977 -9.501 -5.259 17
-9.735 -39.308 -3.931 11
-8.548 -34.239 -3.655 24
-8.173 -32.5 -3.908 13
-7.81 -30.811 -4.113 6
-7.335 -28.729 -4.163 7
-6.936 -26.952 -4.222 5
-6.576 -25.367 -4.274 6
-6.268 -24.009 -4.34 6
-5.994 -22.777 -4.401 5
-5.736 -21.637 -4.45 7
-5.509 -20.601 -4.498 9
-5.298 -19.684 -4.556 9
-5.118 -18.864 -4.622 8
-4.931 -18.043 -4.659 6
-4.768 -17.307 -4.706 7
-4.618 -16.636 -4.758 7
-4.471 -15.979 -4.793 9
-4.343 -15.403 -4.848 7
-4.206 -14.806 -4.872 8
-4.088 -14.27 -4.91 8
-3.984 -13.802 -4.969 7
-3.878 -13.32 -5.003 8
-3.77 -12.848 -5.028 9
-3.675 -12.418 -5.064 10
-3.579 -11.995 -5.09 9
-3.492 -11.599 -5.122 9
-3.405 -11.22 -5.152 11
-3.324 -10.851 -5.177 12
-3.244 -10.499 -5.203 12
-3.167 -10.163 -5.23 11
-3.093 -9.83 -5.248 14
-3.016 -9.497 -5.256 16
-9.871 -39.34 -3.937 10
-8.652 -34.206 -3.649 24
-8.282 -32.505 -3.909 14
-7.919 -30.833 -4.118 6
-7.436 -28.745 -4.167 7
-7.033 -26.973 -4.227 5
-6.666 -25.381 -4.278 6
-6.352 -24.012 -4.341 5
-6.077 -22.788 -4.404 6
-5.812 -21.639 -4.451 7
-5.583 -20.606 -4.5 9
-5.371 -19.694 -4.56 12
-5.186 -18.864 -4.622 6
-4.999 -18.05 -4.662 7
-4.831 -17.304 -4.704 8
-4.679 -16.637 -4.758 7
-4.531 -15.98 -4.794 9
-4.4 -15.401 -4.847 8
-4.261 -14.804 -4.871 8
-4.142 -14.269 -4.909 9
-4.037 -13.801 -4.968 8
-3.928 -13.317 -5.001 7
-3.819 -12.845 -5.026 8
-3.724 -12.418 -5.065 10
-3.627 -11.998 -5.093 10
-3.538 -11.6 -5.122 10
-3.451 -11.22 -5.152 11
-3.369 -10.852 -5.178 11
-3.286 -10.497 -5.201 12
-3.208 -10.159 -5.226 11
-3.133 -9.826 -5.245 14
-3.055 -9.496 -5.255 15
-10.001 -39.344 -3.937 11
-8.777 -34.256 -3.659 40
-8.39 -32.507 -3.909 12
-8.027 -30.851 -4.123 6
-7.538 -28.764 -4.172 7
-7.126 -26.974 -4.228 5
-6.758 -25.398 -4.283 7
-6.439 -24.026 -4.345 6
-6.159 -22.796 -4.407 6
-5.892 -21.65 -4.455 8
-5.658 -20.611 -4.502 9
-5.44 -19.689 -4.558 32
-5.255 -18.867 -4.623 6
-5.064 -18.05 -4.662 7
-4.895 -17.308 -4.706 7
-4.74 -16.634 -4.757 7
-4.591 -15.981 -4.795 9
-4.457 -15.399 -4.846 8
-4.318 -14.806 -4.872 8
-4.196 -14.268 -4.909 8
-4.09 -13.801 -4.968 8
-3.979 -13.312 -4.999 8
-3.869 -12.844 -5.026 8
-3.772 -12.414 -5.062 9
-3.674 -11.995 -5.091 9
-3.584 -11.597 -5.12 10
-3.496 -11.218 -5.15 9
-3.414 -10.857 -5.181 11
-3.329 -10.495 -5.199 12
-3.25 -10.157 -5.225 11
-3.174 -9.825 -5.244 13
-3.097 -9.501 -5.259 14
-10.143 -39.399 -3.947 11
-8.919 -34.366 -3.68 26
-8.499 -32.508 -3.91 13
-8.14 -30.888 -4.131 6
-7.642 -28.79 -4.178 7
-7.225 -27.001 -4.235 4
-6.847 -25.404 -4.284 6
-6.527 -24.044 -4.351 6
-6.24 -22.803 -4.409 5
-5.97 -21.659 -4.458 8
-5.732 -20.616 -4.504 9
-5.508 -19.68 -4.554 38
-5.323 -18.866 -4.622 5
-5.13 -18.049 -4.661 7
-4.959 -17.308 -4.706 7
-4.804 -16.642 -4.76 8
-4.65 -15.979 -4.793 9
-4.516 -15.404 -4.849 7
-4.375 -14.808 -4.873 8
-4.25 -14.266 -4.908 8
-4.144 -13.802 -4.969 8
-4.03 -13.312 -4.998 7
-3.918 -12.841 -5.024 8
-3.821 -12.415 -5.062 9
