# .PCD v0.7 - Point Cloud Data file format
VERSION 0.7
FIELDS x y z intensity
SIZE 4 4 4 4
TYPE F F F F
COUNT 1 1 1 1
WIDTH 2223
HEIGHT 1
VIEWPOINT 0 0 0 1 0 0 0
POINTS 2223
DATA ascii
-1.661 -0.263 2.809 29
-1.694 -0.289 2.782 29
-1.699 -0.31 2.758 0
-1.226 -0.238 2.807 0
-1.391 -0.286 2.76 16
-1.292 -0.28 2.757 5
0.0 -0.0 3.0 0
0.0 -0.0 3.0 0
0.0 -0.0 3.0 0
0.0 -0.0 3.0 0
0.0 -0.0 3.0 0
0.0 -0.0 3.0 0
0.0 -0.0 3.0 0
0.0 -0.0 3.0 0
-67.251 -8.005 0.399 38
0.0 -0.0 3.0 0
0.0 -0.0 3.0 0
-70.859 -4.886 1.124 12
-72.332 -3.86 1.441 15
-4.748 -0.184 2.922 31
-4.794 -0.129 2.943 10
-4.839 -0.102 2.952 5
-5.102 -0.134 2.935 39
-5.076 -0.19 2.903 43
-5.02 -0.254 2.865 19
-4.99 -0.321 2.822 41
-4.9 -0.384 2.778 29
-4.82 -0.445 2.733 43
-4.862 -0.515 2.678 40
-4.629 -0.553 2.641 12
-1.627 -0.216 2.854 8
-1.65 -0.24 2.832 21
-1.657 -0.262 2.809 30
-1.694 -0.289 2.782 28
-1.687 -0.309 2.759 0
-1.3 -0.253 2.795 0
-1.433 -0.295 2.752 24
-1.288 -0.279 2.757 5
0.0 -0.0 3.0 0
0.0 -0.0 3.0 0
0.0 -0.0 3.0 0
0.0 -0.0 3.0 0
0.0 -0.0 3.0 0
0.0 -0.0 3.0 0
0.0 -0.0 3.0 0
0.0 -0.0 3.0 0
0.0 -0.0 3.0 0
-69.114 -7.095 0.557 38
0.0 -0.0 3.0 0
-71.332 -4.991 1.084 13
-72.782 -3.976 1.393 14
-4.751 -0.192 2.918 5
-4.794 -0.14 2.938 1
-4.85 -0.117 2.945 4
-4.878 -0.139 2.932 21
-5.063 -0.197 2.899 45
-5.035 -0.261 2.861 20
-4.91 -0.321 2.822 27
-4.868 -0.385 2.778 24
-4.84 -0.449 2.73 36
-4.751 -0.506 2.684 29
-4.657 -0.558 2.637 15
-1.627 -0.217 2.854 10
-1.638 -0.239 2.832 26
-1.66 -0.264 2.809 30
-1.69 -0.289 2.782 28
-6.721 -1.23 2.039 7
-1.374 -0.268 2.783 0
-1.475 -0.304 2.745 30
-1.272 -0.277 2.76 5
0.0 -0.0 3.0 0
0.0 -0.0 3.0 0
0.0 -0.0 3.0 0
0.0 -0.0 3.0 0
0.0 -0.0 3.0 0
0.0 -0.0 3.0 0
0.0 -0.0 3.0 0
0.0 -0.0 3.0 0
0.0 -0.0 3.0 0
0.0 -0.0 3.0 0
-17.059 -1.485 2.46 2
-71.804 -5.103 1.041 12
-73.282 -4.105 1.341 13
-4.751 -0.201 2.915 1
-82.047 -2.592 1.846 18
-4.854 -0.131 2.939 5
-4.877 -0.151 2.926 24
-4.831 -0.197 2.899 35
-5.099 -0.27 2.856 40
-4.922 -0.326 2.819 26
-4.8 -0.383 2.779 22
-4.867 -0.455 2.726 34
-4.675 -0.5 2.688 26
-4.767 -0.574 2.627 5
-1.631 -0.217 2.853 15
-1.638 -0.24 2.832 28
-1.656 -0.263 2.809 30
-1.686 -0.288 2.783 29
-6.58 -1.207 2.057 7
-1.424 -0.278 2.775 1
-1.506 -0.311 2.739 25
-1.318 -0.287 2.751 6
0.0 -0.0 3.0 0
0.0 -0.0 3.0 0
0.0 -0.0 3.0 0
0.0 -0.0 3.0 0
0.0 -0.0 3.0 0
0.0 -0.0 3.0 0
0.0 -0.0 3.0 0
0.0 -0.0 3.0 0
0.0 -0.0 3.0 0
0.0 -0.0 3.0 0
-16.778 -1.478 2.462 2
-72.786 -5.262 0.98 26
-73.738 -4.242 1.286 14
-75.761 -3.352 1.577 6
-82.087 -2.8 1.753 42
-4.857 -0.144 2.933 1
-4.877 -0.163 2.921 31
-4.814 -0.205 2.896 41
-4.891 -0.266 2.859 31
-4.897 -0.331 2.817 25
-4.803 -0.388 2.776 31
-4.914 -0.464 2.721 28
-4.651 -0.5 2.687 26
-4.763 -0.576 2.626 1
-1.627 -0.218 2.853 19
-1.638 -0.241 2.832 28
-1.656 -0.264 2.808 29
-1.693 -0.291 2.781 28
-6.455 -1.186 2.073 7
-1.47 -0.287 2.767 2
-1.514 -0.313 2.737 27
-1.326 -0.288 2.749 13
0.0 -0.0 3.0 0
0.0 -0.0 3.0 0
0.0 -0.0 3.0 0
0.0 -0.0 3.0 0
0.0 -0.0 3.0 0
0.0 -0.0 3.0 0
0.0 -0.0 3.0 0
0.0 -0.0 3.0 0
-69.122 -8.429 0.261 15
0.0 -0.0 3.0 0
-16.522 -1.473 2.464 2
0.0 -0.0 3.0 0
-74.225 -4.391 1.226 12
-76.308 -3.531 1.501 20
-83.117 -3.048 1.643 10
-4.861 -0.159 2.926 3
-4.876 -0.175 2.915 29
-4.798 -0.214 2.891 39
-1.693 -0.095 2.95 1
-4.901 -0.337 2.813 24
-4.846 -0.396 2.771 36
-4.89 -0.465 2.721 19
-4.65 -0.504 2.685 22
-9.319 -1.133 2.264 19
-1.627 -0.219 2.852 20
-1.638 -0.241 2.831 28
-1.656 -0.265 2.808 29
-1.681 -0.29 2.782 27
-6.322 -1.163 2.091 7
-1.486 -0.291 2.764 3
-1.518 -0.314 2.736 29
-1.283 -0.28 2.757 10
0.0 -0.0 3.0 0
0.0 -0.0 3.0 0
0.0 -0.0 3.0 0
0.0 -0.0 3.0 0
0.0 -0.0 3.0 0
0.0 -0.0 3.0 0
0.0 -0.0 3.0 0
0.0 -0.0 3.0 0
0.0 -0.0 3.0 0
-14.159 -1.504 2.482 2
-16.289 -1.472 2.464 2
0.0 -0.0 3.0 0
-74.747 -4.549 1.162 16
-76.834 -3.719 1.421 32
-83.587 -3.283 1.538 15
-4.852 -0.172 2.92 21
-4.876 -0.188 2.908 24
-4.785 -0.223 2.887 26
-1.696 -0.098 2.948 2
-4.825 -0.338 2.813 29
-4.858 -0.402 2.768 39
-4.862 -0.467 2.72 13
-4.673 -0.51 2.681 15
-9.234 -1.129 2.267 11
-1.623 -0.219 2.852 22
-1.634 -0.241 2.831 29
-1.652 -0.265 2.808 29
-1.689 -0.291 2.781 27
-6.204 -1.144 2.106 7
-1.482 -0.291 2.764 5
-1.51 -0.313 2.737 28
-1.195 -0.261 2.773 6
0.0 -0.0 3.0 0
0.0 -0.0 3.0 0
0.0 -0.0 3.0 0
0.0 -0.0 3.0 0
0.0 -0.0 3.0 0
0.0 -0.0 3.0 0
0.0 -0.0 3.0 0
0.0 -0.0 3.0 0
0.0 -0.0 3.0 0
-13.974 -1.501 2.483 2
-16.116 -1.477 2.462 3
0.0 -0.0 3.0 0
-75.236 -4.715 1.095 13
-77.287 -3.911 1.34 17
-84.131 -3.527 1.43 14
-4.868 -0.187 2.913 18
-4.859 -0.199 2.903 19
-4.761 -0.232 2.882 34
-1.684 -0.1 2.947 3
-4.924 -0.351 2.805 23
-4.881 -0.41 2.763 43
-4.833 -0.469 2.718 13
-4.681 -0.515 2.678 23
-9.027 -1.111 2.279 11
-1.614 -0.219 2.852 26
-1.629 -0.242 2.83 30
-1.648 -0.265 2.807 28
-1.681 -0.291 2.781 28
-6.091 -1.126 2.12 8
-1.485 -0.292 2.763 7
-1.479 -0.308 2.742 22
-1.176 -0.257 2.777 7
0.0 -0.0 3.0 0
0.0 -0.0 3.0 0
0.0 -0.0 3.0 0
0.0 -0.0 3.0 0
0.0 -0.0 3.0 0
0.0 -0.0 3.0 0
0.0 -0.0 3.0 0
0.0 -0.0 3.0 0
-12.156 -1.517 2.507 0
-13.801 -1.498 2.484 2
-15.914 -1.48 2.461 2
-74.643 -5.828 0.763 31
-15.403 -0.994 2.598 1
-77.285 -4.087 1.265 8
-4.782 -0.213 2.905 0
-4.891 -0.201 2.906 34
-4.814 -0.211 2.897 12
-4.748 -0.242 2.877 33
-1.668 -0.102 2.946 3
-4.939 -0.36 2.8 17
-4.984 -0.425 2.755 38
-4.829 -0.474 2.715 16
-4.676 -0.519 2.676 26
-8.674 -1.074 2.303 9
-1.614 -0.22 2.851 27
-1.621 -0.242 2.831 28
-1.644 -0.266 2.807 28
-1.677 -0.291 2.781 28
-5.996 -1.112 2.131 8
-1.493 -0.294 2.762 9
-1.343 -0.279 2.766 24
-1.16 -0.254 2.779 10
0.0 -0.0 3.0 0
0.0 -0.0 3.0 0
0.0 -0.0 3.0 0
0.0 -0.0 3.0 0
0.0 -0.0 3.0 0
0.0 -0.0 3.0 0
0.0 -0.0 3.0 0
0.0 -0.0 3.0 0
-12.023 -1.514 2.508 2
-13.628 -1.496 2.485 2
-15.717 -1.484 2.46 2
0.0 -0.0 3.0 0
-13.797 -0.918 2.629 0
-15.456 -0.853 2.638 10
-4.79 -0.226 2.899 5
-4.882 -0.215 2.9 36
-4.758 -0.221 2.892 34
-4.756 -0.253 2.871 31
-1.676 -0.106 2.944 4
-1.69 -0.125 2.931 1
-5.067 -0.438 2.747 37
-4.828 -0.479 2.712 26
-4.683 -0.524 2.672 26
-8.669 -1.081 2.298 18
-1.61 -0.221 2.851 24
-1.562 -0.234 2.836 24
-1.643 -0.266 2.806 22
-1.677 -0.292 2.78 28
-5.976 -1.111 2.132 11
-1.493 -0.295 2.761 12
-1.331 -0.278 2.767 22
-1.148 -0.252 2.781 6
0.0 -0.0 3.0 0
0.0 -0.0 3.0 0
0.0 -0.0 3.0 0
0.0 -0.0 3.0 0
0.0 -0.0 3.0 0
0.0 -0.0 3.0 0
0.0 -0.0 3.0 0
0.0 -0.0 3.0 0
-11.894 -1.511 2.509 2
-13.531 -1.503 2.482 2
-15.555 -1.492 2.457 2
0.0 -0.0 3.0 0
-13.735 -0.941 2.62 22
-13.813 -0.796 2.662 0
-4.793 -0.24 2.893 3
-4.873 -0.228 2.894 43
-4.737 -0.232 2.887 33
-4.747 -0.264 2.866 29
-1.675 -0.109 2.942 4
-1.662 -0.126 2.93 3
-5.09 -0.448 2.742 35
-4.823 -0.484 2.709 24
-4.699 -0.531 2.668 24
-8.62 -1.082 2.297 4
-1.515 -0.209 2.859 25
-1.389 -0.209 2.854 34
-1.478 -0.241 2.825 29
-1.672 -0.292 2.78 26
-5.975 -1.114 2.13 9
-1.485 -0.294 2.762 13
-1.308 -0.274 2.77 19
-1.121 -0.247 2.786 10
0.0 -0.0 3.0 0
0.0 -0.0 3.0 0
0.0 -0.0 3.0 0
0.0 -0.0 3.0 0
0.0 -0.0 3.0 0
0.0 -0.0 3.0 0
0.0 -0.0 3.0 0
-10.524 -1.523 2.534 2
-11.757 -1.509 2.51 2
-13.338 -1.5 2.483 5
-15.358 -1.497 2.455 2
-76.473 -6.367 0.556 19
-13.66 -0.965 2.61 24
-13.811 -0.829 2.648 34
-16.245 -0.857 2.618 1
-4.813 -0.239 2.888 33
-4.732 -0.245 2.88 35
-4.798 -0.277 2.859 27
-1.667 -0.112 2.941 6
-1.638 -0.127 2.93 3
-5.093 -0.455 2.737 3
-4.818 -0.489 2.706 25
-4.868 -0.555 2.653 26
-8.559 -1.083 2.297 4
-1.503 -0.208 2.859 25
-1.404 -0.212 2.851 31
-1.404 -0.229 2.833 28
-1.664 -0.292 2.78 24
-5.892 -1.102 2.139 1
-1.492 -0.296 2.76 14
-1.227 -0.257 2.784 15
-1.113 -0.246 2.787 10
0.0 -0.0 3.0 0
0.0 -0.0 3.0 0
0.0 -0.0 3.0 0
0.0 -0.0 3.0 0
0.0 -0.0 3.0 0
0.0 -0.0 3.0 0
0.0 -0.0 3.0 0
-10.427 -1.521 2.535 2
-11.636 -1.508 2.51 2
-13.248 -1.509 2.48 4
-15.168 -1.504 2.453 2
0.0 -0.0 3.0 0
-13.638 -0.993 2.599 46
-15.417 -0.963 2.591 9
-16.206 -0.899 2.6 9
-4.768 -0.251 2.883 43
-4.727 -0.257 2.874 37
-4.825 -0.291 2.852 29
-1.667 -0.115 2.939 9
-1.554 -0.124 2.931 6
-1.559 -0.142 2.918 0
-4.817 -0.495 2.702 25
-4.935 -0.568 2.645 37
-8.142 -1.038 2.326 0
-1.503 -0.21 2.858 24
-1.428 -0.217 2.848 28
-1.407 -0.231 2.832 27
-1.563 -0.275 2.793 20
-5.837 -1.095 2.144 13
-1.476 -0.294 2.762 13
-1.207 -0.254 2.787 14
-1.06 -0.234 2.797 11
0.0 -0.0 3.0 0
0.0 -0.0 3.0 0
0.0 -0.0 3.0 0
0.0 -0.0 3.0 0
0.0 -0.0 3.0 0
-13.179 -2.384 2.361 6
-9.33 -1.528 2.562 0
-10.334 -1.52 2.535 2
-11.575 -1.516 2.507 5
-13.063 -1.508 2.481 5
-14.974 -1.51 2.45 2
-17.118 -1.49 2.428 6
-12.132 -0.91 2.633 5
-12.146 -0.79 2.665 5
-16.207 -0.944 2.58 8
-4.763 -0.264 2.877 43
-4.726 -0.27 2.868 31
-4.824 -0.302 2.846 14
-1.659 -0.118 2.937 8
-1.573 -0.128 2.929 8
-1.559 -0.144 2.917 2
-4.825 -0.503 2.698 23
-4.962 -0.576 2.64 16
-7.951 -1.022 2.336 0
-1.503 -0.211 2.858 16
-1.349 -0.206 2.856 20
-1.368 -0.225 2.836 18
-1.429 -0.252 2.81 32
-1.646 -0.31 2.758 3
-1.468 -0.293 2.762 13
-1.219 -0.257 2.785 14
-1.044 -0.231 2.799 12
0.0 -0.0 3.0 0
0.0 -0.0 3.0 0
0.0 -0.0 3.0 0
0.0 -0.0 3.0 0
0.0 -0.0 3.0 0
-13.184 -2.4 2.357 85
-9.261 -1.528 2.562 2
-10.23 -1.518 2.536 2
-11.473 -1.519 2.507 7
-12.949 -1.515 2.478 4
-14.776 -1.515 2.448 2
-17.007 -1.514 2.419 2
-12.062 -0.931 2.624 19
-12.135 -0.82 2.652 20
-16.0 -0.977 2.565 6
-4.754 -0.277 2.871 41
-4.741 -0.284 2.861 22
-4.847 -0.316 2.839 3
-1.658 -0.121 2.936 6
-1.597 -0.132 2.927 11
-1.543 -0.144 2.917 7
-1.584 -0.167 2.899 3
-4.969 -0.583 2.635 1
-7.772 -1.007 2.346 0
-1.455 -0.206 2.861 11
-1.337 -0.205 2.856 17
-1.27 -0.21 2.847 13
-1.433 -0.254 2.808 33
-1.63 -0.308 2.759 8
-1.46 -0.293 2.763 12
-1.141 -0.241 2.798 11
-1.044 -0.232 2.799 12
0.0 -0.0 3.0 0
0.0 -0.0 3.0 0
0.0 -0.0 3.0 0
0.0 -0.0 3.0 0
-11.842 -2.373 2.408 0
-13.185 -2.414 2.353 85
-9.188 -1.527 2.562 2
-10.129 -1.516 2.536 2
-11.352 -1.519 2.506 10
-12.808 -1.518 2.477 3
-14.614 -1.526 2.445 2
-10.47 -0.953 2.634 0
-12.004 -0.955 2.614 21
-10.514 -0.737 2.687 1
-15.889 -1.014 2.548 9
-4.753 -0.291 2.864 36
-4.76 -0.298 2.855 26
-4.846 -0.328 2.833 0
-1.646 -0.123 2.934 4
-1.589 -0.135 2.925 10
-1.543 -0.147 2.915 7
-1.58 -0.169 2.899 3
-1.596 -0.189 2.882 0
-7.608 -0.995 2.354 0
-1.423 -0.203 2.863 11
-1.305 -0.202 2.858 15
-1.273 -0.212 2.846 12
-1.421 -0.253 2.809 30
-1.622 -0.307 2.76 7
-1.448 -0.291 2.764 11
-1.083 -0.23 2.807 10
-1.051 -0.234 2.797 12
0.0 -0.0 3.0 0
0.0 -0.0 3.0 0
0.0 -0.0 3.0 0
0.0 -0.0 3.0 0
-11.789 -2.375 2.408 68
-8.314 -1.532 2.589 4
-9.103 -1.523 2.563 2
-10.071 -1.521 2.535 3
-11.247 -1.521 2.506 10
-12.658 -1.522 2.476 4
-14.42 -1.532 2.442 2
-10.448 -0.973 2.626 55
-11.985 -0.982 2.603 17
-10.515 -0.765 2.675 31
-15.814 -1.054 2.531 31
-4.768 -0.305 2.858 31
-4.771 -0.312 2.848 7
-9.539 -0.669 2.659 0
-1.642 -0.127 2.933 1
-1.564 -0.136 2.925 15
-1.534 -0.15 2.914 8
-1.548 -0.168 2.899 7
-1.58 -0.19 2.881 3
-7.441 -0.981 2.363 0
-1.375 -0.197 2.867 9
-1.257 -0.196 2.863 16
-1.246 -0.209 2.848 12
-1.3 -0.233 2.825 12
-1.551 -0.295 2.769 4
-1.417 -0.285 2.769 11
-1.079 -0.229 2.807 10
-1.047 -0.234 2.797 12
0.0 -0.0 3.0 0
0.0 -0.0 3.0 0
0.0 -0.0 3.0 0
-10.378 -2.285 2.472 0
-11.782 -2.387 2.405 86
-8.253 -1.53 2.59 3
-9.03 -1.523 2.563 2
-10.006 -1.525 2.534 5
-11.137 -1.524 2.505 7
-12.524 -1.527 2.474 4
-14.258 -1.542 2.439 3
-10.41 -0.992 2.619 102
-10.497 -0.884 2.643 6
-15.987 -1.204 2.489 5
-15.2 -1.055 2.53 42
-4.819 -0.323 2.85 28
-4.762 -0.324 2.842 2
-9.485 -0.689 2.649 10
-4.745 -0.378 2.799 0
-1.568 -0.139 2.923 13
-1.534 -0.152 2.912 12
-1.543 -0.17 2.898 7
-1.568 -0.191 2.881 6
-7.285 -0.97 2.37 0
-1.383 -0.201 2.865 11
-1.261 -0.198 2.862 16
-1.238 -0.208 2.849 15
-1.264 -0.227 2.829 12
-1.485 -0.284 2.778 11
-1.382 -0.279 2.774 9
-1.083 -0.231 2.806 11
-1.055 -0.236 2.795 13
0.0 -0.0 3.0 0
0.0 -0.0 3.0 0
0.0 -0.0 3.0 0
-10.177 -2.252 2.48 56
-7.594 -1.548 2.614 0
-8.192 -1.53 2.59 2
-8.957 -1.523 2.563 2
-9.905 -1.524 2.534 10
-11.028 -1.527 2.504 10
-12.414 -1.536 2.471 4
-14.084 -1.551 2.435 3
-10.372 -1.011 2.612 101
-10.462 -0.907 2.634 14
-15.891 -1.24 2.474 9
-15.153 -1.095 2.512 46
-4.81 -0.335 2.844 6
-12.573 -0.891 2.565 16
-9.438 -0.71 2.638 12
-9.364 -0.768 2.592 15
-1.556 -0.141 2.922 14
-1.542 -0.155 2.91 16
-1.547 -0.172 2.896 11
-1.56 -0.192 2.88 7
-7.153 -0.961 2.376 0
-1.446 -0.211 2.857 10
-1.284 -0.203 2.858 16
-1.241 -0.21 2.847 15
-1.237 -0.224 2.831 12
-1.411 -0.271 2.788 12
-1.351 -0.274 2.778 8
-1.09 -0.233 2.804 11
-1.058 -0.237 2.794 13
0.0 -0.0 3.0 0
0.0 -0.0 3.0 0
-9.413 -2.26 2.52 0
-10.081 -2.242 2.482 60
-7.542 -1.546 2.615 3
-8.139 -1.53 2.59 2
-8.896 -1.525 2.563 2
-9.823 -1.527 2.533 8
-10.95 -1.534 2.501 5
-12.264 -1.539 2.47 2
-13.826 -1.55 2.436 6
-10.353 -1.032 2.604 58
-10.416 -0.928 2.625 20
-15.815 -1.275 2.459 26
-15.009 -1.127 2.498 13
-4.833 -0.351 2.836 1
-9.524 -0.702 2.658 0
-9.42 -0.733 2.627 12
-9.33 -0.787 2.582 105
-1.559 -0.144 2.92 18
-1.557 -0.16 2.908 20
-1.539 -0.174 2.896 11
-1.551 -0.193 2.88 8
-1.568 -0.213 2.862 0
-1.587 -0.234 2.842 8
-1.323 -0.21 2.853 15
-1.249 -0.212 2.846 16
-1.225 -0.222 2.832 16
-1.364 -0.263 2.794 12
-1.319 -0.269 2.782 7
-1.09 -0.234 2.804 11
-1.062 -0.239 2.793 12
0.0 -0.0 3.0 0
0.0 -0.0 3.0 0
-9.41 -2.27 2.518 26
-10.074 -2.252 2.48 57
-7.497 -1.545 2.615 3
-8.082 -1.53 2.59 2
-8.897 -1.538 2.559 8
-9.769 -1.533 2.531 11
-10.812 -1.533 2.502 5
-12.115 -1.543 2.469 3
-13.755 -1.571 2.428 13
-10.343 -1.054 2.595 33
-10.445 -0.956 2.614 17
-15.234 -1.269 2.461 57
-14.009 -1.091 2.514 1
-12.728 -0.961 2.552 27
-9.482 -0.726 2.646 10
-9.394 -0.755 2.615 12
-9.303 -0.806 2.571 255
-1.579 -0.15 2.917 12
-1.545 -0.162 2.907 18
-1.542 -0.178 2.893 18
-1.551 -0.195 2.878 11
-1.567 -0.215 2.861 3
-1.638 -0.243 2.836 10
-1.323 -0.211 2.852 14
-1.248 -0.214 2.845 16
-1.224 -0.224 2.832 15
-1.336 -0.259 2.797 15
-1.28 -0.262 2.788 8
-1.094 -0.236 2.802 11
-1.062 -0.239 2.792 12
0.0 -0.0 3.0 0
0.0 -0.0 3.0 0
-9.38 -2.273 2.517 29
-6.938 -1.559 2.64 3
-7.444 -1.544 2.615 3
-8.025 -1.53 2.59 2
-8.804 -1.535 2.56 17
-9.68 -1.535 2.531 14
-10.738 -1.542 2.499 7
-11.996 -1.551 2.466 8
-8.864 -1.03 2.625 3
-8.845 -0.922 2.646 0
-10.462 -0.984 2.602 16
-8.849 -0.761 2.677 5
-12.774 -1.031 2.541 6
-12.537 -0.982 2.542 12
-9.439 -0.748 2.635 10
-9.375 -0.778 2.604 12
-9.146 -0.814 2.567 255
-1.594 -0.155 2.914 10
-1.529 -0.162 2.906 20
-1.534 -0.179 2.892 21
-1.543 -0.196 2.877 13
-1.519 -0.21 2.864 6
-1.634 -0.245 2.835 13
-1.366 -0.22 2.846 25
-1.26 -0.217 2.842 15
-1.236 -0.227 2.829 14
-1.262 -0.245 2.808 13
-1.234 -0.254 2.795 11
-1.097 -0.237 2.801 11
-1.069 -0.242 2.789 12
0.0 -0.0 3.0 0
-8.96 -2.343 2.545 0
-9.343 -2.276 2.516 32
-6.889 -1.557 2.641 3
-7.391 -1.544 2.615 3
-7.972 -1.531 2.59 3
-8.751 -1.539 2.559 5
-9.579 -1.535 2.531 7
-10.637 -1.546 2.498 6
-11.886 -1.559 2.463 4
-8.787 -1.04 2.621 20
-8.831 -0.94 2.639 17
-8.864 -0.856 2.654 0
-14.863 -1.318 2.44 21
-12.759 -1.066 2.525 49
-9.538 -0.775 2.639 1
-9.421 -0.773 2.623 12
-9.353 -0.8 2.592 20
-8.765 -0.802 2.574 255
-1.594 -0.158 2.912 7
-1.528 -0.165 2.905 18
-1.541 -0.183 2.89 19
-1.538 -0.199 2.876 19
-1.503 -0.21 2.863 7
-1.59 -0.24 2.838 13
-1.377 -0.223 2.844 28
-1.271 -0.22 2.84 16
-1.235 -0.228 2.828 15
-1.238 -0.242 2.811 13
-1.28 -0.264 2.786 10
-1.097 -0.238 2.8 11
-1.076 -0.245 2.787 12
0.0 -0.0 3.0 0
-8.907 -2.34 2.545 41
-6.426 -1.573 2.666 1
-6.856 -1.558 2.64 3
-7.342 -1.543 2.615 3
-7.97 -1.543 2.587 4
-8.693 -1.543 2.558 17
-9.521 -1.542 2.529 5
-10.531 -1.55 2.496 6
-11.752 -1.565 2.461 8
-8.76 -1.056 2.616 14
-8.78 -0.957 2.633 25
-8.846 -0.878 2.645 29
-14.007 -1.281 2.456 2
-12.715 -1.099 2.511 16
-9.483 -0.798 2.628 10
-9.394 -0.797 2.611 12
-9.314 -0.821 2.581 66
-8.679 -0.815 2.567 255
-1.589 -0.162 2.91 0
-1.54 -0.17 2.902 19
-1.533 -0.184 2.889 20
-1.526 -0.199 2.876 22
-1.503 -0.212 2.862 8
-1.57 -0.239 2.839 18
-1.396 -0.228 2.84 27
-1.302 -0.227 2.835 20
-1.239 -0.23 2.827 15
-1.215 -0.239 2.813 14
-1.295 -0.268 2.783 11
-1.108 -0.241 2.798 12
-1.068 -0.244 2.788 12
-7.979 -2.25 2.603 2
-8.889 -2.345 2.544 74
-6.385 -1.57 2.666 3
-6.799 -1.554 2.641 3
-7.289 -1.542 2.616 3
-7.912 -1.544 2.586 20
-8.608 -1.541 2.558 5
-9.451 -1.546 2.527 8
-10.448 -1.557 2.494 12
-11.638 -1.574 2.458 8
-8.734 -1.072 2.61 14
-8.746 -0.973 2.627 20
-8.835 -0.899 2.637 6
-12.948 -1.22 2.482 2
-12.508 -1.116 2.503 8
-9.445 -0.821 2.617 11
-9.379 -0.822 2.599 13
-9.288 -0.844 2.57 255
-8.665 -0.835 2.556 255
-8.107 -0.841 2.534 1
-1.531 -0.172 2.901 15
-1.525 -0.186 2.888 20
-1.506 -0.199 2.876 21
-1.514 -0.216 2.86 12
-1.557 -0.239 2.839 23
-1.451 -0.239 2.833 23
-1.321 -0.232 2.831 23
-1.25 -0.233 2.824 16
-1.214 -0.24 2.813 16
-1.283 -0.267 2.784 13
-1.108 -0.242 2.797 12
-1.076 -0.246 2.786 12
-7.969 -2.256 2.602 80
-8.882 -2.354 2.542 64
-6.352 -1.571 2.666 2
-6.762 -1.556 2.641 3
-7.247 -1.544 2.615 3
-7.871 -1.548 2.585 4
-8.578 -1.55 2.556 14
-9.357 -1.548 2.527 8
-10.343 -1.561 2.493 6
-7.157 -0.983 2.662 0
-8.707 -1.089 2.604 22
-8.716 -0.991 2.62 17
-8.892 -0.927 2.625 1
-12.614 -1.222 2.481 6
-9.54 -0.878 2.609 1
-9.414 -0.846 2.606 11
-9.357 -0.846 2.587 26
-8.708 -0.815 2.585 43
-8.654 -0.856 2.545 75
-7.918 -0.839 2.535 0
-1.554 -0.178 2.897 11
-1.516 -0.187 2.887 23
-1.501 -0.201 2.874 24
-1.494 -0.216 2.86 14
-1.553 -0.241 2.838 22
-1.521 -0.253 2.823 21
-1.321 -0.234 2.83 24
-1.258 -0.236 2.822 18
-1.218 -0.242 2.811 16
-1.275 -0.266 2.784 12
-1.107 -0.243 2.796 12
-1.075 -0.247 2.785 13
-7.971 -2.265 2.601 80
-5.926 -1.577 2.693 3
-6.307 -1.568 2.667 2
-6.725 -1.556 2.641 3
-7.257 -1.556 2.612 19
-7.809 -1.548 2.585 19
-8.489 -1.549 2.556 9
-9.275 -1.55 2.526 7
-10.241 -1.566 2.491 9
-7.143 -0.996 2.657 1
-8.708 -1.108 2.597 17
-8.693 -1.009 2.613 30
-7.196 -0.77 2.689 7
-12.065 -1.203 2.489 3
-9.485 -0.901 2.599 9
-9.395 -0.871 2.594 12
-9.302 -0.867 2.577 35
-8.674 -0.835 2.575 42
-8.608 -0.872 2.537 20
-7.725 -0.836 2.536 0
-1.574 -0.183 2.894 10
-1.532 -0.193 2.884 29
-1.485 -0.201 2.874 23
-1.498 -0.219 2.858 19
-1.525 -0.239 2.839 21
-1.517 -0.254 2.822 26
-1.324 -0.236 2.829 24
-1.288 -0.243 2.817 24
-1.237 -0.247 2.807 18
-1.297 -0.272 2.779 13
-1.123 -0.247 2.793 12
-1.075 -0.248 2.785 13
-7.976 -2.277 2.599 77
-5.905 -1.58 2.693 2
-6.267 -1.566 2.667 2
-6.68 -1.555 2.641 3
-7.196 -1.554 2.612 3
-7.771 -1.553 2.584 4
-8.462 -1.558 2.553 8
-9.233 -1.561 2.523 12
-10.17 -1.575 2.488 6
-7.176 -1.016 2.65 23
-8.71 -1.129 2.589 15
-8.694 -1.031 2.604 23
-7.198 -0.789 2.681 37
-11.664 -1.195 2.493 3
-9.442 -0.923 2.589 10
-9.376 -0.896 2.582 14
-9.164 -0.88 2.571 8
-8.671 -0.857 2.563 254
-8.12 -0.843 2.552 0
-7.54 -0.833 2.538 0
-1.546 -0.183 2.894 8
-1.531 -0.196 2.882 27
-1.481 -0.203 2.873 23
-1.493 -0.22 2.857 26
-1.509 -0.238 2.839 23
-1.508 -0.254 2.822 26
-1.343 -0.241 2.825 26
-1.308 -0.248 2.813 26
-1.279 -0.256 2.8 28
-1.262 -0.266 2.785 14
-1.122 -0.248 2.792 13
-1.079 -0.249 2.783 13
-5.519 -1.583 2.721 1
-5.856 -1.574 2.694 2
-6.23 -1.566 2.667 2
-6.647 -1.557 2.641 3
-7.154 -1.557 2.612 13
-7.698 -1.551 2.584 13
-8.365 -1.555 2.554 13
-9.147 -1.563 2.522 10
-10.084 -1.583 2.486 9
-7.118 -1.023 2.648 144
-7.182 -0.947 2.655 4
-8.687 -1.052 2.596 24
-7.176 -0.805 2.675 0
-9.538 -1.004 2.574 1
-9.419 -0.948 2.578 11
-9.345 -0.92 2.571 19
-8.684 -0.859 2.581 25
-8.648 -0.879 2.552 15
-7.911 -0.842 2.553 0
-7.387 -0.835 2.537 0
-1.545 -0.187 2.892 11
-1.527 -0.198 2.881 23
-1.472 -0.205 2.872 24
-1.477 -0.22 2.857 23
-1.501 -0.239 2.839 24
-1.52 -0.259 2.819 30
-1.347 -0.243 2.823 27
-1.307 -0.25 2.812 25
-1.283 -0.259 2.798 28
-1.25 -0.265 2.785 15
-1.137 -0.252 2.788 17
-1.078 -0.25 2.782 13
-5.498 -1.584 2.721 2
-5.823 -1.573 2.694 2
-6.185 -1.563 2.668 2
-6.64 -1.565 2.639 4
-7.136 -1.564 2.61 9
-7.676 -1.559 2.582 7
-8.331 -1.563 2.552 5
-9.085 -1.57 2.52 6
-10.005 -1.59 2.483 12
-7.088 -1.034 2.644 178
-7.175 -0.963 2.649 10
-7.213 -0.892 2.658 1
-12.639 -1.453 2.413 10
-9.479 -1.025 2.565 10
-9.396 -0.973 2.567 12
-9.314 -0.943 2.56 38
-8.677 -0.882 2.57 22
-8.609 -0.898 2.543 6
-7.733 -0.842 2.552 0
-7.253 -0.836 2.537 0
-1.537 -0.189 2.891 11
-1.542 -0.203 2.878 20
-1.456 -0.205 2.872 23
-1.472 -0.222 2.856 27
-1.488 -0.239 2.839 24
-1.519 -0.261 2.817 27
-1.374 -0.25 2.818 28
-1.318 -0.254 2.809 25
-1.29 -0.262 2.795 26
-1.269 -0.27 2.781 13
-1.144 -0.256 2.786 16
-1.082 -0.252 2.781 12
-5.457 -1.579 2.722 3
-5.79 -1.572 2.694 2
-6.152 -1.564 2.668 2
-6.587 -1.564 2.639 16
-5.944 -1.312 2.673 0
-7.595 -1.555 2.583 9
-8.253 -1.564 2.552 17
-9.011 -1.575 2.518 12
-9.907 -1.595 2.482 12
-7.062 -1.046 2.64 98
-7.165 -0.979 2.644 16
-7.207 -0.909 2.651 6
-12.182 -1.433 2.421 4
-9.44 -1.046 2.556 11
-9.381 -0.998 2.556 13
-9.227 -0.962 2.552 41
-8.674 -0.906 2.558 72
-8.066 -0.863 2.56 0
-7.536 -0.84 2.553 0
-1.55 -0.183 2.899 0
-1.544 -0.193 2.888 17
-1.541 -0.206 2.876 23
-1.444 -0.206 2.871 24
-1.468 -0.224 2.854 25
-1.488 -0.242 2.837 26
-1.515 -0.262 2.817 27
-1.393 -0.255 2.815 32
-1.337 -0.259 2.805 27
-1.321 -0.269 2.79 29
-1.288 -0.275 2.777 12
-1.163 -0.261 2.781 16
-1.089 -0.255 2.779 12
-5.44 -1.581 2.721 3
-5.769 -1.575 2.694 3
-6.122 -1.565 2.667 2
-6.511 -1.555 2.641 8
-5.907 -1.313 2.673 0
-7.573 -1.565 2.581 9
-8.191 -1.567 2.551 4
-8.925 -1.577 2.518 8
-9.817 -1.602 2.48 8
-7.043 -1.059 2.635 107
-7.107 -0.988 2.64 30
-7.247 -0.933 2.642 10
-9.532 -1.147 2.537 1
-9.42 -1.071 2.546 11
-9.349 -1.022 2.545 18
-8.692 -0.931 2.566 24
-8.619 -0.926 2.548 9
-7.892 -0.866 2.559 0
-7.387 -0.842 2.552 0
-1.534 -0.184 2.898 2
-1.532 -0.195 2.888 22
-1.541 -0.209 2.875 23
-1.439 -0.208 2.87 24
-1.46 -0.225 2.854 25
-1.479 -0.243 2.836 26
-1.573 -0.274 2.808 21
-1.388 -0.257 2.814 34
-1.345 -0.262 2.803 28
-1.324 -0.272 2.788 28
-1.261 -0.271 2.781 13
-1.17 -0.264 2.779 18
-1.088 -0.256 2.778 11
-5.407 -1.58 2.721 3
-5.724 -1.571 2.695 3
-6.135 -1.578 2.665 4
-6.52 -1.567 2.638 4
-5.854 -1.312 2.673 0
-7.496 -1.563 2.581 7
-8.137 -1.572 2.549 14
-8.882 -1.588 2.514 7
-9.762 -1.613 2.476 9
-7.037 -1.074 2.63 49
-7.076 -1.001 2.635 34
-7.213 -0.947 2.636 12
-9.481 -1.166 2.529 9
-9.401 -1.095 2.535 12
-9.314 -1.045 2.535 29
-8.68 -0.955 2.555 16
-8.584 -0.946 2.538 2
-7.711 -0.867 2.558 0
-7.233 -0.843 2.552 0
-1.529 -0.187 2.896 6
-1.531 -0.198 2.885 22
-1.54 -0.212 2.873 35
-1.435 -0.21 2.869 23
-1.455 -0.227 2.852 25
-1.479 -0.245 2.835 26
-1.603 -0.282 2.803 22
-1.38 -0.256 2.814 33
-1.375 -0.269 2.797 24
-1.312 -0.271 2.789 17
-1.225 -0.265 2.785 15
-1.197 -0.271 2.773 16
-1.092 -0.257 2.776 11
-5.39 -1.582 2.721 3
-5.699 -1.572 2.694 2
-6.091 -1.576 2.665 4
-6.491 -1.572 2.637 15
-5.77 -1.303 2.675 0
-5.777 -1.215 2.674 0
-8.064 -1.574 2.549 4
-8.796 -1.591 2.514 15
-9.679 -1.621 2.473 14
-7.03 -1.089 2.625 34
-7.062 -1.017 2.63 15
-7.171 -0.96 2.631 7
-9.438 -1.187 2.521 10
-9.374 -1.118 2.525 13
-9.231 -1.062 2.527 41
-8.669 -0.979 2.544 38
-8.068 -0.912 2.555 0
-7.549 -0.87 2.557 0
-7.092 -0.845 2.55 0
-1.521 -0.19 2.895 9
-1.53 -0.202 2.883 25
-1.536 -0.215 2.871 41
-1.43 -0.212 2.867 21
-1.454 -0.229 2.851 24
-1.478 -0.248 2.833 25
-1.63 -0.29 2.797 22
-1.38 -0.258 2.812 23
-1.406 -0.278 2.791 22
-1.396 -0.29 2.774 12
-1.217 -0.265 2.786 17
-1.219 -0.277 2.768 17
-1.091 -0.258 2.775 11
-5.338 -1.574 2.722 3
-5.662 -1.57 2.695 3
-6.053 -1.576 2.665 22
-6.48 -1.58 2.635 11
-6.912 -1.573 2.608 11
-5.712 -1.211 2.676 0
-8.029 -1.583 2.546 13
-8.726 -1.596 2.512 5
-9.553 -1.621 2.473 5
-7.016 -1.103 2.62 22
-7.047 -1.032 2.624 21
-7.243 -0.989 2.62 7
-9.41 -1.209 2.512 10
-9.35 -1.142 2.515 18
-8.692 -1.025 2.543 19
-8.61 -0.997 2.535 6
-7.867 -0.912 2.555 0
-7.372 -0.869 2.557 0
-6.95 -0.846 2.55 0
-1.528 -0.195 2.892 11
-1.53 -0.205 2.881 40
-1.539 -0.219 2.869 41
-1.367 -0.206 2.871 21
-1.383 -0.221 2.857 23
-1.474 -0.249 2.832 21
-1.622 -0.29 2.797 17
-1.387 -0.262 2.81 21
-1.401 -0.279 2.79 23
-1.446 -0.302 2.764 21
-1.213 -0.265 2.785 16
-1.192 -0.272 2.771 21
-1.095 -0.26 2.774 11
-5.316 -1.576 2.722 4
-5.652 -1.577 2.693 4
-6.032 -1.58 2.664 7
-6.416 -1.575 2.636 4
-6.851 -1.571 2.608 4
-7.362 -1.575 2.578 20
-7.947 -1.583 2.546 5
-8.683 -1.606 2.509 13
-5.57 -0.957 2.689 0
-7.013 -1.12 2.614 33
-7.036 -1.048 2.619 21
-7.185 -1.0 2.616 6
-9.394 -1.233 2.502 11
-9.322 -1.165 2.506 40
-8.688 -1.05 2.533 13
-8.519 -1.011 2.528 1
-7.681 -0.912 2.555 0
-7.23 -0.872 2.556 0
-6.821 -0.848 2.549 0
-1.527 -0.198 2.89 19
-1.533 -0.209 2.879 41
-1.527 -0.22 2.868 39
-1.362 -0.208 2.87 20
-1.379 -0.223 2.855 23
-1.363 -0.233 2.843 26
-1.602 -0.289 2.798 13
-1.382 -0.263 2.809 21
-1.401 -0.28 2.789 21
-1.403 -0.295 2.77 15
-1.201 -0.264 2.786 17
-1.192 -0.273 2.771 20
-1.102 -0.264 2.771 11
-5.287 -1.575 2.722 3
-5.627 -1.579 2.693 12
-5.986 -1.578 2.665 4
-6.382 -1.577 2.636 16
-6.825 -1.578 2.607 18
-7.319 -1.58 2.577 4
-7.913 -1.591 2.544 14
-8.601 -1.61 2.508 7
-5.548 -0.966 2.686 0
-7.022 -1.139 2.608 20
-7.029 -1.065 2.612 42
-9.44 -1.339 2.486 10
-9.375 -1.256 2.492 11
-9.263 -1.184 2.498 6
-8.669 -1.073 2.522 25
-8.04 -0.977 2.544 0
-7.527 -0.916 2.553 0
-7.084 -0.874 2.554 0
-6.683 -0.849 2.549 0
-1.519 -0.201 2.889 24
-1.529 -0.212 2.878 43
-1.514 -0.221 2.867 37
-1.369 -0.212 2.868 20
-1.378 -0.225 2.854 23
-1.371 -0.237 2.84 25
-1.394 -0.254 2.822 20
-1.382 -0.265 2.807 20
-1.4 -0.282 2.788 16
-1.383 -0.292 2.772 11
-1.193 -0.264 2.787 18
-1.21 -0.279 2.766 13
-1.124 -0.27 2.765 12
-5.27 -1.578 2.722 3
-5.605 -1.582 2.693 23
-5.953 -1.579 2.664 11
-6.368 -1.584 2.634 10
-6.795 -1.583 2.605 7
-7.266 -1.582 2.576 9
-7.835 -1.592 2.543 4
-5.517 -1.045 2.681 0
-5.553 -0.98 2.682 5
-7.034 -1.157 2.602 17
-7.034 -1.083 2.606 48
-5.554 -0.802 2.692 0
-9.347 -1.278 2.484 15
-8.689 -1.135 2.518 13
-8.606 -1.09 2.515 6
-7.862 -0.979 2.544 0
-7.366 -0.917 2.553 0
-6.931 -0.875 2.554 0
-6.55 -0.849 2.549 0
-1.51 -0.204 2.887 25
-1.528 -0.215 2.876 41
-1.521 -0.225 2.865 35
-1.349 -0.211 2.868 18
-1.366 -0.226 2.853 19
-1.374 -0.239 2.839 24
-1.35 -0.248 2.827 19
-1.369 -0.265 2.807 13
-1.407 -0.286 2.785 12
-1.34 -0.285 2.778 10
-1.185 -0.263 2.787 13
-1.275 -0.296 2.752 12
-1.17 -0.282 2.755 13
-5.268 -1.586 2.72 7
-5.591 -1.587 2.692 6
-5.939 -1.585 2.663 13
-6.31 -1.582 2.635 4
-6.741 -1.583 2.605 4
-7.247 -1.593 2.573 10
-7.808 -1.602 2.541 16
-5.534 -1.06 2.676 2
-5.523 -0.987 2.679 36
-5.558 -0.928 2.681 1
-7.035 -1.102 2.599 128
-5.54 -0.815 2.687 1
-9.327 -1.302 2.474 16
-8.677 -1.159 2.508 11
-8.404 -1.089 2.515 1
-7.677 -0.978 2.544 0
-7.232 -0.92 2.551 0
-6.813 -0.878 2.553 0
-1.507 -0.199 2.894 0
-1.51 -0.208 2.885 26
-1.531 -0.219 2.873 41
-1.533 -0.231 2.861 36
-1.333 -0.211 2.868 16
-1.322 -0.221 2.856 16
-1.346 -0.237 2.84 22
-1.287 -0.239 2.833 11
-1.369 -0.267 2.806 12
-1.391 -0.285 2.785 9
-1.204 -0.258 2.798 10
-1.176 -0.263 2.787 9
-1.309 -0.305 2.744 12
-1.158 -0.281 2.756 13
-5.227 -1.581 2.721 6
-5.55 -1.584 2.692 5
-5.898 -1.585 2.663 4
-6.273 -1.584 2.634 14
-6.707 -1.588 2.604 19
-7.173 -1.591 2.574 6
-7.73 -1.603 2.54 4
-5.492 -1.064 2.675 28
-5.478 -0.992 2.678 14
-5.548 -0.939 2.677 8
-7.04 -1.12 2.592 155
-5.541 -0.83 2.682 26
-9.303 -1.325 2.465 26
-8.665 -1.182 2.498 15
-8.032 -1.064 2.526 0
-7.503 -0.978 2.544 0
-7.074 -0.921 2.551 0
-6.679 -0.88 2.552 0
-1.53 -0.206 2.89 0
-1.505 -0.21 2.883 33
-1.519 -0.221 2.872 42
-1.532 -0.234 2.859 32
-1.328 -0.213 2.867 17
-1.314 -0.222 2.856 14
-1.31 -0.233 2.843 20
-1.271 -0.238 2.834 10
-1.349 -0.265 2.808 8
-1.383 -0.285 2.786 5
-1.192 -0.257 2.799 13
-1.164 -0.262 2.788 16
-1.32 -0.309 2.741 12
-1.157 -0.281 2.755 12
-5.209 -1.584 2.721 6
-5.517 -1.585 2.692 9
-5.856 -1.584 2.663 6
-6.262 -1.593 2.632 12
-6.681 -1.595 2.602 5
-7.139 -1.598 2.572 22
-7.699 -1.613 2.538 18
-5.466 -1.071 2.672 17
-5.452 -1.0 2.675 13
-5.514 -0.948 2.674 9
-7.06 -1.142 2.584 54
-5.531 -0.844 2.676 4
-8.694 -1.262 2.49 7
-8.614 -1.199 2.491 5
-7.85 -1.063 2.527 0
-7.357 -0.98 2.543 0
-6.925 -0.922 2.551 0
-6.542 -0.88 2.552 0
-1.518 -0.208 2.889 1
-1.512 -0.216 2.881 43
-1.526 -0.226 2.87 41
-1.515 -0.235 2.859 29
-1.273 -0.207 2.871 12
-1.246 -0.213 2.862 12
-1.29 -0.231 2.844 16
-1.24 -0.234 2.836 11
-1.197 -0.237 2.828 3
-1.235 -0.256 2.807 0
-1.199 -0.26 2.797 12
-1.175 -0.266 2.785 22
-1.365 -0.322 2.73 11
-1.214 -0.297 2.742 14
-5.184 -1.585 2.72 12
-5.487 -1.585 2.692 18
-5.827 -1.586 2.663 23
-6.205 -1.59 2.633 4
-6.619 -1.593 2.603 6
-7.093 -1.602 2.571 3
-7.633 -1.616 2.537 3
-5.448 -1.08 2.67 17
-5.425 -1.009 2.672 22
-5.456 -0.951 2.672 15
-5.571 -0.916 2.667 0
-5.532 -0.859 2.67 0
-8.631 -1.277 2.484 7
-8.25 -1.172 2.502 0
-7.677 -1.062 2.527 0
-7.195 -0.979 2.544 0
-6.791 -0.923 2.55 0
-6.207 -0.852 2.566 0
-1.521 -0.214 2.886 2
-1.507 -0.219 2.879 44
-1.525 -0.229 2.868 38
-1.53 -0.241 2.855 27
-1.257 -0.207 2.871 10
-1.23 -0.213 2.862 11
-1.203 -0.219 2.852 13
-1.2 -0.229 2.84 9
-1.188 -0.237 2.828 4
-1.18 -0.247 2.814 4
-1.199 -0.262 2.795 11
-1.167 -0.265 2.785 19
-1.506 -0.357 2.701 5
-1.286 -0.316 2.725 16
-5.155 -1.585 2.72 22
-5.466 -1.588 2.691 6
-5.824 -1.597 2.661 7
-6.171 -1.592 2.632 12
-6.593 -1.6 2.601 24
-7.039 -1.604 2.57 12
-7.587 -1.622 2.535 14
-5.426 -1.088 2.667 16
-5.411 -1.019 2.669 19
-5.446 -0.963 2.668 18
-5.549 -0.926 2.663 6
-9.296 -1.469 2.436 27
-8.41 -1.268 2.488 2
-8.017 -1.163 2.506 0
-7.499 -1.059 2.528 0
-7.054 -0.981 2.543 0
-6.657 -0.924 2.549 0
-6.156 -0.862 2.561 0
-1.516 -0.217 2.885 3
-1.511 -0.223 2.877 45
-1.52 -0.232 2.866 37
-1.53 -0.244 2.853 26
-1.252 -0.209 2.869 7
-1.233 -0.215 2.86 11
-1.207 -0.221 2.851 13
-1.188 -0.228 2.84 15
-1.192 -0.24 2.826 7
-1.18 -0.249 2.813 10
-1.191 -0.261 2.796 12
-1.17 -0.268 2.783 11
-1.406 -0.335 2.719 4
-1.338 -0.33 2.713 6
-5.152 -1.593 2.719 7
-5.428 -1.587 2.692 5
-5.771 -1.592 2.662 4
-6.149 -1.599 2.631 15
-6.551 -1.603 2.6 4
-7.027 -1.616 2.567 10
-7.544 -1.63 2.533 4
-5.404 -1.096 2.665 28
-5.397 -1.029 2.666 17
-5.459 -0.98 2.663 16
-5.59 -0.948 2.655 6
-8.684 -1.396 2.464 11
-8.023 -1.232 2.502 4
-7.832 -1.159 2.508 0
-7.337 -1.057 2.529 0
-6.908 -0.981 2.543 0
-6.539 -0.926 2.548 0
-5.916 -0.845 2.569 8
-1.512 -0.22 2.883 4
-1.506 -0.226 2.875 43
-1.528 -0.237 2.863 38
-1.533 -0.248 2.851 20
-1.255 -0.212 2.867 7
-1.241 -0.219 2.858 10
-1.21 -0.224 2.849 12
-1.195 -0.232 2.838 16
-1.195 -0.242 2.824 8
-1.179 -0.25 2.812 3
-1.186 -0.262 2.795 12
-1.208 -0.278 2.775 10
-1.31 -0.313 2.737 12
-1.322 -0.329 2.714 13
-5.108 -1.588 2.72 7
-5.403 -1.589 2.691 11
-5.733 -1.592 2.662 9
-6.103 -1.599 2.631 4
-6.509 -1.605 2.6 7
-6.958 -1.615 2.567 4
-7.478 -1.633 2.532 14
-5.405 -1.109 2.661 23
-5.386 -1.041 2.662 18
-5.511 -1.003 2.655 14
-5.575 -0.961 2.65 10
-8.688 -1.421 2.455 14
-7.829 -1.225 2.505 5
-7.662 -1.156 2.509 0
-7.195 -1.058 2.529 0
-6.778 -0.982 2.542 0
-6.323 -0.913 2.555 0
-5.902 -0.86 2.562 19
-1.507 -0.223 2.881 6
-1.505 -0.23 2.873 43
-1.519 -0.24 2.861 35
-1.544 -0.253 2.848 17
-1.259 -0.215 2.866 6
-1.24 -0.222 2.856 11
-1.217 -0.227 2.847 12
-1.19 -0.233 2.837 16
-1.191 -0.243 2.823 9
-1.163 -0.248 2.813 0
-1.205 -0.268 2.79 9
-1.204 -0.279 2.774 12
-1.29 -0.31 2.74 10
-1.325 -0.331 2.712 14
-5.082 -1.589 2.72 7
-5.381 -1.593 2.69 19
-5.715 -1.598 2.66 19
-6.058 -1.599 2.631 8
-6.478 -1.611 2.598 24
-6.919 -1.622 2.566 20
-7.228 -1.594 2.543 6
-5.394 -1.119 2.658 20
-5.375 -1.051 2.658 34
-5.512 -1.018 2.65 16
-5.529 -0.967 2.648 10
-8.648 -1.438 2.448 11
-7.644 -1.218 2.508 6
-7.488 -1.151 2.511 0
-7.05 -1.058 2.529 0
-6.656 -0.983 2.541 0
-6.17 -0.909 2.556 0
-5.903 -0.876 2.554 23
-1.506 -0.228 2.879 7
-1.504 -0.234 2.87 42
-1.522 -0.244 2.859 30
-1.539 -0.256 2.846 14
-1.262 -0.219 2.863 6
-1.243 -0.225 2.854 8
-1.225 -0.232 2.844 13
-1.202 -0.238 2.834 16
-1.186 -0.245 2.822 10
-1.174 -0.253 2.81 5
-1.177 -0.263 2.794 16
-1.207 -0.281 2.772 15
-1.285 -0.311 2.739 10
-1.325 -0.332 2.711 16
-5.057 -1.59 2.72 16
-5.366 -1.598 2.689 6
-5.685 -1.601 2.66 5
-6.043 -1.607 2.629 22
-6.432 -1.614 2.598 4
-6.877 -1.626 2.564 4
-7.349 -1.638 2.53 7
-5.392 -1.131 2.654 19
-5.365 -1.063 2.655 60
-5.458 -1.021 2.648 25
-5.538 -0.984 2.642 2
-8.525 -1.441 2.447 5
-7.482 -1.214 2.51 6
-7.331 -1.148 2.513 0
-6.9 -1.055 2.53 0
-6.526 -0.983 2.541 0
-5.91 -0.889 2.567 10
-5.9 -0.893 2.545 97
-1.501 -0.231 2.877 9
-1.504 -0.237 2.869 40
-1.521 -0.248 2.857 29
-1.538 -0.26 2.844 10
-1.273 -0.224 2.86 5
-1.251 -0.229 2.851 8
-1.22 -0.233 2.843 12
-1.193 -0.238 2.834 14
-1.185 -0.247 2.821 16
-1.166 -0.253 2.809 2
-1.169 -0.264 2.794 23
-1.214 -0.285 2.769 16
-1.281 -0.312 2.738 16
-1.294 -0.326 2.716 14
-5.054 -1.598 2.718 14
-5.318 -1.594 2.69 5
-5.648 -1.601 2.66 5
-5.997 -1.607 2.629 4
-6.39 -1.617 2.597 8
-6.827 -1.629 2.563 10
-7.361 -1.657 2.525 12
-5.385 -1.144 2.65 18
-5.358 -1.075 2.651 75
-5.428 -1.03 2.645 33
-5.582 -1.007 2.634 2
-8.198 -1.409 2.459 1
-7.329 -1.21 2.511 4
-7.177 -1.145 2.514 0
-6.782 -1.057 2.529 0
-6.322 -0.972 2.547 0
-5.911 -0.906 2.558 13
-5.881 -0.907 2.538 7
-1.497 -0.234 2.875 12
-1.507 -0.242 2.866 36
-1.517 -0.251 2.855 25
-1.542 -0.263 2.842 7
-1.268 -0.226 2.859 3
-1.242 -0.23 2.85 8
-1.223 -0.236 2.841 13
-1.204 -0.242 2.83 15
-1.189 -0.249 2.819 19
-1.161 -0.254 2.809 2
-1.176 -0.267 2.791 17
-1.229 -0.29 2.765 17
-1.28 -0.313 2.737 18
-1.301 -0.329 2.714 15
-5.028 -1.6 2.718 7
-5.296 -1.597 2.69 7
-5.618 -1.603 2.659 14
-5.959 -1.61 2.628 7
-6.368 -1.624 2.595 23
-6.803 -1.64 2.561 16
-7.283 -1.657 2.525 4
-5.386 -1.156 2.646 17
-5.359 -1.089 2.646 159
-5.421 -1.043 2.641 28
-5.548 -1.016 2.63 4
-8.009 -1.398 2.463 1
-7.215 -1.212 2.511 1
-7.035 -1.143 2.515 0
-6.644 -1.055 2.53 0
-6.153 -0.963 2.551 1
-5.904 -0.922 2.55 17
-5.878 -0.922 2.53 4
-1.496 -0.239 2.873 13
-1.502 -0.245 2.864 36
-1.524 -0.255 2.853 17
-1.545 -0.268 2.839 6
-1.279 -0.23 2.856 1
-1.253 -0.235 2.847 8
-1.227 -0.239 2.839 12
-1.207 -0.245 2.828 17
-1.188 -0.251 2.818 19
-1.176 -0.259 2.805 8
-1.233 -0.282 2.78 9
-1.224 -0.291 2.764 16
-1.272 -0.313 2.737 20
-1.296 -0.33 2.713 16
-4.995 -1.598 2.718 7
-5.274 -1.6 2.689 24
-5.599 -1.61 2.658 11
-5.933 -1.615 2.627 30
-6.322 -1.626 2.594 4
-6.749 -1.642 2.56 4
-7.256 -1.667 2.522 14
-5.387 -1.17 2.642 18
-5.352 -1.101 2.642 165
-5.414 -1.056 2.636 14
-8.527 -1.585 2.423 3
-7.82 -1.388 2.467 1
-7.128 -1.217 2.508 0
-6.89 -1.14 2.516 0
-6.507 -1.052 2.532 0
-5.905 -0.942 2.561 11
-5.9 -0.938 2.543 52
-5.74 -0.917 2.533 1
-1.495 -0.243 2.871 12
-1.501 -0.249 2.862 31
-1.523 -0.259 2.85 15
-1.556 -0.274 2.835 3
-4.56 -0.831 2.481 0
-1.252 -0.237 2.846 6
-1.226 -0.242 2.837 9
-1.211 -0.249 2.826 16
-1.191 -0.254 2.816 20
-1.172 -0.26 2.804 4
-1.248 -0.287 2.776 10
-1.216 -0.291 2.765 17
-1.271 -0.315 2.736 32
-1.273 -0.326 2.717 21
-4.969 -1.599 2.718 8
-5.267 -1.608 2.687 10
-5.558 -1.609 2.658 4
-5.91 -1.621 2.626 6
-6.279 -1.629 2.594 8
-6.707 -1.647 2.559 14
-7.193 -1.671 2.521 3
-5.395 -1.185 2.638 17
-5.353 -1.115 2.638 85
-5.415 -1.07 2.632 16
-8.2 -1.547 2.437 1
-7.647 -1.378 2.471 1
-7.042 -1.222 2.506 0
-6.76 -1.138 2.517 0
-6.33 -1.043 2.536 0
-5.906 -0.959 2.553 13
-5.881 -0.952 2.536 5
-5.54 -0.901 2.541 0
-1.494 -0.246 2.869 12
-1.497 -0.252 2.86 25
-1.526 -0.264 2.848 13
-1.559 -0.278 2.833 0
0.0 -0.0 3.0 0
-1.263 -0.242 2.843 4
-1.233 -0.245 2.834 9
-1.218 -0.252 2.824 16
-1.187 -0.255 2.815 18
-7.746 -1.731 1.695 0
-1.255 -0.291 2.773 10
-1.215 -0.292 2.763 19
-1.267 -0.316 2.735 34
-1.264 -0.326 2.717 24
-4.948 -1.602 2.718 17
-5.23 -1.608 2.687 5
-5.528 -1.612 2.657 4
-5.861 -1.62 2.626 5
-6.256 -1.637 2.592 21
-6.691 -1.658 2.556 9
-7.154 -1.678 2.519 14
-5.424 -1.205 2.632 16
-5.358 -1.129 2.633 52
-5.416 -1.085 2.626 13
-8.004 -1.531 2.443 1
-7.481 -1.37 2.474 1
-6.947 -1.226 2.504 1
-6.63 -1.136 2.518 0
-6.138 -1.029 2.542 0
-5.903 -0.976 2.545 17
-5.858 -0.965 2.529 3
-5.439 -0.9 2.542 0
-1.486 -0.248 2.868 8
-1.492 -0.255 2.858 24
-1.525 -0.267 2.846 9
-4.587 -0.829 2.502 0
0.0 -0.0 3.0 0
-1.263 -0.244 2.841 2
-1.232 -0.248 2.833 8
-1.26 -0.264 2.815 21
-1.186 -0.257 2.813 13
0.0 -0.0 3.0 0
-1.262 -0.295 2.77 11
-1.184 -0.286 2.768 17
-1.266 -0.317 2.734 33
-1.264 -0.327 2.716 28
-4.93 -1.606 2.717 13
-5.2 -1.609 2.687 6
-5.498 -1.614 2.657 17
-5.83 -1.624 2.625 12
-6.222 -1.642 2.591 4
-3.961 -0.991 2.734 2
-7.127 -1.689 2.516 5
-5.452 -1.224 2.626 13
-5.359 -1.143 2.628 41
-5.409 -1.098 2.622 25
-7.823 -1.518 2.447 1
-7.32 -1.361 2.477 1
-6.841 -1.228 2.504 2
-6.505 -1.133 2.519 0
-5.91 -1.009 2.551 12
-5.899 -0.992 2.537 32
-5.725 -0.96 2.532 1
-5.349 -0.9 2.541 0
-1.489 -0.253 2.865 7
-1.499 -0.261 2.856 23
-1.524 -0.271 2.843 7
-4.537 -0.831 2.5 0
0.0 -0.0 3.0 0
-1.239 -0.243 2.842 0
-1.235 -0.251 2.831 6
-1.271 -0.268 2.812 21
-1.185 -0.259 2.812 12
0.0 -0.0 3.0 0
-1.265 -0.297 2.768 13
-1.157 -0.282 2.772 18
-1.258 -0.317 2.734 34
-1.263 -0.328 2.715 28
-4.908 -1.608 2.717 7
-5.174 -1.611 2.687 16
-5.483 -1.622 2.655 9
-5.819 -1.633 2.623 15
-3.95 -1.052 2.738 0
-3.924 -0.991 2.735 1
-5.547 -1.328 2.619 0
-5.444 -1.237 2.622 9
-5.367 -1.16 2.623 22
-5.413 -1.114 2.616 39
-3.938 -0.776 2.718 0
-7.171 -1.354 2.48 1
-6.731 -1.227 2.504 2
-6.336 -1.122 2.524 0
-5.902 -1.024 2.544 9
-5.876 -1.006 2.531 4
-5.529 -0.943 2.54 0
-5.26 -0.9 2.541 0
-1.488 -0.258 2.863 6
-1.502 -0.265 2.853 13
-1.531 -0.276 2.841 5
0.0 -0.0 3.0 0
0.0 -0.0 3.0 0
0.0 -0.0 3.0 0
-1.239 -0.255 2.828 3
-1.266 -0.269 2.811 16
-1.189 -0.262 2.81 10
0.0 -0.0 3.0 0
-1.264 -0.299 2.766 14
-1.144 -0.281 2.773 17
-1.253 -0.318 2.733 32
-1.259 -0.329 2.714 29
-4.874 -1.606 2.717 7
-5.167 -1.62 2.685 13
-5.445 -1.621 2.655 4
-5.777 -1.635 2.623 4
-3.867 -1.038 2.741 3
-3.879 -0.989 2.735 10
-5.551 -1.342 2.615 6
-5.461 -1.255 2.616 8
-5.38 -1.177 2.618 18
-3.922 -0.818 2.718 3
-3.917 -0.782 2.715 0
-7.022 -1.346 2.483 1
-6.629 -1.229 2.504 1
-6.151 -1.107 2.53 0
-5.907 -1.042 2.536 15
-5.853 -1.02 2.525 3
-5.424 -0.941 2.541 0
-5.174 -0.901 2.541 0
-1.487 -0.261 2.861 2
-1.497 -0.268 2.852 9
-1.542 -0.282 2.837 1
0.0 -0.0 3.0 0
0.0 -0.0 3.0 0
0.0 -0.0 3.0 0
-1.242 -0.258 2.826 2
-1.265 -0.272 2.81 10
-1.188 -0.264 2.808 8
-5.292 -1.22 2.081 0
-1.267 -0.303 2.764 15
-1.144 -0.282 2.772 12
-1.245 -0.317 2.734 32
-1.258 -0.331 2.712 30
-4.852 -1.609 2.716 8
-5.126 -1.618 2.686 5
-5.415 -1.624 2.655 5
-5.735 -1.635 2.623 6
-3.88 -1.051 2.738 4
-3.881 -0.998 2.733 9
-3.989 -0.975 2.721 1
-5.457 -1.268 2.612 6
-5.392 -1.194 2.612 16
-3.919 -0.828 2.715 7
-3.918 -0.794 2.711 1
-6.896 -1.341 2.485 1
-6.531 -1.229 2.503 0
-5.904 -1.081 2.541 10
-5.899 -1.059 2.529 20
-5.684 -1.007 2.53 1
-5.338 -0.941 2.541 0
-5.085 -0.899 2.542 0
-1.478 -0.264 2.86 0
-1.496 -0.272 2.849 8
0.0 -0.0 3.0 0
-4.385 -0.836 2.497 0
0.0 -0.0 3.0 0
0.0 -0.0 3.0 0
0.0 -0.0 3.0 0
-1.322 -0.287 2.799 11
-1.195 -0.268 2.805 7
-5.25 -1.22 2.08 1
-1.266 -0.305 2.762 14
-1.158 -0.288 2.767 9
-1.237 -0.318 2.734 30
-1.261 -0.333 2.71 31
-4.838 -1.614 2.715 17
-5.1 -1.62 2.685 5
-5.385 -1.627 2.654 18
-5.709 -1.64 2.621 22
-3.862 -1.055 2.737 12
-3.855 -1.001 2.732 16
-3.921 -0.968 2.722 1
-3.892 -0.914 2.721 1
-3.932 -0.88 2.714 2
-3.913 -0.837 2.712 8
-3.904 -0.802 2.708 0
-6.755 -1.334 2.488 1
-6.374 -1.218 2.508 0
-5.909 -1.099 2.534 8
-5.872 -1.071 2.523 3
-5.516 -0.993 2.537 0
-5.245 -0.94 2.541 0
-5.015 -0.902 2.541 0
-1.473 -0.267 2.858 0
-1.507 -0.278 2.846 7
0.0 -0.0 3.0 0
0.0 -0.0 3.0 0
0.0 -0.0 3.0 0
0.0 -0.0 3.0 0
-7.418 -1.57 1.941 0
-1.353 -0.296 2.793 11
-1.198 -0.271 2.803 6
-5.247 -1.229 2.074 2
-1.277 -0.309 2.758 13
-1.158 -0.289 2.766 8
-1.224 -0.316 2.735 29
-1.256 -0.334 2.709 33
-4.824 -1.619 2.715 14
-5.07 -1.621 2.685 8
-5.381 -1.638 2.652 10
-5.694 -1.649 2.619 7
-3.833 -1.055 2.737 19
-3.837 -1.005 2.731 16
-3.949 -0.984 2.718 4
-3.878 -0.921 2.719 2
-3.922 -0.889 2.711 10
-3.907 -0.846 2.709 15
-7.037 -1.465 2.467 1
-6.59 -1.32 2.493 1
-6.084 -1.18 2.523 0
-5.905 -1.116 2.526 15
-5.837 -1.082 2.518 2
-5.415 -0.992 2.538 0
-5.155 -0.939 2.542 0
-4.957 -0.905 2.539 0
-4.722 -0.87 2.538 0
-1.502 -0.281 2.844 0
0.0 -0.0 3.0 0
0.0 -0.0 3.0 0
0.0 -0.0 3.0 0
0.0 -0.0 3.0 0
-7.367 -1.575 1.938 0
-1.502 -0.332 2.768 7
-1.205 -0.275 2.8 3
-5.232 -1.235 2.07 2
-1.272 -0.31 2.758 11
-1.183 -0.298 2.759 7
-1.216 -0.316 2.735 26
-1.255 -0.336 2.708 35
-4.805 -1.623 2.714 7
-5.051 -1.626 2.684 20
-5.336 -1.636 2.652 4
-5.648 -1.649 2.619 5
-3.819 -1.061 2.735 16
-3.816 -1.009 2.73 22
-3.896 -0.981 2.719 7
-3.876 -0.93 2.716 6
-3.912 -0.897 2.709 16
-3.9 -0.856 2.705 14
-6.881 -1.452 2.472 1
-6.316 -1.284 2.507 1
-5.908 -1.164 2.53 7
-5.897 -1.132 2.519 11
-5.633 -1.061 2.528 0
-5.321 -0.99 2.539 0
-5.093 -0.943 2.54 0
-4.856 -0.901 2.541 0
-4.696 -0.878 2.533 0
0.0 -0.0 3.0 0
0.0 -0.0 3.0 0
0.0 -0.0 3.0 0
0.0 -0.0 3.0 0
0.0 -0.0 3.0 0
0.0 -0.0 3.0 0
-1.544 -0.344 2.759 7
-6.84 -1.576 1.855 2
-5.16 -1.228 2.075 1
-1.275 -0.313 2.755 10
-1.278 -0.323 2.738 10
-1.2 -0.314 2.737 20
-1.247 -0.336 2.708 34
-4.764 -1.619 2.715 8
-5.048 -1.636 2.682 8
-5.31 -1.64 2.651 5
-5.606 -1.65 2.619 10
-3.805 -1.067 2.734 16
-3.798 -1.014 2.728 18
-3.944 -1.003 2.712 12
-3.869 -0.94 2.713 10
-3.905 -0.906 2.706 23
-3.898 -0.866 2.702 9
-6.763 -1.446 2.474 1
-6.136 -1.265 2.514 0
-5.912 -1.182 2.522 6
-5.854 -1.141 2.516 2
-5.512 -1.055 2.53 0
-5.278 -0.998 2.535 0
-5.019 -0.944 2.539 0
-4.833 -0.91 2.536 0
-53.482 -10.151 -2.397 2
0.0 -0.0 3.0 0
0.0 -0.0 3.0 0
0.0 -0.0 3.0 0
0.0 -0.0 3.0 0
0.0 -0.0 3.0 0
0.0 -0.0 3.0 0
-1.543 -0.347 2.757 7
-3.495 -0.812 2.41 0
-5.13 -1.23 2.073 1
-1.275 -0.315 2.754 10
-1.307 -0.334 2.73 11
-1.162 -0.306 2.744 19
-1.235 -0.335 2.709 31
-4.75 -1.624 2.714 8
-5.003 -1.632 2.683 6
-5.287 -1.645 2.65 14
-5.568 -1.652 2.619 22
-3.779 -1.068 2.734 17
-3.784 -1.02 2.727 20
-3.907 -1.004 2.712 12
-3.847 -0.944 2.711 14
-3.907 -0.917 2.702 26
-3.907 -0.88 2.697 2
-6.622 -1.435 2.478 1
-5.964 -1.247 2.521 1
-5.9 -1.197 2.516 16
-5.811 -1.15 2.512 1
-5.411 -1.052 2.532 0
-5.169 -0.992 2.537 0
-4.953 -0.946 2.539 0
-4.748 -0.908 2.537 0
0.0 -0.0 3.0 0
0.0 -0.0 3.0 0
0.0 -0.0 3.0 0
0.0 -0.0 3.0 0
0.0 -0.0 3.0 0
0.0 -0.0 3.0 0
0.0 -0.0 3.0 0
-1.542 -0.35 2.755 4
-6.831 -1.601 1.837 3
-3.266 -0.789 2.405 0
-1.274 -0.318 2.752 8
-1.352 -0.347 2.719 11
-1.119 -0.296 2.752 11
-1.219 -0.332 2.712 29
-4.728 -1.627 2.713 14
-4.981 -1.637 2.682 6
-5.268 -1.65 2.649 10
-3.859 -1.153 2.734 1
-3.765 -1.073 2.732 16
-3.777 -1.027 2.725 23
-3.862 -1.002 2.713 16
-3.853 -0.956 2.708 14
-3.9 -0.927 2.699 20
-6.887 -1.569 2.46 0
-6.509 -1.429 2.48 1
-5.906 -1.252 2.519 12
-5.885 -1.211 2.511 8
-5.604 -1.126 2.522 0
-5.31 -1.048 2.533 0
-5.072 -0.989 2.539 0
-4.837 -0.938 2.543 0
-4.686 -0.909 2.537 0
-4.515 -0.883 2.531 0
0.0 -0.0 3.0 0
0.0 -0.0 3.0 0
0.0 -0.0 3.0 0
0.0 -0.0 3.0 0
0.0 -0.0 3.0 0
0.0 -0.0 3.0 0
-1.533 -0.351 2.754 1
0.0 -0.0 3.0 0
-3.198 -0.779 2.413 0
-1.281 -0.321 2.749 6
-1.389 -0.359 2.709 10
-1.115 -0.296 2.751 11
-1.215 -0.332 2.711 27
-4.717 -1.633 2.712 17
-4.958 -1.64 2.681 12
-5.227 -1.649 2.649 5
-3.864 -1.164 2.731 3
-3.755 -1.079 2.731 32
-3.763 -1.033 2.723 24
-3.828 -1.004 2.712 18
-3.842 -0.963 2.705 16
-3.898 -0.936 2.696 13
-6.754 -1.558 2.463 1
-6.356 -1.414 2.485 1
-5.816 -1.249 2.52 1
-5.853 -1.223 2.506 2
-5.491 -1.119 2.525 0
-5.228 -1.048 2.534 0
0.0 -0.0 3.0 0
-4.814 -0.948 2.538 0
0.0 -0.0 3.0 0
0.0 -0.0 3.0 0
0.0 -0.0 3.0 0
0.0 -0.0 3.0 0
0.0 -0.0 3.0 0
0.0 -0.0 3.0 0
0.0 -0.0 3.0 0
0.0 -0.0 3.0 0
-6.775 -1.568 1.902 0
-3.423 -0.816 2.407 0
-3.147 -0.773 2.418 1
-1.272 -0.322 2.749 3
-1.43 -0.372 2.699 12
-1.118 -0.299 2.749 12
-1.199 -0.33 2.713 23
-4.695 -1.636 2.712 7
-4.936 -1.643 2.681 16
-5.212 -1.657 2.648 4
-3.857 -1.171 2.73 6
-3.752 -1.088 2.729 20
-3.749 -1.038 2.722 22
-3.81 -1.009 2.711 25
-3.843 -0.974 2.702 16
-3.914 -0.951 2.691 4
-6.617 -1.545 2.468 1
-6.192 -1.395 2.492 1
-5.711 -1.244 2.523 0
-5.803 -1.23 2.503 1
-5.401 -1.117 2.526 0
-5.138 -1.045 2.535 0
-4.909 -0.986 2.54 0
0.0 -0.0 3.0 0
0.0 -0.0 3.0 0
0.0 -0.0 3.0 0
0.0 -0.0 3.0 0
0.0 -0.0 3.0 0
0.0 -0.0 3.0 0
0.0 -0.0 3.0 0
0.0 -0.0 3.0 0
0.0 -0.0 3.0 0
0.0 -0.0 3.0 0
-3.271 -0.786 2.429 0
-3.087 -0.764 2.424 7
-1.279 -0.326 2.746 0
-1.448 -0.38 2.693 10
-1.121 -0.302 2.747 11
-1.168 -0.323 2.719 19
-4.669 -1.637 2.711 8
-4.925 -1.651 2.679 6
-5.174 -1.658 2.648 10
-3.85 -1.178 2.728 5
-3.746 -1.095 2.727 21
-3.746 -1.047 2.719 21
-3.796 -1.015 2.709 27
-3.848 -0.986 2.699 19
-3.95 -0.971 2.684 1
-6.508 -1.538 2.47 0
-5.912 -1.35 2.509 7
-5.601 -1.237 2.525 1
-5.643 -1.212 2.51 0
-5.304 -1.113 2.528 0
-5.072 -1.047 2.534 0
-4.874 -0.994 2.536 0
-4.706 -0.955 2.534 0
-4.481 -0.908 2.537 0
0.0 -0.0 3.0 0
0.0 -0.0 3.0 0
0.0 -0.0 3.0 0
0.0 -0.0 3.0 0
0.0 -0.0 3.0 0
0.0 -0.0 3.0 0
0.0 -0.0 3.0 0
0.0 -0.0 3.0 0
-3.207 -0.778 2.435 0
-3.077 -0.768 2.422 7
-3.062 -0.785 2.386 33
-1.515 -0.4 2.676 7
-1.131 -0.307 2.742 11
-1.13 -0.315 2.727 13
-4.635 -1.635 2.712 8
-4.883 -1.648 2.68 6
-5.159 -1.664 2.646 15
-3.867 -1.193 2.725 4
-3.747 -1.105 2.725 18
-3.736 -1.054 2.717 26
-3.797 -1.025 2.706 34
-3.85 -0.997 2.695 16
-3.936 -0.978 2.682 1
-6.379 -1.526 2.475 1
-5.912 -1.367 2.503 5
-5.5 -1.231 2.527 0
-5.502 -1.198 2.516 0
-5.226 -1.112 2.528 0
-5.01 -1.049 2.533 0
-4.789 -0.991 2.538 0
-4.636 -0.954 2.535 0
-49.969 -10.281 -2.238 4
0.0 -0.0 3.0 0
0.0 -0.0 3.0 0
0.0 -0.0 3.0 0
0.0 -0.0 3.0 0
0.0 -0.0 3.0 0
0.0 -0.0 3.0 0
0.0 -0.0 3.0 0
-3.388 -0.806 2.435 0
-3.144 -0.769 2.441 1
-3.075 -0.773 2.417 8
-3.056 -0.79 2.383 7
-1.544 -0.41 2.668 8
-1.145 -0.313 2.737 12
-1.095 -0.307 2.733 13
-4.617 -1.639 2.711 11
-4.861 -1.652 2.679 6
-5.132 -1.668 2.645 5
-3.86 -1.2 2.723 3
-3.736 -1.111 2.723 18
-3.729 -1.062 2.715 26
-3.783 -1.032 2.704 25
-3.824 -1.0 2.694 15
-3.929 -0.988 2.679 1
-6.204 -1.501 2.483 1
-5.904 -1.382 2.497 21
-5.403 -1.225 2.53 0
-5.382 -1.188 2.52 0
-5.16 -1.114 2.527 0
-4.917 -1.045 2.535 0
-4.742 -0.995 2.536 0
0.0 -0.0 3.0 0
-49.98 -10.428 -2.313 3
-51.357 -10.765 -2.724 2
-50.349 -10.662 -2.91 3
0.0 -0.0 3.0 0
0.0 -0.0 3.0 0
0.0 -0.0 3.0 0
0.0 -0.0 3.0 0
0.0 -0.0 3.0 0
-3.259 -0.783 2.452 0
-3.088 -0.762 2.447 6
-3.073 -0.778 2.413 12
-3.046 -0.794 2.38 3
-1.539 -0.412 2.667 8
-1.145 -0.314 2.736 13
-1.09 -0.308 2.733 13
-4.606 -1.646 2.71 19
-4.835 -1.655 2.678 15
-5.102 -1.67 2.645 5
-3.873 -1.214 2.72 8
-3.73 -1.119 2.721 17
-3.727 -1.071 2.713 41
-3.772 -1.039 2.702 20
-3.825 -1.01 2.691 14
-3.922 -0.997 2.676 2
-5.917 -1.449 2.501 5
-5.872 -1.392 2.493 2
-5.349 -1.228 2.529 0
-5.284 -1.182 2.522 0
-5.086 -1.114 2.527 0
-4.828 -1.04 2.537 0
-4.653 -0.991 2.538 0
0.0 -0.0 3.0 0
-50.099 -10.6 -2.401 3
0.0 -0.0 3.0 0
-50.266 -10.784 -2.978 2
0.0 -0.0 3.0 0
0.0 -0.0 3.0 0
0.0 -0.0 3.0 0
0.0 -0.0 3.0 0
0.0 -0.0 3.0 0
-3.187 -0.773 2.459 0
-3.082 -0.767 2.443 8
-3.063 -0.783 2.41 46
-3.067 -0.804 2.372 0
-1.55 -0.418 2.662 4
-1.14 -0.315 2.735 12
-1.093 -0.31 2.731 12
-4.588 -1.65 2.709 9
-4.835 -1.666 2.676 15
-5.083 -1.677 2.644 7
-3.847 -1.215 2.719 6
-3.719 -1.125 2.72 20
-3.716 -1.078 2.711 40
-3.769 -1.048 2.699 17
-3.81 -1.018 2.689 15
-3.912 -1.006 2.673 1
-5.916 -1.466 2.495 3
-5.821 -1.397 2.492 2
-5.298 -1.232 2.527 0
-5.241 -1.189 2.52 0
-4.966 -1.102 2.532 0
-4.762 -1.04 2.537 0
0.0 -0.0 3.0 0
-48.017 -10.31 -2.029 2
-50.143 -10.756 -2.481 5
-50.325 -10.837 -2.762 4
-50.003 -10.867 -3.024 2
0.0 -0.0 3.0 0
0.0 -0.0 3.0 0
0.0 -0.0 3.0 0
0.0 -0.0 3.0 0
-3.367 -0.803 2.458 0
-3.131 -0.766 2.464 1
-3.076 -0.771 2.44 10
-3.065 -0.789 2.405 8
-3.064 -0.81 2.367 0
-1.53 -0.415 2.664 4
-1.124 -0.313 2.737 10
-1.096 -0.312 2.728 12
-4.569 -1.654 2.708 7
-4.805 -1.667 2.676 6
-5.049 -1.677 2.643 18
-3.844 -1.224 2.717 8
-3.72 -1.135 2.717 18
-3.713 -1.087 2.709 46
-3.755 -1.055 2.697 18
-3.827 -1.032 2.684 13
-6.201 -1.611 2.477 0
-5.908 -1.481 2.49 17
-5.646 -1.371 2.501 0
0.0 -0.0 3.0 0
-5.121 -1.177 2.524 0
-4.904 -1.103 2.532 0
-4.735 -1.049 2.533 0
0.0 -0.0 3.0 0
-47.743 -10.394 -2.07 2
0.0 -0.0 3.0 0
-50.318 -10.98 -2.838 3
-49.733 -10.948 -3.068 2
0.0 -0.0 3.0 0
0.0 -0.0 3.0 0
0.0 -0.0 3.0 0
0.0 -0.0 3.0 0
-3.215 -0.775 2.477 0
-3.072 -0.758 2.469 5
-3.077 -0.778 2.434 29
-3.062 -0.794 2.401 3
-1.22 -0.325 2.746 0
-1.506 -0.411 2.667 1
-1.131 -0.317 2.734 10
-1.099 -0.315 2.726 11
-4.532 -1.651 2.709 9
-4.771 -1.666 2.676 7
-5.045 -1.689 2.641 8
-3.826 -1.228 2.717 10
-3.718 -1.144 2.715 25
-3.718 -1.098 2.706 45
-3.752 -1.064 2.695 24
-3.835 -1.046 2.68 17
-5.911 -1.553 2.495 4
