# .PCD v0.7 - Point Cloud Data file format
VERSION 0.7
FIELDS x y z intensity
SIZE 4 4 4 4
TYPE F F F F
COUNT 1 1 1 1
WIDTH 2036
HEIGHT 1
VIEWPOINT 0 0 0 1 0 0 0
POINTS 2036
DATA ascii
12.733 -11.03 -4.44 8
12.324 -10.607 -4.427 8
9.68 -8.276 -3.013 0
9.689 -8.234 -3.205 4
9.258 -7.816 -3.106 4
9.001 -7.55 -3.114 2
9.15 -7.629 -3.402 3
9.301 -7.707 -3.699 3
25.647 -27.8 -1.902 42
25.863 -27.714 -2.387 35
9.325 -9.876 0.901 6
26.328 -27.579 -3.367 38
26.637 -27.592 -3.88 22
27.087 -27.754 -4.437 35
27.598 -27.987 -5.025 36
26.679 -26.772 -5.185 13
25.009 -24.849 -5.074 5
23.481 -23.098 -4.953 22
22.157 -21.591 -4.859 6
21.015 -20.284 -4.786 20
19.985 -19.119 -4.725 8
19.084 -18.093 -4.68 7
18.235 -17.141 -4.632 6
17.479 -16.29 -4.596 7
16.777 -15.511 -4.565 6
16.125 -14.787 -4.534 5
15.542 -14.139 -4.518 5
14.991 -13.537 -4.504 6
14.476 -12.973 -4.49 6
13.996 -12.456 -4.484 7
13.528 -11.953 -4.469 6
13.08 -11.479 -4.454 7
12.665 -11.039 -4.446 8
12.265 -10.621 -4.437 8
11.896 -10.233 -4.435 9
9.683 -8.277 -3.237 4
9.207 -7.819 -3.109 4
8.945 -7.548 -3.112 4
9.093 -7.627 -3.4 3
9.242 -7.702 -3.696 3
25.478 -27.781 -1.899 26
25.771 -27.781 -2.4 36
9.3 -9.91 0.894 12
26.174 -27.585 -3.368 31
26.49 -27.609 -3.884 27
26.928 -27.76 -4.438 21
27.388 -27.944 -5.013 21
26.485 -26.743 -5.176 13
24.815 -24.81 -5.061 5
23.308 -23.071 -4.944 16
22.002 -21.575 -4.853 5
20.883 -20.284 -4.786 9
19.851 -19.11 -4.721 8
18.97 -18.097 -4.682 6
18.117 -17.138 -4.63 7
17.37 -16.291 -4.597 8
16.675 -15.514 -4.567 6
16.037 -14.799 -4.541 5
15.45 -14.144 -4.521 5
14.904 -13.543 -4.507 5
14.393 -12.98 -4.494 6
13.918 -12.463 -4.489 6
13.454 -11.961 -4.474 6
13.01 -11.489 -4.461 7
12.591 -11.041 -4.447 7
12.198 -10.628 -4.441 8
11.836 -10.243 -4.442 9
9.712 -8.353 -3.294 3
9.158 -7.825 -3.113 4
8.892 -7.548 -3.112 4
9.026 -7.615 -3.39 3
9.177 -7.694 -3.688 3
25.478 -27.946 -1.928 41
25.636 -27.8 -2.404 41
25.816 -27.674 -2.882 26
26.018 -27.587 -3.369 24
26.336 -27.615 -3.885 21
26.709 -27.704 -4.423 20
27.135 -27.857 -4.988 21
26.314 -26.734 -5.173 12
24.635 -24.783 -5.052 5
23.141 -23.049 -4.937 14
21.848 -21.558 -4.847 5
20.73 -20.261 -4.777 5
19.72 -19.104 -4.718 8
18.85 -18.096 -4.681 6
18.008 -17.142 -4.632 6
17.261 -16.29 -4.596 7
16.568 -15.511 -4.565 6
15.938 -14.8 -4.541 5
15.361 -14.151 -4.524 6
14.82 -13.551 -4.511 5
14.316 -12.991 -4.501 6
13.84 -12.471 -4.493 8
13.385 -11.974 -4.482 6
12.943 -11.5 -4.468 7
12.528 -11.054 -4.456 8
12.134 -10.637 -4.448 9
11.773 -10.251 -4.448 9
10.087 -8.728 -3.577 4
9.112 -7.832 -3.119 4
8.844 -7.553 -3.116 4
8.965 -7.609 -3.384 3
9.113 -7.684 -3.679 3
25.391 -28.016 -1.94 35
25.509 -27.828 -2.409 35
25.647 -27.66 -2.879 38
25.893 -27.62 -3.376 33
26.155 -27.592 -3.88 21
26.532 -27.689 -4.419 23
26.929 -27.816 -4.976 20
26.116 -26.697 -5.162 10
24.464 -24.764 -5.046 5
22.98 -23.032 -4.93 12
21.699 -21.545 -4.842 6
20.593 -20.254 -4.775 5
19.592 -19.099 -4.716 7
18.722 -18.087 -4.677 6
17.897 -17.144 -4.633 6
17.157 -16.295 -4.598 7
16.475 -15.522 -4.571 6
15.842 -14.803 -4.543 5
15.272 -14.158 -4.528 6
14.738 -13.561 -4.517 5
14.233 -12.997 -4.504 6
13.761 -12.478 -4.498 7
13.306 -11.977 -4.484 6
12.873 -11.509 -4.474 7
12.462 -11.064 -4.463 7
12.072 -10.648 -4.456 8
11.715 -10.263 -4.457 9
9.962 -8.672 -3.535 22
9.058 -7.833 -3.12 4
8.799 -7.559 -3.121 4
8.909 -7.607 -3.383 3
9.048 -7.675 -3.672 3
25.307 -28.09 -1.953 42
25.478 -27.961 -2.435 40
25.675 -27.856 -2.921 35
25.81 -27.698 -3.395 35
26.082 -27.683 -3.902 34
26.344 -27.662 -4.412 22
26.709 -27.76 -4.96 32
25.926 -26.668 -5.153 10
24.28 -24.73 -5.035 5
22.814 -23.008 -4.922 12
21.54 -21.521 -4.833 5
20.451 -20.241 -4.77 5
19.461 -19.091 -4.713 7
18.605 -18.087 -4.677 6
17.78 -17.139 -4.631 7
17.046 -16.291 -4.597 7
16.377 -15.527 -4.573 6
15.751 -14.811 -4.547 5
15.189 -14.169 -4.534 5
14.654 -13.569 -4.521 5
14.148 -13.001 -4.506 6
13.68 -12.482 -4.5 8
13.238 -11.99 -4.492 6
12.806 -11.52 -4.481 7
12.394 -11.072 -4.468 8
12.008 -10.657 -4.462 8
11.652 -10.271 -4.462 9
9.862 -8.637 -3.509 27
9.015 -7.843 -3.127 4
8.751 -7.563 -3.125 4
8.842 -7.594 -3.372 3
8.987 -7.668 -3.666 3
25.215 -28.155 -1.964 44
25.398 -28.041 -2.451 39
25.584 -27.926 -2.936 37
25.724 -27.774 -3.412 36
26.0 -27.766 -3.923 26
26.27 -27.754 -4.437 30
26.523 -27.736 -4.953 23
25.718 -26.617 -5.138 11
24.095 -24.695 -5.024 5
22.665 -23.0 -4.92 23
21.392 -21.507 -4.828 6
20.314 -20.232 -4.766 5
19.331 -19.082 -4.71 7
18.489 -18.088 -4.678 6
17.669 -17.139 -4.631 7
16.942 -16.295 -4.598 8
16.276 -15.528 -4.574 6
15.655 -14.814 -4.548 5
15.098 -14.173 -4.536 6
14.567 -13.573 -4.523 5
14.074 -13.013 -4.513 6
13.608 -12.493 -4.507 8
13.164 -11.997 -4.496 7
12.731 -11.524 -4.484 7
12.326 -11.079 -4.473 8
11.949 -10.669 -4.471 7
11.595 -10.282 -4.47 9
9.832 -8.663 -3.528 24
8.969 -7.85 -3.133 4
8.709 -7.572 -3.131 4
8.784 -7.589 -3.368 3
8.931 -7.665 -3.663 3
25.131 -28.228 -1.977 42
25.3 -28.1 -2.462 42
25.443 -27.94 -2.939 35
25.624 -27.836 -3.426 31
25.889 -27.817 -3.936 33
26.131 -27.777 -4.443 31
26.321 -27.695 -4.941 32
25.526 -26.583 -5.127 12
23.934 -24.683 -5.02 5
22.51 -22.986 -4.915 24
21.249 -21.499 -4.825 5
20.181 -20.226 -4.764 5
19.209 -19.081 -4.709 8
18.372 -18.086 -4.677 6
17.561 -17.142 -4.632 7
16.842 -16.3 -4.601 7
16.17 -15.524 -4.572 6
15.564 -14.821 -4.552 5
15.012 -14.18 -4.54 5
14.488 -13.584 -4.53 5
13.994 -13.021 -4.517 6
13.533 -12.502 -4.512 8
13.093 -12.007 -4.503 6
12.664 -11.535 -4.491 7
12.263 -11.091 -4.481 8
11.88 -10.673 -4.473 8
11.529 -10.287 -4.474 9
9.783 -8.672 -3.535 20
8.925 -7.859 -3.14 4
8.664 -7.578 -3.136 4
8.731 -7.588 -3.367 3
8.861 -7.65 -3.65 3
24.996 -28.245 -1.98 41
25.199 -28.156 -2.473 43
25.394 -28.054 -2.963 40
25.57 -27.946 -3.452 36
25.727 -27.812 -3.934 34
25.933 -27.736 -4.432 44
26.144 -27.679 -4.937 23
25.351 -26.565 -5.122 13
23.761 -24.658 -5.012 5
22.358 -22.975 -4.911 22
21.105 -21.486 -4.82 5
20.048 -20.219 -4.761 5
19.09 -19.083 -4.71 7
18.253 -18.083 -4.676 6
17.45 -17.142 -4.632 6
16.742 -16.305 -4.603 7
16.08 -15.536 -4.577 6
15.474 -14.828 -4.555 6
14.918 -14.181 -4.54 6
14.404 -13.59 -4.533 5
13.915 -13.028 -4.522 6
13.457 -12.51 -4.517 11
13.016 -12.011 -4.505 6
12.592 -11.54 -4.494 7
12.195 -11.097 -4.485 8
11.821 -10.685 -4.482 8
11.472 -10.298 -4.482 9
9.74 -8.686 -3.546 24
8.877 -7.863 -3.144 4
8.619 -7.584 -3.141 4
8.67 -7.58 -3.361 3
8.811 -7.651 -3.651 3
24.917 -28.323 -1.994 51
25.145 -28.265 -2.494 38
25.308 -28.129 -2.979 39
25.457 -27.991 -3.462 38
25.656 -27.905 -3.957 36
25.872 -27.842 -4.46 34
25.937 -27.63 -4.923 21
25.18 -26.549 -5.117 10
23.586 -24.629 -5.002 5
22.221 -22.976 -4.911 13
20.955 -21.468 -4.814 5
19.918 -20.214 -4.76 5
18.958 -19.07 -4.705 7
18.137 -18.082 -4.675 6
17.342 -17.144 -4.633 7
16.636 -16.305 -4.603 7
15.982 -15.538 -4.579 6
15.383 -14.834 -4.558 6
14.837 -14.193 -4.547 5
14.32 -13.596 -4.536 6
13.835 -13.035 -4.526 5
13.379 -12.516 -4.52 13
12.945 -12.021 -4.511 6
12.531 -11.555 -4.504 7
12.133 -11.108 -4.493 8
11.757 -10.693 -4.487 8
11.409 -10.304 -4.487 9
9.709 -8.712 -3.565 25
8.834 -7.873 -3.151 4
8.572 -7.587 -3.144 4
8.614 -7.577 -3.358 3
8.744 -7.639 -3.641 3
24.931 -28.508 -2.027 35
25.036 -28.312 -2.503 40
25.233 -28.215 -2.997 38
25.367 -28.063 -3.479 38
25.574 -27.986 -3.978 36
25.779 -27.912 -4.479 35
25.801 -27.655 -4.93 21
24.989 -26.512 -5.106 8
23.412 -24.6 -4.993 5
22.064 -22.958 -4.905 7
20.813 -21.456 -4.809 5
19.788 -20.208 -4.757 5
18.831 -19.062 -4.701 8
18.019 -18.077 -4.673 7
17.232 -17.142 -4.632 7
16.537 -16.31 -4.605 8
15.885 -15.541 -4.58 6
15.293 -14.84 -4.562 6
14.746 -14.196 -4.548 5
14.234 -13.599 -4.538 6
13.753 -13.039 -4.528 6
13.304 -12.523 -4.525 22
12.874 -12.029 -4.517 7
12.461 -11.563 -4.509 7
12.062 -11.113 -4.496 8
11.693 -10.7 -4.492 8
11.347 -10.311 -4.491 9
9.634 -8.697 -3.554 24
8.793 -7.884 -3.16 4
8.529 -7.595 -3.151 4
8.549 -7.564 -3.347 3
8.686 -7.633 -3.636 3
24.77 -28.495 -2.024 42
24.992 -28.432 -2.527 36
25.151 -28.295 -3.014 36
25.307 -28.167 -3.503 34
25.481 -28.056 -3.995 37
25.68 -27.976 -4.496 38
25.619 -27.631 -4.923 20
24.792 -26.466 -5.091 7
23.244 -24.576 -4.985 5
21.903 -22.932 -4.896 5
20.672 -21.445 -4.805 5
19.648 -20.192 -4.751 5
18.707 -19.057 -4.7 8
17.909 -18.08 -4.674 7
17.124 -17.143 -4.633 6
16.434 -16.312 -4.606 8
15.787 -15.544 -4.581 6
15.201 -14.844 -4.563 5
14.661 -14.203 -4.552 5
14.158 -13.612 -4.545 5
13.679 -13.051 -4.535 6
13.229 -12.531 -4.529 27
12.801 -12.035 -4.52 6
12.392 -11.57 -4.514 6
12.002 -11.126 -4.504 8
11.635 -10.712 -4.501 8
11.292 -10.324 -4.501 9
9.532 -8.658 -3.524 24
8.745 -7.888 -3.163 4
8.484 -7.601 -3.155 4
8.493 -7.56 -3.343 3
8.63 -7.63 -3.632 3
24.728 -28.617 -2.046 35
24.952 -28.559 -2.551 36
25.072 -28.377 -3.032 38
25.224 -28.248 -3.522 35
25.39 -28.128 -4.013 37
25.567 -28.026 -4.51 36
25.425 -27.591 -4.912 23
24.616 -26.442 -5.084 6
23.065 -24.539 -4.973 5
21.734 -22.899 -4.885 5
20.526 -21.427 -4.799 5
19.521 -20.188 -4.75 5
18.584 -19.05 -4.697 8
17.79 -18.074 -4.672 7
17.014 -17.14 -4.631 6
16.329 -16.31 -4.605 7
15.695 -15.551 -4.585 6
15.111 -14.849 -4.566 5
14.578 -14.211 -4.556 5
14.075 -13.617 -4.548 6
13.6 -13.056 -4.538 6
13.154 -12.538 -4.534 32
12.73 -12.044 -4.526 6
12.328 -11.582 -4.521 7
11.94 -11.136 -4.511 8
11.571 -10.72 -4.506 8
11.232 -10.332 -4.507 9
9.518 -8.698 -3.555 18
8.696 -7.893 -3.166 4
8.442 -7.609 -3.162 4
8.435 -7.553 -3.338 3
8.57 -7.621 -3.625 3
24.795 -28.866 -2.09 32
24.819 -28.578 -2.555 28
25.019 -28.49 -3.056 35
25.058 -28.233 -3.518 37
25.297 -28.197 -4.03 39
25.479 -28.101 -4.53 37
25.244 -27.565 -4.904 31
24.424 -26.401 -5.071 6
22.913 -24.53 -4.97 5
21.581 -22.88 -4.878 5
20.391 -21.42 -4.796 5
19.378 -20.167 -4.741 5
18.466 -19.049 -4.696 8
17.675 -18.071 -4.671 6
16.912 -17.146 -4.634 7
16.227 -16.311 -4.606 7
15.595 -15.55 -4.584 5
15.018 -14.852 -4.567 5
14.49 -14.215 -4.558 5
13.994 -13.625 -4.552 5
13.521 -13.062 -4.541 6
13.077 -12.542 -4.536 35
12.662 -12.054 -4.532 5
12.262 -11.591 -4.528 7
11.869 -11.139 -4.513 8
11.507 -10.727 -4.511 8
11.172 -10.34 -4.513 9
9.467 -8.704 -3.559 20
8.651 -7.898 -3.171 4
8.4 -7.617 -3.168 4
8.378 -7.546 -3.332 7
8.509 -7.612 -3.617 3
24.757 -28.995 -2.113 31
24.846 -28.783 -2.595 28
24.96 -28.595 -3.078 32
25.015 -28.357 -3.547 37
25.148 -28.204 -4.032 37
25.384 -28.171 -4.548 41
25.074 -27.55 -4.9 28
24.241 -26.366 -5.061 6
22.746 -24.504 -4.962 5
21.434 -22.867 -4.874 5
20.253 -21.409 -4.792 4
19.257 -20.168 -4.742 5
18.343 -19.041 -4.693 9
17.563 -18.07 -4.67 6
16.805 -17.146 -4.634 7
16.13 -16.316 -4.608 7
15.498 -15.551 -4.585 6
14.931 -14.859 -4.571 5
14.41 -14.226 -4.564 5
13.908 -13.626 -4.553 5
13.442 -13.068 -4.545 6
13.007 -12.554 -4.543 35
12.592 -12.062 -4.537 6
12.192 -11.598 -4.532 7
11.809 -11.152 -4.522 8
11.449 -10.738 -4.519 8
11.112 -10.348 -4.519 8
9.444 -8.736 -3.583 21
8.607 -7.907 -3.177 4
8.353 -7.619 -3.17 4
8.323 -7.542 -3.329 5
8.456 -7.61 -3.615 3
24.67 -29.067 -2.125 35
24.802 -28.906 -2.619 28
24.901 -28.701 -3.101 33
25.018 -28.534 -3.588 35
25.081 -28.301 -4.056 43
25.308 -28.26 -4.572 38
24.928 -27.56 -4.903 23
24.058 -26.331 -5.05 6
22.584 -24.482 -4.955 5
21.274 -22.84 -4.864 5
20.108 -21.39 -4.785 5
19.126 -20.157 -4.738 4
18.212 -19.025 -4.687 14
17.451 -18.068 -4.669 7
16.701 -17.146 -4.634 7
16.034 -16.322 -4.611 8
15.401 -15.552 -4.585 6
14.841 -14.863 -4.573 5
14.32 -14.226 -4.564 5
13.832 -13.638 -4.56 5
13.373 -13.084 -4.554 6
12.935 -12.563 -4.548 30
12.518 -12.067 -4.54 5
12.121 -11.601 -4.534 7
11.747 -11.162 -4.529 8
11.385 -10.744 -4.523 8
11.052 -10.356 -4.524 8
9.393 -8.743 -3.588 25
8.564 -7.915 -3.184 4
8.316 -7.632 -3.18 4
8.276 -7.545 -3.331 4
8.396 -7.601 -3.607 3
24.559 -29.112 -2.133 29
24.745 -29.015 -2.64 39
24.848 -28.816 -3.125 33
24.953 -28.634 -3.611 35
25.023 -28.411 -4.084 43
25.205 -28.32 -4.588 38
24.793 -27.58 -4.909 28
23.879 -26.298 -5.04 6
22.425 -24.463 -4.948 4
21.131 -22.828 -4.86 5
19.973 -21.381 -4.782 5
19.003 -20.154 -4.736 5
18.087 -19.015 -4.682 15
17.336 -18.063 -4.667 7
16.599 -17.151 -4.636 7
15.935 -16.324 -4.612 7
15.32 -15.568 -4.593 6
14.754 -14.87 -4.577 5
14.235 -14.232 -4.567 5
13.752 -13.645 -4.563 5
13.292 -13.086 -4.555 6
12.863 -12.572 -4.554 7
12.448 -12.074 -4.545 6
12.057 -11.613 -4.541 6
11.679 -11.167 -4.532 8
11.326 -10.755 -4.531 7
10.995 -10.367 -4.532 9
9.342 -8.748 -3.592 23
8.519 -7.921 -3.189 4
8.279 -7.644 -3.19 4
8.275 -7.589 -3.368 4
8.341 -7.596 -3.603 3
24.482 -29.196 -2.148 33
24.677 -29.111 -2.659 40
24.804 -28.94 -3.151 32
24.895 -28.743 -3.636 38
24.947 -28.499 -4.106 49
25.147 -28.429 -4.618 37
24.637 -27.578 -4.908 23
23.705 -26.27 -5.032 6
22.253 -24.427 -4.937 5
20.969 -22.796 -4.849 5
19.829 -21.36 -4.774 5
18.872 -20.142 -4.732 5
17.978 -19.019 -4.684 14
17.232 -18.069 -4.67 6
16.496 -17.152 -4.637 7
15.83 -16.32 -4.61 8
15.221 -15.565 -4.592 6
14.665 -14.874 -4.578 5
14.153 -14.239 -4.571 5
13.674 -13.653 -4.568 5
13.216 -13.092 -4.559 7
12.786 -12.574 -4.555 6
12.383 -12.086 -4.552 7
11.993 -11.624 -4.549 7
11.62 -11.179 -4.541 7
11.265 -10.764 -4.537 8
10.933 -10.371 -4.535 9
9.27 -8.734 -3.582 24
8.47 -7.924 -3.191 2
8.278 -7.689 -3.227 3
8.273 -7.633 -3.405 5
8.281 -7.587 -3.595 8
24.691 -29.623 -2.223 22
24.588 -29.183 -2.673 20
24.768 -29.076 -3.18 31
24.846 -28.864 -3.664 33
24.942 -28.67 -4.148 39
25.08 -28.53 -4.645 36
24.491 -27.587 -4.91 20
23.524 -26.232 -5.02 6
22.085 -24.394 -4.926 5
20.818 -22.774 -4.842 5
19.684 -21.338 -4.766 5
18.747 -20.135 -4.729 5
17.866 -19.022 -4.685 5
17.115 -18.06 -4.666 6
16.392 -17.152 -4.636 7
15.737 -16.326 -4.613 7
15.132 -15.573 -4.595 6
14.578 -14.88 -4.582 5
14.063 -14.237 -4.57 5
13.593 -13.659 -4.571 6
13.142 -13.102 -4.565 6
12.719 -12.588 -4.564 7
12.312 -12.093 -4.557 7
11.924 -11.629 -4.552 7
11.552 -11.183 -4.543 7
11.207 -10.774 -4.544 8
10.876 -10.38 -4.542 9
9.224 -8.744 -3.589 12
8.432 -7.937 -3.201 0
8.268 -7.727 -3.257 3
8.28 -7.686 -3.449 4
8.277 -7.628 -3.631 3
24.675 -29.784 -2.252 28
24.7 -29.494 -2.733 21
24.743 -29.224 -3.212 25
24.8 -28.988 -3.692 35
24.896 -28.795 -4.179 39
25.015 -28.633 -4.672 37
24.32 -27.565 -4.904 14
23.335 -26.185 -5.006 6
21.927 -24.373 -4.919 5
20.657 -22.74 -4.83 5
19.561 -21.339 -4.767 6
18.617 -20.121 -4.724 5
17.741 -19.008 -4.68 15
17.012 -18.065 -4.668 7
16.286 -17.149 -4.635 7
15.638 -16.327 -4.613 7
15.033 -15.569 -4.594 6
14.487 -14.881 -4.582 5
13.986 -14.25 -4.577 5
13.51 -13.661 -4.573 6
13.066 -13.109 -4.568 6
12.642 -12.59 -4.565 8
12.242 -12.1 -4.561 7
11.858 -11.637 -4.557 7
11.492 -11.195 -4.551 7
11.141 -10.778 -4.547 8
10.813 -10.385 -4.545 8
9.167 -8.744 -3.589 4
8.96 -8.485 -3.629 21
8.285 -7.79 -3.308 3
8.283 -7.735 -3.491 3
8.277 -7.675 -3.671 3
24.719 -30.017 -2.293 28
24.722 -29.7 -2.773 25
24.727 -29.384 -3.246 25
24.766 -29.127 -3.725 32
24.844 -28.913 -4.209 34
24.948 -28.734 -4.699 37
24.136 -27.527 -4.893 9
23.178 -26.172 -5.002 6
21.77 -24.351 -4.912 6
20.501 -22.712 -4.82 5
19.412 -21.311 -4.757 5
18.502 -20.125 -4.725 5
17.609 -18.987 -4.671 19
16.893 -18.053 -4.663 7
16.185 -17.152 -4.636 6
15.537 -16.325 -4.613 8
14.939 -15.571 -4.595 6
14.398 -14.883 -4.583 5
13.901 -14.254 -4.579 5
13.433 -13.669 -4.577 5
12.987 -13.113 -4.571 6
12.573 -12.601 -4.571 7
12.172 -12.106 -4.565 7
11.792 -11.644 -4.562 6
11.427 -11.202 -4.556 7
11.08 -10.785 -4.552 8
10.759 -10.397 -4.554 9
9.129 -8.761 -3.602 9
8.933 -8.511 -3.649 25
8.283 -7.835 -3.345 3
8.283 -7.783 -3.53 3
8.28 -7.723 -3.714 3
24.576 -30.025 -2.294 22
24.624 -29.764 -2.786 21
24.725 -29.562 -3.284 23
24.747 -29.284 -3.761 26
24.804 -29.045 -4.242 34
24.813 -28.757 -4.705 42
23.927 -27.46 -4.874 8
23.001 -26.135 -4.99 6
21.616 -24.331 -4.906 5
20.362 -22.701 -4.816 5
19.279 -21.299 -4.752 6
18.367 -20.104 -4.717 5
17.503 -18.993 -4.674 29
16.789 -18.056 -4.664 6
16.081 -17.151 -4.636 6
15.442 -16.328 -4.614 8
14.851 -15.578 -4.598 6
14.314 -14.89 -4.587 5
13.822 -14.263 -4.584 5
13.355 -13.676 -4.581 5
12.914 -13.121 -4.575 6
12.501 -12.608 -4.576 7
12.104 -12.115 -4.57 7
11.723 -11.649 -4.565 7
11.365 -11.21 -4.562 7
11.019 -10.793 -4.558 7
10.702 -10.406 -4.56 9
9.065 -8.753 -3.596 16
8.865 -8.498 -3.639 16
8.278 -7.879 -3.38 3
8.283 -7.83 -3.57 3
8.283 -7.773 -3.757 3
24.055 -29.568 -2.214 18
24.654 -29.982 -2.828 22
24.74 -29.763 -3.326 22
24.732 -29.447 -3.798 23
24.772 -29.188 -4.277 32
24.658 -28.756 -4.705 36
23.783 -27.466 -4.876 10
22.821 -26.095 -4.978 6
21.459 -24.307 -4.898 6
20.212 -22.676 -4.808 6
19.144 -21.284 -4.747 6
18.258 -20.112 -4.72 5
17.387 -18.987 -4.671 32
16.678 -18.052 -4.662 6
15.978 -17.15 -4.636 7
15.343 -16.328 -4.614 7
14.76 -15.581 -4.599 6
14.228 -14.895 -4.59 5
13.74 -14.269 -4.587 6
13.278 -13.683 -4.585 6
12.833 -13.121 -4.576 6
12.43 -12.615 -4.58 7
12.037 -12.123 -4.575 6
11.662 -11.662 -4.573 7
11.301 -11.216 -4.565 8
10.961 -10.803 -4.564 7
10.642 -10.412 -4.565 8
8.979 -8.724 -3.574 21
8.789 -8.477 -3.623 10
8.285 -7.934 -3.425 3
8.283 -7.877 -3.609 3
8.28 -7.817 -3.795 3
27.664 -34.211 -3.032 5
24.695 -30.216 -2.873 28
24.799 -30.018 -3.381 19
24.731 -29.629 -3.84 23
24.723 -29.311 -4.308 40
24.551 -28.811 -4.72 34
23.654 -27.489 -4.882 12
22.65 -26.061 -4.968 5
21.295 -24.273 -4.887 5
20.065 -22.654 -4.801 6
19.014 -21.274 -4.743 6
18.121 -20.088 -4.711 6
17.287 -18.998 -4.676 20
16.57 -18.05 -4.662 6
15.873 -17.145 -4.634 7
15.251 -16.333 -4.616 7
14.67 -15.584 -4.601 6
14.147 -14.905 -4.595 5
13.656 -14.271 -4.588 6
13.198 -13.688 -4.587 6
12.763 -13.132 -4.582 6
12.361 -12.625 -4.586 7
11.972 -12.134 -4.582 7
11.598 -11.671 -4.579 7
11.236 -11.222 -4.57 8
10.9 -10.81 -4.569 7
10.585 -10.421 -4.571 9
8.956 -8.755 -3.597 19
8.676 -8.42 -3.579 26
9.433 -9.088 -4.359 24
8.283 -7.925 -3.65 3
8.284 -7.868 -3.84 3
27.558 -34.289 -3.046 9
24.79 -30.52 -2.932 1
24.702 -30.085 -3.395 38
24.709 -29.787 -3.877 27
24.734 -29.508 -4.357 23
24.442 -28.863 -4.734 33
23.533 -27.52 -4.891 12
22.479 -26.028 -4.958 7
21.144 -24.254 -4.881 6
19.924 -22.638 -4.795 6
18.884 -21.263 -4.739 5
18.005 -20.087 -4.711 5
17.169 -18.989 -4.672 16
16.47 -18.055 -4.664 6
15.775 -17.149 -4.635 6
15.153 -16.332 -4.616 7
14.582 -15.59 -4.604 6
14.05 -14.898 -4.591 5
13.574 -14.277 -4.591 5
13.123 -13.697 -4.592 6
12.69 -13.14 -4.587 6
12.284 -12.626 -4.587 7
11.904 -12.142 -4.587 7
11.535 -11.68 -4.585 7
11.176 -11.233 -4.577 8
10.839 -10.817 -4.574 7
10.526 -10.427 -4.575 8
8.923 -8.777 -3.614 14
8.629 -8.426 -3.583 28
8.8 -8.53 -3.907 9
8.287 -7.977 -3.693 3
8.278 -7.91 -3.876 4
38.75 -48.508 -5.553 5
37.166 -46.037 -5.949 10
24.983 -30.616 -3.508 11
24.644 -29.894 -3.902 36
24.659 -29.602 -4.381 40
24.283 -28.854 -4.731 19
23.415 -27.553 -4.901 14
22.314 -26.0 -4.949 6
20.986 -24.226 -4.871 5
19.778 -22.615 -4.787 6
18.76 -21.257 -4.737 6
17.881 -20.076 -4.707 5
17.056 -18.984 -4.67 22
16.36 -18.049 -4.661 6
15.675 -17.149 -4.635 6
15.06 -16.335 -4.617 7
14.491 -15.592 -4.605 6
13.975 -14.913 -4.599 5
13.488 -14.276 -4.591 5
13.043 -13.701 -4.594 6
12.614 -13.145 -4.589 6
12.22 -12.64 -4.595 7
11.839 -12.153 -4.594 7
11.469 -11.687 -4.59 7
11.114 -11.241 -4.582 7
10.779 -10.823 -4.579 8
10.471 -10.438 -4.583 8
8.867 -8.776 -3.613 20
8.597 -8.446 -3.599 28
9.32 -9.09 -4.361 24
8.76 -8.484 -4.119 8
8.287 -7.966 -3.925 3
26.982 -33.983 -2.992 17
36.949 -46.05 -5.951 9
0.0 -0.0 3.0 0
25.063 -30.591 -4.062 5
24.711 -29.851 -4.443 22
24.131 -28.853 -4.731 20
23.291 -27.581 -4.909 15
22.146 -25.968 -4.939 7
20.826 -24.194 -4.861 6
19.635 -22.594 -4.78 5
18.623 -21.237 -4.73 6
17.768 -20.077 -4.707 5
16.945 -18.982 -4.669 24
16.257 -18.05 -4.662 7
15.575 -17.149 -4.635 7
14.962 -16.333 -4.616 7
14.403 -15.597 -4.607 6
13.891 -14.918 -4.601 5
13.412 -14.286 -4.596 5
12.964 -13.704 -4.596 6
12.539 -13.15 -4.592 6
12.144 -12.641 -4.596 6
11.772 -12.16 -4.598 7
11.403 -11.694 -4.594 7
11.052 -11.248 -4.587 7
10.718 -10.83 -4.584 7
10.417 -10.448 -4.591 9
8.821 -8.785 -3.62 10
8.542 -8.444 -3.597 20
8.957 -8.79 -4.118 61
8.717 -8.494 -4.127 10
8.285 -8.013 -3.966 3
26.828 -33.997 -2.995 8
0.0 -0.0 3.0 0
0.0 -0.0 3.0 0
29.758 -36.548 -5.438 5
24.862 -30.22 -4.535 19
23.961 -28.831 -4.725 17
23.175 -27.617 -4.919 15
21.986 -25.944 -4.932 6
20.671 -24.166 -4.852 5
19.495 -22.576 -4.773 6
18.494 -21.225 -4.725 6
17.648 -20.068 -4.703 5
16.833 -18.977 -4.667 23
16.153 -18.049 -4.661 6
15.475 -17.149 -4.635 7
14.87 -16.337 -4.618 8
14.308 -15.594 -4.605 6
13.806 -14.922 -4.603 5
13.333 -14.293 -4.6 5
12.887 -13.71 -4.599 6
12.466 -13.157 -4.596 6
12.075 -12.649 -4.601 8
11.702 -12.165 -4.601 7
11.337 -11.7 -4.598 6
10.993 -11.258 -4.594 7
10.662 -10.842 -4.591 8
10.357 -10.454 -4.595 8
10.061 -10.083 -4.598 10
8.497 -8.452 -3.604 24
9.23 -9.114 -4.38 12
8.659 -8.489 -4.123 28
8.364 -8.139 -4.075 6
37.745 -48.126 -5.486 5
0.0 -0.0 3.0 0
0.0 -0.0 3.0 0
29.501 -36.458 -5.417 5
25.394 -31.06 -4.744 18
23.758 -28.765 -4.708 20
23.059 -27.653 -4.929 16
21.822 -25.913 -4.922 6
20.522 -24.144 -4.845 6
19.358 -22.559 -4.768 6
18.358 -21.203 -4.717 6
17.532 -20.065 -4.702 5
16.726 -18.976 -4.667 23
16.048 -18.047 -4.661 7
15.378 -17.151 -4.636 7
14.781 -16.343 -4.621 8
14.228 -15.606 -4.612 6
13.723 -14.927 -4.606 5
13.247 -14.292 -4.599 5
12.807 -13.712 -4.601 6
12.396 -13.167 -4.602 6
12.009 -12.66 -4.607 8
11.632 -12.169 -4.604 7
11.276 -11.711 -4.605 7
10.926 -11.26 -4.595 8
10.602 -10.848 -4.596 7
10.301 -10.461 -4.6 8
10.003 -10.087 -4.601 9
8.475 -8.483 -3.627 31
0.0 -0.0 3.0 0
8.621 -8.504 -4.136 13
8.381 -8.206 -4.133 9
37.446 -48.039 -5.471 6
0.0 -0.0 3.0 0
0.0 -0.0 3.0 0
29.235 -36.355 -5.393 4
25.249 -31.077 -4.748 24
23.547 -28.69 -4.688 19
22.933 -27.675 -4.936 14
21.656 -25.879 -4.912 6
20.375 -24.124 -4.838 5
19.22 -22.542 -4.762 6
18.237 -21.198 -4.715 6
17.402 -20.043 -4.694 5
16.616 -18.974 -4.666 23
15.948 -18.05 -4.662 6
15.281 -17.152 -4.636 6
14.686 -16.343 -4.621 7
14.136 -15.604 -4.611 6
13.635 -14.927 -4.606 5
13.171 -14.301 -4.604 5
12.735 -13.722 -4.606 6
12.32 -13.171 -4.604 6
11.938 -12.666 -4.61 7
11.573 -12.184 -4.613 7
11.208 -11.714 -4.607 7
10.869 -11.273 -4.604 7
10.541 -10.854 -4.6 8
10.241 -10.466 -4.604 8
9.95 -10.096 -4.608 9
8.447 -8.507 -3.647 28
0.0 -0.0 3.0 0
8.579 -8.514 -4.144 10
8.337 -8.212 -4.139 9
37.129 -47.927 -5.451 5
0.0 -0.0 3.0 0
31.973 -40.415 -5.59 7
28.966 -36.247 -5.368 4
25.001 -30.966 -4.721 16
23.387 -28.675 -4.683 20
22.817 -27.71 -4.946 15
21.492 -25.848 -4.902 6
20.222 -24.095 -4.829 5
19.089 -22.531 -4.758 6
18.114 -21.189 -4.712 5
17.292 -20.044 -4.694 5
16.512 -18.975 -4.666 22
15.841 -18.045 -4.66 7
15.182 -17.151 -4.636 7
14.594 -16.345 -4.622 7
14.051 -15.611 -4.614 6
13.552 -14.931 -4.608 5
13.092 -14.307 -4.607 5
12.656 -13.725 -4.608 5
12.253 -13.182 -4.611 5
11.862 -12.666 -4.61 6
11.501 -12.185 -4.614 7
11.143 -11.719 -4.61 6
10.807 -11.28 -4.609 7
10.486 -10.865 -4.608 7
10.184 -10.474 -4.61 8
9.892 -10.1 -4.611 9
8.444 -8.557 -3.686 7
9.103 -9.156 -4.414 11
8.533 -8.521 -4.15 10
8.293 -8.218 -4.144 7
36.83 -47.834 -5.434 5
0.0 -0.0 3.0 0
31.722 -40.347 -5.576 14
28.724 -36.169 -5.35 4
24.694 -30.779 -4.674 18
23.212 -28.641 -4.674 21
22.696 -27.738 -4.954 14
21.337 -25.824 -4.895 6
20.071 -24.068 -4.82 5
18.959 -22.522 -4.755 6
17.991 -21.181 -4.709 5
17.175 -20.036 -4.691 5
16.4 -18.968 -4.664 22
15.737 -18.042 -4.658 7
15.088 -17.153 -4.637 7
14.497 -16.342 -4.62 7
13.959 -15.608 -4.612 6
13.467 -14.933 -4.609 5
13.004 -14.302 -4.605 5
12.587 -13.738 -4.615 6
12.18 -13.188 -4.614 6
11.793 -12.673 -4.615 7
11.434 -12.191 -4.618 7
11.077 -11.724 -4.614 6
10.751 -11.292 -4.616 7
10.43 -10.876 -4.615 7
10.128 -10.481 -4.615 9
9.839 -10.109 -4.618 9
9.559 -9.747 -4.615 10
8.583 -8.686 -4.034 13
8.544 -8.584 -4.203 11
8.268 -8.244 -4.166 8
36.538 -47.749 -5.419 6
0.0 -0.0 3.0 0
31.454 -40.257 -5.557 16
28.494 -36.106 -5.336 3
24.51 -30.742 -4.665 23
23.018 -28.582 -4.658 34
22.573 -27.763 -4.961 14
21.177 -25.793 -4.886 6
19.921 -24.041 -4.811 6
18.818 -22.498 -4.747 6
17.866 -21.169 -4.705 6
17.053 -20.022 -4.686 6
16.293 -18.966 -4.663 21
15.636 -18.041 -4.658 7
14.987 -17.149 -4.635 6
14.408 -16.346 -4.622 7
13.879 -15.62 -4.618 6
13.389 -14.943 -4.614 5
12.933 -14.316 -4.612 6
12.508 -13.739 -4.616 6
12.103 -13.188 -4.614 6
11.73 -12.685 -4.622 7
11.369 -12.2 -4.623 7
11.021 -11.74 -4.624 7
10.684 -11.293 -4.617 7
10.372 -10.884 -4.621 7
10.078 -10.496 -4.626 9
9.786 -10.118 -4.624 9
9.511 -9.76 -4.625 13
8.561 -8.718 -4.06 13
8.631 -8.726 -4.322 36
8.272 -8.299 -4.214 5
36.214 -47.62 -5.397 4
0.0 -0.0 3.0 0
31.199 -40.181 -5.541 10
27.33 -34.849 -5.045 4
24.398 -30.795 -4.678 11
22.88 -28.591 -4.661 20
22.425 -27.756 -4.959 15
21.022 -25.769 -4.878 7
19.775 -24.018 -4.804 5
18.685 -22.482 -4.741 6
17.741 -21.156 -4.7 6
16.941 -20.02 -4.685 5
16.194 -18.974 -4.666 14
15.529 -18.034 -4.655 7
14.893 -17.151 -4.636 7
14.314 -16.344 -4.621 7
13.795 -15.624 -4.62 6
13.302 -14.941 -4.613 6
12.857 -14.324 -4.616 6
12.434 -13.746 -4.619 6
12.038 -13.202 -4.622 5
11.661 -12.693 -4.626 7
11.302 -12.206 -4.627 7
10.956 -11.744 -4.627 7
10.622 -11.3 -4.622 7
10.314 -10.891 -4.626 7
10.019 -10.5 -4.629 8
9.73 -10.124 -4.629 9
9.457 -9.765 -4.629 17
0.0 -0.0 3.0 0
8.651 -8.799 -4.384 27
8.271 -8.348 -4.257 7
35.927 -47.536 -5.382 5
0.0 -0.0 3.0 0
30.897 -40.042 -5.511 4
27.038 -34.693 -5.01 4
24.214 -30.756 -4.668 7
22.731 -28.586 -4.66 18
22.27 -27.74 -4.954 14
20.865 -25.74 -4.869 6
19.628 -23.993 -4.796 5
18.559 -22.474 -4.738 6
17.624 -21.152 -4.699 6
16.832 -20.019 -4.685 5
16.068 -18.947 -4.655 17
15.431 -18.036 -4.656 7
14.797 -17.151 -4.636 6
14.225 -16.348 -4.623 7
13.705 -15.624 -4.62 5
13.222 -14.948 -4.616 5
12.774 -14.323 -4.616 6
12.36 -13.753 -4.623 6
11.965 -13.207 -4.625 5
11.593 -12.699 -4.63 7
11.238 -12.214 -4.632 6
10.888 -11.746 -4.628 6
10.561 -11.305 -4.625 7
10.254 -10.897 -4.63 7
9.963 -10.507 -4.634 8
9.677 -10.132 -4.635 9
9.4 -9.767 -4.631 23
8.891 -9.168 -4.424 20
8.619 -8.822 -4.403 36
8.278 -8.409 -4.309 10
35.645 -47.457 -5.368 5
0.0 -0.0 3.0 0
30.606 -39.914 -5.484 4
26.751 -34.543 -4.975 6
23.986 -30.661 -4.645 7
22.558 -28.548 -4.649 23
22.108 -27.715 -4.947 13
20.696 -25.696 -4.856 5
19.486 -23.972 -4.789 5
18.421 -22.451 -4.731 6
17.506 -21.147 -4.697 5
16.715 -20.009 -4.681 5
15.97 -18.953 -4.657 18
15.33 -18.034 -4.655 7
14.701 -17.151 -4.636 7
14.134 -16.348 -4.623 7
13.616 -15.623 -4.62 6
13.139 -14.951 -4.618 5
12.698 -14.331 -4.62 5
12.284 -13.756 -4.625 6
11.891 -13.209 -4.626 5
11.525 -12.706 -4.635 7
11.173 -12.222 -4.637 7
10.827 -11.756 -4.634 6
10.504 -11.317 -4.633 7
10.196 -10.905 -4.636 7
9.908 -10.515 -4.64 8
9.627 -10.142 -4.643 9
9.351 -9.776 -4.638 26
8.861 -9.193 -4.445 9
8.575 -8.831 -4.41 29
8.276 -8.458 -4.353 8
35.336 -47.339 -5.347 6
0.0 -0.0 3.0 0
30.277 -39.735 -5.446 4
26.334 -34.219 -4.9 11
23.818 -30.638 -4.639 8
22.406 -28.538 -4.647 14
21.951 -27.695 -4.941 14
20.54 -25.666 -4.847 6
19.344 -23.952 -4.782 5
18.291 -22.436 -4.725 6
17.387 -21.139 -4.694 5
16.599 -19.999 -4.677 6
15.866 -18.952 -4.657 15
15.229 -18.031 -4.654 7
14.605 -17.149 -4.635 6
14.047 -16.354 -4.626 7
13.532 -15.627 -4.622 6
13.057 -14.954 -4.62 6
12.621 -14.335 -4.622 6
12.207 -13.759 -4.627 5
11.826 -13.223 -4.634 6
11.456 -12.712 -4.638 7
11.102 -12.222 -4.637 7
10.765 -11.763 -4.639 7
10.445 -11.325 -4.639 7
10.138 -10.912 -4.641 7
9.852 -10.522 -4.645 8
9.571 -10.147 -4.647 9
9.292 -9.776 -4.638 26
8.811 -9.199 -4.449 11
8.543 -8.853 -4.429 29
8.279 -8.513 -4.4 9
35.011 -47.197 -5.322 12
29.727 -39.669 -4.711 6
30.026 -39.654 -5.429 5
26.067 -34.088 -4.87 19
23.616 -30.572 -4.622 9
22.191 -28.443 -4.621 22
21.797 -27.676 -4.936 12
20.384 -25.635 -4.837 5
19.201 -23.927 -4.774 5
18.168 -22.429 -4.723 6
17.261 -21.122 -4.688 5
16.488 -19.994 -4.675 5
15.753 -18.939 -4.652 19
15.128 -18.029 -4.653 7
14.514 -17.153 -4.637 7
13.959 -16.357 -4.627 7
13.445 -15.628 -4.623 6
12.977 -14.959 -4.622 5
12.545 -14.342 -4.626 6
12.136 -13.768 -4.631 6
11.751 -13.224 -4.635 6
11.388 -12.718 -4.642 7
11.042 -12.235 -4.645 8
10.704 -11.772 -4.645 7
10.386 -11.333 -4.644 7
10.078 -10.916 -4.644 8
9.795 -10.528 -4.649 8
9.514 -10.151 -4.649 8
9.243 -9.786 -4.645 26
8.759 -9.202 -4.452 10
8.516 -8.88 -4.451 30
8.274 -8.561 -4.442 29
34.777 -47.175 -5.318 16
29.597 -39.744 -4.725 4
29.761 -39.553 -5.407 4
25.837 -34.002 -4.85 19
23.41 -30.499 -4.604 8
22.038 -28.429 -4.618 29
21.624 -27.633 -4.924 10
20.234 -25.609 -4.83 6
19.064 -23.91 -4.769 5
18.039 -22.414 -4.718 6
17.144 -21.115 -4.685 5
16.377 -19.989 -4.673 6
15.648 -18.935 -4.65 25
15.033 -18.032 -4.654 7
14.416 -17.149 -4.635 6
13.873 -16.362 -4.63 8
13.361 -15.632 -4.624 6
12.898 -14.965 -4.625 5
12.465 -14.343 -4.626 6
12.065 -13.775 -4.636 5
11.684 -13.234 -4.641 5
11.323 -12.727 -4.647 8
10.978 -12.243 -4.65 7
10.644 -11.781 -4.65 6
10.327 -11.341 -4.649 7
10.023 -10.925 -4.65 7
9.741 -10.537 -4.655 8
9.463 -10.161 -4.657 9
9.193 -9.795 -4.652 27
8.714 -9.212 -4.46 11
8.479 -8.897 -4.466 27
8.25 -8.589 -4.466 27
34.561 -47.178 -5.319 18
29.459 -39.808 -4.738 255
29.49 -39.442 -5.384 3
25.589 -33.889 -4.824 25
23.178 -30.39 -4.577 15
21.919 -28.456 -4.625 32
21.425 -27.555 -4.901 10
20.088 -25.59 -4.824 6
18.924 -23.888 -4.762 5
17.899 -22.385 -4.708 6
17.014 -21.091 -4.677 6
16.262 -19.977 -4.668 6
15.547 -18.936 -4.651 27
14.935 -18.031 -4.654 6
14.325 -17.152 -4.637 6
13.785 -16.364 -4.631 8
13.275 -15.632 -4.624 6
12.818 -14.969 -4.627 5
12.392 -14.353 -4.631 6
11.996 -13.786 -4.642 6
11.61 -13.234 -4.641 5
11.25 -12.727 -4.647 7
10.914 -12.25 -4.654 7
10.581 -11.787 -4.654 6
10.268 -11.349 -4.655 7
9.965 -10.932 -4.655 7
9.682 -10.54 -4.658 8
9.41 -10.168 -4.662 9
9.144 -9.804 -4.66 26
8.69 -9.245 -4.487 13
8.437 -8.909 -4.475 26
8.204 -8.595 -4.471 28
0.0 -0.0 3.0 0
29.353 -39.917 -4.759 255
29.227 -39.339 -5.362 3
25.403 -33.858 -4.817 31
22.968 -30.309 -4.557 18
21.771 -28.447 -4.622 29
21.284 -27.551 -4.9 14
19.929 -25.55 -4.812 6
18.779 -23.859 -4.752 5
17.78 -22.381 -4.706 6
16.908 -21.095 -4.678 6
16.151 -19.97 -4.666 6
15.44 -18.928 -4.648 29
14.837 -18.03 -4.653 7
14.23 -17.15 -4.635 6
13.696 -16.365 -4.631 7
13.194 -15.638 -4.627 6
12.734 -14.968 -4.627 5
12.31 -14.35 -4.63 5
11.918 -13.785 -4.641 6
11.545 -13.247 -4.648 6
11.187 -12.737 -4.653 7
10.845 -12.251 -4.655 7
10.521 -11.795 -4.66 7
10.209 -11.356 -4.66 7
9.907 -10.939 -4.659 7
9.631 -10.55 -4.665 8
9.353 -10.171 -4.664 8
9.087 -9.805 -4.66 26
8.765 -9.383 -4.598 24
8.393 -8.918 -4.483 23
8.166 -8.609 -4.483 24
34.108 -47.149 -5.314 28
29.248 -40.026 -4.78 9
28.949 -39.212 -5.335 4
25.208 -33.813 -4.806 25
22.755 -30.22 -4.535 20
21.634 -28.449 -4.623 20
21.127 -27.524 -4.892 10
19.777 -25.52 -4.802 6
18.646 -23.844 -4.747 5
17.644 -22.354 -4.697 5
16.787 -21.081 -4.673 5
16.043 -19.967 -4.665 6
15.34 -18.928 -4.648 27
14.737 -18.026 -4.652 6
14.137 -17.15 -4.635 7
13.603 -16.361 -4.629 8
13.11 -15.641 -4.629 6
12.66 -14.978 -4.632 5
12.235 -14.356 -4.633 5
11.844 -13.79 -4.644 6
11.476 -13.253 -4.652 5
11.123 -12.748 -4.66 8
10.781 -12.258 -4.66 7
10.46 -11.804 -4.665 6
10.148 -11.361 -4.663 7
9.852 -10.948 -4.666 7
9.574 -10.557 -4.67 8
9.302 -10.18 -4.671 8
9.04 -9.817 -4.67 26
8.792 -9.472 -4.67 19
8.349 -8.927 -4.491 24
8.121 -8.614 -4.488 25
33.704 -46.886 -5.267 5
24.793 -34.145 -3.637 85
28.683 -39.1 -5.311 5
24.99 -33.736 -4.789 25
22.568 -30.164 -4.521 22
21.503 -28.46 -4.626 27
20.951 -27.472 -4.877 9
19.626 -25.49 -4.793 6
18.511 -23.825 -4.741 5
17.523 -22.345 -4.694 6
16.672 -21.073 -4.67 6
15.931 -19.956 -4.661 6
15.235 -18.923 -4.645 20
14.639 -18.024 -4.651 7
14.049 -17.154 -4.637 6
13.513 -16.359 -4.628 7
13.027 -15.644 -4.63 6
12.581 -14.982 -4.634 5
12.162 -14.364 -4.638 5
11.776 -13.8 -4.649 6
11.399 -13.251 -4.65 5
11.053 -12.75 -4.661 8
10.719 -12.267 -4.665 7
10.4 -11.812 -4.671 6
10.091 -11.371 -4.67 7
9.795 -10.954 -4.67 7
9.515 -10.559 -4.672 8
9.249 -10.187 -4.677 9
8.989 -9.823 -4.674 26
8.75 -9.487 -4.682 23
8.305 -8.936 -4.498 24
8.071 -8.615 -4.489 32
21.365 -29.908 -2.274 3
0.0 -0.0 3.0 0
28.416 -38.984 -5.286 5
24.782 -33.67 -4.773 16
22.373 -30.096 -4.504 35
21.375 -28.474 -4.629 30
20.778 -27.422 -4.863 8
19.482 -25.467 -4.786 6
18.378 -23.809 -4.736 5
17.399 -22.332 -4.69 6
16.559 -21.068 -4.668 5
15.828 -19.958 -4.661 6
15.142 -18.931 -4.648 21
14.537 -18.016 -4.647 6
13.955 -17.15 -4.636 7
13.43 -16.365 -4.631 7
12.941 -15.643 -4.629 6
12.499 -14.982 -4.634 5
12.082 -14.363 -4.637 6
11.698 -13.799 -4.649 6
11.332 -13.259 -4.655 5
10.988 -12.757 -4.665 8
10.658 -12.276 -4.671 7
10.338 -11.817 -4.674 7
10.032 -11.378 -4.674 7
9.739 -10.963 -4.676 7
9.466 -10.572 -4.681 8
9.199 -10.196 -4.684 9
8.939 -9.831 -4.681 21
8.698 -9.49 -4.685 20
8.256 -8.941 -4.502 17
8.034 -8.63 -4.502 26
21.304 -30.013 -2.292 9
29.22 -40.758 -4.922 21
28.175 -38.902 -5.269 5
24.499 -33.499 -4.734 15
22.203 -30.061 -4.495 21
21.247 -28.486 -4.633 30
20.617 -27.386 -4.853 8
19.338 -25.444 -4.779 6
18.242 -23.786 -4.729 5
17.281 -22.326 -4.687 4
16.441 -21.056 -4.664 6
15.714 -19.944 -4.656 6
15.04 -18.927 -4.647 20
14.447 -18.022 -4.65 6
13.862 -17.149 -4.635 6
13.34 -16.362 -4.63 7
12.855 -15.642 -4.629 6
12.42 -14.986 -4.636 5
12.01 -14.371 -4.641 6
11.629 -13.808 -4.654 6
11.268 -13.27 -4.661 6
10.918 -12.759 -4.667 8
10.594 -12.282 -4.675 7
10.28 -11.828 -4.681 6
9.971 -11.382 -4.677 7
9.682 -10.968 -4.68 7
9.405 -10.572 -4.681 8
9.144 -10.201 -4.687 8
8.883 -9.832 -4.682 26
8.654 -9.502 -4.695 16
8.21 -8.947 -4.507 18
7.987 -8.634 -4.505 28
21.277 -30.166 -2.319 19
0.0 -0.0 3.0 0
27.91 -38.783 -5.244 5
24.262 -33.39 -4.709 18
22.039 -30.032 -4.488 18
21.119 -28.499 -4.636 28
20.459 -27.354 -4.844 7
19.19 -25.414 -4.77 6
18.105 -23.763 -4.721 5
17.146 -22.297 -4.677 4
16.326 -21.046 -4.66 5
15.609 -19.942 -4.655 6
14.941 -18.926 -4.646 18
14.35 -18.019 -4.649 7
13.775 -17.154 -4.637 6
13.257 -16.369 -4.633 7
12.775 -15.645 -4.631 6
12.337 -14.983 -4.634 5
11.93 -14.37 -4.641 5
11.556 -13.811 -4.656 6
11.196 -13.272 -4.663 6
10.855 -12.769 -4.673 7
10.532 -12.291 -4.68 7
10.217 -11.833 -4.684 6
9.917 -11.394 -4.686 7
9.624 -10.975 -4.685 7
9.354 -10.582 -4.688 8
9.089 -10.204 -4.689 9
8.838 -9.845 -4.692 19
8.606 -9.51 -4.701 23
8.161 -8.95 -4.51 14
7.946 -8.644 -4.514 28
21.419 -30.562 -2.389 25
0.0 -0.0 3.0 0
27.648 -38.667 -5.219 5
23.316 -32.295 -4.456 6
21.873 -29.999 -4.48 18
20.994 -28.514 -4.64 26
20.29 -27.305 -4.83 7
19.047 -25.39 -4.763 6
17.978 -23.752 -4.717 5
17.035 -22.298 -4.678 6
16.216 -21.043 -4.659 5
15.498 -19.93 -4.65 6
14.839 -18.921 -4.645 18
14.254 -18.016 -4.647 7
13.68 -17.149 -4.635 7
13.17 -16.368 -4.632 7
12.694 -15.65 -4.633 6
12.265 -14.994 -4.64 5
11.861 -14.381 -4.646 6
11.486 -13.817 -4.659 6
11.13 -13.281 -4.668 5
10.787 -12.773 -4.675 8
10.469 -12.297 -4.684 7
10.155 -11.838 -4.688 6
9.856 -11.398 -4.688 7
9.567 -10.98 -4.688 7
9.3 -10.589 -4.693 8
9.038 -10.213 -4.696 8
8.785 -9.848 -4.694 23
8.553 -9.512 -4.703 21
8.115 -8.956 -4.515 24
7.91 -8.66 -4.528 18
32.5 -46.67 -5.229 20
0.0 -0.0 3.0 0
27.414 -38.588 -5.202 4
23.35 -32.552 -4.515 16
21.695 -29.949 -4.467 19
20.871 -28.532 -4.645 26
20.133 -27.271 -4.82 6
18.904 -25.366 -4.755 6
17.847 -23.733 -4.711 5
16.917 -22.29 -4.675 6
16.097 -21.026 -4.653 5
15.389 -19.921 -4.647 6
14.738 -18.916 -4.643 17
14.159 -18.015 -4.647 7
13.591 -17.149 -4.635 6
13.087 -16.373 -4.635 7
12.611 -15.651 -4.633 6
12.186 -14.997 -4.641 5
11.788 -14.388 -4.65 6
11.415 -13.823 -4.662 6
11.063 -13.288 -4.672 5
10.72 -12.777 -4.677 7
10.4 -12.297 -4.684 8
10.1 -11.85 -4.695 6
9.8 -11.407 -4.694 7
9.51 -10.985 -4.692 7
9.246 -10.596 -4.698 8
8.985 -10.219 -4.701 8
8.738 -9.859 -4.703 15
8.509 -9.524 -4.713 19
8.067 -8.96 -4.518 17
7.867 -8.667 -4.534 23
32.28 -46.652 -5.226 23
0.0 -0.0 3.0 0
27.154 -38.47 -5.177 5
23.043 -32.333 -4.465 19
21.502 -29.877 -4.449 18
20.729 -28.524 -4.643 26
19.974 -27.233 -4.809 6
18.764 -25.343 -4.748 6
17.712 -23.708 -4.703 5
16.797 -22.278 -4.671 6
15.986 -21.018 -4.65 5
15.282 -19.914 -4.644 6
14.646 -18.922 -4.645 16
14.063 -18.012 -4.645 7
13.502 -17.15 -4.636 7
12.998 -16.369 -4.633 7
12.533 -15.657 -4.636 6
12.11 -15.002 -4.644 6
11.711 -14.388 -4.65 6
11.34 -13.823 -4.662 8
10.994 -13.292 -4.674 5
10.657 -12.786 -4.683 7
10.344 -12.31 -4.692 7
10.035 -11.852 -4.696 6
9.741 -11.413 -4.698 7
9.454 -10.993 -4.698 7
9.192 -10.603 -4.703 8
8.933 -10.226 -4.706 8
8.684 -9.861 -4.704 11
8.457 -9.527 -4.714 22
8.02 -8.965 -4.523 16
7.819 -8.67 -4.536 17
22.013 -32.019 -2.646 17
0.0 -0.0 3.0 0
26.899 -38.355 -5.153 5
22.779 -32.17 -4.427 20
21.31 -29.803 -4.431 15
20.577 -28.5 -4.637 13
19.815 -27.195 -4.798 6
18.62 -25.314 -4.739 6
17.583 -23.692 -4.698 5
16.67 -22.256 -4.664 5
15.874 -21.01 -4.647 5
15.167 -19.895 -4.637 6
14.544 -18.917 -4.643 15
13.973 -18.016 -4.647 6
13.415 -17.153 -4.637 6
12.913 -16.371 -4.634 7
12.45 -15.657 -4.636 6
12.027 -14.998 -4.642 6
11.639 -14.395 -4.654 6
11.272 -13.831 -4.667 6
10.925 -13.297 -4.677 6
10.59 -12.789 -4.684 7
10.28 -12.315 -4.695 7
9.977 -11.861 -4.703 6
9.685 -11.421 -4.704 7
9.399 -11.0 -4.703 7
9.138 -10.61 -4.709 8
8.88 -10.232 -4.71 9
8.632 -9.866 -4.708 12
8.413 -9.539 -4.724 19
7.977 -8.974 -4.53 16
7.779 -8.679 -4.545 15
21.244 -31.1 -2.484 3
0.0 -0.0 3.0 0
26.661 -38.264 -5.133 4
22.542 -32.045 -4.398 14
21.112 -29.719 -4.41 19
20.427 -28.479 -4.631 8
19.662 -27.162 -4.789 6
18.481 -25.291 -4.732 6
17.451 -23.669 -4.691 5
16.553 -22.247 -4.66 6
15.767 -21.007 -4.646 5
15.068 -19.896 -4.638 7
14.448 -18.916 -4.643 14
13.875 -18.008 -4.644 7
13.323 -17.149 -4.635 7
12.828 -16.372 -4.634 7
12.37 -15.66 -4.638 6
11.958 -15.011 -4.649 6
11.563 -14.395 -4.654 5
11.199 -13.834 -4.668 6
10.856 -13.301 -4.679 5
10.527 -12.797 -4.689 7
10.216 -12.32 -4.698 8
9.917 -11.868 -4.707 6
9.624 -11.424 -4.706 7
9.342 -11.005 -4.706 7
9.084 -10.616 -4.713 8
8.828 -10.237 -4.714 9
8.588 -9.879 -4.719 18
8.362 -9.542 -4.727 19
7.921 -8.969 -4.526 38
7.731 -8.682 -4.547 16
21.165 -31.185 -2.499 22
0.0 -0.0 3.0 0
26.406 -38.144 -5.108 4
22.276 -31.873 -4.359 16
20.968 -29.711 -4.408 17
20.236 -28.399 -4.609 9
19.504 -27.122 -4.777 6
18.342 -25.267 -4.725 6
17.328 -23.658 -4.687 5
16.434 -22.233 -4.655 5
15.654 -20.995 -4.641 5
14.966 -19.894 -4.637 7
14.347 -18.91 -4.64 12
13.776 -18.0 -4.641 7
13.234 -17.149 -4.635 6
12.744 -16.372 -4.635 9
12.288 -15.66 -4.638 6
11.873 -15.004 -4.645 5
11.496 -14.407 -4.661 6
11.133 -13.844 -4.674 6
10.792 -13.31 -4.685 5
10.462 -12.803 -4.693 7
10.153 -12.324 -4.701 8
9.855 -11.871 -4.709 6
9.57 -11.435 -4.713 6
9.287 -11.012 -4.711 7
9.031 -10.622 -4.718 8
8.775 -10.243 -4.719 10
8.532 -9.878 -4.718 28
8.314 -9.549 -4.732 22
7.889 -8.99 -4.543 17
7.688 -8.689 -4.553 18
31.285 -46.395 -5.181 10
21.381 -31.4 -3.104 26
26.174 -38.057 -5.089 4
22.078 -31.798 -4.341 22
20.789 -29.651 -4.393 21
20.092 -28.382 -4.605 9
19.344 -27.079 -4.765 6
18.203 -25.242 -4.717 6
17.205 -23.647 -4.683 5
16.315 -22.22 -4.651 6
15.545 -20.988 -4.639 5
14.856 -19.88 -4.631 6
14.249 -18.906 -4.638 9
13.69 -18.007 -4.643 7
13.143 -17.145 -4.633 7
12.657 -16.371 -4.634 7
12.208 -15.661 -4.639 6
11.804 -15.016 -4.651 6
11.419 -14.407 -4.661 6
11.061 -13.846 -4.675 5
10.721 -13.311 -4.685 5
10.399 -12.811 -4.698 7
10.094 -12.335 -4.708 8
9.795 -11.878 -4.713 6
9.509 -11.438 -4.715 7
9.23 -11.017 -4.714 7
8.975 -10.626 -4.72 8
8.725 -10.251 -4.724 9
8.487 -9.891 -4.727 34
8.266 -9.556 -4.738 18
7.842 -8.995 -4.548 23
7.649 -8.701 -4.564 22
21.24 -31.704 -2.59 20
21.197 -31.332 -3.09 26
25.936 -37.958 -5.068 5
21.815 -31.626 -4.301 18
20.611 -29.591 -4.378 21
19.974 -28.403 -4.611 11
19.19 -27.04 -4.754 6
18.06 -25.211 -4.708 6
17.069 -23.616 -4.673 5
16.203 -22.214 -4.649 5
15.432 -20.975 -4.634 5
14.753 -19.874 -4.629 7
14.146 -18.895 -4.634 8
13.601 -18.009 -4.645 7
13.061 -17.153 -4.637 7
12.575 -16.373 -4.635 7
12.13 -15.667 -4.641 6
11.725 -15.017 -4.652 6
11.35 -14.415 -4.665 6
10.993 -13.853 -4.679 6
10.655 -13.318 -4.689 5
10.332 -12.814 -4.699 7
10.033 -12.341 -4.712 8
9.738 -11.886 -4.719 6
9.448 -11.44 -4.716 6
9.175 -11.024 -4.719 7
8.921 -10.632 -4.725 8
8.672 -10.256 -4.728 8
8.436 -9.896 -4.731 27
8.22 -9.564 -4.745 20
7.794 -8.997 -4.549 32
7.604 -8.705 -4.567 15
20.367 -30.599 -2.395 23
21.14 -31.454 -3.114 22
25.713 -37.878 -5.051 5
21.634 -31.57 -4.289 18
20.473 -29.587 -4.377 24
19.857 -28.424 -4.616 11
19.04 -27.008 -4.744 6
17.929 -25.195 -4.703 6
16.944 -23.6 -4.668 5
16.08 -22.193 -4.642 6
15.326 -20.97 -4.633 6
14.652 -19.871 -4.628 6
14.048 -18.891 -4.632 9
13.508 -18.007 -4.643 7
12.97 -17.148 -4.635 7
12.496 -16.38 -4.638 7
12.052 -15.671 -4.643 6
11.652 -15.024 -4.655 6
11.276 -14.418 -4.666 5
10.923 -13.857 -4.681 6
10.591 -13.326 -4.694 5
10.272 -12.824 -4.705 7
9.976 -12.354 -4.72 7
9.678 -11.892 -4.723 6
9.39 -11.445 -4.72 7
9.12 -11.031 -4.724 7
8.87 -10.641 -4.731 8
8.624 -10.267 -4.737 9
8.382 -9.897 -4.733 27
8.168 -9.565 -4.746 20
7.75 -9.005 -4.556 21
7.563 -8.715 -4.576 14
19.938 -30.151 -2.316 21
21.436 -32.104 -3.24 18
25.476 -37.778 -5.03 5
21.505 -31.589 -4.293 19
20.319 -29.56 -4.37 21
19.747 -28.454 -4.624 12
18.886 -26.969 -4.733 6
17.791 -25.169 -4.695 6
16.826 -23.594 -4.666 5
15.971 -22.191 -4.641 5
15.215 -20.959 -4.629 5
14.547 -19.861 -4.624 6
13.95 -18.886 -4.63 8
13.412 -18.0 -4.641 6
12.884 -17.149 -4.635 7
12.412 -16.379 -4.638 7
11.973 -15.672 -4.644 6
11.576 -15.027 -4.657 6
11.204 -14.423 -4.669 6
10.855 -13.864 -4.685 6
10.525 -13.332 -4.697 5
10.207 -12.829 -4.708 8
9.908 -12.352 -4.718 7
9.619 -11.898 -4.727 6
9.336 -11.455 -4.727 7
9.066 -11.038 -4.729 7
8.816 -10.646 -4.735 8
8.57 -10.269 -4.738 8
8.333 -9.904 -4.738 21
8.124 -9.577 -4.755 19
7.704 -9.01 -4.56 13
7.527 -8.729 -4.588 16
19.916 -30.315 -2.345 14
21.338 -32.167 -3.253 23
25.25 -37.69 -5.011 5
21.439 -31.702 -4.319 23
20.211 -29.598 -4.38 23
19.636 -28.484 -4.632 12
18.726 -26.919 -4.719 6
17.663 -25.155 -4.691 6
16.7 -23.574 -4.66 5
15.85 -22.172 -4.634 5
15.103 -20.945 -4.623 5
14.442 -19.85 -4.62 7
13.859 -18.889 -4.632 8
13.321 -17.999 -4.64 7
12.798 -17.149 -4.635 7
12.33 -16.382 -4.639 7
11.898 -15.679 -4.647 6
11.501 -15.03 -4.658 5
11.13 -14.425 -4.67 6
10.788 -13.87 -4.688 7
10.456 -13.334 -4.698 5
10.145 -12.836 -4.713 7
9.847 -12.358 -4.722 7
9.557 -11.901 -4.729 6
9.28 -11.463 -4.732 7
9.011 -11.044 -4.733 7
8.762 -10.652 -4.739 8
8.517 -10.274 -4.742 8
8.282 -9.908 -4.741 22
8.074 -9.58 -4.758 18
7.656 -9.012 -4.562 13
7.486 -8.738 -4.596 15
20.125 -30.834 -2.437 23
21.504 -32.632 -3.343 26
25.024 -37.601 -4.992 5
21.368 -31.807 -4.343 23
20.082 -29.606 -4.382 33
19.521 -28.506 -4.638 13
18.578 -26.884 -4.709 6
17.526 -25.127 -4.682 6
16.578 -23.56 -4.655 5
15.735 -22.159 -4.63 5
14.998 -20.939 -4.621 5
14.342 -19.846 -4.618 7
13.764 -18.886 -4.631 8
13.233 -18.001 -4.641 6
12.71 -17.146 -4.634 7
12.246 -16.381 -4.638 7
11.816 -15.678 -4.646 6
11.425 -15.032 -4.659 6
11.061 -14.431 -4.673 6
10.713 -13.868 -4.687 6
10.388 -13.336 -4.7 5
10.078 -12.837 -4.713 7
9.789 -12.367 -4.728 8
9.504 -11.915 -4.737 6
9.226 -11.472 -4.738 7
8.954 -11.047 -4.735 7
8.709 -10.657 -4.743 7
8.469 -10.283 -4.749 8
8.237 -9.92 -4.75 23
8.028 -9.588 -4.765 18
7.616 -9.024 -4.572 14
7.445 -8.748 -4.604 14
20.018 -30.873 -2.444 14
21.413 -32.709 -3.358 20
24.797 -37.507 -4.972 5
21.212 -31.786 -4.338 23
19.877 -29.499 -4.355 34
19.417 -28.545 -4.649 13
18.443 -26.869 -4.704 6
17.396 -25.109 -4.677 6
16.453 -23.539 -4.648 5
15.624 -22.151 -4.627 5
14.89 -20.93 -4.618 5
14.244 -19.845 -4.618 7
13.664 -18.877 -4.627 8
13.138 -17.993 -4.638 7
12.629 -17.153 -4.637 7
12.169 -16.388 -4.642 7
11.739 -15.681 -4.648 6
11.352 -15.037 -4.662 5
10.987 -14.433 -4.674 6
10.65 -13.879 -4.693 6
10.327 -13.347 -4.706 5
10.018 -12.847 -4.719 7
9.728 -12.373 -4.732 8
9.44 -11.914 -4.737 6
9.168 -11.476 -4.741 7
8.904 -11.059 -4.743 7
8.658 -10.665 -4.749 7
8.417 -10.288 -4.752 8
8.186 -9.924 -4.753 25
7.982 -9.597 -4.771 19
7.579 -9.039 -4.585 13
7.411 -8.765 -4.619 20
19.954 -30.979 -2.462 7
20.144 -30.975 -3.021 16
24.583 -37.432 -4.956 5
21.048 -31.751 -4.33 20
19.747 -29.503 -4.356 32
19.302 -28.567 -4.655 13
18.291 -26.827 -4.693 5
17.264 -25.086 -4.67 6
16.34 -23.537 -4.648 5
15.507 -22.134 -4.621 5
14.787 -20.926 -4.617 5
14.144 -19.84 -4.616 7
13.576 -18.883 -4.629 8
13.055 -18.001 -4.641 7
12.543 -17.153 -4.637 6
12.086 -16.387 -4.641 7
11.664 -15.687 -4.651 7
11.277 -15.04 -4.663 5
10.918 -14.44 -4.678 6
10.585 -13.889 -4.699 6
10.258 -13.35 -4.707 5
9.956 -12.855 -4.724 7
9.669 -12.382 -4.737 8
9.387 -11.927 -4.745 6
9.108 -11.478 -4.742 7
8.849 -11.064 -4.747 7
8.604 -10.671 -4.753 8
8.367 -10.295 -4.758 8
8.137 -9.93 -4.758 18
7.93 -9.597 -4.772 12
7.539 -9.051 -4.595 12
7.376 -8.781 -4.633 16
19.854 -31.028 -2.471 2
20.432 -31.627 -3.148 14
24.347 -37.32 -4.933 5
20.856 -31.671 -4.312 24
19.602 -29.483 -4.351 22
19.194 -28.598 -4.663 14
18.154 -26.807 -4.687 7
17.132 -25.065 -4.663 6
16.219 -23.522 -4.643 5
15.392 -22.12 -4.617 5
14.68 -20.916 -4.613 5
14.045 -19.834 -4.614 7
13.479 -18.876 -4.626 8
12.96 -17.992 -4.637 6
12.457 -17.152 -4.637 7
12.011 -16.397 -4.646 7
11.589 -15.693 -4.654 7
11.204 -15.044 -4.666 6
10.849 -14.447 -4.682 7
10.513 -13.889 -4.699 6
10.197 -13.36 -4.713 5
9.891 -12.858 -4.726 7
9.606 -12.385 -4.739 8
9.33 -11.935 -4.75 6
9.054 -11.487 -4.748 7
8.792 -11.068 -4.75 7
8.548 -10.673 -4.754 8
8.314 -10.299 -4.761 8
8.09 -9.939 -4.765 21
7.886 -9.608 -4.78 13
7.502 -9.066 -4.607 14
7.337 -8.792 -4.643 15
19.781 -31.119 -2.487 15
19.386 -30.209 -2.872 15
24.143 -37.256 -4.919 5
20.683 -31.622 -4.3 19
19.45 -29.453 -4.343 34
19.081 -28.622 -4.669 15
18.025 -26.796 -4.684 6
17.003 -25.044 -4.657 5
16.09 -23.493 -4.633 5
15.28 -22.108 -4.612 5
14.573 -20.906 -4.609 5
13.947 -19.831 -4.612 7
13.384 -18.872 -4.625 8
12.868 -17.986 -4.635 6
12.374 -17.154 -4.637 7
11.926 -16.391 -4.643 9
11.51 -15.693 -4.654 7
11.133 -15.052 -4.669 5
10.776 -14.447 -4.682 6
10.45 -13.899 -4.704 6
10.131 -13.364 -4.716 5
9.832 -12.867 -4.731 7
9.543 -12.387 -4.74 8
9.266 -11.933 -4.749 6
8.994 -11.488 -4.749 7
8.74 -11.076 -4.755 7
8.499 -10.683 -4.762 8
8.264 -10.306 -4.766 8
8.037 -9.939 -4.765 16
7.834 -9.608 -4.78 12
7.462 -9.078 -4.617 14
7.305 -8.811 -4.66 16
19.728 -31.244 -2.509 15
19.196 -30.113 -2.853 16
20.432 -31.742 -3.747 19
20.475 -31.515 -4.276 16
19.342 -29.488 -4.352 23
18.977 -28.659 -4.679 15
17.872 -26.749 -4.67 6
16.874 -25.024 -4.651 6
15.974 -23.483 -4.63 5
15.165 -22.093 -4.607 5
14.46 -20.886 -4.602 5
13.841 -19.816 -4.607 7
13.296 -18.876 -4.627 8
12.785 -17.992 -4.637 7
12.289 -17.153 -4.637 7
11.847 -16.395 -4.645 7
11.435 -15.698 -4.656 8
11.056 -15.051 -4.669 5
10.711 -14.459 -4.688 6
10.378 -13.899 -4.704 5
10.065 -13.368 -4.718 5
9.767 -12.87 -4.733 7
9.487 -12.399 -4.747 8
9.211 -11.943 -4.756 6
8.94 -11.497 -4.755 7
8.683 -11.079 -4.758 7
8.446 -10.688 -4.765 8
8.214 -10.313 -4.771 8
7.992 -9.951 -4.774 10
7.79 -9.618 -4.789 11
7.424 -9.093 -4.63 15
7.264 -8.82 -4.667 15
19.202 -30.615 -2.398 7
19.186 -30.3 -2.89 19
20.307 -31.759 -3.751 15
20.289 -31.44 -4.259 22
19.157 -29.404 -4.331 22
18.864 -28.682 -4.685 24
17.732 -26.721 -4.662 6
16.745 -25.003 -4.644 5
15.85 -23.46 -4.623 5
15.056 -22.084 -4.604 5
14.362 -20.887 -4.602 5
13.744 -19.812 -4.605 8
13.2 -18.868 -4.623 8
12.695 -17.989 -4.636 6
12.208 -17.157 -4.639 6
11.77 -16.401 -4.648 8
11.361 -15.703 -4.659 8
10.986 -15.057 -4.672 5
10.638 -14.459 -4.688 6
10.313 -13.907 -4.708 6
10.002 -13.375 -4.722 5
9.707 -12.879 -4.738 7
9.426 -12.403 -4.75 8
9.152 -11.947 -4.758 6
8.884 -11.503 -4.759 6
8.631 -11.086 -4.763 7
8.397 -10.698 -4.772 8
8.162 -10.317 -4.774 7
7.941 -9.953 -4.776 10
7.74 -9.621 -4.791 11
7.389 -9.109 -4.644 14
7.229 -8.836 -4.681 16
19.067 -30.604 -2.396 1
19.351 -30.768 -2.981 12
20.17 -31.76 -3.751 23
20.121 -31.391 -4.247 21
19.009 -29.375 -4.324 22
18.752 -28.706 -4.692 20
17.595 -26.696 -4.655 6
16.617 -24.981 -4.638 5
15.734 -23.448 -4.619 6
14.95 -22.08 -4.603 6
14.256 -20.876 -4.598 5
13.648 -19.809 -4.604 8
