# .PCD v0.7 - Point Cloud Data file format
VERSION 0.7
FIELDS x y z intensity
SIZE 4 4 4 4
TYPE F F F F
COUNT 1 1 1 1
WIDTH 2371
HEIGHT 1
VIEWPOINT 0 0 0 1 0 0 0
POINTS 2371
DATA ascii
-0.461 -1.274 2.586 0
-0.462 -1.265 2.564 0
-0.452 -1.229 2.553 0
-0.452 -1.217 2.533 0
-0.437 -1.166 2.529 0
-0.428 -1.134 2.519 0
-0.428 -1.126 2.499 0
-0.421 -1.096 2.489 0
0.0 -0.0 3.0 0
-0.414 -1.06 2.46 0
0.0 -0.0 3.0 0
-0.403 -1.015 2.438 0
0.0 -0.0 3.0 0
-0.402 -0.994 2.403 0
0.0 -0.0 3.0 0
-0.391 -0.951 2.382 0
0.0 -0.0 3.0 0
-0.383 -0.914 2.36 0
0.0 -0.0 3.0 0
-0.376 -0.883 2.334 0
0.0 -0.0 3.0 0
0.0 -0.0 3.0 0
0.0 -0.0 3.0 0
0.0 -0.0 3.0 0
-0.443 -1.324 2.766 30
0.0 -0.0 3.0 0
-0.478 -1.404 2.702 0
-0.475 -1.382 2.681 0
-0.465 -1.343 2.665 0
-0.455 -1.303 2.651 0
-0.467 -1.326 2.62 0
-0.459 -1.293 2.605 0
-0.444 -1.239 2.597 0
-0.454 -1.256 2.568 0
-0.446 -1.223 2.555 0
-0.423 -1.151 2.558 0
-0.442 -1.192 2.518 0
-0.424 -1.135 2.518 0
-0.431 -1.144 2.491 0
-0.414 -1.09 2.492 0
-0.415 -1.084 2.471 0
-0.409 -1.058 2.461 0
0.0 -0.0 3.0 0
-0.403 -1.025 2.432 0
0.0 -0.0 3.0 0
-0.397 -0.993 2.404 0
0.0 -0.0 3.0 0
-0.393 -0.965 2.373 0
0.0 -0.0 3.0 0
-0.375 -0.906 2.366 0
0.0 -0.0 3.0 0
0.0 -0.0 3.0 0
0.0 -0.0 3.0 0
0.0 -0.0 3.0 0
0.0 -0.0 3.0 0
0.0 -0.0 3.0 0
-0.439 -1.325 2.766 30
0.0 -0.0 3.0 0
-0.472 -1.4 2.702 0
-0.475 -1.398 2.677 0
-0.467 -1.363 2.66 0
-0.451 -1.305 2.65 0
-0.463 -1.327 2.619 0
-0.458 -1.301 2.602 0
-0.447 -1.262 2.59 0
-0.452 -1.264 2.565 0
-0.439 -1.217 2.557 0
-0.44 -1.209 2.536 0
-0.433 -1.18 2.523 0
-0.412 -1.116 2.526 0
-0.427 -1.145 2.49 0
-0.419 -1.115 2.48 0
-0.419 -1.106 2.461 0
-0.409 -1.069 2.455 0
0.0 -0.0 3.0 0
-0.398 -1.023 2.433 0
0.0 -0.0 3.0 0
-0.387 -0.977 2.413 0
0.0 -0.0 3.0 0
-0.387 -0.96 2.377 0
0.0 -0.0 3.0 0
-0.377 -0.919 2.356 0
0.0 -0.0 3.0 0
0.0 -0.0 3.0 0
0.0 -0.0 3.0 0
0.0 -0.0 3.0 0
0.0 -0.0 3.0 0
0.0 -0.0 3.0 0
-0.437 -1.331 2.765 30
0.0 -0.0 3.0 0
-0.469 -1.406 2.701 0
-0.47 -1.396 2.678 0
-0.459 -1.353 2.663 0
-0.451 -1.316 2.647 0
-0.456 -1.322 2.621 0
-0.446 -1.281 2.608 0
-0.442 -1.259 2.591 0
-0.451 -1.273 2.562 0
-0.437 -1.226 2.554 0
-0.427 -1.186 2.545 0
-0.43 -1.185 2.521 0
-0.415 -1.134 2.519 0
-0.42 -1.139 2.493 0
-0.413 -1.109 2.483 0
0.0 -0.0 3.0 0
-0.403 -1.064 2.458 0
0.0 -0.0 3.0 0
-0.392 -1.018 2.436 0
0.0 -0.0 3.0 0
-0.387 -0.988 2.406 0
0.0 -0.0 3.0 0
-0.381 -0.955 2.38 0
0.0 -0.0 3.0 0
-0.367 -0.905 2.366 0
0.0 -0.0 3.0 0
0.0 -0.0 3.0 0
0.0 -0.0 3.0 0
0.0 -0.0 3.0 0
0.0 -0.0 3.0 0
0.0 -0.0 3.0 0
-0.43 -1.324 2.767 30
0.0 -0.0 3.0 0
-0.467 -1.414 2.699 0
-0.46 -1.383 2.681 0
-0.45 -1.339 2.666 0
-0.449 -1.325 2.645 0
-0.45 -1.319 2.622 0
-0.443 -1.286 2.607 0
-0.444 -1.278 2.585 0
-0.44 -1.257 2.567 0
-0.431 -1.22 2.556 0
-0.418 -1.173 2.55 0
-0.423 -1.178 2.524 0
-0.409 -1.128 2.521 0
-0.413 -1.13 2.497 0
-0.41 -1.114 2.481 0
-0.399 -1.074 2.476 0
-0.396 -1.058 2.461 0
0.0 -0.0 3.0 0
-0.39 -1.023 2.433 0
0.0 -0.0 3.0 0
-0.381 -0.982 2.41 0
0.0 -0.0 3.0 0
-0.375 -0.949 2.384 0
0.0 -0.0 3.0 0
-0.368 -0.915 2.359 0
0.0 -0.0 3.0 0
0.0 -0.0 3.0 0
0.0 -0.0 3.0 0
0.0 -0.0 3.0 0
0.0 -0.0 3.0 0
0.0 -0.0 3.0 0
-0.427 -1.329 2.766 30
0.0 -0.0 3.0 0
-0.456 -1.394 2.704 0
-0.46 -1.395 2.678 0
-0.446 -1.341 2.666 0
-0.442 -1.319 2.646 0
-0.441 -1.306 2.626 0
-0.443 -1.298 2.603 0
-0.434 -1.262 2.59 0
-0.441 -1.272 2.562 0
-0.427 -1.221 2.556 0
-0.408 -1.156 2.556 0
-0.424 -1.194 2.518 0
-0.404 -1.126 2.522 0
-0.418 -1.156 2.485 0
-0.407 -1.116 2.48 0
0.0 -0.0 3.0 0
-0.394 -1.063 2.458 0
0.0 -0.0 3.0 0
-0.387 -1.027 2.431 0
0.0 -0.0 3.0 0
-0.38 -0.99 2.405 0
0.0 -0.0 3.0 0
-0.371 -0.95 2.383 0
0.0 -0.0 3.0 0
-0.359 -0.903 2.368 0
-0.343 -0.856 2.378 0
0.0 -0.0 3.0 0
0.0 -0.0 3.0 0
0.0 -0.0 3.0 0
0.0 -0.0 3.0 0
0.0 -0.0 3.0 0
-0.423 -1.331 2.765 29
0.0 -0.0 3.0 0
-0.452 -1.399 2.703 0
-0.453 -1.389 2.679 0
-0.446 -1.357 2.662 0
-0.439 -1.324 2.645 0
-0.438 -1.311 2.624 0
-0.445 -1.318 2.597 0
-0.426 -1.252 2.593 0
-0.437 -1.274 2.561 0
-0.418 -1.208 2.56 0
-0.419 -1.2 2.539 0
-0.417 -1.185 2.521 0
-0.401 -1.13 2.52 0
-0.406 -1.136 2.494 0
-0.393 -1.088 2.492 0
0.0 -0.0 3.0 0
-0.386 -1.054 2.463 0
0.0 -0.0 3.0 0
-0.379 -1.015 2.438 0
0.0 -0.0 3.0 0
-0.376 -0.991 2.405 0
0.0 -0.0 3.0 0
-0.368 -0.951 2.382 0
0.0 -0.0 3.0 0
-0.358 -0.911 2.362 0
0.0 -0.0 3.0 0
0.0 -0.0 3.0 0
0.0 -0.0 3.0 0
0.0 -0.0 3.0 0
0.0 -0.0 3.0 0
0.0 -0.0 3.0 0
-0.418 -1.328 2.766 29
0.0 -0.0 3.0 0
-0.443 -1.385 2.706 0
-0.446 -1.383 2.681 0
-0.444 -1.366 2.659 0
-0.436 -1.329 2.644 0
-0.439 -1.326 2.62 0
-0.437 -1.308 2.6 0
-0.428 -1.272 2.587 0
-0.43 -1.268 2.563 0
-0.417 -1.22 2.556 0
-0.412 -1.194 2.541 0
-0.408 -1.172 2.527 0
-0.393 -1.121 2.524 0
-0.401 -1.134 2.495 0
-0.394 -1.104 2.485 0
0.0 -0.0 3.0 0
-0.382 -1.051 2.464 0
0.0 -0.0 3.0 0
-0.376 -1.019 2.435 0
0.0 -0.0 3.0 0
-0.369 -0.982 2.41 0
0.0 -0.0 3.0 0
-0.364 -0.952 2.382 0
0.0 -0.0 3.0 0
-0.354 -0.908 2.364 0
0.0 -0.0 3.0 0
0.0 -0.0 3.0 0
0.0 -0.0 3.0 0
0.0 -0.0 3.0 0
0.0 -0.0 3.0 0
0.0 -0.0 3.0 0
-0.413 -1.326 2.766 29
0.0 -0.0 3.0 0
-0.438 -1.383 2.706 0
-0.447 -1.4 2.677 0
-0.439 -1.364 2.66 0
-0.432 -1.331 2.643 0
-0.436 -1.331 2.618 0
-0.426 -1.291 2.605 0
-0.419 -1.258 2.591 0
-0.424 -1.261 2.566 0
-0.413 -1.221 2.556 0
-0.408 -1.195 2.541 0
-0.409 -1.187 2.521 0
-0.388 -1.119 2.525 0
-0.399 -1.141 2.492 0
-0.388 -1.098 2.488 0
0.0 -0.0 3.0 0
-0.38 -1.059 2.46 0
0.0 -0.0 3.0 0
-0.371 -1.016 2.437 0
0.0 -0.0 3.0 0
-0.369 -0.993 2.403 0
0.0 -0.0 3.0 0
-0.358 -0.946 2.386 0
0.0 -0.0 3.0 0
-0.344 -0.894 2.374 0
0.0 -0.0 3.0 0
0.0 -0.0 3.0 0
0.0 -0.0 3.0 0
0.0 -0.0 3.0 0
0.0 -0.0 3.0 0
0.0 -0.0 3.0 0
-0.409 -1.327 2.766 27
0.0 -0.0 3.0 0
-0.438 -1.399 2.703 0
-0.44 -1.394 2.678 0
-0.431 -1.354 2.662 0
-0.428 -1.332 2.643 0
-0.422 -1.304 2.626 0
-0.422 -1.292 2.605 0
-0.412 -1.252 2.593 0
-0.425 -1.281 2.559 0
-0.408 -1.219 2.556 0
-0.406 -1.204 2.538 0
-0.4 -1.175 2.525 0
-0.386 -1.124 2.523 0
-0.396 -1.143 2.491 0
-0.386 -1.106 2.484 0
-0.375 -1.066 2.48 0
-0.374 -1.053 2.463 0
0.0 -0.0 3.0 0
-0.365 -1.011 2.439 0
0.0 -0.0 3.0 0
-0.363 -0.987 2.407 0
0.0 -0.0 3.0 0
-0.349 -0.932 2.395 0
0.0 -0.0 3.0 0
-0.341 -0.895 2.373 0
0.0 -0.0 3.0 0
0.0 -0.0 3.0 0
0.0 -0.0 3.0 0
0.0 -0.0 3.0 0
0.0 -0.0 3.0 0
0.0 -0.0 3.0 0
-0.406 -1.332 2.765 27
0.0 -0.0 3.0 0
-0.434 -1.401 2.702 0
-0.435 -1.395 2.678 0
-0.429 -1.362 2.66 0
-0.419 -1.318 2.647 0
-0.418 -1.305 2.626 0
-0.423 -1.309 2.6 0
-0.407 -1.25 2.594 0
-0.424 -1.29 2.556 0
-0.404 -1.22 2.556 0
-0.392 -1.173 2.55 0
-0.402 -1.193 2.518 0
-0.383 -1.128 2.521 0
-0.388 -1.134 2.495 0
-0.38 -1.1 2.487 0
-0.376 -1.081 2.473 0
-0.373 -1.061 2.459 0
0.0 -0.0 3.0 0
-0.365 -1.022 2.434 0
0.0 -0.0 3.0 0
-0.356 -0.979 2.412 0
0.0 -0.0 3.0 0
-0.351 -0.949 2.384 0
0.0 -0.0 3.0 0
-0.345 -0.914 2.36 0
0.0 -0.0 3.0 0
0.0 -0.0 3.0 0
-0.34 -0.877 2.315 0
0.0 -0.0 3.0 0
-0.333 -0.842 2.294 0
0.0 -0.0 3.0 0
-0.4 -1.329 2.766 25
0.0 -0.0 3.0 0
-0.43 -1.406 2.701 0
-0.429 -1.388 2.679 0
-0.426 -1.367 2.659 0
-0.415 -1.32 2.646 0
-0.418 -1.32 2.621 0
-0.414 -1.295 2.604 0
-0.405 -1.259 2.591 0
-0.416 -1.279 2.559 0
-0.394 -1.203 2.562 0
-0.388 -1.174 2.549 0
-0.394 -1.184 2.522 0
-0.379 -1.129 2.521 0
-0.382 -1.128 2.498 0
-0.373 -1.091 2.491 0
-0.375 -1.089 2.469 0
-0.368 -1.059 2.46 0
0.0 -0.0 3.0 0
-0.361 -1.023 2.433 0
0.0 -0.0 3.0 0
-0.357 -0.993 2.404 0
0.0 -0.0 3.0 0
-0.347 -0.949 2.383 0
0.0 -0.0 3.0 0
-0.334 -0.896 2.372 0
0.0 -0.0 3.0 0
0.0 -0.0 3.0 0
0.0 -0.0 3.0 0
0.0 -0.0 3.0 0
0.0 -0.0 3.0 0
0.0 -0.0 3.0 0
-0.396 -1.33 2.765 24
0.0 -0.0 3.0 0
-0.423 -1.396 2.703 0
-0.424 -1.389 2.679 0
-0.419 -1.361 2.661 0
-0.414 -1.332 2.643 0
-0.411 -1.311 2.624 0
-0.413 -1.307 2.6 0
-0.398 -1.248 2.594 0
-0.413 -1.285 2.558 0
-0.401 -1.237 2.55 0
-0.386 -1.182 2.546 0
-0.389 -1.181 2.523 0
-0.374 -1.127 2.522 0
-0.379 -1.132 2.496 0
-0.37 -1.096 2.489 0
-0.356 -1.045 2.49 0
-0.364 -1.06 2.46 0
0.0 -0.0 3.0 0
-0.354 -1.014 2.438 0
0.0 -0.0 3.0 0
-0.351 -0.987 2.407 0
0.0 -0.0 3.0 0
-0.338 -0.934 2.393 0
0.0 -0.0 3.0 0
-0.331 -0.897 2.372 0
0.0 -0.0 3.0 0
0.0 -0.0 3.0 0
-0.331 -0.873 2.318 0
0.0 -0.0 3.0 0
0.0 -0.0 3.0 0
0.0 -0.0 3.0 0
-0.39 -1.324 2.767 23
0.0 -0.0 3.0 0
-0.418 -1.397 2.703 0
-0.424 -1.406 2.675 0
-0.419 -1.377 2.657 0
-0.407 -1.326 2.645 0
-0.41 -1.323 2.621 0
-0.409 -1.309 2.6 0
-0.394 -1.25 2.594 0
-0.407 -1.282 2.558 0
-0.391 -1.22 2.556 0
-0.381 -1.179 2.547 0
-0.387 -1.189 2.519 0
-0.369 -1.125 2.523 0
-0.376 -1.137 2.494 0
-0.371 -1.11 2.482 0
-0.365 -1.084 2.471 0
-0.362 -1.065 2.458 0
0.0 -0.0 3.0 0
-0.35 -1.011 2.44 0
0.0 -0.0 3.0 0
-0.344 -0.978 2.412 0
0.0 -0.0 3.0 0
-0.342 -0.954 2.38 0
0.0 -0.0 3.0 0
-0.327 -0.898 2.371 0
0.0 -0.0 3.0 0
0.0 -0.0 3.0 0
-0.326 -0.871 2.32 0
0.0 -0.0 3.0 0
0.0 -0.0 3.0 0
0.0 -0.0 3.0 0
-0.385 -1.321 2.767 22
0.0 -0.0 3.0 0
-0.411 -1.386 2.705 0
-0.412 -1.381 2.681 0
-0.408 -1.356 2.662 0
-0.404 -1.331 2.643 0
-0.407 -1.328 2.619 0
-0.402 -1.302 2.602 0
-0.392 -1.258 2.591 0
-0.406 -1.295 2.554 0
-0.382 -1.207 2.561 0
-0.386 -1.209 2.536 0
-0.382 -1.187 2.521 0
-0.369 -1.136 2.518 0
-0.371 -1.134 2.495 0
-0.364 -1.101 2.487 0
-0.359 -1.078 2.474 0
-0.355 -1.058 2.461 0
0.0 -0.0 3.0 0
-0.348 -1.019 2.435 0
0.0 -0.0 3.0 0
-0.346 -0.996 2.402 0
0.0 -0.0 3.0 0
-0.338 -0.955 2.38 0
0.0 -0.0 3.0 0
-0.317 -0.88 2.384 0
0.0 -0.0 3.0 0
0.0 -0.0 3.0 0
-0.325 -0.877 2.315 0
0.0 -0.0 3.0 0
0.0 -0.0 3.0 0
0.0 -0.0 3.0 0
-0.382 -1.326 2.766 21
0.0 -0.0 3.0 0
-0.407 -1.391 2.704 0
-0.408 -1.382 2.681 0
-0.407 -1.368 2.659 0
-0.399 -1.329 2.644 0
-0.402 -1.329 2.619 0
-0.398 -1.304 2.601 0
-0.39 -1.267 2.588 0
-0.394 -1.27 2.563 0
-0.379 -1.212 2.559 0
-0.375 -1.189 2.544 0
-0.378 -1.188 2.52 0
-0.36 -1.123 2.523 0
-0.365 -1.128 2.498 0
-0.36 -1.102 2.486 0
-0.349 -1.062 2.482 0
-0.348 -1.049 2.465 0
0.0 -0.0 3.0 0
-0.343 -1.016 2.437 0
0.0 -0.0 3.0 0
-0.338 -0.983 2.409 0
0.0 -0.0 3.0 0
-0.335 -0.956 2.379 0
0.0 -0.0 3.0 0
-0.321 -0.9 2.37 0
0.0 -0.0 3.0 0
0.0 -0.0 3.0 0
-0.32 -0.872 2.319 0
0.0 -0.0 3.0 0
0.0 -0.0 3.0 0
0.0 -0.0 3.0 0
-0.378 -1.327 2.766 20
0.0 -0.0 3.0 0
-0.403 -1.393 2.704 0
-0.407 -1.394 2.678 0
-0.402 -1.366 2.659 0
-0.395 -1.33 2.644 0
-0.391 -1.308 2.625 0
-0.393 -1.301 2.602 0
-0.384 -1.261 2.59 0
-0.396 -1.29 2.556 0
-0.382 -1.234 2.551 0
-0.365 -1.169 2.551 0
-0.376 -1.196 2.517 0
-0.359 -1.131 2.52 0
-0.362 -1.133 2.496 0
-0.354 -1.096 2.489 0
0.0 -0.0 3.0 0
-0.349 -1.064 2.458 0
0.0 -0.0 3.0 0
-0.339 -1.015 2.438 0
0.0 -0.0 3.0 0
-0.332 -0.978 2.412 0
0.0 -0.0 3.0 0
-0.325 -0.941 2.389 0
0.0 -0.0 3.0 0
-0.306 -0.869 2.392 0
-0.311 -0.874 2.365 0
0.0 -0.0 3.0 0
-0.321 -0.885 2.308 0
0.0 -0.0 3.0 0
0.0 -0.0 3.0 0
0.0 -0.0 3.0 0
-0.374 -1.329 2.766 20
0.0 -0.0 3.0 0
-0.405 -1.416 2.699 0
-0.397 -1.377 2.682 0
-0.395 -1.359 2.661 0
-0.389 -1.327 2.644 0
-0.393 -1.328 2.619 0
-0.388 -1.302 2.602 0
-0.382 -1.269 2.588 0
-0.39 -1.287 2.557 0
-0.372 -1.217 2.557 0
-0.376 -1.22 2.532 0
-0.368 -1.183 2.522 0
-0.356 -1.136 2.518 0
-0.357 -1.13 2.497 0
-0.351 -1.1 2.487 0
-0.35 -1.088 2.469 0
-0.343 -1.058 2.461 0
0.0 -0.0 3.0 0
-0.336 -1.018 2.436 0
0.0 -0.0 3.0 0
-0.333 -0.992 2.404 0
0.0 -0.0 3.0 0
-0.316 -0.926 2.399 0
0.0 -0.0 3.0 0
-0.315 -0.904 2.367 0
0.0 -0.0 3.0 0
0.0 -0.0 3.0 0
-0.309 -0.862 2.327 0
0.0 -0.0 3.0 0
-0.313 -0.856 2.282 0
0.0 -0.0 3.0 0
-0.37 -1.33 2.766 19
0.0 -0.0 3.0 0
-0.391 -1.384 2.706 0
-0.395 -1.386 2.68 0
-0.394 -1.372 2.658 0
-0.385 -1.329 2.644 0
-0.384 -1.314 2.623 0
-0.379 -1.285 2.607 0
-0.374 -1.259 2.591 0
-0.394 -1.314 2.548 0
-0.371 -1.23 2.552 0
-0.37 -1.214 2.534 0
-0.365 -1.188 2.52 0
-0.348 -1.123 2.523 0
-0.357 -1.142 2.491 0
-0.342 -1.084 2.495 0
0.0 -0.0 3.0 0
-0.338 -1.056 2.462 0
0.0 -0.0 3.0 0
-0.331 -1.016 2.437 0
0.0 -0.0 3.0 0
-0.323 -0.973 2.416 0
0.0 -0.0 3.0 0
-0.32 -0.946 2.386 0
0.0 -0.0 3.0 0
-0.304 -0.883 2.382 0
0.0 -0.0 3.0 0
0.0 -0.0 3.0 0
-0.311 -0.878 2.314 0
0.0 -0.0 3.0 0
0.0 -0.0 3.0 0
0.0 -0.0 3.0 0
-0.364 -1.327 2.766 18
0.0 -0.0 3.0 0
-0.387 -1.385 2.706 0
-0.389 -1.383 2.681 0
-0.386 -1.358 2.661 0
-0.384 -1.34 2.641 0
-0.384 -1.33 2.619 0
-0.377 -1.293 2.605 0
-0.371 -1.264 2.589 0
-0.386 -1.304 2.551 0
-0.366 -1.227 2.554 0
-0.354 -1.176 2.549 0
-0.357 -1.175 2.525 0
-0.344 -1.124 2.523 0
-0.354 -1.147 2.489 0
-0.34 -1.092 2.491 0
-0.336 -1.069 2.479 0
-0.335 -1.057 2.462 0
0.0 -0.0 3.0 0
-0.328 -1.017 2.436 0
0.0 -0.0 3.0 0
-0.321 -0.98 2.411 0
0.0 -0.0 3.0 0
-0.312 -0.933 2.394 0
0.0 -0.0 3.0 0
-0.305 -0.896 2.373 0
-0.305 -0.889 2.354 0
0.0 -0.0 3.0 0
-0.307 -0.878 2.314 0
0.0 -0.0 3.0 0
0.0 -0.0 3.0 0
0.0 -0.0 3.0 0
-0.362 -1.336 2.764 17
0.0 -0.0 3.0 0
-0.379 -1.375 2.708 0
-0.387 -1.392 2.679 0
-0.382 -1.363 2.66 0
-0.375 -1.327 2.645 0
-0.374 -1.313 2.623 0
-0.379 -1.316 2.598 0
-0.367 -1.266 2.589 0
-0.385 -1.316 2.547 0
-0.36 -1.221 2.556 0
-0.349 -1.173 2.55 0
-0.35 -1.168 2.528 0
-0.336 -1.11 2.529 0
-0.347 -1.137 2.494 0
-0.344 -1.117 2.479 0
-0.328 -1.056 2.485 0
-0.335 -1.071 2.454 0
0.0 -0.0 3.0 0
-0.325 -1.022 2.434 0
0.0 -0.0 3.0 0
-0.322 -0.994 2.403 0
0.0 -0.0 3.0 0
-0.316 -0.957 2.379 0
0.0 -0.0 3.0 0
0.0 -0.0 3.0 0
-0.311 -0.918 2.333 0
0.0 -0.0 3.0 0
0.0 -0.0 3.0 0
0.0 -0.0 3.0 0
-0.292 -0.829 2.305 0
0.0 -0.0 3.0 0
-0.357 -1.333 2.765 16
0.0 -0.0 3.0 0
-0.382 -1.403 2.702 0
-0.38 -1.382 2.681 0
-0.376 -1.357 2.662 0
-0.371 -1.328 2.644 0
-0.373 -1.325 2.62 0
-0.371 -1.307 2.601 0
-0.364 -1.27 2.587 0
-0.377 -1.306 2.55 0
-0.355 -1.218 2.557 0
-0.348 -1.185 2.545 0
-0.353 -1.191 2.519 0
-0.336 -1.126 2.522 0
-0.34 -1.127 2.498 0
-0.334 -1.098 2.488 0
-0.327 -1.068 2.479 0
-0.328 -1.062 2.459 0
0.0 -0.0 3.0 0
-0.315 -1.001 2.445 0
0.0 -0.0 3.0 0
-0.314 -0.982 2.41 0
0.0 -0.0 3.0 0
-0.308 -0.945 2.386 0
-0.294 -0.892 2.398 0
0.0 -0.0 3.0 0
-0.306 -0.912 2.337 0
0.0 -0.0 3.0 0
-0.306 -0.895 2.301 0
0.0 -0.0 3.0 0
0.0 -0.0 3.0 0
0.0 -0.0 3.0 0
-0.352 -1.331 2.765 14
0.0 -0.0 3.0 0
-0.373 -1.385 2.706 0
-0.379 -1.398 2.677 0
-0.376 -1.373 2.658 0
-0.366 -1.326 2.645 0
-0.368 -1.322 2.621 0
-0.364 -1.297 2.604 0
-0.36 -1.271 2.587 0
-0.369 -1.293 2.555 0
-0.353 -1.227 2.554 0
-0.347 -1.196 2.541 0
-0.345 -1.177 2.524 0
-0.332 -1.127 2.522 0
-0.335 -1.125 2.499 0
-0.333 -1.109 2.483 0
-0.328 -1.082 2.472 0
-0.326 -1.066 2.457 0
0.0 -0.0 3.0 0
-0.319 -1.026 2.431 0
0.0 -0.0 3.0 0
-0.311 -0.983 2.409 0
0.0 -0.0 3.0 0
-0.303 -0.942 2.388 0
-0.301 -0.925 2.376 0
-0.295 -0.898 2.371 0
-0.305 -0.922 2.33 0
0.0 -0.0 3.0 0
-0.288 -0.853 2.333 0
0.0 -0.0 3.0 0
0.0 -0.0 3.0 0
0.0 -0.0 3.0 0
-0.347 -1.327 2.766 13
0.0 -0.0 3.0 0
-0.37 -1.394 2.704 0
-0.373 -1.392 2.679 0
-0.371 -1.374 2.657 0
-0.365 -1.337 2.642 0
-0.359 -1.305 2.626 0
-0.36 -1.298 2.603 0
-0.352 -1.261 2.59 0
-0.36 -1.275 2.561 0
-0.347 -1.22 2.556 0
-0.338 -1.179 2.547 0
-0.345 -1.193 2.518 0
-0.331 -1.135 2.518 0
-0.334 -1.137 2.494 0
-0.326 -1.099 2.487 0
-0.32 -1.07 2.478 0
-0.323 -1.071 2.454 0
0.0 -0.0 3.0 0
-0.31 -1.01 2.44 0
0.0 -0.0 3.0 0
-0.305 -0.977 2.413 0
0.0 -0.0 3.0 0
-0.296 -0.931 2.396 0
0.0 -0.0 3.0 0
0.0 -0.0 3.0 0
-0.299 -0.914 2.336 0
0.0 -0.0 3.0 0
-0.291 -0.872 2.319 0
0.0 -0.0 3.0 0
0.0 -0.0 3.0 0
0.0 -0.0 3.0 0
-0.344 -1.332 2.765 12
0.0 -0.0 3.0 0
-0.363 -1.383 2.706 0
-0.365 -1.378 2.682 0
-0.366 -1.372 2.658 0
-0.359 -1.335 2.642 0
-0.354 -1.306 2.625 0
-0.355 -1.295 2.604 0
-0.349 -1.266 2.589 0
-0.362 -1.302 2.552 0
-0.344 -1.225 2.554 0
-0.339 -1.199 2.54 0
-0.34 -1.19 2.519 0
-0.323 -1.121 2.524 0
-0.329 -1.134 2.495 0
-0.322 -1.1 2.487 0
-0.324 -1.099 2.464 0
-0.315 -1.057 2.461 0
0.0 -0.0 3.0 0
-0.306 -1.011 2.44 0
0.0 -0.0 3.0 0
-0.305 -0.988 2.406 0
0.0 -0.0 3.0 0
-0.294 -0.937 2.391 0
-0.292 -0.921 2.379 0
0.0 -0.0 3.0 0
-0.295 -0.914 2.336 0
0.0 -0.0 3.0 0
-0.283 -0.86 2.328 0
0.0 -0.0 3.0 0
0.0 -0.0 3.0 0
0.0 -0.0 3.0 0
-0.34 -1.333 2.765 12
0.0 -0.0 3.0 0
-0.361 -1.392 2.704 0
-0.361 -1.383 2.681 0
-0.359 -1.361 2.661 0
-0.353 -1.328 2.644 0
-0.346 -1.292 2.63 0
-0.353 -1.308 2.6 0
-0.347 -1.274 2.586 0
-0.361 -1.314 2.547 0
-0.338 -1.219 2.556 0
-0.326 -1.167 2.552 0
-0.334 -1.184 2.522 0
-0.323 -1.137 2.518 0
-0.326 -1.138 2.493 0
-0.318 -1.101 2.487 0
-0.317 -1.089 2.469 0
-0.314 -1.069 2.455 0
0.0 -0.0 3.0 0
-0.3 -1.001 2.445 0
0.0 -0.0 3.0 0
-0.298 -0.979 2.412 0
0.0 -0.0 3.0 0
-0.29 -0.935 2.393 0
-0.296 -0.947 2.361 0
0.0 -0.0 3.0 0
-0.291 -0.912 2.338 0
0.0 -0.0 3.0 0
-0.28 -0.861 2.327 0
0.0 -0.0 3.0 0
-0.28 -0.843 2.292 0
0.0 -0.0 3.0 0
-0.336 -1.334 2.765 11
0.0 -0.0 3.0 0
-0.354 -1.382 2.706 0
-0.356 -1.38 2.681 0
-0.358 -1.378 2.657 0
-0.352 -1.341 2.641 0
-0.347 -1.312 2.624 0
-0.347 -1.301 2.602 0
-0.337 -1.253 2.593 0
-0.358 -1.319 2.546 0
-0.333 -1.216 2.557 0
-0.324 -1.176 2.549 0
-0.329 -1.181 2.523 0
-0.315 -1.123 2.523 0
-0.32 -1.132 2.496 0
-0.316 -1.109 2.483 0
-0.308 -1.072 2.477 0
-0.306 -1.056 2.462 0
-0.294 -1.005 2.465 0
-0.301 -1.02 2.435 0
0.0 -0.0 3.0 0
-0.299 -0.996 2.402 0
0.0 -0.0 3.0 0
-0.295 -0.965 2.373 0
-0.291 -0.941 2.365 0
0.0 -0.0 3.0 0
-0.287 -0.913 2.337 0
0.0 -0.0 3.0 0
-0.273 -0.85 2.336 0
0.0 -0.0 3.0 0
0.0 -0.0 3.0 0
0.0 -0.0 3.0 0
-0.331 -1.331 2.765 10
0.0 -0.0 3.0 0
-0.353 -1.398 2.703 0
-0.348 -1.366 2.685 0
-0.351 -1.367 2.659 0
-0.347 -1.338 2.641 0
-0.34 -1.301 2.627 0
-0.341 -1.295 2.604 0
-0.332 -1.25 2.594 0
-0.348 -1.298 2.553 0
-0.333 -1.235 2.55 0
-0.316 -1.162 2.554 0
-0.325 -1.182 2.522 0
-0.308 -1.114 2.527 0
-0.314 -1.126 2.499 0
-0.309 -1.096 2.489 0
-0.313 -1.101 2.463 0
-0.307 -1.071 2.454 0
-0.615 -2.128 1.868 0
-0.293 -1.003 2.444 0
0.0 -0.0 3.0 0
-0.292 -0.984 2.409 0
0.0 -0.0 3.0 0
-0.286 -0.947 2.385 0
-0.29 -0.952 2.358 0
0.0 -0.0 3.0 0
-0.28 -0.901 2.345 0
0.0 -0.0 3.0 0
-0.274 -0.865 2.324 0
0.0 -0.0 3.0 0
0.0 -0.0 3.0 0
0.0 -0.0 3.0 0
-0.327 -1.332 2.765 10
0.0 -0.0 3.0 0
-0.348 -1.395 2.704 0
-0.348 -1.385 2.68 0
-0.345 -1.361 2.661 0
-0.34 -1.331 2.643 0
-0.334 -1.295 2.629 0
-0.34 -1.306 2.601 0
-0.331 -1.263 2.59 0
-0.339 -1.284 2.558 0
-0.327 -1.228 2.553 0
-0.315 -1.174 2.549 0
-0.318 -1.173 2.526 0
-0.309 -1.132 2.519 0
-0.314 -1.141 2.492 0
-0.307 -1.104 2.485 0
-0.299 -1.067 2.48 0
-0.299 -1.057 2.461 0
0.0 -0.0 3.0 0
-0.293 -1.018 2.436 0
0.0 -0.0 3.0 0
-0.291 -0.994 2.403 0
0.0 -0.0 3.0 0
-0.289 -0.969 2.37 0
-0.279 -0.927 2.375 0
0.0 -0.0 3.0 0
-0.275 -0.895 2.35 0
0.0 -0.0 3.0 0
-0.274 -0.876 2.316 0
0.0 -0.0 3.0 0
0.0 -0.0 3.0 0
0.0 -0.0 3.0 0
-0.323 -1.333 2.765 8
0.0 -0.0 3.0 0
-0.342 -1.388 2.705 0
-0.34 -1.371 2.683 0
-0.341 -1.366 2.66 0
-0.337 -1.336 2.642 0
-0.331 -1.303 2.626 0
-0.335 -1.307 2.6 0
-0.322 -1.245 2.595 0
-0.339 -1.3 2.552 0
-0.324 -1.233 2.551 0
-0.317 -1.196 2.541 0
-0.313 -1.17 2.527 0
-0.305 -1.129 2.521 0
-0.307 -1.127 2.498 0
-0.301 -1.098 2.488 0
-0.308 -1.113 2.457 0
-0.295 -1.058 2.461 0
-0.584 -2.074 1.897 0
-0.287 -1.012 2.439 0
-0.288 -1.005 2.42 0
-0.288 -0.995 2.402 0
0.0 -0.0 3.0 0
-0.279 -0.947 2.385 0
-0.284 -0.956 2.355 0
0.0 -0.0 3.0 0
-0.274 -0.905 2.342 0
0.0 -0.0 3.0 0
-0.272 -0.882 2.311 0
0.0 -0.0 3.0 0
-0.263 -0.837 2.298 0
0.0 -0.0 3.0 0
-0.318 -1.334 2.765 8
0.0 -0.0 3.0 0
-0.336 -1.386 2.705 0
-0.335 -1.368 2.684 0
-0.335 -1.359 2.661 0
-0.332 -1.333 2.643 0
-0.327 -1.304 2.626 0
-0.327 -1.294 2.604 0
-0.323 -1.264 2.589 0
-0.337 -1.309 2.549 0
-0.315 -1.216 2.557 0
-0.302 -1.153 2.557 0
-0.31 -1.175 2.525 0
-0.301 -1.13 2.52 0
-0.304 -1.132 2.496 0
-0.297 -1.098 2.488 0
-0.29 -1.062 2.482 0
-0.294 -1.07 2.455 0
-0.278 -1.002 2.467 0
-0.285 -1.016 2.437 0
0.0 -0.0 3.0 0
-0.287 -1.006 2.395 0
0.0 -0.0 3.0 0
-0.271 -0.932 2.395 0
-0.277 -0.944 2.363 0
0.0 -0.0 3.0 0
-0.271 -0.906 2.342 0
0.0 -0.0 3.0 0
-0.27 -0.886 2.308 0
0.0 -0.0 3.0 0
-0.251 -0.808 2.322 0
0.0 -0.0 3.0 0
-0.315 -1.339 2.764 6
0.0 -0.0 3.0 0
-0.335 -1.398 2.703 0
-0.331 -1.373 2.683 0
-0.332 -1.364 2.66 0
-0.326 -1.327 2.644 0
-0.325 -1.313 2.624 0
-0.324 -1.299 2.603 0
-0.317 -1.262 2.59 0
-0.323 -1.273 2.562 0
-0.317 -1.239 2.549 0
-0.311 -1.206 2.537 0
-0.308 -1.183 2.522 0
-0.298 -1.135 2.518 0
-0.3 -1.133 2.496 0
-0.294 -1.103 2.486 0
-0.293 -1.09 2.468 0
-0.289 -1.064 2.458 0
-0.569 -2.077 1.896 0
-0.278 -1.007 2.442 0
0.0 -0.0 3.0 0
-0.276 -0.98 2.411 0
-0.273 -0.963 2.398 0
-0.271 -0.946 2.386 0
-0.271 -0.938 2.367 0
0.0 -0.0 3.0 0
-0.274 -0.929 2.325 0
0.0 -0.0 3.0 0
-0.264 -0.88 2.312 0
0.0 -0.0 3.0 0
-0.25 -0.818 2.314 0
0.0 -0.0 3.0 0
-0.311 -1.34 2.764 6
0.0 -0.0 3.0 0
-0.328 -1.391 2.704 0
-0.325 -1.366 2.685 0
-0.328 -1.365 2.66 0
-0.318 -1.313 2.648 0
-0.316 -1.295 2.629 0
-0.324 -1.318 2.597 0
-0.308 -1.24 2.597 0
-0.324 -1.295 2.554 0
-0.308 -1.222 2.555 0
-0.301 -1.184 2.545 0
-0.303 -1.18 2.523 0
-0.289 -1.117 2.526 0
-0.297 -1.138 2.494 0
-0.288 -1.093 2.49 0
-0.281 -1.06 2.483 0
-0.287 -1.071 2.454 0
-0.561 -2.075 1.897 0
-0.282 -1.035 2.426 0
0.0 -0.0 3.0 0
-0.273 -0.984 2.409 0
-0.273 -0.974 2.392 0
-0.258 -0.914 2.406 0
-0.27 -0.946 2.362 0
0.0 -0.0 3.0 0
-0.265 -0.913 2.336 0
0.0 -0.0 3.0 0
-0.253 -0.854 2.333 0
0.0 -0.0 3.0 0
0.0 -0.0 3.0 0
0.0 -0.0 3.0 0
-0.307 -1.341 2.764 5
0.0 -0.0 3.0 0
-0.323 -1.388 2.705 0
-0.322 -1.371 2.683 0
-0.32 -1.35 2.663 0
-0.315 -1.321 2.646 0
-0.312 -1.296 2.628 0
-0.317 -1.304 2.601 0
-0.306 -1.249 2.594 0
-0.317 -1.286 2.557 0
-0.301 -1.211 2.559 0
-0.297 -1.181 2.547 0
-0.296 -1.17 2.527 0
-0.29 -1.137 2.518 0
-0.295 -1.146 2.49 0
-0.287 -1.105 2.485 0
-0.289 -1.102 2.462 0
-0.283 -1.072 2.454 0
-0.268 -1.007 2.465 0
-0.275 -1.022 2.434 0
-0.273 -1.005 2.42 0
-0.27 -0.988 2.406 0
0.0 -0.0 3.0 0
-0.26 -0.935 2.393 0
-0.264 -0.94 2.366 0
0.0 -0.0 3.0 0
-0.26 -0.908 2.34 0
0.0 -0.0 3.0 0
-0.259 -0.888 2.307 0
0.0 -0.0 3.0 0
-0.25 -0.839 2.296 0
0.0 -0.0 3.0 0
-0.303 -1.342 2.763 4
0.0 -0.0 3.0 0
-0.321 -1.397 2.703 0
-0.319 -1.38 2.681 0
-0.314 -1.348 2.664 0
-0.312 -1.326 2.645 0
-0.311 -1.312 2.624 0
-0.309 -1.29 2.606 0
-0.303 -1.257 2.592 0
-0.311 -1.279 2.56 0
-0.301 -1.227 2.553 0
-0.288 -1.164 2.553 0
-0.295 -1.182 2.522 0
-0.283 -1.127 2.522 0
-0.288 -1.136 2.494 0
-0.281 -1.098 2.488 0
-0.278 -1.079 2.474 0
-0.278 -1.065 2.457 0
-0.265 -1.008 2.464 0
-0.27 -1.019 2.435 0
0.0 -0.0 3.0 0
-0.265 -0.982 2.41 0
0.0 -0.0 3.0 0
-0.259 -0.941 2.389 0
-0.254 -0.915 2.383 0
0.0 -0.0 3.0 0
-0.259 -0.918 2.333 0
0.0 -0.0 3.0 0
-0.251 -0.87 2.32 0
0.0 -0.0 3.0 0
-0.245 -0.834 2.3 0
0.0 -0.0 3.0 0
-0.299 -1.343 2.763 4
0.0 -0.0 3.0 0
-0.318 -1.406 2.701 0
-0.314 -1.377 2.682 0
-0.311 -1.352 2.663 0
-0.303 -1.304 2.65 0
-0.304 -1.302 2.627 0
-0.308 -1.306 2.601 0
-0.297 -1.25 2.594 0
-0.311 -1.294 2.554 0
-0.292 -1.21 2.56 0
-0.289 -1.183 2.546 0
-0.289 -1.176 2.525 0
-0.282 -1.138 2.517 0
-0.287 -1.147 2.489 0
-0.277 -1.099 2.487 0
-0.274 -1.076 2.475 0
-0.273 -1.063 2.458 0
-0.535 -2.066 1.902 0
-0.264 -1.009 2.441 0
-0.27 -1.023 2.409 0
-0.264 -0.993 2.403 0
0.0 -0.0 3.0 0
-0.257 -0.949 2.384 0
-0.259 -0.947 2.361 0
0.0 -0.0 3.0 0
-0.251 -0.9 2.346 0
0.0 -0.0 3.0 0
-0.248 -0.874 2.317 0
0.0 -0.0 3.0 0
0.0 -0.0 3.0 0
0.0 -0.0 3.0 0
-0.294 -1.34 2.764 3
-0.312 -1.412 2.725 0
-0.31 -1.391 2.704 0
-0.31 -1.378 2.682 0
-0.311 -1.372 2.658 0
-0.303 -1.324 2.645 0
-0.301 -1.306 2.626 0
-0.302 -1.3 2.603 0
-0.292 -1.248 2.594 0
-0.311 -1.314 2.547 0
-0.295 -1.236 2.55 0
-0.284 -1.18 2.547 0
-0.284 -1.173 2.526 0
-0.276 -1.128 2.521 0
-0.284 -1.151 2.487 0
-0.277 -1.114 2.481 0
-0.273 -1.09 2.468 0
-0.272 -1.074 2.453 0
-0.53 -2.078 1.895 0
-0.264 -1.024 2.432 0
-0.258 -0.994 2.426 0
-0.257 -0.98 2.411 0
-0.255 -0.963 2.398 0
0.0 -0.0 3.0 0
-0.252 -0.936 2.369 0
0.0 -0.0 3.0 0
-0.251 -0.916 2.334 0
0.0 -0.0 3.0 0
-0.241 -0.862 2.327 0
0.0 -0.0 3.0 0
0.0 -0.0 3.0 0
0.0 -0.0 3.0 0
-0.29 -1.345 2.763 3
-0.303 -1.39 2.73 0
-0.307 -1.396 2.703 0
-0.303 -1.368 2.684 0
-0.307 -1.373 2.658 0
-0.298 -1.321 2.646 0
-0.294 -1.296 2.628 0
-0.296 -1.293 2.605 0
-0.291 -1.26 2.591 0
-0.304 -1.304 2.551 0
-0.287 -1.223 2.555 0
-0.281 -1.185 2.545 0
-0.281 -1.176 2.525 0
-0.274 -1.136 2.518 0
-0.278 -1.145 2.49 0
-0.27 -1.1 2.487 0
-0.264 -1.071 2.478 0
-0.264 -1.057 2.461 0
-0.522 -2.075 1.897 0
-0.253 -0.997 2.447 0
-0.261 -1.018 2.412 0
-0.257 -0.994 2.403 0
-0.252 -0.968 2.395 0
-0.245 -0.93 2.396 0
-0.249 -0.939 2.367 0
0.0 -0.0 3.0 0
-0.251 -0.926 2.327 0
0.0 -0.0 3.0 0
-0.244 -0.884 2.309 0
0.0 -0.0 3.0 0
-0.238 -0.844 2.291 0
0.0 -0.0 3.0 0
-0.286 -1.346 2.763 3
-0.294 -1.372 2.733 0
-0.301 -1.393 2.704 0
-0.298 -1.365 2.685 0
-0.298 -1.355 2.662 0
-0.291 -1.311 2.649 0
-0.288 -1.289 2.63 0
-0.294 -1.301 2.602 0
-0.285 -1.253 2.593 0
-0.295 -1.287 2.557 0
-0.282 -1.22 2.556 0
-0.276 -1.182 2.546 0
-0.279 -1.185 2.521 0
-0.269 -1.133 2.519 0
-0.273 -1.142 2.492 0
-0.267 -1.105 2.485 0
-0.262 -1.078 2.474 0
-0.257 -1.048 2.466 0
-0.516 -2.081 1.894 0
-0.254 -1.015 2.437 0
-0.254 -1.005 2.42 0
-0.249 -0.978 2.412 0
-0.248 -0.964 2.398 0
-0.242 -0.935 2.393 0
-0.25 -0.956 2.355 0
0.0 -0.0 3.0 0
-0.247 -0.927 2.326 0
0.0 -0.0 3.0 0
-0.237 -0.872 2.319 0
0.0 -0.0 3.0 0
-0.229 -0.827 2.306 0
0.0 -0.0 3.0 0
-0.282 -1.347 2.763 3
-0.291 -1.377 2.732 0
-0.298 -1.398 2.703 0
-0.295 -1.373 2.683 0
-0.294 -1.356 2.662 0
-0.289 -1.323 2.645 0
-0.284 -1.29 2.63 0
-0.29 -1.306 2.601 0
-0.283 -1.265 2.589 0
-0.288 -1.272 2.562 0
-0.281 -1.235 2.551 0
-0.271 -1.179 2.547 0
-0.276 -1.193 2.518 0
-0.266 -1.138 2.517 0
-0.27 -1.147 2.489 0
-0.263 -1.106 2.484 0
-0.259 -1.079 2.474 0
-0.256 -1.059 2.46 0
-0.512 -2.096 1.886 0
-0.25 -1.015 2.437 0
-0.247 -0.992 2.427 0
-0.248 -0.989 2.406 0
0.0 -0.0 3.0 0
0.0 -0.0 3.0 0
-0.241 -0.934 2.37 0
0.0 -0.0 3.0 0
-0.241 -0.918 2.333 0
0.0 -0.0 3.0 0
-0.235 -0.879 2.313 0
0.0 -0.0 3.0 0
-0.226 -0.828 2.305 0
0.0 -0.0 3.0 0
-0.28 -1.355 2.761 2
-0.294 -1.412 2.726 0
-0.292 -1.391 2.704 0
-0.286 -1.351 2.688 0
-0.29 -1.357 2.662 0
-0.287 -1.336 2.642 0
-0.278 -1.28 2.633 0
-0.282 -1.288 2.606 0
-0.279 -1.266 2.589 0
-0.287 -1.291 2.555 0
-0.273 -1.217 2.557 0
-0.266 -1.177 2.548 0
-0.271 -1.187 2.521 0
-0.262 -1.138 2.517 0
-0.265 -1.14 2.492 0
-0.257 -1.099 2.487 0
-0.257 -1.09 2.468 0
-0.252 -1.057 2.462 0
-0.247 -1.026 2.455 0
-0.246 -1.016 2.437 0
-0.25 -1.023 2.409 0
-0.241 -0.976 2.414 0
0.0 -0.0 3.0 0
-0.235 -0.935 2.393 0
-0.241 -0.951 2.359 0
0.0 -0.0 3.0 0
-0.24 -0.928 2.326 0
0.0 -0.0 3.0 0
-0.229 -0.87 2.32 0
0.0 -0.0 3.0 0
-0.226 -0.84 2.295 0
0.0 -0.0 3.0 0
-0.272 -1.341 2.764 2
-0.29 -1.416 2.725 0
-0.289 -1.4 2.702 0
-0.286 -1.371 2.683 0
-0.286 -1.361 2.661 0
-0.28 -1.321 2.646 0
-0.276 -1.292 2.629 0
-0.28 -1.3 2.602 0
-0.274 -1.26 2.591 0
-0.281 -1.281 2.559 0
-0.271 -1.226 2.554 0
-0.267 -1.199 2.54 0
-0.267 -1.188 2.52 0
-0.257 -1.136 2.518 0
-0.261 -1.145 2.49 0
-0.253 -1.097 2.489 0
-0.25 -1.077 2.475 0
-0.25 -1.064 2.458 0
0.0 -0.0 3.0 0
-0.242 -1.014 2.438 0
0.0 -0.0 3.0 0
-0.24 -0.987 2.407 0
-0.239 -0.974 2.392 0
0.0 -0.0 3.0 0
-0.234 -0.938 2.367 0
0.0 -0.0 3.0 0
-0.231 -0.906 2.341 0
0.0 -0.0 3.0 0
-0.229 -0.883 2.31 0
0.0 -0.0 3.0 0
-0.219 -0.826 2.307 0
0.0 -0.0 3.0 0
-0.271 -1.353 2.761 2
-0.277 -1.375 2.733 0
-0.284 -1.397 2.703 0
-0.275 -1.342 2.69 0
-0.28 -1.354 2.662 0
-0.277 -1.326 2.645 0
-0.271 -1.289 2.63 0
-0.274 -1.294 2.605 0
-0.27 -1.263 2.59 0
-0.285 -1.319 2.546 0
-0.263 -1.211 2.559 0
-0.262 -1.192 2.542 0
-0.263 -1.191 2.519 0
-0.249 -1.118 2.525 0
-0.258 -1.146 2.49 0
-0.251 -1.105 2.485 0
-0.251 -1.095 2.466 0
-0.243 -1.054 2.463 0
-0.241 -1.035 2.45 0
-0.238 -1.015 2.438 0
-0.245 -1.031 2.405 0
-0.232 -0.971 2.417 0
-0.237 -0.98 2.387 0
0.0 -0.0 3.0 0
-0.233 -0.946 2.362 0
0.0 -0.0 3.0 0
-0.23 -0.916 2.334 0
0.0 -0.0 3.0 0
-0.223 -0.871 2.319 0
0.0 -0.0 3.0 0
-0.216 -0.829 2.304 0
0.0 -0.0 3.0 0
-0.263 -1.338 2.764 2
-0.278 -1.399 2.728 0
-0.28 -1.398 2.703 0
-0.275 -1.362 2.686 0
-0.278 -1.367 2.659 0
-0.272 -1.323 2.646 0
-0.266 -1.286 2.631 0
-0.272 -1.301 2.602 0
-0.262 -1.246 2.595 0
-0.272 -1.279 2.56 0
-0.263 -1.227 2.553 0
-0.253 -1.172 2.55 0
-0.258 -1.185 2.521 0
-0.247 -1.127 2.522 0
-0.254 -1.146 2.49 0
-0.246 -1.101 2.487 0
-0.244 -1.085 2.471 0
-0.241 -1.062 2.459 0
0.0 -0.0 3.0 0
-0.235 -1.018 2.436 0
-0.236 -1.012 2.416 0
-0.229 -0.972 2.416 0
-0.233 -0.981 2.387 0
0.0 -0.0 3.0 0
-0.224 -0.926 2.375 0
0.0 -0.0 3.0 0
-0.229 -0.927 2.326 0
0.0 -0.0 3.0 0
-0.221 -0.878 2.314 0
0.0 -0.0 3.0 0
-0.212 -0.827 2.306 0
0.0 -0.0 3.0 0
-0.262 -1.355 2.761 2
-0.276 -1.415 2.725 0
-0.272 -1.38 2.707 0
-0.269 -1.355 2.687 0
-0.272 -1.356 2.662 0
-0.268 -1.327 2.644 0
-0.259 -1.272 2.635 0
-0.265 -1.292 2.605 0
-0.258 -1.247 2.595 0
-0.271 -1.299 2.553 0
-0.256 -1.217 2.557 0
-0.25 -1.176 2.549 0
-0.254 -1.186 2.521 0
-0.243 -1.123 2.523 0
-0.247 -1.133 2.496 0
-0.241 -1.095 2.489 0
-0.243 -1.097 2.465 0
-0.24 -1.073 2.453 0
-0.227 -1.004 2.466 0
-0.232 -1.019 2.435 0
-0.232 -1.009 2.417 0
-0.23 -0.992 2.404 0
-0.229 -0.982 2.386 0
0.0 -0.0 3.0 0
-0.229 -0.963 2.35 0
0.0 -0.0 3.0 0
-0.225 -0.927 2.326 0
0.0 -0.0 3.0 0
-0.215 -0.869 2.321 0
0.0 -0.0 3.0 0
-0.215 -0.851 2.286 0
0.0 -0.0 3.0 0
-0.255 -1.339 2.764 2
-0.271 -1.412 2.726 0
-0.272 -1.403 2.702 0
-0.265 -1.356 2.687 0
-0.269 -1.369 2.659 0
-0.261 -1.313 2.648 0
-0.258 -1.287 2.631 0
-0.265 -1.311 2.599 0
-0.255 -1.255 2.592 0
-0.264 -1.285 2.558 0
-0.253 -1.222 2.555 0
-0.24 -1.147 2.56 0
-0.25 -1.187 2.521 0
-0.238 -1.12 2.525 0
-0.247 -1.151 2.487 0
-0.238 -1.103 2.486 0
-0.238 -1.094 2.466 0
-0.231 -1.053 2.463 0
-0.227 -1.022 2.457 0
-0.227 -1.016 2.437 0
-0.223 -0.989 2.429 0
-0.221 -0.969 2.418 0
-0.227 -0.985 2.384 0
-0.214 -0.922 2.401 0
-0.223 -0.951 2.359 0
0.0 -0.0 3.0 0
-0.216 -0.906 2.342 0
0.0 -0.0 3.0 0
-0.212 -0.87 2.32 0
0.0 -0.0 3.0 0
-0.206 -0.831 2.303 0
0.0 -0.0 3.0 0
-0.252 -1.348 2.762 1
-0.267 -1.417 2.725 0
-0.265 -1.393 2.704 0
-0.258 -1.345 2.69 0
-0.263 -1.358 2.661 0
-0.259 -1.325 2.645 0
-0.251 -1.276 2.634 0
-0.259 -1.304 2.601 0
-0.251 -1.252 2.593 0
-0.259 -1.282 2.559 0
-0.248 -1.218 2.557 0
-0.242 -1.177 2.548 0
-0.244 -1.18 2.523 0
-0.239 -1.146 2.514 0
-0.237 -1.127 2.498 0
-0.232 -1.093 2.49 0
-0.234 -1.094 2.466 0
-0.231 -1.067 2.456 0
-0.222 -1.02 2.458 0
-0.224 -1.017 2.436 0
-0.221 -0.993 2.427 0
-0.223 -0.993 2.403 0
-0.222 -0.983 2.386 0
0.0 -0.0 3.0 0
-0.221 -0.957 2.354 0
0.0 -0.0 3.0 0
-0.216 -0.919 2.332 0
0.0 -0.0 3.0 0
-0.203 -0.848 2.337 0
0.0 -0.0 3.0 0
-0.205 -0.837 2.298 0
0.0 -0.0 3.0 0
-0.248 -1.348 2.762 1
-0.259 -1.398 2.728 0
-0.258 -1.378 2.707 0
-0.255 -1.353 2.688 0
-0.259 -1.363 2.66 0
-0.255 -1.33 2.644 0
-0.248 -1.281 2.633 0
-0.254 -1.301 2.602 0
-0.244 -1.241 2.597 0
-0.255 -1.283 2.558 0
-0.246 -1.23 2.552 0
-0.239 -1.182 2.546 0
-0.237 -1.162 2.53 0
-0.232 -1.129 2.521 0
-0.234 -1.131 2.496 0
-0.229 -1.097 2.489 0
-0.233 -1.106 2.461 0
-0.228 -1.072 2.454 0
-0.224 -1.044 2.445 0
-0.222 -1.024 2.432 0
-0.219 -1.001 2.422 0
-0.215 -0.977 2.413 0
-0.216 -0.973 2.392 0
-0.208 -0.926 2.399 0
-0.214 -0.945 2.362 0
0.0 -0.0 3.0 0
-0.213 -0.923 2.33 0
0.0 -0.0 3.0 0
-0.204 -0.865 2.325 0
0.0 -0.0 3.0 0
-0.197 -0.82 2.312 0
0.0 -0.0 3.0 0
-0.243 -1.342 2.763 1
-0.252 -1.38 2.732 0
-0.257 -1.398 2.703 0
-0.252 -1.362 2.686 0
-0.256 -1.367 2.659 0
-0.25 -1.327 2.645 0
-0.247 -1.301 2.627 0
-0.246 -1.283 2.608 0
-0.243 -1.257 2.591 0
-0.247 -1.265 2.565 0
-0.241 -1.224 2.555 0
-0.235 -1.186 2.545 0
-0.238 -1.188 2.52 0
-0.227 -1.126 2.522 0
-0.232 -1.138 2.493 0
-0.228 -1.112 2.481 0
-0.225 -1.089 2.469 0
-0.221 -1.058 2.461 0
-0.219 -1.038 2.448 0
-0.214 -1.004 2.444 0
0.0 -0.0 3.0 0
-0.212 -0.981 2.411 0
-0.212 -0.971 2.393 0
0.0 -0.0 3.0 0
-0.211 -0.945 2.362 0
0.0 -0.0 3.0 0
-0.208 -0.917 2.334 0
0.0 -0.0 3.0 0
-0.202 -0.871 2.319 0
0.0 -0.0 3.0 0
0.0 -0.0 3.0 0
0.0 -0.0 3.0 0
-0.241 -1.354 2.761 1
-0.251 -1.399 2.728 0
-0.253 -1.403 2.702 0
-0.248 -1.363 2.685 0
-0.251 -1.364 2.66 0
-0.245 -1.32 2.646 0
-0.237 -1.268 2.636 0
-0.243 -1.292 2.605 0
-0.236 -1.243 2.596 0
-0.25 -1.303 2.551 0
-0.237 -1.228 2.553 0
-0.229 -1.176 2.549 0
-0.232 -1.178 2.524 0
-0.225 -1.134 2.519 0
-0.228 -1.143 2.491 0
-0.219 -1.088 2.493 0
-0.222 -1.09 2.469 0
-0.219 -1.065 2.457 0
-0.214 -1.032 2.451 0
-0.212 -1.015 2.437 0
-0.216 -1.026 2.408 0
-0.21 -0.988 2.406 0
-0.211 -0.985 2.385 0
0.0 -0.0 3.0 0
-0.206 -0.94 2.366 0
0.0 -0.0 3.0 0
-0.207 -0.927 2.327 0
0.0 -0.0 3.0 0
-0.198 -0.869 2.321 0
0.0 -0.0 3.0 0
-0.191 -0.823 2.309 0
0.0 -0.0 3.0 0
-0.234 -1.343 2.763 1
-0.246 -1.4 2.728 0
-0.248 -1.4 2.703 0
-0.244 -1.363 2.685 0
-0.244 -1.353 2.663 0
-0.24 -1.321 2.646 0
-0.233 -1.269 2.636 0
-0.24 -1.295 2.604 0
-0.234 -1.255 2.592 0
-0.238 -1.262 2.566 0
-0.23 -1.21 2.559 0
-0.224 -1.169 2.551 0
-0.229 -1.187 2.521 0
-0.222 -1.138 2.517 0
-0.225 -1.144 2.491 0
-0.218 -1.103 2.486 0
-0.217 -1.086 2.47 0
-0.215 -1.066 2.457 0
-0.208 -1.022 2.457 0
-0.208 -1.013 2.439 0
-0.209 -1.009 2.417 0
-0.204 -0.978 2.412 0
-0.206 -0.979 2.389 0
0.0 -0.0 3.0 0
-0.206 -0.956 2.355 0
0.0 -0.0 3.0 0
-0.202 -0.924 2.328 0
0.0 -0.0 3.0 0
-0.192 -0.86 2.328 0
0.0 -0.0 3.0 0
0.0 -0.0 3.0 0
0.0 -0.0 3.0 0
-0.232 -1.355 2.761 1
-0.241 -1.397 2.728 0
-0.243 -1.392 2.704 0
-0.24 -1.364 2.685 0
-0.242 -1.366 2.659 0
-0.239 -1.337 2.642 0
-0.231 -1.284 2.632 0
-0.236 -1.3 2.602 0
-0.231 -1.263 2.59 0
-0.236 -1.274 2.561 0
-0.228 -1.222 2.555 0
-0.223 -1.184 2.546 0
-0.224 -1.184 2.522 0
-0.218 -1.138 2.517 0
-0.219 -1.134 2.495 0
-0.215 -1.107 2.484 0
-0.213 -1.087 2.47 0
-0.213 -1.074 2.453 0
-0.202 -1.012 2.462 0
-0.206 -1.02 2.435 0
-0.209 -1.027 2.407 0
-0.198 -0.966 2.42 0
-0.199 -0.962 2.399 0
0.0 -0.0 3.0 0
-0.202 -0.957 2.354 0
0.0 -0.0 3.0 0
-0.198 -0.918 2.333 0
0.0 -0.0 3.0 0
-0.191 -0.869 2.321 0
0.0 -0.0 3.0 0
-0.185 -0.825 2.308 0
0.0 -0.0 3.0 0
-0.227 -1.348 2.762 1
-0.236 -1.39 2.73 0
-0.24 -1.405 2.701 0
-0.233 -1.349 2.689 0
-0.236 -1.359 2.661 0
-0.233 -1.33 2.644 0
-0.228 -1.289 2.63 0
-0.231 -1.297 2.603 0
-0.226 -1.256 2.592 0
-0.233 -1.286 2.557 0
-0.222 -1.211 2.559 0
-0.218 -1.181 2.547 0
-0.221 -1.188 2.52 0
-0.21 -1.121 2.524 0
-0.217 -1.145 2.49 0
-0.209 -1.093 2.49 0
-0.207 -1.073 2.477 0
-0.206 -1.061 2.459 0
-0.203 -1.034 2.45 0
-0.198 -1.003 2.444 0
-0.203 -1.017 2.413 0
-0.198 -0.984 2.409 0
-0.2 -0.983 2.386 0
0.0 -0.0 3.0 0
-0.197 -0.951 2.358 0
0.0 -0.0 3.0 0
-0.192 -0.909 2.34 0
0.0 -0.0 3.0 0
-0.187 -0.867 2.323 0
0.0 -0.0 3.0 0
-0.181 -0.825 2.308 0
0.0 -0.0 3.0 0
-0.222 -1.345 2.763 1
-0.233 -1.399 2.728 0
-0.236 -1.406 2.701 0
-0.228 -1.346 2.689 0
-0.232 -1.359 2.661 0
-0.228 -1.327 2.645 0
-0.225 -1.297 2.628 0
-0.227 -1.294 2.604 0
-0.219 -1.242 2.596 0
-0.228 -1.283 2.558 0
-0.219 -1.22 2.556 0
-0.216 -1.193 2.542 0
-0.22 -1.203 2.514 0
-0.209 -1.133 2.519 0
-0.211 -1.135 2.495 0
-0.206 -1.101 2.487 0
-0.209 -1.106 2.461 0
-0.204 -1.068 2.456 0
-0.2 -1.041 2.447 0
-0.198 -1.021 2.434 0
-0.201 -1.028 2.407 0
-0.194 -0.98 2.411 0
-0.194 -0.97 2.394 0
0.0 -0.0 3.0 0
-0.192 -0.942 2.365 0
0.0 -0.0 3.0 0
-0.187 -0.9 2.346 0
0.0 -0.0 3.0 0
-0.183 -0.868 2.322 0
0.0 -0.0 3.0 0
0.0 -0.0 3.0 0
0.0 -0.0 3.0 0
-0.219 -1.35 2.762 1
-0.229 -1.403 2.727 0
-0.231 -1.406 2.701 0
-0.224 -1.351 2.688 0
-0.228 -1.36 2.661 0
-0.224 -1.327 2.645 0
-0.219 -1.286 2.631 0
-0.224 -1.306 2.601 0
-0.217 -1.254 2.593 0
-0.22 -1.257 2.567 0
-0.213 -1.212 2.559 0
-0.208 -1.172 2.55 0
-0.211 -1.178 2.524 0
-0.204 -1.129 2.521 0
-0.208 -1.139 2.493 0
-0.202 -1.098 2.488 0
-0.204 -1.103 2.462 0
-0.199 -1.065 2.457 0
-0.195 -1.034 2.45 0
-0.193 -1.014 2.438 0
-0.198 -1.032 2.404 0
-0.192 -0.988 2.406 0
-0.187 -0.954 2.404 0
0.0 -0.0 3.0 0
-0.19 -0.952 2.358 0
0.0 -0.0 3.0 0
-0.186 -0.916 2.334 0
0.0 -0.0 3.0 0
-0.176 -0.849 2.337 0
0.0 -0.0 3.0 0
0.0 -0.0 3.0 0
0.0 -0.0 3.0 0
-0.214 -1.347 2.763 1
-0.226 -1.415 2.725 0
-0.226 -1.399 2.703 0
-0.222 -1.362 2.685 0
-0.226 -1.376 2.657 0
-0.221 -1.331 2.643 0
-0.214 -1.279 2.633 0
-0.216 -1.284 2.608 0
-0.214 -1.262 2.59 0
-0.219 -1.277 2.56 0
-0.212 -1.228 2.553 0
-0.204 -1.172 2.55 0
-0.207 -1.178 2.524 0
-0.203 -1.149 2.512 0
-0.204 -1.139 2.493 0
-0.2 -1.109 2.483 0
-0.196 -1.079 2.474 0
-0.197 -1.076 2.452 0
-0.192 -1.035 2.449 0
-0.192 -1.028 2.43 0
-0.193 -1.026 2.408 0
-0.185 -0.971 2.416 0
-0.189 -0.984 2.385 0
0.0 -0.0 3.0 0
-0.19 -0.969 2.346 0
0.0 -0.0 3.0 0
-0.18 -0.904 2.343 0
0.0 -0.0 3.0 0
-0.173 -0.853 2.334 0
0.0 -0.0 3.0 0
-0.167 -0.802 2.327 0
0.0 -0.0 3.0 0
-0.21 -1.347 2.763 1
-0.22 -1.401 2.728 0
-0.223 -1.407 2.701 0
-0.217 -1.36 2.686 0
-0.22 -1.365 2.66 0
-0.216 -1.332 2.643 0
-0.211 -1.288 2.631 0
-0.215 -1.304 2.601 0
-0.209 -1.258 2.591 0
-0.213 -1.267 2.564 0
-0.207 -1.225 2.554 0
-0.203 -1.188 2.544 0
-0.204 -1.187 2.521 0
-0.197 -1.135 2.518 0
-0.2 -1.144 2.491 0
-0.195 -1.102 2.486 0
-0.19 -1.069 2.479 0
-0.191 -1.063 2.459 0
-0.19 -1.046 2.444 0
-0.187 -1.019 2.435 0
-0.187 -1.013 2.415 0
-0.182 -0.978 2.412 0
-0.187 -0.995 2.378 0
0.0 -0.0 3.0 0
-0.18 -0.937 2.368 0
0.0 -0.0 3.0 0
-0.181 -0.924 2.329 0
0.0 -0.0 3.0 0
-0.17 -0.853 2.334 0
0.0 -0.0 3.0 0
0.0 -0.0 3.0 0
0.0 -0.0 3.0 0
-0.205 -1.348 2.762 1
-0.217 -1.413 2.725 0
-0.216 -1.396 2.703 0
-0.212 -1.361 2.686 0
-0.213 -1.351 2.663 0
-0.21 -1.322 2.646 0
-0.206 -1.284 2.632 0
-0.21 -1.3 2.602 0
-0.205 -1.259 2.591 0
-0.212 -1.289 2.556 0
-0.201 -1.21 2.559 0
-0.199 -1.188 2.544 0
-0.199 -1.18 2.523 0
-0.191 -1.124 2.523 0
-0.195 -1.134 2.495 0
-0.19 -1.096 2.489 0
-0.19 -1.087 2.47 0
-0.188 -1.067 2.456 0
-0.185 -1.04 2.447 0
-0.181 -1.009 2.441 0
-0.185 -1.02 2.411 0
-0.179 -0.983 2.41 0
-0.181 -0.978 2.389 0
0.0 -0.0 3.0 0
-0.176 -0.934 2.37 0
0.0 -0.0 3.0 0
-0.178 -0.928 2.326 0
0.0 -0.0 3.0 0
-0.169 -0.866 2.324 0
0.0 -0.0 3.0 0
0.0 -0.0 3.0 0
0.0 -0.0 3.0 0
-0.2 -1.341 2.764 1
-0.212 -1.406 2.727 0
-0.211 -1.389 2.705 0
-0.211 -1.38 2.681 0
-0.21 -1.359 2.661 0
-0.208 -1.333 2.643 0
-0.203 -1.293 2.629 0
-0.206 -1.301 2.602 0
-0.201 -1.256 2.592 0
-0.207 -1.283 2.558 0
-0.199 -1.226 2.554 0
-0.194 -1.185 2.545 0
-0.194 -1.176 2.525 0
-0.19 -1.139 2.516 0
-0.192 -1.145 2.49 0
-0.188 -1.111 2.482 0
-0.186 -1.088 2.469 0
-0.184 -1.064 2.458 0
-0.179 -1.03 2.452 0
-0.18 -1.027 2.431 0
-0.179 -1.01 2.417 0
-0.175 -0.979 2.412 0
-0.178 -0.986 2.384 0
0.0 -0.0 3.0 0
-0.176 -0.957 2.354 0
0.0 -0.0 3.0 0
-0.172 -0.915 2.335 0
0.0 -0.0 3.0 0
-0.167 -0.87 2.32 0
0.0 -0.0 3.0 0
0.0 -0.0 3.0 0
0.0 -0.0 3.0 0
-0.197 -1.349 2.762 1
-0.207 -1.407 2.726 0
-0.208 -1.398 2.703 0
-0.204 -1.361 2.686 0
-0.207 -1.37 2.658 0
-0.203 -1.334 2.642 0
-0.199 -1.293 2.629 0
-0.202 -1.305 2.601 0
-0.195 -1.25 2.594 0
-0.199 -1.265 2.565 0
-0.196 -1.23 2.552 0
-0.19 -1.182 2.546 0
-0.19 -1.177 2.524 0
-0.183 -1.122 2.524 0
-0.188 -1.142 2.492 0
-0.183 -1.104 2.485 0
-0.179 -1.066 2.48 0
-0.18 -1.065 2.458 0
-0.177 -1.037 2.449 0
-0.174 -1.014 2.438 0
-0.174 -1.003 2.421 0
-0.171 -0.973 2.415 0
-0.174 -0.983 2.386 0
0.0 -0.0 3.0 0
-0.172 -0.955 2.356 0
0.0 -0.0 3.0 0
-0.169 -0.918 2.333 0
0.0 -0.0 3.0 0
-0.166 -0.882 2.311 0
0.0 -0.0 3.0 0
-0.158 -0.825 2.308 0
0.0 -0.0 3.0 0
-0.192 -1.346 2.763 1
-0.201 -1.396 2.729 0
-0.203 -1.394 2.704 0
-0.2 -1.366 2.685 0
-0.202 -1.364 2.66 0
-0.199 -1.33 2.643 0
-0.192 -1.278 2.633 0
-0.196 -1.294 2.604 0
-0.193 -1.261 2.59 0
-0.198 -1.284 2.558 0
-0.19 -1.224 2.555 0
-0.187 -1.19 2.543 0
-0.185 -1.171 2.527 0
-0.18 -1.126 2.522 0
-0.186 -1.153 2.487 0
-0.18 -1.108 2.483 0
-0.177 -1.078 2.474 0
-0.177 -1.072 2.454 0
-0.173 -1.038 2.448 0
-0.171 -1.014 2.438 0
-0.173 -1.015 2.414 0
-0.168 -0.98 2.411 0
-0.168 -0.97 2.394 0
-0.16 -0.913 2.407 0
-0.169 -0.955 2.356 0
0.0 -0.0 3.0 0
-0.167 -0.928 2.326 0
0.0 -0.0 3.0 0
-0.157 -0.858 2.33 0
0.0 -0.0 3.0 0
0.0 -0.0 3.0 0
0.0 -0.0 3.0 0
-0.189 -1.35 2.762 0
-0.197 -1.4 2.728 0
-0.2 -1.407 2.701 0
-0.195 -1.362 2.685 0
-0.196 -1.353 2.663 0
-0.193 -1.323 2.645 0
-0.188 -1.279 2.633 0
-0.192 -1.295 2.604 0
-0.187 -1.247 2.595 0
-0.193 -1.277 2.56 0
-0.185 -1.213 2.558 0
-0.181 -1.176 2.549 0
-0.184 -1.186 2.521 0
-0.176 -1.126 2.522 0
-0.179 -1.136 2.494 0
-0.175 -1.098 2.488 0
-0.175 -1.092 2.467 0
-0.174 -1.073 2.454 0
-0.169 -1.034 2.45 0
-0.167 -1.014 2.438 0
-0.168 -1.011 2.416 0
-0.167 -0.998 2.4 0
-0.167 -0.987 2.383 0
0.0 -0.0 3.0 0
-0.167 -0.968 2.347 0
0.0 -0.0 3.0 0
-0.163 -0.926 2.327 0
0.0 -0.0 3.0 0
-0.156 -0.867 2.322 0
0.0 -0.0 3.0 0
0.0 -0.0 3.0 0
0.0 -0.0 3.0 0
-0.183 -1.339 2.764 1
-0.194 -1.405 2.727 0
-0.196 -1.407 2.701 0
-0.192 -1.367 2.684 0
-0.192 -1.358 2.662 0
-0.191 -1.336 2.642 0
-0.185 -1.284 2.632 0
-0.189 -1.303 2.602 0
-0.186 -1.27 2.587 0
-0.191 -1.292 2.555 0
-0.182 -1.224 2.554 0
-0.178 -1.187 2.544 0
-0.177 -1.168 2.528 0
-0.174 -1.141 2.516 0
-0.176 -1.143 2.491 0
-0.174 -1.117 2.479 0
-0.171 -1.09 2.469 0
-0.168 -1.059 2.46 0
-0.166 -1.042 2.446 0
-0.164 -1.019 2.435 0
-0.165 -1.015 2.414 0
-0.159 -0.968 2.418 0
-0.162 -0.978 2.389 0
0.0 -0.0 3.0 0
-0.163 -0.966 2.349 0
0.0 -0.0 3.0 0
-0.162 -0.939 2.318 0
0.0 -0.0 3.0 0
-0.15 -0.852 2.334 0
0.0 -0.0 3.0 0
0.0 -0.0 3.0 0
0.0 -0.0 3.0 0
-0.179 -1.344 2.763 1
-0.189 -1.401 2.728 0
-0.19 -1.4 2.702 0
-0.187 -1.367 2.684 0
-0.188 -1.358 2.662 0
-0.186 -1.332 2.643 0
-0.181 -1.288 2.631 0
-0.185 -1.304 2.601 0
-0.178 -1.244 2.596 0
-0.186 -1.293 2.555 0
-0.177 -1.218 2.557 0
-0.174 -1.184 2.546 0
-0.176 -1.19 2.519 0
-0.168 -1.124 2.523 0
-0.173 -1.148 2.489 0
-0.169 -1.109 2.483 0
-0.167 -1.09 2.469 0
-0.163 -1.056 2.462 0
-0.162 -1.039 2.448 0
-0.16 -1.015 2.437 0
-0.159 -0.999 2.423 0
-0.16 -0.996 2.402 0
-0.159 -0.984 2.385 0
0.0 -0.0 3.0 0
-0.156 -0.946 2.362 0
0.0 -0.0 3.0 0
-0.154 -0.917 2.334 0
0.0 -0.0 3.0 0
-0.153 -0.89 2.305 0
0.0 -0.0 3.0 0
0.0 -0.0 3.0 0
0.0 -0.0 3.0 0
-0.175 -1.34 2.764 0
-0.186 -1.414 2.725 0
-0.186 -1.405 2.701 0
-0.18 -1.349 2.689 0
-0.184 -1.362 2.66 0
-0.18 -1.325 2.645 0
-0.177 -1.289 2.63 0
-0.182 -1.312 2.599 0
-0.175 -1.252 2.593 0
-0.179 -1.271 2.562 0
-0.175 -1.233 2.551 0
-0.17 -1.189 2.544 0
-0.172 -1.191 2.519 0
-0.164 -1.124 2.523 0
-0.168 -1.145 2.49 0
-0.165 -1.11 2.482 0
-0.162 -1.083 2.472 0
-0.16 -1.057 2.462 0
-0.159 -1.04 2.447 0
-0.156 -1.013 2.439 0
-0.159 -1.023 2.409 0
-0.152 -0.972 2.416 0
-0.155 -0.982 2.386 0
0.0 -0.0 3.0 0
-0.156 -0.97 2.346 0
0.0 -0.0 3.0 0
-0.149 -0.908 2.341 0
0.0 -0.0 3.0 0
-0.148 -0.881 2.312 0
0.0 -0.0 3.0 0
0.0 -0.0 3.0 0
0.0 -0.0 3.0 0
-0.172 -1.349 2.762 0
-0.18 -1.406 2.727 0
-0.18 -1.394 2.704 0
-0.179 -1.372 2.683 0
-0.178 -1.356 2.662 0
-0.176 -1.323 2.646 0
-0.174 -1.297 2.628 0
-0.176 -1.301 2.602 0
-0.171 -1.253 2.593 0
-0.174 -1.264 2.565 0
-0.17 -1.226 2.554 0
-0.165 -1.181 2.547 0
-0.168 -1.191 2.519 0
-0.163 -1.147 2.513 0
-0.164 -1.145 2.49 0
-0.16 -1.104 2.485 0
-0.159 -1.087 2.47 0
-0.157 -1.064 2.458 0
-0.156 -1.047 2.443 0
-0.153 -1.02 2.435 0
-0.154 -1.013 2.415 0
-0.148 -0.969 2.418 0
-0.151 -0.978 2.389 0
0.0 -0.0 3.0 0
-0.153 -0.973 2.344 0
0.0 -0.0 3.0 0
-0.146 -0.911 2.338 0
0.0 -0.0 3.0 0
-0.144 -0.879 2.313 0
0.0 -0.0 3.0 0
0.0 -0.0 3.0 0
0.0 -0.0 3.0 0
-0.168 -1.357 2.761 0
-0.176 -1.403 2.727 0
-0.177 -1.398 2.703 0
-0.173 -1.361 2.686 0
-0.174 -1.356 2.662 0
-0.172 -1.326 2.645 0
-0.169 -1.294 2.629 0
-0.171 -1.298 2.603 0
-0.166 -1.246 2.595 0
-0.173 -1.287 2.557 0
-0.165 -1.22 2.556 0
-0.162 -1.186 2.545 0
-0.162 -1.177 2.524 0
-0.157 -1.128 2.521 0
-0.16 -1.142 2.492 0
-0.158 -1.118 2.478 0
-0.153 -1.077 2.475 0
-0.154 -1.071 2.454 0
0.0 -0.0 3.0 0
-0.149 -1.021 2.434 0
-0.151 -1.021 2.411 0
-0.146 -0.979 2.412 0
-0.147 -0.976 2.39 0
0.0 -0.0 3.0 0
-0.146 -0.95 2.359 0
0.0 -0.0 3.0 0
-0.145 -0.925 2.328 0
0.0 -0.0 3.0 0
-0.138 -0.863 2.326 0
0.0 -0.0 3.0 0
0.0 -0.0 3.0 0
0.0 -0.0 3.0 0
-0.162 -1.337 2.764 0
-0.173 -1.415 2.725 0
-0.172 -1.395 2.704 0
-0.166 -1.339 2.691 0
-0.17 -1.36 2.661 0
-0.168 -1.327 2.644 0
-0.163 -1.282 2.632 0
-0.168 -1.306 2.601 0
-0.163 -1.257 2.591 0
-0.168 -1.287 2.557 0
-0.161 -1.22 2.556 0
-0.158 -1.186 2.545 0
-0.159 -1.185 2.521 0
-0.152 -1.126 2.522 0
-0.153 -1.124 2.5 0
-0.152 -1.105 2.485 0
-0.151 -1.084 2.471 0
-0.148 -1.054 2.463 0
-0.146 -1.034 2.45 0
-0.144 -1.01 2.44 0
-0.146 -1.01 2.417 0
-0.143 -0.984 2.409 0
-0.144 -0.983 2.386 0
0.0 -0.0 3.0 0
-0.142 -0.948 2.361 0
0.0 -0.0 3.0 0
-0.141 -0.922 2.33 0
0.0 -0.0 3.0 0
-0.136 -0.873 2.318 0
0.0 -0.0 3.0 0
0.0 -0.0 3.0 0
0.0 -0.0 3.0 0
-0.158 -1.342 2.763 0
-0.167 -1.408 2.726 0
-0.168 -1.403 2.702 0
-0.164 -1.355 2.687 0
-0.166 -1.36 2.661 0
-0.163 -1.32 2.646 0
-0.16 -1.291 2.63 0
-0.163 -1.299 2.603 0
-0.159 -1.257 2.591 0
-0.157 -1.235 2.575 0
-0.156 -1.217 2.557 0
-0.151 -1.168 2.552 0
-0.155 -1.189 2.519 0
-0.15 -1.133 2.519 0
-0.151 -1.136 2.494 0
-0.148 -1.105 2.485 0
-0.15 -1.107 2.46 0
-0.147 -1.075 2.452 0
-0.145 -1.049 2.442 0
-0.141 -1.011 2.44 0
-0.146 -1.035 2.402 0
-0.139 -0.98 2.411 0
-0.14 -0.977 2.39 0
0.0 -0.0 3.0 0
-0.138 -0.945 2.363 0
0.0 -0.0 3.0 0
-0.138 -0.925 2.328 0
0.0 -0.0 3.0 0
-0.138 -0.911 2.288 0
0.0 -0.0 3.0 0
0.0 -0.0 3.0 0
0.0 -0.0 3.0 0
-0.154 -1.338 2.764 0
-0.162 -1.401 2.728 0
-0.163 -1.4 2.702 0
-0.16 -1.363 2.685 0
-0.161 -1.354 2.663 0
-0.158 -1.32 2.646 0
-0.156 -1.287 2.631 0
-0.158 -1.292 2.605 0
-0.153 -1.243 2.596 0
-0.159 -1.281 2.559 0
-0.153 -1.224 2.554 0
-0.15 -1.187 2.544 0
-0.15 -1.175 2.525 0
-0.146 -1.134 2.519 0
-0.146 -1.125 2.499 0
-0.145 -1.105 2.485 0
-0.145 -1.099 2.464 0
-0.141 -1.062 2.459 0
-0.137 -1.017 2.459 0
-0.136 -1.0 2.445 0
-0.142 -1.035 2.402 0
-0.136 -0.984 2.409 0
-0.138 -0.987 2.383 0
0.0 -0.0 3.0 0
-0.136 -0.955 2.356 0
0.0 -0.0 3.0 0
-0.133 -0.919 2.332 0
0.0 -0.0 3.0 0
-0.131 -0.883 2.31 0
0.0 -0.0 3.0 0
0.0 -0.0 3.0 0
0.0 -0.0 3.0 0
-0.151 -1.35 2.762 0
-0.157 -1.398 2.728 0
-0.16 -1.404 2.702 0
-0.156 -1.359 2.686 0
-0.157 -1.358 2.662 0
-0.155 -1.324 2.645 0
-0.152 -1.296 2.629 0
-0.153 -1.292 2.605 0
-0.151 -1.258 2.591 0
-0.154 -1.274 2.561 0
-0.15 -1.232 2.552 0
-0.145 -1.184 2.546 0
-0.146 -1.179 2.524 0
-0.141 -1.13 2.52 0
-0.144 -1.144 2.491 0
-0.141 -1.106 2.484 0
-0.139 -1.086 2.47 0
-0.137 -1.058 2.461 0
-0.138 -1.052 2.441 0
-0.133 -1.008 2.441 0
-0.138 -1.035 2.402 0
-0.132 -0.984 2.409 0
-0.134 -0.984 2.385 0
0.0 -0.0 3.0 0
-0.132 -0.952 2.358 0
0.0 -0.0 3.0 0
-0.129 -0.917 2.334 0
0.0 -0.0 3.0 0
-0.126 -0.874 2.317 0
0.0 -0.0 3.0 0
0.0 -0.0 3.0 0
0.0 -0.0 3.0 0
-0.147 -1.355 2.761 0
-0.152 -1.386 2.731 0
-0.153 -1.389 2.705 0
-0.152 -1.364 2.685 0
-0.153 -1.358 2.661 0
-0.15 -1.321 2.646 0
-0.148 -1.296 2.629 0
-0.151 -1.304 2.601 0
-0.146 -1.251 2.593 0
-0.151 -1.289 2.556 0
-0.145 -1.225 2.554 0
-0.141 -1.184 2.546 0
-0.142 -1.183 2.522 0
-0.137 -1.131 2.52 0
-0.141 -1.151 2.487 0
-0.136 -1.095 2.489 0
-0.14 -1.118 2.455 0
-0.134 -1.063 2.459 0
-0.132 -1.039 2.448 0
-0.131 -1.022 2.433 0
-0.129 -0.998 2.424 0
-0.127 -0.968 2.418 0
-0.13 -0.981 2.387 0
0.0 -0.0 3.0 0
-0.129 -0.955 2.356 0
0.0 -0.0 3.0 0
-0.125 -0.907 2.341 0
0.0 -0.0 3.0 0
-0.124 -0.883 2.31 0
0.0 -0.0 3.0 0
0.0 -0.0 3.0 0
0.0 -0.0 3.0 0
-0.143 -1.355 2.761 0
-0.149 -1.406 2.727 0
-0.149 -1.389 2.705 0
-0.147 -1.357 2.687 0
-0.15 -1.374 2.657 0
-0.146 -1.329 2.644 0
-0.144 -1.297 2.628 0
-0.146 -1.301 2.602 0
-0.142 -1.255 2.592 0
-0.147 -1.286 2.557 0
-0.14 -1.222 2.555 0
-0.136 -1.174 2.55 0
-0.137 -1.173 2.526 0
-0.134 -1.135 2.518 0
-0.135 -1.133 2.496 0
-0.133 -1.11 2.482 0
-0.131 -1.083 2.472 0
-0.129 -1.052 2.464 0
-0.13 -1.05 2.442 0
-0.125 -1.005 2.443 0
-0.129 -1.022 2.41 0
-0.124 -0.978 2.412 0
-0.126 -0.978 2.389 0
0.0 -0.0 3.0 0
-0.125 -0.953 2.357 0
0.0 -0.0 3.0 0
-0.124 -0.927 2.327 0
0.0 -0.0 3.0 0
-0.12 -0.883 2.31 0
0.0 -0.0 3.0 0
0.0 -0.0 3.0 0
0.0 -0.0 3.0 0
-0.138 -1.352 2.762 0
-0.145 -1.411 2.726 0
-0.146 -1.398 2.703 0
-0.142 -1.357 2.687 0
-0.144 -1.359 2.661 0
-0.141 -1.322 2.646 0
-0.14 -1.297 2.628 0
-0.141 -1.297 2.603 0
-0.137 -1.249 2.594 0
-0.141 -1.275 2.561 0
-0.136 -1.219 2.556 0
-0.133 -1.185 2.545 0
-0.134 -1.184 2.522 0
-0.129 -1.124 2.523 0
-0.132 -1.145 2.49 0
-0.129 -1.103 2.486 0
-0.128 -1.083 2.472 0
-0.128 -1.077 2.451 0
-0.127 -1.057 2.438 0
-0.124 -1.027 2.431 0
-0.127 -1.037 2.401 0
-0.121 -0.982 2.41 0
-0.125 -1.002 2.374 0
0.0 -0.0 3.0 0
-0.122 -0.956 2.355 0
0.0 -0.0 3.0 0
-0.119 -0.918 2.333 0
0.0 -0.0 3.0 0
-0.115 -0.868 2.322 0
0.0 -0.0 3.0 0
0.0 -0.0 3.0 0
0.0 -0.0 3.0 0
-0.135 -1.36 2.76 0
-0.14 -1.395 2.729 0
-0.141 -1.398 2.703 0
-0.139 -1.369 2.684 0
-0.138 -1.347 2.664 0
-0.137 -1.318 2.647 0
-0.134 -1.282 2.632 0
-0.137 -1.294 2.604 0
-0.134 -1.26 2.591 0
-0.138 -1.286 2.557 0
-0.134 -1.241 2.548 0
