# .PCD v0.7 - Point Cloud Data file format
VERSION 0.7
FIELDS x y z intensity
SIZE 4 4 4 4
TYPE F F F F
COUNT 1 1 1 1
WIDTH 2083
HEIGHT 1
VIEWPOINT 0 0 0 1 0 0 0
POINTS 2083
DATA ascii
9.968 -5.039 0.861 39
10.176 -5.095 0.732 28
10.175 -5.049 0.646 20
30.296 -14.917 -4.276 4
28.7 -14.031 -4.149 5
27.216 -13.223 -4.031 4
25.891 -12.518 -3.939 24
24.669 -11.874 -3.856 7
20.6 -9.884 -2.939 19
20.547 -9.832 -3.143 22
20.559 -9.82 -3.377 22
20.005 -9.543 -3.437 17
19.262 -9.185 -3.432 14
18.54 -8.839 -3.422 13
17.77 -8.479 -3.389 13
17.036 -8.135 -3.356 13
16.35 -7.817 -3.33 12
15.71 -7.524 -3.313 14
15.096 -7.243 -3.297 15
10.686 -6.657 1.826 24
10.388 -6.347 1.766 33
10.358 -6.209 1.68 23
11.031 -6.494 1.501 2
11.016 -6.369 1.412 14
10.945 -6.222 1.333 31
12.361 -6.91 1.018 32
10.231 -5.63 1.279 34
10.564 -5.727 1.139 16
10.872 -5.809 1.0 19
11.07 -5.841 0.874 41
9.806 -5.106 1.04 2
9.55 -4.917 1.013 30
9.884 -5.034 0.863 27
10.144 -5.117 0.722 26
31.845 -15.919 -4.423 6
10.478 -5.198 0.465 0
28.506 -14.041 -4.154 4
27.043 -13.237 -4.038 4
25.728 -12.531 -3.946 27
24.522 -11.89 -3.865 7
20.53 -9.922 -2.962 21
20.38 -9.82 -3.136 22
20.59 -9.904 -3.432 30
19.922 -9.569 -3.454 19
19.184 -9.21 -3.449 14
18.46 -8.86 -3.437 14
17.702 -8.501 -3.406 14
16.969 -8.155 -3.371 18
16.281 -7.832 -3.343 12
15.642 -7.538 -3.325 13
15.029 -7.254 -3.306 14
10.661 -6.68 1.822 21
10.577 -6.503 1.736 21
10.357 -6.248 1.672 22
10.742 -6.364 1.531 19
11.038 -6.425 1.398 8
10.909 -6.243 1.327 36
12.713 -7.156 0.948 13
10.165 -5.632 1.278 25
10.57 -5.771 1.125 25
10.818 -5.823 0.995 25
11.177 -5.94 0.838 35
9.785 -5.133 1.03 25
9.502 -4.929 1.009 32
9.874 -5.066 0.85 33
10.144 -5.155 0.705 36
31.611 -15.92 -4.424 7
10.46 -5.227 0.451 25
28.321 -14.053 -4.16 4
26.887 -13.258 -4.049 5
25.575 -12.548 -3.955 29
24.379 -11.906 -3.874 7
20.498 -9.977 -2.995 22
20.219 -9.813 -3.132 21
20.357 -9.861 -3.404 26
19.877 -9.613 -3.484 18
19.123 -9.244 -3.472 14
18.397 -8.889 -3.458 13
17.617 -8.515 -3.417 14
16.906 -8.176 -3.388 13
16.222 -7.853 -3.359 11
15.578 -7.553 -3.338 13
14.969 -7.268 -3.318 15
10.703 -6.748 1.81 27
10.494 -6.493 1.738 29
10.393 -6.31 1.659 19
10.658 -6.356 1.533 23
10.738 -6.292 1.431 11
10.89 -6.274 1.319 25
10.978 -6.222 1.216 1
10.206 -5.694 1.259 24
10.171 -5.592 1.183 13
9.696 -5.255 1.19 2
11.407 -6.106 0.778 19
9.737 -5.144 1.025 25
9.44 -4.932 1.007 32
9.86 -5.096 0.837 31
10.109 -5.175 0.696 28
31.406 -15.934 -4.43 7
10.438 -5.255 0.437 25
28.135 -14.063 -4.165 4
26.708 -13.266 -4.054 4
25.415 -12.56 -3.962 29
24.246 -11.927 -3.886 7
20.424 -10.012 -3.016 8
20.094 -9.82 -3.137 22
20.1 -9.804 -3.367 39
19.86 -9.671 -3.523 19
19.048 -9.269 -3.49 14
18.32 -8.91 -3.473 14
17.548 -8.537 -3.433 14
16.839 -8.195 -3.403 15
16.157 -7.87 -3.373 12
15.521 -7.571 -3.353 13
14.91 -7.283 -3.331 14
10.653 -6.757 1.808 24
10.533 -6.557 1.726 14
10.483 -6.405 1.639 16
10.544 -6.329 1.539 24
10.757 -6.344 1.418 17
10.857 -6.298 1.312 24
11.1 -6.334 1.184 19
10.35 -5.814 1.222 27
10.353 -5.732 1.137 50
9.64 -5.263 1.188 28
10.877 -5.864 0.866 39
9.709 -5.168 1.016 13
9.466 -4.981 0.987 31
9.853 -5.13 0.822 27
10.067 -5.191 0.689 31
31.176 -15.934 -4.43 7
10.433 -5.292 0.419 28
27.939 -14.068 -4.168 5
26.536 -13.277 -4.059 5
25.263 -12.576 -3.971 29
24.109 -11.945 -3.897 7
23.008 -11.36 -3.826 19
20.007 -9.847 -3.153 23
20.006 -9.826 -3.381 29
19.79 -9.703 -3.545 26
18.984 -9.3 -3.512 14
18.247 -8.934 -3.491 14
17.48 -8.559 -3.45 14
16.762 -8.211 -3.415 12
16.091 -7.887 -3.387 12
15.463 -7.589 -3.368 15
14.853 -7.298 -3.344 15
10.994 -7.016 1.763 11
10.423 -6.528 1.731 27
10.417 -6.405 1.639 22
10.566 -6.383 1.526 29
10.755 -6.384 1.408 0
10.848 -6.334 1.303 19
11.313 -6.5 1.136 19
10.414 -5.891 1.199 28
10.621 -5.922 1.076 29
9.623 -5.291 1.178 19
11.211 -6.087 0.784 26
9.695 -5.197 1.005 28
9.508 -5.04 0.964 26
9.804 -5.142 0.817 26
10.066 -5.23 0.672 26
30.961 -15.94 -4.433 7
10.391 -5.309 0.411 4
10.449 -5.3 0.299 4
26.374 -13.292 -4.067 5
25.114 -12.592 -3.98 29
23.966 -11.96 -3.905 7
22.877 -11.376 -3.835 17
19.933 -9.88 -3.174 24
19.891 -9.838 -3.389 24
19.721 -9.735 -3.566 22
18.906 -9.324 -3.529 14
18.157 -8.948 -3.501 14
17.411 -8.581 -3.466 14
16.695 -8.229 -3.429 13
16.032 -7.907 -3.403 12
15.395 -7.601 -3.378 13
14.79 -7.31 -3.355 14
10.669 -6.85 1.792 20
10.603 -6.682 1.701 24
10.405 -6.438 1.631 11
10.52 -6.396 1.523 30
10.94 -6.537 1.37 16
10.9 -6.408 1.283 22
10.974 -6.349 1.18 28
10.447 -5.951 1.181 22
10.582 -5.941 1.069 27
9.582 -5.306 1.173 25
11.129 -6.086 0.785 25
9.744 -5.261 0.981 20
9.473 -5.058 0.956 28
9.471 -5.003 0.876 25
10.062 -5.265 0.656 27
30.742 -15.944 -4.435 7
10.448 -5.377 0.377 7
10.389 -5.308 0.295 7
26.205 -13.304 -4.074 5
24.962 -12.606 -3.988 27
23.826 -11.975 -3.914 7
22.757 -11.397 -3.848 11
19.767 -9.866 -3.165 19
19.952 -9.936 -3.453 23
19.644 -9.764 -3.586 25
18.807 -9.337 -3.538 14
18.087 -8.972 -3.519 14
17.336 -8.599 -3.48 13
16.621 -8.245 -3.441 13
15.973 -7.927 -3.419 12
15.338 -7.619 -3.393 15
14.737 -7.328 -3.37 14
11.405 -7.368 1.701 19
10.728 -6.804 1.678 20
10.477 -6.524 1.613 12
10.602 -6.488 1.502 20
10.821 -6.509 1.377 1
10.846 -6.419 1.28 25
10.41 -6.063 1.261 27
10.435 -5.985 1.17 26
10.452 -5.91 1.08 22
9.609 -5.358 1.155 27
10.991 -6.054 0.797 29
9.816 -5.338 0.951 23
9.567 -5.145 0.921 30
9.395 -4.999 0.878 23
10.654 -5.615 0.5 28
30.541 -15.956 -4.44 7
10.398 -5.391 0.371 25
10.409 -5.356 0.271 5
26.034 -13.312 -4.078 5
24.83 -12.63 -4.001 6
23.69 -11.992 -3.924 7
22.626 -11.411 -3.856 17
19.721 -9.912 -3.194 14
19.875 -9.966 -3.472 27
19.564 -9.79 -3.604 31
18.729 -9.361 -3.555 14
18.013 -8.994 -3.535 15
17.258 -8.616 -3.493 13
16.554 -8.263 -3.456 13
15.911 -7.945 -3.433 11
15.28 -7.636 -3.408 12
14.677 -7.341 -3.382 14
11.228 -7.297 1.713 29
10.822 -6.906 1.658 27
10.697 -6.703 1.575 29
10.658 -6.563 1.485 18
10.781 -6.527 1.373 22
10.813 -6.441 1.274 14
10.385 -6.089 1.254 25
10.464 -6.042 1.153 27
10.046 -5.719 1.142 30
9.637 -5.411 1.137 26
9.821 -5.447 1.017 7
9.933 -5.441 0.912 26
9.581 -5.19 0.903 29
9.285 -4.976 0.888 27
32.214 -17.105 -4.615 5
10.564 -5.559 0.408 0
10.376 -5.418 0.358 29
10.369 -5.375 0.261 35
25.886 -13.332 -4.089 5
24.675 -12.641 -4.007 6
23.551 -12.006 -3.932 7
22.492 -11.424 -3.864 18
19.695 -9.968 -3.229 18
19.653 -9.923 -3.444 21
19.488 -9.817 -3.622 30
18.685 -9.402 -3.583 14
17.94 -9.017 -3.551 14
17.192 -8.638 -3.509 14
16.484 -8.281 -3.469 13
15.845 -7.961 -3.446 11
15.222 -7.654 -3.422 13
14.624 -7.358 -3.396 14
10.954 -7.162 1.737 16
10.706 -6.873 1.664 27
10.718 -6.759 1.563 0
10.564 -6.547 1.488 24
10.789 -6.575 1.361 17
10.79 -6.47 1.266 15
10.386 -6.131 1.242 24
10.431 -6.065 1.146 28
9.972 -5.717 1.143 27
9.688 -5.478 1.114 25
9.806 -5.478 1.006 1
9.942 -5.484 0.895 17
9.56 -5.215 0.893 26
9.302 -5.021 0.869 35
31.986 -17.106 -4.616 6
10.493 -5.562 0.406 17
10.378 -5.458 0.338 24
10.329 -5.393 0.252 23
25.735 -13.35 -4.098 5
24.53 -12.657 -4.016 6
23.421 -12.025 -3.943 7
22.359 -11.435 -3.871 11
21.401 -10.907 -3.815 18
19.672 -10.0 -3.494 7
19.415 -9.847 -3.642 29
18.691 -9.467 -3.629 22
17.86 -9.035 -3.565 14
17.12 -8.657 -3.524 13
16.42 -8.3 -3.485 12
15.779 -7.977 -3.46 11
15.154 -7.665 -3.432 13
14.568 -7.373 -3.409 14
10.884 -7.159 1.738 20
10.702 -6.914 1.656 17
10.671 -6.771 1.561 20
10.538 -6.573 1.483 27
11.148 -6.837 1.295 24
41.074 -24.795 -3.644 10
10.37 -6.163 1.233 26
10.477 -6.133 1.125 29
9.92 -5.727 1.139 27
9.673 -5.508 1.103 28
9.836 -5.533 0.986 53
9.941 -5.522 0.88 23
9.669 -5.313 0.853 29
9.327 -5.071 0.847 29
31.765 -17.111 -4.618 6
10.415 -5.56 0.407 28
10.352 -5.484 0.325 33
26.876 -14.134 -4.201 5
25.578 -13.363 -4.105 5
24.395 -12.677 -4.027 6
23.286 -12.04 -3.951 7
22.239 -11.454 -3.882 8
21.3 -10.931 -3.83 15
19.527 -9.995 -3.491 19
19.366 -9.888 -3.67 31
18.613 -9.49 -3.645 22
17.779 -9.054 -3.578 14
17.042 -8.673 -3.535 13
16.353 -8.319 -3.499 13
15.717 -7.994 -3.473 11
15.106 -7.688 -3.451 14
14.518 -7.391 -3.425 14
10.658 -7.052 1.757 23
10.726 -6.972 1.645 13
10.725 -6.848 1.544 2
10.605 -6.658 1.463 26
11.123 -6.867 1.288 18
11.071 -6.727 1.197 0
10.399 -6.221 1.216 25
10.41 -6.136 1.124 26
9.915 -5.763 1.127 25
9.672 -5.546 1.09 30
9.845 -5.577 0.97 19
9.957 -5.571 0.862 23
9.676 -5.355 0.837 26
9.378 -5.136 0.82 23
10.528 -5.711 0.457 5
10.396 -5.59 0.393 24
10.336 -5.515 0.31 35
26.706 -14.145 -4.207 5
25.427 -13.38 -4.114 5
24.243 -12.688 -4.033 6
23.153 -12.056 -3.96 7
22.115 -11.469 -3.892 7
21.182 -10.945 -3.839 16
19.906 -10.258 -3.662 11
19.292 -9.917 -3.689 35
18.487 -9.488 -3.644 15
17.699 -9.071 -3.591 13
16.973 -8.694 -3.551 12
16.289 -8.338 -3.514 12
15.651 -8.01 -3.486 18
15.032 -7.696 -3.458 13
14.458 -7.404 -3.436 15
10.757 -7.161 1.737 23
10.626 -6.949 1.649 29
10.986 -7.059 1.5 3
10.263 -6.484 1.503 33
10.449 -6.493 1.381 11
10.743 -6.571 1.239 35
10.528 -6.341 1.182 24
10.458 -6.206 1.103 26
9.791 -5.73 1.138 25
9.678 -5.588 1.076 21
10.114 -5.77 0.9 31
10.041 -5.658 0.828 27
9.699 -5.406 0.816 27
9.786 -5.397 0.709 30
10.474 -5.723 0.452 24
10.332 -5.596 0.391 30
10.306 -5.538 0.299 31
26.536 -14.155 -4.212 4
25.27 -13.391 -4.12 5
24.102 -12.703 -4.042 6
23.021 -12.071 -3.969 7
21.999 -11.488 -3.903 8
21.061 -10.957 -3.847 12
19.828 -10.288 -3.681 8
19.216 -9.944 -3.707 31
18.402 -9.507 -3.657 14
17.626 -9.092 -3.606 14
16.915 -8.719 -3.57 16
16.222 -8.356 -3.528 13
15.595 -8.03 -3.503 12
14.977 -7.714 -3.473 13
14.404 -7.42 -3.451 14
10.667 -7.144 1.74 16
10.619 -6.987 1.642 13
10.488 -6.781 1.559 0
10.16 -6.46 1.509 26
10.829 -6.773 1.311 12
10.676 -6.573 1.239 28
10.566 -6.406 1.163 27
10.554 -6.305 1.072 14
9.851 -5.805 1.114 25
9.728 -5.656 1.053 23
10.102 -5.803 0.888 27
10.275 -5.83 0.762 45
9.759 -5.478 0.787 28
9.73 -5.405 0.706 32
10.447 -5.749 0.44 32
10.268 -5.6 0.389 29
10.294 -5.571 0.283 34
26.373 -14.168 -4.219 4
10.294 -5.494 0.079 0
10.293 -5.464 -0.028 12
22.886 -12.084 -3.977 7
21.872 -11.501 -3.911 7
20.953 -10.976 -3.859 15
20.049 -10.473 -3.801 16
19.142 -9.972 -3.726 26
18.313 -9.524 -3.669 14
17.549 -9.111 -3.62 14
16.839 -8.736 -3.583 13
16.158 -8.375 -3.543 13
15.529 -8.045 -3.515 12
14.913 -7.727 -3.484 13
14.351 -7.436 -3.464 14
11.373 -7.663 1.649 28
10.592 -7.012 1.637 31
10.391 -6.761 1.563 46
10.154 -6.497 1.5 22
10.701 -6.736 1.321 19
10.598 -6.569 1.24 36
10.542 -6.434 1.155 23
10.456 -6.288 1.077 17
10.368 -6.151 1.001 23
9.642 -5.645 1.056 19
10.089 -5.837 0.876 24
10.293 -5.882 0.742 34
9.805 -5.543 0.76 23
9.496 -5.312 0.745 27
10.431 -5.781 0.426 32
10.214 -5.611 0.384 28
10.288 -5.608 0.265 1
10.199 -5.518 0.188 17
10.257 -5.513 0.069 29
10.25 -5.478 -0.037 15
22.75 -12.097 -3.984 6
21.752 -11.518 -3.921 7
20.825 -10.984 -3.863 18
19.967 -10.5 -3.819 17
19.059 -9.995 -3.742 21
18.218 -9.536 -3.677 13
17.475 -9.132 -3.635 14
16.771 -8.756 -3.598 14
16.091 -8.393 -3.557 13
15.467 -8.063 -3.529 11
14.855 -7.743 -3.497 13
14.291 -7.449 -3.475 14
10.725 -7.269 1.718 24
10.628 -7.079 1.624 25
10.292 -6.737 1.568 9
10.078 -6.49 1.502 23
10.514 -6.661 1.339 24
10.521 -6.563 1.241 28
10.536 -6.473 1.144 28
10.575 -6.403 1.042 23
10.362 -6.19 0.989 22
9.667 -5.699 1.038 21
10.114 -5.891 0.856 31
10.226 -5.884 0.741 21
9.739 -5.544 0.76 23
9.437 -5.317 0.743 30
10.417 -5.814 0.411 28
10.188 -5.636 0.372 35
10.227 -5.614 0.262 15
10.029 -5.465 0.215 32
10.047 -5.438 0.109 38
10.206 -5.493 -0.045 9
22.622 -12.112 -3.993 7
21.623 -11.528 -3.927 7
20.707 -10.996 -3.871 18
19.855 -10.512 -3.826 18
18.962 -10.011 -3.753 25
18.133 -9.554 -3.69 13
17.402 -9.152 -3.649 14
16.699 -8.773 -3.611 14
16.023 -8.41 -3.571 13
15.404 -8.079 -3.542 11
14.8 -7.762 -3.513 13
14.241 -7.467 -3.491 15
10.688 -7.288 1.715 17
10.591 -7.097 1.62 23
10.272 -6.767 1.562 19
10.075 -6.529 1.493 23
10.283 -6.556 1.365 16
10.376 -6.516 1.254 28
10.694 -6.614 1.103 16
10.635 -6.483 1.018 28
10.315 -6.204 0.984 22
9.605 -5.7 1.037 26
10.102 -5.925 0.844 29
10.223 -5.923 0.726 25
9.649 -5.531 0.765 25
9.477 -5.377 0.718 37
10.786 -6.063 0.301 5
10.162 -5.662 0.36 28
10.157 -5.615 0.261 27
9.973 -5.472 0.212 30
9.935 -5.416 0.12 24
23.518 -12.747 -4.066 5
22.494 -12.127 -4.001 8
21.507 -11.545 -3.937 7
20.6 -11.013 -3.882 18
19.746 -10.524 -3.835 18
18.865 -10.026 -3.762 18
18.047 -9.572 -3.702 13
17.332 -9.174 -3.665 14
16.633 -8.794 -3.627 13
15.969 -8.434 -3.589 13
15.335 -8.092 -3.552 11
14.736 -7.774 -3.523 12
14.191 -7.484 -3.506 14
10.674 -7.322 1.709 11
10.548 -7.112 1.618 19
10.093 -6.69 1.578 16
10.079 -6.573 1.482 28
10.363 -6.65 1.342 36
10.396 -6.57 1.239 23
10.67 -6.643 1.095 33
10.665 -6.545 0.999 30
10.302 -6.237 0.973 29
9.789 -5.849 0.986 13
10.129 -5.983 0.822 19
10.179 -5.94 0.72 32
9.603 -5.543 0.76 31
9.591 -5.48 0.674 45
10.391 -5.882 0.381 4
10.128 -5.683 0.35 27
10.072 -5.607 0.265 25
9.991 -5.52 0.187 27
9.947 -5.46 0.097 26
23.388 -12.764 -4.075 5
22.369 -12.143 -4.011 7
21.391 -11.562 -3.947 7
20.489 -11.029 -3.892 14
19.644 -10.541 -3.845 19
18.781 -10.048 -3.777 9
17.969 -9.592 -3.717 13
17.258 -9.194 -3.68 13
16.558 -8.81 -3.639 13
15.902 -8.45 -3.602 13
15.276 -8.11 -3.567 13
14.684 -7.793 -3.539 13
14.131 -7.496 -3.516 14
10.673 -7.364 1.701 25
10.596 -7.188 1.603 20
10.209 -6.809 1.553 19
10.102 -6.629 1.47 26
10.253 -6.622 1.349 22
10.179 -6.475 1.265 21
10.645 -6.671 1.087 19
10.58 -6.536 1.002 22
10.278 -6.265 0.964 27
10.101 -6.077 0.908 21
10.204 -6.068 0.791 9
10.156 -5.967 0.71 31
9.584 -5.572 0.749 26
9.654 -5.554 0.642 36
10.405 -5.931 0.359 2
10.092 -5.702 0.341 30
10.036 -5.626 0.256 28
9.886 -5.501 0.197 34
9.917 -5.482 0.085 27
23.244 -12.774 -4.081 6
22.241 -12.157 -4.019 7
21.271 -11.576 -3.955 7
20.375 -11.042 -3.899 24
19.548 -10.56 -3.858 18
18.701 -10.071 -3.793 7
17.891 -9.613 -3.731 14
17.181 -9.212 -3.693 13
16.492 -8.831 -3.655 13
15.838 -8.469 -3.617 13
15.21 -8.125 -3.579 11
14.626 -7.809 -3.553 14
14.064 -7.505 -3.524 14
10.776 -7.48 1.681 14
10.549 -7.199 1.601 17
10.156 -6.815 1.551 27
10.092 -6.665 1.461 15
10.296 -6.691 1.332 20
10.072 -6.449 1.272 32
11.741 -7.406 0.876 1
10.59 -6.585 0.987 10
10.204 -6.262 0.965 20
10.138 -6.141 0.885 15
11.095 -6.643 0.582 10
10.221 -6.046 0.679 25
9.687 -5.67 0.709 32
9.784 -5.668 0.594 31
10.384 -5.961 0.346 6
10.051 -5.719 0.333 23
10.06 -5.68 0.23 30
9.847 -5.517 0.189 34
9.864 -5.49 0.081 34
23.114 -12.79 -4.09 5
22.113 -12.17 -4.026 7
21.155 -11.592 -3.965 7
20.268 -11.058 -3.91 19
19.436 -10.569 -3.864 19
18.597 -10.081 -3.8 7
17.815 -9.635 -3.747 14
17.108 -9.232 -3.707 12
16.424 -8.85 -3.669 13
15.781 -8.49 -3.633 13
15.141 -8.137 -3.589 11
14.571 -7.826 -3.567 14
14.02 -7.525 -3.541 16
10.64 -7.43 1.69 21
10.6 -7.279 1.585 10
10.09 -6.813 1.552 21
10.046 -6.676 1.459 28
10.179 -6.658 1.34 28
10.056 -6.48 1.264 23
11.732 -7.449 0.864 0
10.776 -6.746 0.937 0
10.214 -6.31 0.95 23
10.0 -6.099 0.9 28
11.076 -6.678 0.57 9
10.147 -6.044 0.68 27
10.036 -5.915 0.61 22
10.068 -5.873 0.507 22
29.62 -17.122 -4.623 6
10.045 -5.755 0.316 31
10.033 -5.704 0.218 32
9.834 -5.549 0.173 27
9.834 -5.511 0.07 18
22.977 -12.803 -4.097 6
21.981 -12.181 -4.033 7
21.033 -11.602 -3.971 8
20.154 -11.07 -3.917 18
19.334 -10.584 -3.873 18
18.511 -10.1 -3.813 6
17.744 -9.658 -3.763 13
17.027 -9.247 -3.718 13
16.345 -8.863 -3.679 13
15.71 -8.505 -3.645 14
15.075 -8.15 -3.6 11
14.507 -7.838 -3.577 13
13.97 -7.542 -3.556 24
10.678 -7.501 1.677 21
10.543 -7.283 1.584 24
10.132 -6.883 1.537 23
10.042 -6.715 1.45 0
9.95 -6.55 1.367 29
10.012 -6.493 1.26 32
10.409 -6.653 1.092 9
10.765 -6.784 0.926 4
10.197 -6.342 0.939 28
0.0 -0.0 3.0 0
11.004 -6.68 0.569 25
10.106 -6.061 0.673 7
10.242 -6.079 0.544 17
9.974 -5.859 0.513 30
10.286 -5.987 0.334 0
10.16 -5.862 0.267 18
9.997 -5.723 0.209 24
9.831 -5.586 0.154 29
9.832 -5.548 0.05 28
22.841 -12.815 -4.103 6
21.857 -12.195 -4.041 7
20.924 -11.62 -3.982 7
20.057 -11.091 -3.93 8
19.232 -10.598 -3.882 18
18.454 -10.136 -3.837 12
17.672 -9.682 -3.779 13
16.964 -9.271 -3.736 14
16.279 -8.882 -3.693 12
15.639 -8.519 -3.656 12
15.009 -8.164 -3.611 11
14.445 -7.851 -3.588 12
13.919 -7.559 -3.571 26
10.63 -7.512 1.675 16
10.541 -7.327 1.576 21
10.138 -6.93 1.527 22
10.931 -7.355 1.302 35
9.914 -6.567 1.363 30
10.009 -6.533 1.249 27
10.209 -6.567 1.117 17
10.693 -6.784 0.926 4
10.187 -6.378 0.928 9
9.97 -6.163 0.878 29
10.915 -6.67 0.572 22
10.079 -6.087 0.663 2
10.184 -6.086 0.541 29
9.914 -5.864 0.511 30
29.202 -17.116 -4.621 6
10.123 -5.881 0.258 8
9.99 -5.759 0.191 28
9.801 -5.607 0.143 35
9.809 -5.573 0.037 14
22.708 -12.827 -4.11 5
21.729 -12.206 -4.047 6
20.798 -11.629 -3.987 7
19.947 -11.104 -3.938 8
19.13 -10.612 -3.891 15
18.38 -10.161 -3.854 19
17.597 -9.703 -3.794 13
16.884 -9.286 -3.747 13
16.201 -8.895 -3.703 14
15.569 -8.533 -3.667 12
14.946 -8.179 -3.624 12
14.39 -7.869 -3.602 13
13.862 -7.572 -3.582 22
10.512 -7.472 1.683 19
10.582 -7.399 1.562 15
10.084 -6.936 1.526 33
10.734 -7.269 1.322 27
9.894 -6.595 1.356 24
9.959 -6.543 1.247 28
10.181 -6.593 1.11 21
10.638 -6.793 0.923 1
10.579 -6.669 0.833 35
10.054 -6.257 0.845 46
10.906 -6.71 0.558 18
11.027 -6.705 0.426 11
10.096 -6.075 0.545 25
9.873 -5.88 0.504 24
29.019 -17.126 -4.625 5
10.065 -5.888 0.254 28
9.966 -5.785 0.178 30
9.825 -5.66 0.116 26
23.626 -13.517 -4.187 5
22.575 -12.839 -4.117 6
21.612 -12.223 -4.057 7
20.693 -11.649 -3.999 7
19.843 -11.12 -3.949 8
19.035 -10.629 -3.902 10
18.293 -10.18 -3.866 19
17.518 -9.722 -3.807 13
16.81 -9.305 -3.76 12
16.129 -8.911 -3.715 13
15.498 -8.546 -3.677 12
14.89 -8.198 -3.639 11
14.332 -7.883 -3.615 16
13.805 -7.585 -3.594 14
10.325 -7.384 1.698 18
10.541 -7.414 1.559 27
10.217 -7.071 1.497 0
10.532 -7.176 1.343 9
9.903 -6.644 1.343 23
10.008 -6.617 1.227 8
10.051 -6.551 1.121 23
12.031 -7.733 0.636 22
11.41 -7.24 0.647 16
10.38 -6.504 0.761 22
10.904 -6.754 0.542 20
10.982 -6.722 0.42 24
10.126 -6.135 0.521 27
9.806 -5.881 0.504 29
10.153 -6.033 0.314 2
10.065 -5.928 0.236 14
9.986 -5.836 0.154 16
9.829 -5.701 0.095 19
23.481 -13.526 -4.192 5
22.442 -12.851 -4.124 6
21.484 -12.233 -4.063 6
20.574 -11.66 -4.006 7
19.736 -11.134 -3.957 8
18.94 -10.645 -3.913 11
18.217 -10.202 -3.882 18
17.433 -9.737 -3.818 13
16.726 -9.318 -3.77 13
16.063 -8.931 -3.73 13
15.43 -8.562 -3.689 13
14.83 -8.215 -3.653 12
14.267 -7.894 -3.624 13
13.751 -7.599 -3.606 18
10.356 -7.449 1.687 23
10.584 -7.49 1.544 23
10.49 -7.304 1.447 26
10.39 -7.123 1.355 6
9.889 -6.677 1.335 28
9.869 -6.568 1.24 29
9.948 -6.526 1.129 20
12.182 -7.882 0.59 20
10.908 -6.968 0.736 20
10.352 -6.529 0.752 21
11.501 -7.173 0.389 5
10.986 -6.771 0.401 27
10.005 -6.103 0.534 28
9.75 -5.887 0.501 29
9.838 -5.886 0.379 1
10.061 -5.967 0.217 34
9.933 -5.845 0.149 27
9.859 -5.758 0.066 0
23.342 -13.538 -4.198 4
22.309 -12.862 -4.129 5
21.364 -12.247 -4.071 7
20.462 -11.674 -4.015 7
19.633 -11.15 -3.967 8
18.841 -10.66 -3.923 10
18.116 -10.213 -3.889 18
17.358 -9.758 -3.832 13
16.653 -9.335 -3.782 13
15.988 -8.944 -3.74 13
15.363 -8.577 -3.701 12
14.767 -8.23 -3.664 11
14.209 -7.909 -3.637 14
13.698 -7.614 -3.619 15
10.289 -7.446 1.687 26
10.391 -7.398 1.562 22
10.432 -7.309 1.446 14
10.979 -7.574 1.251 37
9.866 -6.703 1.329 25
9.72 -6.51 1.256 26
9.961 -6.576 1.114 1
12.054 -7.85 0.6 15
11.257 -7.238 0.648 14
10.304 -6.543 0.747 26
11.009 -6.912 0.484 0
11.123 -6.902 0.351 53
9.964 -6.119 0.528 24
9.74 -5.922 0.486 23
9.734 -5.864 0.389 17
10.044 -5.998 0.203 32
9.909 -5.871 0.136 9
24.294 -14.286 -4.279 27
23.188 -13.54 -4.199 5
22.18 -12.875 -4.137 6
21.236 -12.256 -4.076 6
20.35 -11.688 -4.023 7
19.526 -11.163 -3.975 8
18.737 -10.67 -3.929 12
18.033 -10.232 -3.901 17
17.283 -9.778 -3.847 11
16.576 -9.352 -3.794 14
15.922 -8.963 -3.754 14
15.299 -8.593 -3.714 13
14.711 -8.248 -3.679 13
14.154 -7.925 -3.65 13
13.644 -7.628 -3.631 14
10.3 -7.498 1.678 21
10.382 -7.436 1.555 27
10.401 -7.331 1.442 16
10.454 -7.258 1.324 20
9.839 -6.728 1.323 30
9.736 -6.562 1.242 23
10.022 -6.66 1.09 1
12.092 -7.927 0.577 7
11.29 -7.307 0.626 27
10.263 -6.56 0.741 22
10.986 -6.944 0.473 8
10.994 -6.868 0.363 18
9.93 -6.14 0.519 21
9.696 -5.935 0.481 29
9.694 -5.88 0.382 20
10.006 -6.016 0.195 26
25.402 -15.154 -4.391 4
24.144 -14.294 -4.283 28
23.06 -13.557 -4.209 20
22.047 -12.885 -4.142 6
21.109 -12.265 -4.081 7
20.238 -11.702 -4.031 7
19.419 -11.175 -3.983 7
18.632 -10.68 -3.936 17
17.943 -10.247 -3.912 18
17.207 -9.798 -3.861 6
16.502 -9.369 -3.807 14
15.85 -8.978 -3.766 13
15.225 -8.605 -3.723 12
14.652 -8.264 -3.692 14
14.102 -7.943 -3.665 13
13.587 -7.641 -3.642 14
10.342 -7.573 1.665 14
10.715 -7.721 1.499 11
10.389 -7.368 1.434 25
10.325 -7.212 1.335 18
9.815 -6.753 1.316 26
9.696 -6.577 1.238 22
11.915 -7.97 0.715 1
10.443 -6.891 0.893 0
11.2 -7.297 0.629 24
10.215 -6.573 0.737 21
36.26 -23.074 -5.398 16
10.048 -6.32 0.574 0
10.089 -6.281 0.462 21
9.676 -5.963 0.469 35
9.56 -5.839 0.4 29
10.025 -6.069 0.17 29
22.895 -13.751 -3.707 8
23.997 -14.304 -4.288 28
22.909 -13.56 -4.21 27
21.915 -12.894 -4.147 5
20.992 -12.278 -4.089 7
20.127 -11.715 -4.039 7
19.313 -11.187 -3.99 8
18.537 -10.696 -3.946 16
17.853 -10.261 -3.921 17
17.122 -9.812 -3.87 5
16.429 -9.386 -3.819 13
15.784 -8.997 -3.78 13
15.167 -8.625 -3.738 12
14.586 -8.277 -3.702 11
14.047 -7.959 -3.678 17
13.526 -7.651 -3.651 14
10.218 -7.527 1.673 26
10.889 -7.893 1.466 1
10.002 -7.137 1.483 24
9.933 -6.982 1.388 27
9.794 -6.781 1.309 28
9.711 -6.63 1.223 21
12.487 -8.406 0.59 27
10.313 -6.849 0.906 2
11.19 -7.338 0.616 10
10.184 -6.596 0.729 26
11.75 -7.526 0.261 0
10.05 -6.364 0.557 45
10.124 -6.345 0.437 28
9.649 -5.987 0.459 30
9.501 -5.841 0.399 24
9.991 -6.089 0.16 32
22.667 -13.707 -3.685 23
23.844 -14.309 -4.291 31
22.768 -13.568 -4.214 27
21.793 -12.908 -4.155 5
20.879 -12.295 -4.098 6
20.018 -11.729 -4.048 7
19.206 -11.199 -3.998 11
18.445 -10.712 -3.956 14
17.77 -10.28 -3.934 17
17.044 -9.829 -3.882 5
16.365 -9.408 -3.835 14
15.712 -9.011 -3.79 13
15.106 -8.643 -3.752 13
14.526 -8.292 -3.715 11
13.992 -7.975 -3.692 13
13.466 -7.661 -3.66 13
10.005 -7.413 1.693 25
10.83 -7.899 1.465 25
10.055 -7.218 1.466 22
9.886 -6.992 1.386 25
9.812 -6.836 1.295 31
9.671 -6.645 1.22 19
9.472 -6.417 1.16 0
10.353 -6.921 0.884 4
40.421 -26.683 -5.67 12
10.152 -6.619 0.721 23
11.702 -7.546 0.254 18
9.976 -6.36 0.559 25
9.964 -6.287 0.46 22
9.615 -6.006 0.451 28
9.467 -5.861 0.391 28
9.98 -6.124 0.144 21
22.483 -13.688 -3.676 25
23.704 -14.322 -4.298 31
22.63 -13.577 -4.219 28
21.664 -12.919 -4.161 6
20.759 -12.305 -4.105 6
19.903 -11.739 -4.053 7
19.093 -11.207 -4.003 7
18.341 -10.721 -3.962 20
17.673 -10.29 -3.94 19
16.952 -9.839 -3.889 5
16.301 -9.431 -3.852 13
15.643 -9.028 -3.803 12
15.036 -8.655 -3.762 11
14.466 -8.308 -3.728 14
13.94 -7.993 -3.707 15
13.393 -7.664 -3.663 15
9.967 -7.428 1.69 12
10.256 -7.525 1.537 55
9.93 -7.173 1.475 22
9.749 -6.938 1.398 20
9.555 -6.699 1.33 31
9.54 -6.596 1.233 21
9.367 -6.387 1.169 1
12.01 -8.08 0.53 9
40.194 -26.708 -5.678 14
10.15 -6.663 0.706 13
11.617 -7.542 0.255 9
9.807 -6.294 0.584 24
9.873 -6.271 0.466 28
9.637 -6.061 0.427 28
9.45 -5.89 0.378 28
9.975 -6.162 0.127 3
22.3 -13.669 -3.667 28
23.561 -14.332 -4.302 29
22.499 -13.59 -4.226 27
21.532 -12.926 -4.165 6
20.642 -12.318 -4.112 6
19.799 -11.754 -4.063 7
19.007 -11.229 -4.016 7
18.246 -10.735 -3.972 24
17.586 -10.305 -3.951 17
16.92 -9.882 -3.92 9
16.227 -9.447 -3.863 13
15.584 -9.049 -3.819 12
14.968 -8.669 -3.773 11
14.403 -8.322 -3.739 12
13.872 -8.0 -3.713 13
13.311 -7.661 -3.66 13
10.006 -7.502 1.677 11
10.691 -7.891 1.466 33
9.873 -7.175 1.475 21
9.657 -6.915 1.404 17
9.405 -6.635 1.346 17
9.393 -6.535 1.249 19
11.977 -8.219 0.643 19
42.34 -28.671 -5.766 22
10.215 -6.832 0.78 1
10.089 -6.665 0.705 25
11.56 -7.554 0.25 22
9.716 -6.277 0.59 31
9.78 -6.254 0.473 26
9.637 -6.102 0.41 29
9.41 -5.904 0.371 26
10.036 -6.242 0.089 20
9.903 -6.111 0.019 0
23.421 -14.343 -4.308 26
22.372 -13.603 -4.233 26
21.413 -12.941 -4.173 6
20.535 -12.336 -4.122 6
19.697 -11.772 -4.073 7
18.894 -11.236 -4.021 8
18.151 -10.749 -3.98 18
17.5 -10.321 -3.961 17
16.857 -9.909 -3.938 20
16.157 -9.465 -3.877 13
15.506 -9.059 -3.827 17
14.907 -8.686 -3.786 12
14.344 -8.337 -3.751 13
13.823 -8.02 -3.729 19
13.244 -7.668 -3.665 12
9.946 -7.501 1.677 23
10.014 -7.436 1.555 18
9.881 -7.224 1.465 21
9.655 -6.956 1.394 21
9.575 -6.798 1.305 17
9.285 -6.501 1.258 28
9.421 -6.507 1.134 4
41.919 -28.57 -5.735 18
10.167 -6.845 0.776 2
10.021 -6.664 0.705 27
11.528 -7.583 0.24 3
9.709 -6.314 0.576 25
9.844 -6.337 0.44 31
9.619 -6.131 0.398 26
9.331 -5.894 0.376 33
9.985 -6.252 0.085 35
22.003 -13.67 -3.667 36
22.417 -13.821 -4.042 11
22.245 -13.617 -4.24 24
21.282 -12.947 -4.177 6
20.416 -12.345 -4.128 6
19.589 -11.785 -4.081 7
18.798 -11.252 -4.031 7
18.07 -10.769 -3.994 8
17.407 -10.332 -3.969 11
16.782 -9.927 -3.951 18
16.096 -9.489 -3.894 14
15.446 -9.081 -3.843 13
14.843 -8.702 -3.798 16
14.281 -8.351 -3.762 11
13.768 -8.035 -3.742 21
13.165 -7.666 -3.664 12
9.934 -7.536 1.671 13
10.081 -7.531 1.536 16
9.648 -7.097 1.491 25
9.599 -6.958 1.394 30
9.56 -6.829 1.297 18
9.2 -6.482 1.263 26
9.303 -6.466 1.146 22
41.519 -28.481 -5.708 25
39.158 -26.533 -5.621 25
10.003 -6.696 0.694 21
11.49 -7.608 0.231 0
9.553 -6.255 0.599 26
9.934 -6.438 0.399 29
9.575 -6.144 0.392 32
9.31 -5.921 0.364 25
9.809 -6.183 0.117 34
21.86 -13.673 -3.669 38
22.358 -13.877 -4.07 5
22.124 -13.634 -4.249 18
21.157 -12.957 -4.182 5
20.299 -12.356 -4.134 6
19.484 -11.799 -4.089 7
18.695 -11.263 -4.038 8
17.975 -10.783 -4.003 7
17.314 -10.342 -3.976 10
16.72 -9.953 -3.969 15
16.032 -9.51 -3.909 13
15.378 -9.096 -3.854 12
14.776 -8.715 -3.809 12
14.228 -8.369 -3.777 14
13.706 -8.046 -3.751 14
13.095 -7.67 -3.668 12
9.84 -7.508 1.676 23
11.644 -8.75 1.299 2
9.547 -7.066 1.498 27
9.546 -6.963 1.393 22
9.53 -6.851 1.292 19
9.238 -6.55 1.245 23
9.231 -6.457 1.149 30
41.269 -28.493 -5.711 32
38.874 -26.512 -5.614 15
9.968 -6.716 0.687 14
9.869 -6.579 0.606 11
9.558 -6.299 0.582 24
9.915 -6.469 0.386 26
9.652 -6.235 0.353 22
9.28 -5.941 0.355 33
9.355 -5.936 0.232 22
9.917 -6.244 -0.045 12
22.149 -13.839 -4.051 1
22.001 -13.649 -4.257 10
21.035 -12.968 -4.188 6
20.18 -12.365 -4.139 6
19.373 -11.808 -4.095 7
18.592 -11.274 -4.045 7
17.877 -10.793 -4.009 7
17.227 -10.356 -3.985 10
16.641 -9.969 -3.98 18
15.965 -9.529 -3.924 13
15.309 -9.111 -3.865 11
14.715 -8.732 -3.822 14
14.165 -8.382 -3.788 13
13.654 -8.062 -3.765 14
13.026 -7.673 -3.67 13
9.808 -7.53 1.672 14
9.267 -7.005 1.638 0
9.459 -7.043 1.503 23
9.493 -6.966 1.392 24
9.531 -6.894 1.281 25
9.195 -6.561 1.242 26
9.197 -6.474 1.144 24
40.877 -28.404 -5.684 21
38.574 -26.479 -5.603 18
9.949 -6.748 0.677 17
9.818 -6.587 0.602 13
9.488 -6.294 0.584 30
9.681 -6.358 0.431 34
9.634 -6.265 0.34 29
9.269 -5.974 0.34 27
9.292 -5.936 0.232 26
9.875 -6.259 -0.053 32
0.0 -0.0 3.0 0
21.864 -13.654 -4.26 7
20.914 -12.979 -4.194 5
20.073 -12.381 -4.148 6
19.259 -11.816 -4.1 7
18.489 -11.285 -4.052 8
17.786 -10.808 -4.019 7
17.135 -10.366 -3.992 10
16.553 -9.979 -3.987 20
15.895 -9.546 -3.936 11
15.237 -9.124 -3.875 12
14.657 -8.75 -3.836 15
14.102 -8.395 -3.798 14
13.593 -8.074 -3.775 19
12.95 -7.673 -3.67 12
9.84 -7.597 1.66 11
9.246 -7.031 1.633 20
9.435 -7.068 1.498 19
9.456 -6.981 1.388 22
9.551 -6.952 1.267 25
9.297 -6.676 1.211 6
9.254 -6.556 1.12 30
40.55 -28.358 -5.67 26
11.243 -7.768 0.476 2
9.937 -6.783 0.664 15
9.79 -6.612 0.594 21
9.493 -6.34 0.566 32
9.803 -6.481 0.381 28
9.688 -6.342 0.308 28
9.233 -5.99 0.333 29
9.157 -5.889 0.254 25
9.824 -6.268 -0.057 25
0.0 -0.0 3.0 0
21.721 -13.655 -4.26 5
20.793 -12.989 -4.2 6
19.964 -12.395 -4.156 6
19.155 -11.828 -4.107 7
18.39 -11.297 -4.059 7
17.698 -10.823 -4.029 7
17.055 -10.384 -4.004 10
16.481 -9.998 -4.001 17
15.831 -9.567 -3.951 6
15.161 -9.135 -3.884 12
14.589 -8.763 -3.846 13
14.049 -8.414 -3.813 12
13.509 -8.071 -3.773 11
12.887 -7.68 -3.676 14
10.503 -8.157 1.562 24
9.191 -7.031 1.633 19
9.43 -7.107 1.489 21
9.533 -7.082 1.365 22
9.61 -7.038 1.245 25
9.638 -6.964 1.134 30
9.198 -6.558 1.12 24
11.098 -7.811 0.612 3
11.201 -7.789 0.469 32
9.908 -6.808 0.656 4
9.823 -6.678 0.57 15
9.602 -6.454 0.522 22
9.801 -6.522 0.365 25
9.647 -6.357 0.301 28
9.202 -6.01 0.324 25
9.114 -5.9 0.249 32
9.815 -6.304 -0.075 30
21.696 -13.829 -4.046 5
21.601 -13.669 -4.268 5
20.672 -12.999 -4.205 6
19.842 -12.4 -4.159 6
19.044 -11.837 -4.113 7
18.291 -11.309 -4.067 7
17.604 -10.835 -4.036 7
16.962 -10.393 -4.01 16
16.399 -10.01 -4.009 19
15.757 -9.582 -3.962 7
15.102 -9.155 -3.899 13
14.522 -8.775 -3.856 11
13.982 -8.424 -3.822 12
13.419 -8.065 -3.767 12
12.814 -7.681 -3.677 12
10.482 -8.189 1.556 3
9.195 -7.077 1.624 25
9.405 -7.131 1.484 25
9.601 -7.176 1.343 18
9.54 -7.031 1.247 27
9.626 -6.999 1.125 18
9.206 -6.605 1.106 2
11.089 -7.855 0.599 21
11.17 -7.817 0.46 33
35.882 -24.816 -5.545 4
33.273 -22.768 -5.287 4
9.571 -6.476 0.514 19
9.811 -6.572 0.345 21
9.638 -6.393 0.286 21
9.172 -6.03 0.315 29
9.08 -5.917 0.241 27
9.79 -6.33 -0.088 31
11.831 -7.592 -0.868 14
21.462 -13.672 -4.269 5
20.56 -13.014 -4.214 5
19.739 -12.416 -4.168 6
18.94 -11.849 -4.12 7
18.198 -11.324 -4.076 7
17.51 -10.846 -4.044 7
16.873 -10.404 -4.018 21
16.318 -10.024 -4.019 16
15.674 -9.591 -3.968 7
15.033 -9.17 -3.91 13
14.458 -8.79 -3.867 12
13.929 -8.442 -3.836 11
13.345 -8.067 -3.769 11
12.751 -7.687 -3.683 14
10.455 -8.216 1.551 22
9.165 -7.096 1.621 17
9.438 -7.198 1.47 26
9.474 -7.125 1.355 26
9.649 -7.154 1.216 25
9.617 -7.037 1.115 21
10.89 -7.864 0.745 13
10.901 -7.77 0.624 32
11.234 -7.913 0.429 15
35.575 -24.763 -5.527 5
33.011 -22.736 -5.275 5
9.559 -6.51 0.501 21
9.756 -6.579 0.342 21
9.607 -6.415 0.277 28
9.18 -6.076 0.295 30
9.047 -5.935 0.232 32
9.797 -6.377 -0.11 1
11.779 -7.608 -0.876 29
21.348 -13.689 -4.279 4
20.436 -13.021 -4.218 6
19.623 -12.424 -4.173 6
18.839 -11.863 -4.128 7
18.102 -11.338 -4.085 6
17.435 -10.869 -4.058 8
16.802 -10.427 -4.033 11
16.236 -10.036 -4.027 17
15.6 -9.605 -3.979 5
14.974 -9.189 -3.924 13
14.403 -8.809 -3.882 11
13.869 -8.456 -3.847 11
13.268 -8.068 -3.77 15
12.685 -7.692 -3.686 12
10.435 -8.248 1.546 0
9.188 -7.155 1.609 24
9.413 -7.223 1.465 22
9.329 -7.059 1.37 18
9.434 -7.038 1.245 29
9.572 -7.048 1.111 9
10.862 -7.892 0.737 12
10.892 -7.814 0.611 7
37.144 -26.333 -5.556 17
35.269 -24.71 -5.508 4
9.843 -6.824 0.516 0
9.505 -6.516 0.499 30
9.96 -6.761 0.268 35
9.601 -6.453 0.261 34
9.576 -6.379 0.16 34
9.01 -5.95 0.226 31
10.156 -6.654 -0.245 7
11.745 -7.637 -0.891 22
11.88 -7.668 -1.077 1
20.322 -13.033 -4.224 6
19.517 -12.438 -4.181 6
18.735 -11.874 -4.135 7
18.007 -11.35 -4.093 7
17.341 -10.879 -4.065 7
16.713 -10.437 -4.04 18
16.155 -10.048 -4.036 19
15.53 -9.621 -3.99 5
14.908 -9.205 -3.936 12
14.326 -8.815 -3.887 12
13.819 -8.476 -3.863 16
13.188 -8.066 -3.768 11
12.622 -7.698 -3.692 12
11.867 -9.436 1.336 20
9.223 -7.226 1.595 1
9.388 -7.248 1.459 26
9.384 -7.144 1.351 26
9.39 -7.049 1.242 23
9.753 -7.226 1.064 8
10.757 -7.866 0.745 25
10.857 -7.838 0.604 25
36.889 -26.32 -5.552 19
34.992 -24.675 -5.496 4
32.497 -22.675 -5.253 5
9.48 -6.541 0.489 27
9.821 -6.71 0.289 24
9.566 -6.472 0.253 26
9.57 -6.418 0.143 38
8.957 -5.954 0.223 23
10.142 -6.689 -0.262 34
11.751 -7.69 -0.918 16
11.801 -7.667 -1.077 19
20.211 -13.047 -4.232 6
19.405 -12.447 -4.186 7
18.641 -11.891 -4.145 7
17.914 -11.365 -4.102 6
17.256 -10.896 -4.076 7
16.624 -10.447 -4.046 23
16.076 -10.062 -4.045 20
15.504 -9.664 -4.022 12
14.852 -9.226 -3.952 11
14.274 -8.836 -3.903 12
13.753 -8.485 -3.871 17
13.117 -8.07 -3.772 13
12.559 -7.704 -3.697 14
10.52 -8.414 1.516 1
10.521 -8.292 1.388 21
9.454 -7.343 1.439 19
9.862 -7.553 1.256 29
9.324 -7.043 1.244 33
10.96 -8.171 0.811 36
10.72 -7.888 0.738 28
10.8 -7.848 0.601 27
10.774 -7.736 0.486 5
34.719 -24.641 -5.485 5
32.242 -22.644 -5.242 5
9.525 -6.616 0.46 29
9.776 -6.723 0.284 33
9.582 -6.527 0.23 12
9.5 -6.413 0.145 35
9.1 -6.089 0.16 65
10.119 -6.718 -0.276 35
21.032 -13.855 -4.059 16
11.758 -7.689 -1.089 29
20.103 -13.062 -4.24 6
19.29 -12.454 -4.19 6
18.53 -11.897 -4.149 7
17.812 -11.372 -4.106 7
17.162 -10.905 -4.082 7
16.547 -10.464 -4.058 22
16.001 -10.078 -4.057 19
15.443 -9.686 -4.037 16
14.789 -9.244 -3.966 11
14.213 -8.851 -3.915 12
13.693 -8.499 -3.882 14
13.046 -8.074 -3.775 15
12.49 -7.706 -3.699 12
10.502 -8.449 1.51 1
10.478 -8.307 1.385 20
9.388 -7.335 1.441 20
9.748 -7.511 1.266 28
9.299 -7.067 1.238 30
11.007 -8.256 0.788 47
10.435 -7.727 0.784 30
10.753 -7.863 0.596 32
36.342 -26.264 -5.534 14
34.437 -24.599 -5.47 5
32.007 -22.625 -5.235 5
9.503 -6.644 0.45 24
9.443 -6.537 0.359 69
9.753 -6.686 0.162 2
9.43 -6.408 0.147 30
9.089 -6.122 0.145 56
10.131 -6.77 -0.302 28
20.89 -13.852 -4.058 18
11.734 -7.724 -1.107 23
11.818 -7.728 -1.284 5
19.187 -12.468 -4.198 6
18.433 -11.911 -4.157 6
17.723 -11.389 -4.116 7
17.075 -10.919 -4.091 7
16.461 -10.476 -4.066 12
15.929 -10.095 -4.069 11
15.378 -9.705 -4.051 16
14.721 -9.256 -3.975 11
14.152 -8.866 -3.927 14
13.627 -8.508 -3.89 18
12.963 -8.069 -3.771 14
12.43 -7.714 -3.705 12
10.406 -8.42 1.515 17
10.484 -8.361 1.375 23
9.566 -7.519 1.402 27
9.691 -7.513 1.265 33
9.233 -7.06 1.24 25
11.296 -8.526 0.715 10
10.129 -7.547 0.836 52
10.766 -7.922 0.578 13
36.038 -26.21 -5.516 7
34.175 -24.569 -5.46 5
31.754 -22.591 -5.222 5
10.26 -7.219 0.229 28
9.293 -6.475 0.384 32
9.823 -6.778 0.123 12
9.398 -6.428 0.138 36
9.65 -6.543 -0.051 7
10.113 -6.803 -0.318 30
20.745 -13.847 -4.055 17
11.738 -7.777 -1.135 18
11.768 -7.746 -1.294 21
19.088 -12.484 -4.208 6
18.329 -11.92 -4.162 6
17.634 -11.404 -4.126 6
16.99 -10.934 -4.101 7
16.382 -10.491 -4.076 10
15.848 -10.106 -4.076 10
15.305 -9.718 -4.06 13
14.661 -9.276 -3.99 12
14.085 -8.878 -3.936 11
13.533 -8.5 -3.883 12
12.899 -8.077 -3.778 12
12.367 -7.718 -3.709 16
10.354 -8.427 1.514 19
10.441 -8.376 1.372 21
9.568 -7.566 1.392 29
9.577 -7.47 1.275 28
9.189 -7.071 1.237 31
10.468 -7.95 0.87 23
10.682 -8.01 0.703 24
36.462 -27.001 -5.255 13
10.724 -7.849 0.45 0
33.901 -24.528 -5.446 4
31.52 -22.57 -5.215 4
9.363 -6.631 0.455 2
9.28 -6.508 0.37 60
9.822 -6.822 0.104 19
9.369 -6.451 0.128 27
9.64 -6.579 -0.068 2
10.096 -6.836 -0.334 24
20.604 -13.842 -4.053 17
11.781 -7.857 -1.178 1
11.718 -7.763 -1.303 23
11.865 -7.811 -1.51 0
18.229 -11.932 -4.169 6
17.545 -11.419 -4.135 7
16.906 -10.949 -4.11 7
16.302 -10.505 -4.086 9
15.763 -10.115 -4.082 10
15.237 -9.735 -4.073 14
14.598 -9.292 -4.002 12
14.027 -8.894 -3.949 12
13.445 -8.495 -3.879 12
12.819 -8.074 -3.775 13
12.307 -7.726 -3.716 14
10.215 -8.363 1.525 22
9.48 -7.65 1.513 1
9.598 -7.635 1.377 23
9.234 -7.246 1.327 29
9.193 -7.117 1.226 29
9.633 -7.362 1.027 35
10.899 -8.224 0.642 7
10.2 -7.602 0.676 23
35.466 -26.125 -5.489 5
33.634 -24.492 -5.433 5
31.289 -22.55 -5.208 5
9.296 -6.627 0.456 29
9.277 -6.549 0.354 37
9.751 -6.817 0.107 15
9.481 -6.57 0.075 29
9.637 -6.62 -0.087 1
10.132 -6.906 -0.368 0
20.466 -13.839 -4.051 17
20.5 -13.761 -4.317 4
11.667 -7.781 -1.313 18
11.805 -7.821 -1.516 22
18.135 -11.946 -4.178 6
17.453 -11.431 -4.143 6
16.816 -10.959 -4.117 7
16.216 -10.516 -4.093 7
15.679 -10.123 -4.088 10
15.167 -9.75 -4.084 10
14.539 -9.311 -4.016 14
13.966 -8.909 -3.96 12
13.37 -8.497 -3.881 13
12.749 -8.077 -3.777 13
12.247 -7.732 -3.722 14
10.2 -8.399 1.519 26
10.32 -8.378 1.371 0
9.625 -7.702 1.363 26
9.19 -7.256 1.325 25
9.105 -7.092 1.232 18
9.454 -7.27 1.052 28
10.509 -7.979 0.712 11
10.164 -7.622 0.67 35
35.246 -26.129 -5.49 5
33.373 -24.458 -5.422 5
31.043 -22.517 -5.195 5
9.115 -6.54 0.49 26
9.306 -6.612 0.329 35
9.724 -6.842 0.096 0
9.516 -6.637 0.045 28
9.582 -6.625 -0.089 1
11.593 -7.952 -0.879 1
11.628 -7.915 -1.033 10
11.681 -7.892 -1.196 11
11.662 -7.827 -1.339 20
11.762 -7.843 -1.528 20
11.928 -7.908 -1.752 1
17.364 -11.446 -4.152 7
16.731 -10.973 -4.126 7
16.137 -10.531 -4.103 9
15.595 -10.132 -4.094 10
15.09 -9.76 -4.091 12
14.473 -9.325 -4.027 10
13.904 -8.923 -3.972 18
13.283 -8.492 -3.877 12
12.645 -8.058 -3.761 14
12.194 -7.743 -3.731 12
10.145 -8.403 1.518 25
10.369 -8.467 1.354 23
9.599 -7.728 1.357 29
9.267 -7.361 1.301 31
9.108 -7.138 1.22 16
9.409 -7.281 1.049 25
10.165 -7.766 0.773 1
10.13 -7.645 0.663 4
35.041 -26.142 -5.494 5
33.103 -24.416 -5.407 5
30.814 -22.495 -5.188 5
9.293 -6.71 0.424 6
9.242 -6.609 0.33 26
9.878 -6.996 0.03 0
9.597 -6.737 0.0 24
9.562 -6.655 -0.103 13
11.534 -7.964 -0.884 20
11.587 -7.938 -1.044 28
11.649 -7.922 -1.212 16
11.678 -7.889 -1.373 31
11.74 -7.879 -1.549 21
11.837 -7.897 -1.745 22
17.268 -11.455 -4.158 7
16.644 -10.985 -4.134 6
16.061 -10.546 -4.113 9
15.51 -10.14 -4.1 10
15.02 -9.774 -4.101 17
14.411 -9.342 -4.039 12
13.843 -8.937 -3.983 18
13.199 -8.489 -3.874 15
12.569 -8.056 -3.76 15
12.134 -7.75 -3.737 12
10.108 -8.422 1.515 23
10.629 -8.732 1.303 0
9.84 -7.971 1.306 18
9.152 -7.314 1.312 29
9.248 -7.292 1.182 23
9.396 -7.316 1.04 32
10.14 -7.795 0.765 0
10.093 -7.665 0.657 12
34.843 -26.16 -5.5 5
32.853 -24.387 -5.397 5
30.576 -22.465 -5.177 5
9.267 -6.735 0.415 28
9.242 -6.652 0.313 0
20.784 -14.817 -3.289 16
9.596 -6.781 -0.019 22
9.495 -6.65 -0.101 27
11.509 -7.998 -0.901 21
11.565 -7.975 -1.063 14
11.653 -7.976 -1.241 1
11.691 -7.948 -1.406 1
11.724 -7.918 -1.572 20
11.796 -7.921 -1.759 20
17.183 -11.471 -4.168 7
16.569 -11.005 -4.147 7
15.978 -10.557 -4.121 7
15.429 -10.149 -4.107 21
14.94 -9.782 -4.107 19
14.336 -9.349 -4.045 11
13.788 -8.955 -3.997 14
13.118 -8.486 -3.872 11
12.498 -8.058 -3.762 15
12.068 -7.752 -3.739 13
9.642 -8.08 1.575 16
10.447 -8.633 1.322 31
10.283 -8.379 1.219 30
9.453 -7.6 1.245 31
9.216 -7.312 1.177 20
9.357 -7.33 1.036 21
9.451 -7.312 0.903 30
10.077 -7.702 0.645 5
34.643 -26.174 -5.505 4
32.582 -24.34 -5.381 5
30.369 -22.456 -5.173 5
10.198 -7.46 0.137 30
10.335 -7.487 -0.025 6
11.165 -8.011 -0.401 13
9.538 -6.784 -0.02 23
9.478 -6.682 -0.116 1
11.519 -8.057 -0.93 3
19.938 -13.837 -4.05 4
20.029 -13.798 -4.336 5
19.227 -13.157 -4.293 6
11.739 -7.98 -1.607 16
11.767 -7.952 -1.778 26
11.88 -7.981 -1.987 18
16.476 -11.012 -4.151 7
15.899 -10.571 -4.13 9
15.351 -10.161 -4.115 21
14.873 -9.798 -4.119 16
14.27 -9.363 -4.056 13
13.727 -8.969 -4.008 14
13.031 -8.481 -3.867 11
12.438 -8.066 -3.768 18
12.021 -7.767 -3.752 13
9.657 -8.14 1.565 16
9.951 -8.272 1.392 14
10.169 -8.336 1.228 25
9.381 -7.588 1.248 32
9.181 -7.328 1.173 26
9.334 -7.357 1.029 15
9.285 -7.228 0.927 2
10.09 -7.76 0.628 1
34.451 -26.195 -5.511 4
32.336 -24.31 -5.371 5
10.818 -8.051 0.07 0
10.302 -7.584 0.089 23
10.367 -7.559 -0.054 1
11.122 -8.031 -0.409 19
9.502 -6.802 -0.029 27
0.0 -0.0 3.0 0
19.451 -13.694 -3.679 6
19.791 -13.825 -4.044 3
19.914 -13.807 -4.341 5
19.117 -13.166 -4.298 6
11.739 -8.031 -1.637 1
11.751 -7.991 -1.802 26
11.829 -7.997 -1.997 23
16.392 -11.025 -4.159 7
15.822 -10.586 -4.14 9
15.273 -10.171 -4.122 19
14.809 -9.816 -4.132 17
14.22 -9.387 -4.073 12
13.66 -8.978 -4.015 19
12.953 -8.48 -3.867 9
12.383 -8.078 -3.778 16
11.964 -7.775 -3.758 13
9.594 -8.134 1.566 17
9.918 -8.293 1.388 28
9.792 -8.075 1.284 40
9.398 -7.647 1.234 18
9.149 -7.347 1.168 25
9.327 -7.397 1.018 14
9.269 -7.26 0.918 22
10.171 -7.871 0.593 6
34.279 -26.229 -5.522 3
32.088 -24.277 -5.359 3
10.798 -8.087 0.056 20
10.333 -7.656 0.061 20
10.987 -8.063 -0.258 18
11.113 -8.077 -0.429 0
9.513 -6.854 -0.052 25
19.614 -14.009 -3.532 4
19.322 -13.69 -3.677 40
19.633 -13.802 -4.033 13
19.799 -13.816 -4.346 5
19.007 -13.175 -4.303 6
18.254 -12.569 -4.256 6
11.762 -8.05 -1.837 14
11.803 -8.03 -2.018 21
11.903 -8.056 -2.232 19
15.74 -10.597 -4.148 9
15.199 -10.184 -4.131 13
14.701 -9.804 -4.123 19
14.151 -9.398 -4.082 14
13.592 -8.988 -4.022 15
12.866 -8.473 -3.861 10
12.325 -8.087 -3.786 15
11.907 -7.782 -3.765 11
9.573 -8.165 1.56 20
9.79 -8.234 1.399 17
9.387 -7.787 1.345 21
9.295 -7.61 1.243 32
9.105 -7.357 1.166 10
9.301 -7.422 1.011 20
9.19 -7.243 0.923 22
10.155 -7.908 0.582 28
10.495 -8.081 0.374 26
10.655 -8.113 0.207 22
10.749 -8.102 0.051 21
10.364 -7.728 0.033 19
26.297 -19.422 -4.847 5
20.465 -14.971 -3.355 16
9.477 -6.873 -0.06 19
19.537 -14.044 -3.549 23
19.199 -13.691 -3.678 40
19.578 -13.853 -4.058 1
19.688 -13.826 -4.352 5
18.904 -13.187 -4.31 6
18.149 -12.576 -4.261 6
17.464 -12.029 -4.228 6
11.755 -8.048 -2.029 27
11.831 -8.057 -2.232 23
15.658 -10.607 -4.154 9
15.124 -10.197 -4.14 12
14.622 -9.811 -4.128 17
14.082 -9.408 -4.09 27
13.51 -8.987 -4.022 22
12.795 -8.475 -3.863 9
12.264 -8.094 -3.792 15
11.857 -7.794 -3.775 13
9.588 -8.225 1.55 23
9.799 -8.29 1.389 13
9.287 -7.75 1.353 24
9.332 -7.687 1.225 20
10.179 -8.276 0.937 17
9.514 -7.639 0.953 49
9.158 -7.263 0.917 25
9.192 -7.203 0.798 0
10.109 -7.834 0.455 29
10.622 -8.139 0.197 26
10.713 -8.126 0.042 6
10.322 -7.746 0.026 8
26.122 -19.417 -4.845 5
20.439 -15.048 -3.387 1
9.429 -6.881 -0.064 32
19.438 -14.063 -3.558 23
19.085 -13.698 -3.681 42
19.401 -13.816 -4.04 1
19.576 -13.837 -4.357 5
18.794 -13.194 -4.314 6
18.048 -12.586 -4.267 6
17.368 -12.039 -4.234 6
11.794 -8.127 -2.078 20
11.82 -8.1 -2.26 34
11.892 -8.106 -2.468 15
15.052 -10.211 -4.15 19
14.542 -9.817 -4.133 14
14.01 -9.417 -4.096 20
13.437 -8.991 -4.025 23
12.711 -8.47 -3.859 13
12.191 -8.092 -3.79 24
11.797 -7.8 -3.78 14
9.615 -8.297 1.537 12
9.686 -8.244 1.397 26
9.27 -7.782 1.346 26
9.294 -7.702 1.222 28
10.16 -8.309 0.928 38
9.892 -7.992 0.859 21
9.165 -7.314 0.903 42
10.067 -7.938 0.573 18
10.09 -7.868 0.443 27
9.879 -7.618 0.377 2
29.249 -22.328 -5.127 5
10.328 -7.801 0.006 4
25.944 -19.409 -4.842 6
20.359 -15.086 -3.403 2
9.392 -6.899 -0.072 14
19.339 -14.082 -3.567 23
18.975 -13.707 -3.686 46
19.268 -13.81 -4.036 14
19.465 -13.847 -4.363 5
18.685 -13.202 -4.318 5
17.956 -12.602 -4.276 6
17.284 -12.057 -4.245 6
11.811 -8.189 -2.117 3
11.793 -8.133 -2.282 26
11.841 -8.122 -2.478 17
14.972 -10.219 -4.155 22
14.472 -9.83 -4.142 16
11.148 -7.539 -2.681 2
13.348 -8.986 -4.021 16
12.619 -8.458 -3.85 15
12.146 -8.11 -3.805 17
11.744 -7.809 -3.788 13
9.999 -8.679 1.47 14
9.692 -8.297 1.387 23
9.28 -7.838 1.334 21
9.258 -7.718 1.218 22
9.985 -8.216 0.951 20
9.852 -8.008 0.854 21
0.0 -0.0 3.0 0
10.045 -7.97 0.563 2
9.978 -7.83 0.456 27
9.845 -7.639 0.37 31
29.044 -22.314 -5.122 5
27.284 -20.739 -4.961 5
25.767 -19.4 -4.838 5
24.423 -18.214 -4.731 6
9.381 -6.936 -0.088 16
19.231 -14.094 -3.572 25
18.868 -13.718 -3.691 40
19.176 -13.832 -4.048 1
19.363 -13.863 -4.371 5
18.581 -13.213 -4.324 6
17.858 -12.613 -4.282 6
17.184 -12.064 -4.249 6
16.569 -11.561 -4.224 6
11.809 -8.195 -2.322 18
11.808 -8.149 -2.496 28
11.893 -8.168 -2.719 14
14.402 -9.842 -4.15 16
11.065 -7.528 -2.673 2
13.263 -8.982 -4.018 16
12.554 -8.464 -3.854 15
12.088 -8.119 -3.812 22
11.693 -7.821 -3.798 14
9.905 -8.647 1.475 27
9.67 -8.328 1.381 22
9.253 -7.861 1.329 26
9.222 -7.735 1.214 20
9.777 -8.095 0.982 9
9.848 -8.055 0.842 1
9.756 -7.882 0.74 23
34.254 -27.35 -5.362 20
9.894 -7.813 0.461 17
9.814 -7.663 0.361 29
28.822 -22.284 -5.111 5
27.103 -20.733 -4.959 5
25.574 -19.378 -4.829 6
24.252 -18.202 -4.726 6
9.373 -6.974 -0.105 19
19.136 -14.114 -3.581 27
18.767 -13.733 -3.698 30
19.086 -13.857 -4.06 4
19.239 -13.862 -4.371 5
18.479 -13.224 -4.33 5
17.769 -12.63 -4.292 6
17.097 -12.079 -4.258 6
16.477 -11.569 -4.229 7
11.813 -8.249 -2.357 1
11.79 -8.187 -2.522 22
11.832 -8.176 -2.725 32
11.177 -7.685 -2.583 2
10.98 -7.514 -2.663 2
11.184 -7.619 -2.953 0
12.45 -8.444 -3.838 56
12.027 -8.125 -3.818 21
11.64 -7.83 -3.806 17
9.882 -8.677 1.47 27
9.744 -8.441 1.359 10
9.419 -8.05 1.289 40
9.105 -7.682 1.226 19
9.43 -7.855 1.042 1
9.874 -8.126 0.823 14
9.731 -7.91 0.732 23
9.678 -7.775 0.623 5
9.789 -7.778 0.473 25
9.788 -7.692 0.351 27
28.613 -22.263 -5.103 5
26.904 -20.712 -4.951 5
25.413 -19.379 -4.83 6
24.1 -18.205 -4.727 7
0.0 -0.0 3.0 0
19.04 -14.134 -3.591 27
18.685 -13.76 -3.711 23
18.929 -13.831 -4.047 5
19.131 -13.872 -4.376 5
18.373 -13.232 -4.335 6
17.668 -12.638 -4.297 6
17.011 -12.093 -4.266 6
16.392 -11.582 -4.237 6
15.815 -11.112 -4.216 8
11.788 -8.237 -2.556 18
11.808 -8.21 -2.749 43
11.13 -7.699 -2.594 5
10.894 -7.502 -2.653 2
11.11 -7.614 -2.949 2
12.409 -8.466 -3.856 35
11.97 -8.133 -3.824 20
11.571 -7.828 -3.805 22
9.821 -8.674 1.471 27
9.824 -8.56 1.336 11
9.35 -8.038 1.291 38
9.048 -7.68 1.227 29
10.341 -8.667 0.839 18
9.773 -8.091 0.832 26
9.754 -7.979 0.712 22
9.638 -7.791 0.618 15
9.819 -7.851 0.449 22
9.754 -7.714 0.344 26
28.394 -22.233 -5.092 5
26.712 -20.695 -4.944 6
25.243 -19.372 -4.827 6
23.936 -18.197 -4.724 6
0.0 -0.0 3.0 0
18.942 -14.151 -3.599 29
18.686 -13.849 -3.755 44
18.766 -13.799 -4.031 4
19.023 -13.883 -4.382 5
18.273 -13.244 -4.341 5
17.571 -12.649 -4.303 6
16.912 -12.099 -4.27 6
16.307 -11.594 -4.245 7
15.741 -11.129 -4.227 6
11.794 -8.292 -2.593 2
11.778 -8.239 -2.769 32
11.068 -7.703 -2.597 4
10.821 -7.496 -2.649 4
11.021 -7.599 -2.937 2
12.329 -8.461 -3.852 39
11.912 -8.142 -3.832 24
11.527 -7.843 -3.818 14
9.834 -8.736 1.46 23
9.777 -8.57 1.334 24
9.586 -8.291 1.238 26
9.04 -7.719 1.218 28
10.35 -8.727 0.824 1
9.723 -8.1 0.83 28
35.583 -29.287 -5.398 28
9.585 -7.797 0.616 23
9.726 -7.826 0.457 26
30.129 -23.977 -5.256 4
28.207 -22.227 -5.09 5
26.526 -20.682 -4.939 6
25.063 -19.358 -4.821 6
23.779 -18.193 -4.723 6
19.558 -14.834 -3.605 8
18.862 -14.182 -3.613 30
18.573 -13.854 -3.757 6
18.653 -13.804 -4.034 50
18.912 -13.89 -4.386 5
18.161 -13.247 -4.343 6
17.476 -12.66 -4.309 6
16.828 -12.115 -4.279 6
16.219 -11.604 -4.251 7
15.648 -11.133 -4.23 7
15.11 -10.69 -4.21 10
11.778 -8.29 -2.804 20
11.015 -7.713 -2.604 5
10.75 -7.492 -2.646 6
10.936 -7.585 -2.926 2
11.176 -7.715 -3.247 2
11.849 -8.145 -3.835 27
11.479 -7.856 -3.829 12
9.782 -8.74 1.459 29
9.549 -8.42 1.363 21
9.668 -8.413 1.212 26
9.028 -7.756 1.209 21
10.166 -8.625 0.85 2
9.677 -8.111 0.827 23
35.292 -29.228 -5.381 27
9.584 -7.846 0.601 10
9.762 -7.903 0.432 10
29.909 -23.952 -5.247 4
27.984 -22.19 -5.077 6
26.337 -20.665 -4.933 5
24.894 -19.35 -4.818 6
23.615 -18.184 -4.719 6
19.482 -14.871 -3.621 20
18.773 -14.205 -3.624 32
18.503 -13.891 -3.775 255
18.583 -13.84 -4.052 39
18.811 -13.904 -4.393 5
18.061 -13.259 -4.349 5
17.375 -12.667 -4.313 6
16.735 -12.124 -4.285 5
16.137 -11.618 -4.259 7
15.577 -11.151 -4.242 8
15.035 -10.702 -4.218 10
11.783 -8.344 -2.843 5
10.957 -7.718 -2.608 4
10.671 -7.482 -2.638 5
10.853 -7.572 -2.916 2
11.096 -7.705 -3.24 2
11.776 -8.143 -3.833 28
11.42 -7.86 -3.833 12
9.741 -8.755 1.456 25
9.569 -8.487 1.35 21
9.545 -8.354 1.224 18
9.124 -7.886 1.179 29
9.993 -8.529 0.874 7
9.672 -8.157 0.814 12
10.095 -8.412 0.588 4
9.553 -7.869 0.594 19
31.857 -25.954 -5.433 11
29.679 -23.917 -5.235 4
27.794 -22.179 -5.073 5
26.152 -20.651 -4.927 5
24.718 -19.335 -4.812 6
23.465 -18.183 -4.718 7
19.37 -14.88 -3.625 19
18.699 -14.241 -3.641 33
18.463 -13.95 -3.804 53
18.546 -13.901 -4.083 255
18.7 -13.91 -4.396 5
17.959 -13.267 -4.354 6
17.287 -12.683 -4.322 6
16.649 -12.138 -4.293 6
16.058 -11.633 -4.269 7
15.493 -11.161 -4.248 6
14.962 -10.716 -4.228 9
14.457 -10.3 -4.212 10
10.904 -7.728 -2.615 4
10.595 -7.473 -2.631 4
10.774 -7.562 -2.908 2
11.004 -7.686 -3.224 2
11.692 -8.132 -3.823 10
11.375 -7.875 -3.846 17
9.695 -8.764 1.455 22
9.525 -8.498 1.348 22
9.368 -8.249 1.247 26
9.117 -7.927 1.17 29
9.819 -8.431 0.898 27
9.623 -8.165 0.812 18
34.853 -29.222 -5.379 30
9.54 -7.907 0.583 3
31.633 -25.934 -5.426 12
29.46 -23.891 -5.226 4
27.593 -22.158 -5.065 6
25.964 -20.632 -4.92 6
24.555 -19.33 -4.81 6
23.32 -18.186 -4.72 6
19.273 -14.9 -3.634 19
18.619 -14.27 -3.654 35
18.427 -14.011 -3.834 15
18.503 -13.957 -4.112 21
18.59 -13.917 -4.4 5
17.863 -13.28 -4.361 5
17.186 -12.689 -4.326 6
16.562 -12.151 -4.301 6
15.97 -11.642 -4.275 6
15.416 -11.174 -4.256 7
14.886 -10.727 -4.236 9
14.388 -10.314 -4.222 9
10.848 -7.735 -2.62 3
10.522 -7.467 -2.627 4
10.695 -7.551 -2.9 2
10.922 -7.674 -3.214 2
11.168 -7.813 -3.556 4
11.318 -7.881 -3.851 13
9.716 -8.834 1.442 16
9.338 -8.38 1.371 27
9.263 -8.205 1.256 21
9.096 -7.957 1.163 30
9.948 -8.594 0.857 10
9.558 -8.16 0.814 30
9.75 -8.225 0.642 16
9.716 -8.103 0.523 25
9.727 -8.024 0.393 10
29.249 -23.869 -5.219 4
27.386 -22.131 -5.055 6
25.788 -20.623 -4.916 6
24.389 -19.322 -4.807 6
23.158 -18.175 -4.715 6
19.176 -14.92 -3.643 19
18.554 -14.312 -3.674 37
