# .PCD v0.7 - Point Cloud Data file format
VERSION 0.7
FIELDS x y z intensity
SIZE 4 4 4 4
TYPE F F F F
COUNT 1 1 1 1
WIDTH 2002
HEIGHT 1
VIEWPOINT 0 0 0 1 0 0 0
POINTS 2002
DATA ascii
-12.627 -7.488 1.544 12
-12.032 -7.001 1.512 12
-12.455 -7.111 1.358 23
-12.637 -7.088 1.233 6
-13.9 -7.661 0.947 31
-14.17 -7.682 0.797 3
-13.332 -7.116 0.824 18
-13.58 -7.138 0.681 6
0.0 -0.0 3.0 0
-51.431 -26.29 -6.569 2
-43.067 -21.757 -5.352 16
-40.369 -20.16 -5.145 22
-34.909 -17.256 -4.325 1
-33.074 -16.192 -4.209 14
0.0 -0.0 3.0 0
-30.265 -14.583 -4.113 70
-30.481 -14.596 -4.437 5
-28.835 -13.735 -4.303 5
-27.282 -12.933 -4.169 4
-25.929 -12.25 -4.073 6
-18.436 -8.684 -2.218 26
-18.572 -8.733 -2.457 1
-19.88 -9.335 -3.062 18
-20.084 -9.427 -3.359 19
-18.381 -8.627 -3.041 24
-18.797 -8.83 -3.415 5
-18.396 -8.65 -3.518 16
-17.74 -8.357 -3.529 13
-17.093 -8.07 -3.535 14
-16.454 -7.786 -3.533 14
-15.855 -7.522 -3.539 15
-14.981 -9.007 1.412 15
-12.764 -7.522 1.538 38
-12.025 -6.952 1.522 2
-12.4 -7.034 1.376 23
-12.602 -7.021 1.249 7
-12.838 -7.027 1.117 1
-14.309 -7.703 0.791 20
-13.446 -7.125 0.822 22
-13.568 -7.08 0.699 16
-13.671 -7.035 0.578 11
-13.399 -6.799 0.525 23
-43.467 -21.796 -5.367 16
-40.705 -20.175 -5.151 23
0.0 -0.0 3.0 0
0.0 -0.0 3.0 0
-33.538 -16.161 -4.536 2
-30.27 -14.476 -4.06 4
-30.687 -14.585 -4.431 5
-29.032 -13.726 -4.298 6
-27.455 -12.919 -4.161 5
-26.081 -12.231 -4.062 6
-18.446 -8.625 -2.183 36
-23.762 -11.093 -3.932 4
-19.942 -9.297 -3.038 19
-19.247 -8.971 -3.051 1
-18.579 -8.66 -3.064 17
-18.898 -8.819 -3.407 15
-18.493 -8.639 -3.51 16
-17.835 -8.348 -3.522 13
-17.173 -8.057 -3.525 15
-16.53 -7.774 -3.523 14
-15.926 -7.511 -3.529 16
-15.47 -9.245 1.37 20
-12.655 -7.411 1.559 10
-12.003 -6.895 1.535 18
-12.192 -6.87 1.414 30
-12.63 -6.99 1.257 1
-12.887 -7.006 1.123 11
-13.521 -7.229 0.927 0
-13.99 -7.361 0.749 2
-14.384 -7.452 0.579 19
-13.926 -7.113 0.551 2
-13.453 -6.776 0.534 9
-43.991 -21.895 -5.405 14
-41.034 -20.186 -5.156 22
0.0 -0.0 3.0 0
0.0 -0.0 3.0 0
-33.799 -16.164 -4.537 5
-30.225 -14.345 -3.996 1
-30.827 -14.541 -4.409 1
-29.236 -13.718 -4.294 6
-27.624 -12.902 -4.152 6
-26.245 -12.217 -4.054 5
-18.494 -8.585 -2.158 28
-23.893 -11.073 -3.919 5
-20.0 -9.258 -3.012 19
-19.24 -8.906 -3.007 4
-18.623 -8.622 -3.037 14
-19.072 -8.839 -3.422 5
-18.603 -8.633 -3.506 13
-17.927 -8.338 -3.514 13
-17.246 -8.041 -3.511 13
-16.588 -7.753 -3.506 25
-16.0 -7.501 -3.521 16
-12.632 -7.503 1.677 0
-13.594 -7.911 1.462 16
-12.711 -7.254 1.458 36
-12.205 -6.832 1.423 13
-12.717 -6.991 1.257 8
-12.647 -6.828 1.17 3
-13.831 -7.343 0.894 89
-13.03 -6.807 0.919 10
-14.454 -7.434 0.584 14
-13.487 -6.839 0.645 7
-13.483 -6.741 0.546 24
-44.47 -21.968 -5.433 15
-41.314 -20.171 -5.149 22
0.0 -0.0 3.0 0
0.0 -0.0 3.0 0
0.0 -0.0 3.0 0
-30.211 -14.23 -3.94 3
-30.138 -14.108 -4.188 1
-29.426 -13.704 -4.287 6
-27.8 -12.888 -4.144 5
-18.418 -8.51 -1.913 38
-18.563 -8.555 -2.14 1
-23.999 -11.043 -3.9 15
-20.117 -9.247 -3.005 20
-19.223 -8.836 -2.96 4
-18.808 -8.647 -3.055 5
-19.131 -8.808 -3.399 6
-18.693 -8.618 -3.494 16
-18.008 -8.321 -3.501 14
-17.323 -8.026 -3.5 14
-16.674 -7.745 -3.499 14
-16.064 -7.486 -3.508 15
-12.65 -7.467 1.683 14
-13.627 -7.881 1.468 19
-12.472 -7.072 1.497 21
-12.176 -6.772 1.437 27
-12.811 -6.995 1.256 25
-12.779 -6.852 1.164 1
-13.685 -7.215 0.931 25
-13.094 -6.792 0.923 10
-14.505 -7.407 0.593 13
-13.516 -6.803 0.657 10
-13.551 -6.724 0.553 17
-44.922 -22.025 -5.455 15
-41.609 -20.161 -5.146 22
0.0 -0.0 3.0 0
0.0 -0.0 3.0 0
-30.496 -14.363 -3.698 2
-30.2 -14.116 -3.885 30
-30.091 -13.98 -4.123 3
-29.637 -13.698 -4.283 5
-27.966 -12.867 -4.133 4
-18.42 -8.449 -1.878 39
-25.299 -11.572 -3.953 3
-24.045 -10.984 -3.863 31
-19.268 -8.793 -2.71 5
-19.216 -8.771 -2.916 4
-19.027 -8.688 -3.084 7
-19.128 -8.747 -3.355 5
-18.793 -8.607 -3.486 13
-18.096 -8.308 -3.491 13
-17.41 -8.016 -3.491 13
-16.746 -7.731 -3.487 13
-16.138 -7.476 -3.499 16
-16.959 -9.95 1.246 29
-13.632 -7.834 1.477 13
-12.447 -7.013 1.509 24
-12.314 -6.803 1.429 0
-13.363 -7.246 1.193 11
-12.569 -6.693 1.207 5
-13.778 -7.212 0.932 25
-13.119 -6.757 0.934 1
-14.374 -7.287 0.632 10
-13.736 -6.864 0.637 20
-13.573 -6.685 0.567 5
-45.378 -22.081 -5.476 15
-41.975 -20.184 -5.155 19
0.0 -0.0 3.0 0
0.0 -0.0 3.0 0
-30.809 -14.399 -3.715 9
-30.2 -14.008 -3.832 44
-30.08 -13.868 -4.066 5
-29.838 -13.686 -4.277 6
-18.435 -8.418 -1.666 0
-18.471 -8.409 -1.855 34
-25.414 -11.54 -3.934 3
-24.109 -10.933 -3.832 23
-19.247 -8.72 -2.663 4
-19.209 -8.706 -2.872 4
-18.978 -8.606 -3.026 13
-19.121 -8.685 -3.31 6
-18.924 -8.61 -3.488 15
-18.185 -8.295 -3.481 14
-17.494 -8.003 -3.481 15
-16.825 -7.72 -3.478 14
-16.216 -7.467 -3.491 15
-17.337 -10.109 1.218 21
-13.633 -7.785 1.487 25
-12.498 -6.995 1.513 2
-12.686 -6.962 1.393 3
-13.601 -7.326 1.174 8
-13.617 -7.201 1.071 11
-13.666 -7.103 0.963 13
-13.161 -6.729 0.943 0
-14.27 -7.181 0.667 32
-13.741 -6.814 0.654 17
-13.534 -6.616 0.592 9
-45.949 -22.19 -5.518 12
-42.299 -20.185 -5.155 21
0.0 -0.0 3.0 0
0.0 -0.0 3.0 0
0.0 -0.0 3.0 0
-30.213 -13.906 -3.783 8
-30.09 -13.765 -4.014 7
-30.032 -13.67 -4.268 6
-18.404 -8.341 -1.623 28
-18.533 -8.374 -1.835 13
-24.107 -10.865 -3.529 29
-24.36 -10.966 -3.853 5
-19.236 -8.653 -2.619 4
-19.191 -8.637 -2.826 4
-19.166 -8.632 -3.044 4
-19.124 -8.627 -3.268 8
-19.042 -8.606 -3.485 13
-18.273 -8.282 -3.47 14
-17.57 -7.988 -3.469 14
-16.89 -7.702 -3.463 14
-16.29 -7.456 -3.481 16
-15.421 -8.936 1.424 3
-13.437 -7.624 1.518 0
-12.303 -6.842 1.546 1
-13.593 -7.41 1.289 5
-13.087 -7.001 1.254 7
-12.711 -6.675 1.211 0
-14.291 -7.375 0.885 8
-14.316 -7.268 0.778 23
-14.37 -7.178 0.668 27
-13.763 -6.775 0.667 21
-13.574 -6.585 0.603 31
-46.919 -22.486 -5.632 10
-42.598 -20.171 -5.15 22
-40.748 -19.094 -5.105 14
0.0 -0.0 3.0 0
0.0 -0.0 3.0 0
-30.165 -13.777 -3.72 7
-18.433 -8.368 -1.264 13
-18.468 -8.342 -1.435 17
-18.398 -8.275 -1.587 41
-27.052 -12.131 -4.004 6
-24.131 -10.796 -3.487 255
-23.805 -10.638 -3.647 43
-19.228 -8.587 -2.577 4
-19.19 -8.575 -2.784 4
-19.162 -8.57 -3.001 4
-19.14 -8.576 -3.231 6
-19.153 -8.599 -3.48 15
-18.365 -8.269 -3.461 14
-17.664 -7.98 -3.462 12
-16.969 -7.691 -3.453 14
-16.364 -7.446 -3.472 16
-15.431 -8.887 1.433 21
-15.723 -8.865 1.277 21
-12.34 -6.818 1.551 0
-12.692 -6.873 1.413 5
-12.967 -6.89 1.282 8
-12.77 -6.659 1.216 20
-13.346 -6.839 1.039 1
-14.176 -7.144 0.816 37
-14.287 -7.084 0.698 20
-13.838 -6.761 0.672 18
-13.595 -6.546 0.617 18
-50.372 -23.957 -6.196 5
-18.025 -8.47 -0.422 16
-18.148 -8.438 -0.582 26
-18.231 -8.394 -0.737 10
-18.283 -8.348 -0.893 21
-18.373 -8.326 -1.061 21
-18.445 -8.309 -1.233 41
-18.476 -8.281 -1.403 39
-18.402 -8.214 -1.553 45
-27.202 -12.107 -3.99 6
-24.18 -10.737 -3.451 0
-23.793 -10.555 -3.595 61
-19.223 -8.523 -2.535 4
-19.178 -8.509 -2.739 8
-19.157 -8.508 -2.958 4
-19.227 -8.556 -3.216 2
-19.25 -8.586 -3.47 14
-18.45 -8.254 -3.449 14
-17.751 -7.969 -3.453 13
-17.044 -7.677 -3.442 14
-16.428 -7.429 -3.458 16
-15.473 -8.856 1.438 16
-15.588 -8.733 1.302 23
-15.823 -8.686 1.154 17
-12.617 -6.787 1.433 33
-12.907 -6.81 1.302 3
-13.195 -6.833 1.169 10
-13.852 -7.047 0.979 11
-14.046 -7.027 0.852 17
-14.402 -7.089 0.697 13
-13.763 -6.674 0.702 23
-13.602 -6.5 0.634 26
-17.899 -8.448 -0.243 12
-18.05 -8.416 -0.4 23
-18.166 -8.381 -0.557 34
-18.246 -8.335 -0.711 35
-18.304 -8.293 -0.867 45
-18.398 -8.273 -1.035 34
-18.495 -8.267 -1.212 28
-18.555 -8.252 -1.388 21
-18.456 -8.174 -1.531 17
-27.366 -12.087 -3.979 6
-26.029 -11.472 -3.893 4
-24.001 -10.569 -3.604 52
-19.211 -8.456 -2.491 5
-19.177 -8.448 -2.698 10
-19.149 -8.445 -2.913 7
-19.356 -8.555 -3.215 3
-19.35 -8.573 -3.46 13
-18.546 -8.243 -3.44 14
-17.821 -7.95 -3.437 13
-17.119 -7.664 -3.431 14
-16.516 -7.425 -3.454 15
-15.476 -8.803 1.448 24
-15.633 -8.703 1.308 27
-15.897 -8.669 1.157 12
-12.647 -6.757 1.44 5
-13.237 -6.937 1.27 13
-13.212 -6.794 1.18 18
-13.126 -6.631 1.099 30
0.0 -0.0 3.0 0
-14.421 -7.046 0.711 24
-13.849 -6.666 0.705 21
-13.684 -6.489 0.638 28
-17.913 -8.389 -0.22 27
-43.637 -20.189 -5.157 19
-18.216 -8.339 -0.54 1
-18.396 -8.338 -0.712 3
-18.351 -8.249 -0.847 15
-18.595 -8.296 -1.046 5
-18.539 -8.222 -1.189 0
-18.283 -8.069 -1.29 29
-18.514 -8.137 -1.51 7
-27.534 -12.069 -3.968 6
-23.896 -10.452 -3.28 19
-19.698 -8.61 -2.38 0
-19.202 -8.39 -2.449 5
-19.171 -8.385 -2.656 5
-19.137 -8.381 -2.868 4
-19.481 -8.551 -3.213 3
-19.451 -8.559 -3.45 12
-18.651 -8.236 -3.434 14
-17.915 -7.941 -3.43 12
-17.198 -7.651 -3.42 14
-16.58 -7.409 -3.44 16
-15.451 -8.734 1.46 9
-15.664 -8.665 1.316 17
-12.576 -6.813 1.552 3
-12.857 -6.824 1.425 2
-13.187 -6.864 1.289 11
-12.904 -6.589 1.234 7
-12.951 -6.495 1.137 24
-13.759 -6.783 0.926 16
-14.204 -6.888 0.762 12
-13.849 -6.615 0.722 21
-13.684 -6.44 0.656 26
-17.955 -8.344 -0.203 24
-44.024 -20.208 -5.165 19
-41.991 -19.071 -5.095 21
-18.579 -8.354 -0.72 1
-18.641 -8.314 -0.877 2
-18.613 -8.238 -1.018 43
0.0 -0.0 3.0 0
-18.283 -8.006 -1.257 34
-29.303 -12.78 -4.084 57
-24.213 -10.532 -3.081 1
-23.88 -10.367 -3.229 25
-19.814 -8.596 -2.372 1
-19.193 -8.326 -2.407 4
-19.159 -8.32 -2.612 4
-19.269 -8.379 -2.867 2
-19.599 -8.545 -3.208 5
-19.544 -8.543 -3.438 13
-18.757 -8.228 -3.429 17
-17.995 -7.925 -3.418 13
-17.28 -7.64 -3.411 14
-16.657 -7.399 -3.432 16
-17.417 -9.784 1.275 7
-15.632 -8.592 1.33 16
-15.854 -8.533 1.186 20
-12.637 -6.662 1.462 8
-13.196 -6.821 1.299 1
-13.682 -6.936 1.141 14
-12.545 -6.246 1.209 27
-13.634 -6.673 0.96 29
-14.205 -6.837 0.779 26
-13.845 -6.563 0.74 20
-13.766 -6.428 0.66 28
-17.961 -8.282 -0.179 31
-44.39 -20.216 -5.168 19
-42.329 -19.072 -5.096 22
0.0 -0.0 3.0 0
-18.67 -8.26 -0.852 33
-18.653 -8.191 -0.995 1
-18.276 -7.978 -1.065 11
-18.326 -7.962 -1.234 34
-29.506 -12.768 -4.078 57
-27.87 -12.03 -3.945 6
-23.863 -10.281 -3.178 15
-19.93 -8.582 -2.363 1
-19.19 -8.264 -2.367 4
-19.153 -8.257 -2.57 17
-19.384 -8.37 -2.861 2
-19.714 -8.535 -3.201 7
-19.641 -8.528 -3.427 13
-18.863 -8.221 -3.423 15
-18.075 -7.91 -3.405 13
-17.362 -7.63 -3.402 14
-16.735 -7.388 -3.422 15
-16.087 -8.981 1.416 19
-15.754 -8.603 1.328 1
-13.264 -7.091 1.493 0
-13.985 -7.322 1.31 1
-13.471 -6.915 1.276 13
-12.504 -6.294 1.313 13
-12.586 -6.221 1.216 8
-13.323 -6.473 1.021 24
-14.198 -6.782 0.796 24
-13.874 -6.527 0.753 27
-14.307 -6.629 0.587 14
-17.938 -8.206 -0.15 27
-44.806 -20.246 -5.18 19
-42.653 -19.067 -5.093 28
-18.723 -8.286 -0.689 10
-18.684 -8.2 -0.824 20
-30.416 -13.25 -3.462 0
-18.279 -7.916 -1.033 42
-18.393 -7.928 -1.215 6
-29.709 -12.755 -4.07 58
-28.045 -12.012 -3.935 4
-23.921 -10.227 -3.145 220
-20.057 -8.572 -2.356 3
-19.18 -8.198 -2.324 5
-19.154 -8.198 -2.53 4
-19.534 -8.376 -2.865 1
-19.833 -8.528 -3.196 6
-19.745 -8.516 -3.417 13
-18.941 -8.201 -3.407 15
-18.162 -7.897 -3.395 13
-17.434 -7.613 -3.388 15
-16.809 -7.376 -3.412 15
-15.749 -8.738 1.459 18
-15.746 -8.545 1.339 10
-15.787 -8.385 1.218 18
-15.294 -7.953 1.164 22
-13.973 -7.123 1.224 8
-12.537 -6.267 1.321 13
-12.711 -6.238 1.211 12
-13.565 -6.541 1.0 29
-14.208 -6.737 0.811 22
-13.884 -6.481 0.768 22
-14.455 -6.646 0.581 15
-17.987 -8.164 -0.134 11
-45.263 -20.29 -5.198 17
-42.959 -19.051 -5.087 27
-18.816 -8.261 -0.678 38
0.0 -0.0 3.0 0
-18.266 -7.893 -0.85 30
-18.329 -7.874 -1.012 29
-31.701 -13.557 -4.208 5
-29.909 -12.741 -4.062 53
-23.976 -10.19 -2.883 84
-24.026 -10.194 -3.125 2
-20.184 -8.562 -2.35 2
-19.217 -8.153 -2.295 3
-19.268 -8.188 -2.523 1
-19.67 -8.374 -2.864 2
-19.959 -8.522 -3.192 6
-19.845 -8.501 -3.406 13
-19.04 -8.19 -3.399 15
-18.242 -7.881 -3.382 13
-17.523 -7.605 -3.381 15
-16.887 -7.365 -3.403 16
-15.807 -8.716 1.463 15
-16.306 -8.792 1.291 18
-13.997 -7.386 1.43 4
-13.09 -6.762 1.439 3
-14.079 -7.127 1.223 6
-12.915 -6.409 1.283 52
-12.838 -6.254 1.207 9
-13.646 -6.531 1.003 14
-14.327 -6.741 0.81 18
-14.106 -6.534 0.75 15
-14.476 -6.604 0.596 0
-16.519 -7.439 0.144 13
-45.804 -20.37 -5.23 9
-18.861 -8.297 -0.522 10
-18.92 -8.24 -0.669 10
-18.167 -7.846 -0.659 4
-18.269 -7.831 -0.82 39
0.0 -0.0 3.0 0
-31.904 -13.535 -4.197 5
-30.116 -12.729 -4.056 41
-24.002 -10.121 -2.844 255
-24.608 -10.361 -3.226 164
-20.315 -8.552 -2.344 2
-19.331 -8.142 -2.287 2
-19.426 -8.195 -2.528 1
-19.81 -8.374 -2.864 2
-20.084 -8.517 -3.188 6
-19.95 -8.488 -3.396 14
-19.118 -8.168 -3.382 15
-18.34 -7.873 -3.375 13
-17.613 -7.595 -3.373 13
-16.961 -7.353 -3.392 16
-15.729 -8.618 1.48 22
-16.296 -8.729 1.303 19
-16.236 -8.51 1.191 17
-13.803 -7.081 1.365 3
-12.655 -6.362 1.414 5
-12.574 -6.196 1.34 21
-12.889 -6.233 1.213 19
-14.279 -6.784 0.926 3
-14.211 -6.636 0.844 16
-14.257 -6.553 0.743 36
-14.491 -6.558 0.613 3
-16.522 -7.382 0.166 11
-18.728 -8.262 -0.338 8
-18.871 -8.235 -0.495 34
-41.744 -18.033 -5.029 8
-18.158 -7.779 -0.627 35
-18.332 -7.795 -0.802 15
0.0 -0.0 3.0 0
-32.118 -13.518 -4.187 4
-30.327 -12.716 -4.048 33
-24.041 -10.059 -2.808 30
-24.562 -10.262 -3.166 151
-20.435 -8.538 -2.335 4
-19.428 -8.121 -2.274 2
-19.548 -8.186 -2.522 2
-19.946 -8.372 -2.862 2
-20.217 -8.514 -3.186 7
-20.05 -8.473 -3.385 13
-19.214 -8.155 -3.372 14
-18.434 -7.862 -3.367 12
-17.698 -7.585 -3.365 15
-17.038 -7.342 -3.383 16
-15.28 -8.32 1.533 20
-16.211 -8.628 1.323 20
-13.266 -6.908 1.532 2
-13.313 -6.784 1.434 10
-13.157 -6.568 1.362 4
-12.586 -6.157 1.35 24
-12.883 -6.185 1.226 12
-13.177 -6.213 1.1 0
-14.268 -6.612 0.852 15
-14.537 -6.631 0.717 17
-14.53 -6.525 0.625 1
-16.56 -7.34 0.183 27
-18.177 -7.955 -0.214 22
-19.026 -8.235 -0.496 28
-18.075 -7.745 -0.448 13
-18.199 -7.734 -0.606 29
0.0 -0.0 3.0 0
0.0 -0.0 3.0 0
-32.357 -13.509 -4.183 4
-30.542 -12.705 -4.042 18
-28.824 -11.966 -3.908 6
-24.508 -10.161 -3.105 214
-20.551 -8.521 -2.324 3
-19.55 -8.112 -2.268 3
-19.684 -8.183 -2.52 2
-20.083 -8.369 -2.86 2
-20.357 -8.513 -3.185 5
-20.133 -8.45 -3.368 13
-19.309 -8.142 -3.361 16
-18.525 -7.851 -3.357 13
-17.777 -7.571 -3.353 15
-17.102 -7.325 -3.367 15
-15.274 -8.265 1.543 20
-16.234 -8.585 1.331 19
-15.562 -8.05 1.289 11
-12.719 -6.437 1.514 44
-12.898 -6.394 1.406 18
-12.711 -6.174 1.346 22
-12.902 -6.148 1.237 10
-14.001 -6.552 0.997 3
-14.657 -6.74 0.81 0
-14.576 -6.596 0.729 25
-14.595 -6.502 0.633 5
-16.574 -7.287 0.203 30
-18.157 -7.882 -0.185 17
-18.038 -7.745 -0.288 0
-18.072 -7.68 -0.42 35
-18.255 -7.694 -0.588 5
-31.525 -13.188 -3.432 3
0.0 -0.0 3.0 0
-32.589 -13.496 -4.176 4
-30.735 -12.683 -4.03 27
-29.021 -11.952 -3.901 7
-24.468 -10.065 -3.048 255
-20.675 -8.507 -2.316 3
-19.662 -8.096 -2.258 3
-19.827 -8.182 -2.519 2
-20.223 -8.367 -2.859 2
-20.515 -8.519 -3.19 4
-20.223 -8.43 -3.353 14
-19.408 -8.129 -3.351 15
-18.608 -7.835 -3.345 13
-17.863 -7.56 -3.344 14
-17.179 -7.314 -3.358 16
-15.44 -8.302 1.536 23
-15.172 -7.971 1.451 12
-15.549 -7.99 1.302 12
-13.235 -6.652 1.464 11
-12.921 -6.36 1.414 8
-13.088 -6.311 1.309 9
-12.906 -6.105 1.249 6
-16.371 -7.604 0.675 11
-15.98 -7.292 0.631 26
-14.601 -6.556 0.742 18
-14.533 -6.423 0.662 10
-16.638 -7.257 0.214 14
-18.865 -8.123 -0.282 24
-17.992 -7.661 -0.252 32
-18.149 -7.65 -0.406 5
-39.777 -16.627 -4.753 18
0.0 -0.0 3.0 0
0.0 -0.0 3.0 0
-32.807 -13.476 -4.166 5
-30.91 -12.653 -4.013 50
-29.205 -11.932 -3.889 7
-24.428 -9.97 -2.99 220
-20.803 -8.494 -2.307 3
-19.773 -8.081 -2.248 3
-19.957 -8.175 -2.514 2
-20.36 -8.363 -2.856 2
-20.674 -8.524 -3.193 4
-20.32 -8.413 -3.34 13
-19.508 -8.117 -3.341 13
-18.688 -7.818 -3.331 12
-17.952 -7.551 -3.336 15
-17.253 -7.3 -3.346 16
-15.382 -8.219 1.551 16
-15.197 -7.933 1.458 16
-15.575 -7.949 1.31 19
-13.535 -6.756 1.44 31
-13.182 -6.443 1.394 7
-12.895 -6.173 1.346 11
-12.939 -6.075 1.258 5
-16.366 -7.543 0.694 7
-16.043 -7.264 0.64 25
-17.546 -7.817 0.308 4
-14.575 -6.391 0.674 23
-16.651 -7.203 0.235 27
-17.893 -7.642 -0.087 9
-18.025 -7.613 -0.231 31
-18.332 -7.663 -0.412 27
-40.067 -16.61 -4.745 23
0.0 -0.0 3.0 0
0.0 -0.0 3.0 0
-33.015 -13.451 -4.152 5
-31.075 -12.618 -3.994 60
-29.403 -11.918 -3.881 7
-24.547 -9.94 -2.973 7
-24.323 -9.854 -3.158 28
-19.888 -8.067 -2.239 3
-20.093 -8.17 -2.511 2
-20.525 -8.37 -2.86 2
-20.843 -8.533 -3.2 4
-20.424 -8.398 -3.328 13
-19.6 -8.101 -3.329 14
-18.765 -7.799 -3.316 19
-18.038 -7.539 -3.326 14
-17.324 -7.286 -3.333 15
-15.379 -8.166 1.56 23
-15.155 -7.86 1.472 20
-15.828 -8.025 1.294 16
-13.312 -6.599 1.476 7
-12.915 -6.267 1.437 18
-13.796 -6.557 1.243 18
-13.137 -6.123 1.244 5
-16.274 -7.445 0.724 24
-16.141 -7.253 0.643 12
-14.723 -6.507 0.759 6
-16.353 -7.112 0.411 20
-16.737 -7.182 0.243 23
-17.897 -7.581 -0.063 33
-18.073 -7.57 -0.213 52
-18.362 -7.612 -0.389 30
-40.38 -16.601 -4.741 23
0.0 -0.0 3.0 0
-32.613 -13.235 -3.743 1
-33.255 -13.438 -4.145 4
-31.261 -12.591 -3.979 36
-29.59 -11.898 -3.869 7
-24.401 -9.803 -2.89 18
-21.213 -8.528 -2.329 9
-20.007 -8.053 -2.23 3
-20.241 -8.169 -2.51 1
-20.684 -8.373 -2.863 1
-21.059 -8.561 -3.22 4
-20.514 -8.377 -3.312 18
-19.699 -8.088 -3.319 14
-18.859 -7.788 -3.307 14
-18.123 -7.528 -3.317 15
-17.405 -7.275 -3.324 16
-15.433 -8.142 1.564 23
-15.152 -7.806 1.483 26
-16.089 -8.102 1.278 21
-15.677 -7.718 1.218 19
-12.894 -6.213 1.451 11
-13.881 -6.549 1.245 7
-13.199 -6.106 1.249 21
-16.308 -7.403 0.737 27
-16.237 -7.238 0.648 3
-16.7 -7.323 0.479 8
-16.384 -7.068 0.427 18
-16.8 -7.15 0.255 27
-17.9 -7.52 -0.038 16
-18.04 -7.493 -0.181 22
-40.802 -16.775 -4.469 5
-40.696 -16.592 -4.737 21
0.0 -0.0 3.0 0
0.0 -0.0 3.0 0
-33.484 -13.419 -4.135 4
-31.487 -12.578 -3.972 14
-29.781 -11.878 -3.858 7
-24.312 -9.69 -2.823 38
-21.182 -8.449 -2.28 5
-20.122 -8.039 -2.22 3
-20.392 -8.169 -2.51 2
-21.13 -8.492 -2.946 5
-21.239 -8.574 -3.229 2
-20.614 -8.36 -3.3 14
-19.798 -8.074 -3.308 14
-18.942 -7.772 -3.293 13
-18.202 -7.513 -3.304 15
-17.482 -7.263 -3.314 16
-15.553 -8.155 1.562 17
-15.198 -7.78 1.488 13
-16.421 -8.214 1.254 3
-12.863 -6.289 1.548 1
-13.188 -6.309 1.427 9
-13.242 -6.202 1.338 18
-13.214 -6.067 1.26 2
-16.429 -7.4 0.738 10
-16.173 -7.153 0.676 0
-16.672 -7.252 0.503 23
-16.447 -7.039 0.438 24
-16.616 -7.014 0.307 13
-16.481 -6.866 0.226 0
-18.069 -7.443 -0.159 18
-40.75 -16.613 -4.397 8
-40.994 -16.573 -4.728 17
-35.509 -14.25 -3.95 9
0.0 -0.0 3.0 0
-33.717 -13.401 -4.126 4
-24.197 -9.587 -2.314 0
-24.264 -9.6 -2.542 50
-24.248 -9.588 -2.761 31
-21.19 -8.387 -2.241 4
-20.248 -8.027 -2.213 3
-20.529 -8.163 -2.506 2
-21.127 -8.429 -2.902 4
-21.412 -8.582 -3.235 3
-20.722 -8.345 -3.289 15
-19.897 -8.06 -3.298 14
-19.026 -7.755 -3.28 13
-18.284 -7.5 -3.293 14
-17.563 -7.252 -3.304 18
-15.677 -8.168 1.56 22
-15.638 -7.953 1.454 15
-14.205 -7.057 1.5 0
-13.35 -6.482 1.504 9
-13.142 -6.242 1.444 0
-12.882 -5.988 1.395 20
-13.276 -6.049 1.266 2
-16.332 -7.301 0.768 24
-18.236 -8.003 0.4 13
-16.674 -7.195 0.523 28
-16.535 -7.019 0.445 20
-16.621 -6.959 0.329 24
-18.959 -7.833 -0.165 18
-18.522 -7.566 -0.212 29
-18.41 -7.442 -0.314 1
-41.297 -16.555 -4.72 13
-35.87 -14.273 -3.961 12
-36.085 -14.28 -4.276 4
-33.976 -13.392 -4.121 6
-24.052 -9.451 -2.239 3
-24.207 -9.5 -2.485 44
-24.184 -9.486 -2.7 30
-21.281 -8.357 -2.222 3
-20.36 -8.009 -2.201 3
-20.695 -8.166 -2.508 1
-21.265 -8.422 -2.897 2
-21.589 -8.591 -3.242 4
-20.826 -8.33 -3.277 16
-19.993 -8.044 -3.285 14
-19.102 -7.736 -3.264 13
-18.37 -7.487 -3.283 15
-17.654 -7.246 -3.299 15
-15.727 -8.142 1.564 20
-15.453 -7.807 1.482 15
-16.953 -8.366 1.222 21
-13.537 -6.527 1.493 1
-13.779 -6.498 1.38 2
-12.964 -5.983 1.397 21
-13.226 -5.98 1.285 3
-16.307 -7.233 0.789 26
-16.668 -7.257 0.642 1
-17.641 -7.551 0.4 42
-16.569 -6.976 0.461 29
-16.622 -6.902 0.351 27
-19.011 -7.788 -0.147 22
-18.563 -7.518 -0.191 26
-18.41 -7.379 -0.285 1
-41.559 -16.518 -4.703 8
-35.872 -14.153 -3.903 255
-36.351 -14.264 -4.268 4
-34.224 -13.377 -4.113 7
-24.001 -9.353 -2.185 5
-24.134 -9.394 -2.423 35
-24.119 -9.385 -2.639 31
-21.394 -8.335 -2.208 3
-20.493 -7.999 -2.195 3
-21.129 -8.275 -2.582 4
-21.424 -8.423 -2.898 2
-21.752 -8.595 -3.244 7
-20.945 -8.319 -3.269 14
-20.092 -8.03 -3.274 14
-19.203 -7.726 -3.256 12
-18.452 -7.473 -3.271 15
-17.732 -7.233 -3.288 16
-16.206 -8.337 1.53 20
-15.371 -7.715 1.5 24
-15.688 -7.69 1.365 12
-15.738 -7.535 1.26 1
-13.819 -6.471 1.387 0
-12.881 -5.901 1.419 26
-13.244 -5.944 1.296 0
-16.257 -7.155 0.813 25
-16.717 -7.221 0.654 0
-17.727 -7.527 0.408 18
-16.65 -6.952 0.47 28
-16.583 -6.828 0.379 31
-18.11 -7.357 0.028 25
-18.881 -7.583 -0.219 23
-40.747 -16.194 -4.21 23
-40.684 -16.033 -4.476 7
-35.881 -14.036 -3.846 255
-36.617 -14.247 -4.259 4
-34.447 -13.351 -4.099 6
-24.023 -9.284 -2.146 4
-24.069 -9.291 -2.364 48
-24.054 -9.284 -2.578 49
-21.508 -8.313 -2.195 2
-20.619 -7.987 -2.187 3
-21.133 -8.214 -2.541 3
-21.598 -8.429 -2.902 2
-21.908 -8.594 -3.244 18
-21.052 -8.304 -3.257 15
-20.191 -8.016 -3.262 14
-19.308 -7.717 -3.249 13
-18.531 -7.457 -3.258 15
-17.812 -7.221 -3.277 15
-15.408 -7.877 1.611 25
-15.396 -7.677 1.508 23
-15.703 -7.645 1.375 20
-15.688 -7.459 1.278 23
-16.702 -7.764 1.064 21
-12.88 -5.856 1.431 16
-15.918 -7.09 0.967 27
-16.21 -7.078 0.836 15
-17.659 -7.567 0.541 22
-17.086 -7.196 0.522 7
-16.647 -6.894 0.491 29
-16.257 -6.637 0.452 26
-18.135 -7.305 0.049 30
-18.962 -7.55 -0.205 8
-40.7 -16.036 -4.14 18
-36.034 -14.079 -3.565 6
-35.904 -13.925 -3.792 9
-36.902 -14.235 -4.253 4
-34.689 -13.331 -4.088 6
-24.562 -9.413 -2.217 14
-23.999 -9.189 -2.305 48
-24.116 -9.232 -2.547 55
-21.624 -8.292 -2.181 2
-20.818 -8.001 -2.196 2
-21.281 -8.209 -2.537 1
-21.758 -8.428 -2.901 2
-22.039 -8.583 -3.236 18
-21.175 -8.293 -3.249 14
-20.286 -7.998 -3.249 14
-19.42 -7.712 -3.245 13
-18.613 -7.443 -3.245 15
-17.897 -7.211 -3.269 15
-15.471 -7.859 1.614 20
-15.434 -7.645 1.514 26
-15.702 -7.593 1.386 19
-15.727 -7.425 1.286 29
-16.735 -7.723 1.074 10
-12.872 -5.809 1.443 23
-13.748 -6.076 1.258 1
-16.254 -7.042 0.847 26
-19.121 -8.128 0.359 24
-17.072 -7.131 0.545 32
-16.758 -6.882 0.495 26
-16.268 -6.587 0.472 27
-18.703 -7.469 -0.018 33
-18.256 -7.206 -0.059 12
-40.718 -15.905 -4.081 5
-35.921 -13.913 -3.488 11
-36.206 -13.921 -3.79 12
-37.135 -14.203 -4.237 4
-34.912 -13.302 -4.073 18
-24.613 -9.353 -2.185 21
-23.94 -9.09 -2.248 59
-24.207 -9.192 -2.523 54
-21.727 -8.264 -2.164 2
-21.13 -8.057 -2.232 4
-21.426 -8.202 -2.532 1
-21.947 -8.439 -2.909 2
-22.163 -8.569 -3.226 19
-21.29 -8.28 -3.24 14
-20.385 -7.983 -3.237 14
-19.51 -7.696 -3.232 12
-18.698 -7.43 -3.235 15
-17.978 -7.2 -3.259 16
-15.609 -7.878 1.611 16
-15.601 -7.678 1.508 22
-15.867 -7.62 1.38 26
-16.033 -7.516 1.265 23
-13.531 -6.2 1.454 2
-12.918 -5.787 1.449 36
-15.83 -6.943 1.009 22
-16.188 -6.959 0.872 26
-16.861 -7.109 0.69 0
-17.135 -7.099 0.556 22
-16.648 -6.779 0.533 25
-16.301 -6.544 0.488 23
-18.639 -7.38 0.018 26
-18.258 -7.145 -0.033 14
-41.027 -15.887 -4.073 5
-36.146 -13.878 -3.472 38
-36.211 -13.802 -3.732 18
-37.295 -14.141 -4.205 3
-35.161 -13.283 -4.063 16
-24.705 -9.308 -2.16 16
-23.994 -9.035 -2.216 40
-24.064 -9.063 -2.446 55
-21.862 -8.249 -2.155 2
-21.148 -8.001 -2.196 2
-21.608 -8.208 -2.536 1
-22.132 -8.446 -2.914 1
-22.276 -8.551 -3.213 15
-21.401 -8.265 -3.228 15
-20.488 -7.969 -3.226 15
-19.615 -7.687 -3.225 13
-18.777 -7.414 -3.221 15
-18.055 -7.186 -3.247 16
-15.762 -7.905 1.606 10
-15.6 -7.627 1.518 24
-15.952 -7.609 1.383 30
-15.87 -7.388 1.294 14
-13.553 -6.164 1.463 0
-12.899 -5.735 1.463 10
-15.939 -6.937 1.011 28
-16.227 -6.92 0.884 26
-16.836 -7.041 0.712 20
-17.063 -7.011 0.586 21
-16.714 -6.749 0.544 24
-16.543 -6.585 0.472 10
-18.576 -7.292 0.054 31
-18.261 -7.084 -0.007 13
-40.845 -15.678 -3.98 2
-36.117 -13.746 -3.41 35
-36.067 -13.627 -3.646 14
-35.668 -13.407 -3.831 1
-35.421 -13.267 -4.054 5
-24.852 -9.285 -2.147 8
-24.092 -8.995 -2.193 58
-24.114 -9.007 -2.412 2
-21.982 -8.227 -2.141 2
-21.307 -7.998 -2.194 1
-21.775 -8.209 -2.537 1
-22.321 -8.455 -2.92 2
-22.396 -8.535 -3.201 15
-21.505 -8.248 -3.215 16
-20.587 -7.953 -3.214 15
-19.709 -7.673 -3.213 14
-18.862 -7.4 -3.209 15
-18.139 -7.176 -3.238 16
-15.811 -7.879 1.611 1
-15.624 -7.588 1.525 21
-15.898 -7.532 1.399 25
-15.948 -7.372 1.298 13
-13.339 -6.023 1.498 3
-17.213 -7.596 0.965 31
-16.058 -6.935 1.011 19
-16.252 -6.876 0.898 30
-16.884 -7.004 0.724 16
-17.103 -6.969 0.6 4
-16.953 -6.788 0.529 33
-18.116 -7.149 0.256 28
-18.611 -7.242 0.074 23
-18.248 -7.017 0.021 5
-19.068 -7.255 -0.23 2
-36.098 -13.618 -3.35 37
-36.118 -13.526 -3.597 18
-35.685 -13.297 -3.775 10
-35.689 -13.251 -4.046 5
-24.954 -9.243 -2.124 8
-24.19 -8.956 -2.171 55
-24.293 -8.998 -2.407 0
-22.117 -8.211 -2.131 2
-21.478 -7.998 -2.194 2
-21.946 -8.209 -2.537 2
-22.5 -8.459 -2.923 2
-22.523 -8.521 -3.191 15
-21.602 -8.226 -3.199 17
-20.701 -7.943 -3.205 14
-19.8 -7.657 -3.201 13
-18.951 -7.388 -3.199 15
-18.223 -7.165 -3.228 14
-15.681 -7.765 1.631 14
-15.72 -7.584 1.526 24
-15.695 -7.384 1.43 26
-16.523 -7.583 1.249 14
-16.199 -7.261 1.19 18
-16.609 -7.274 1.051 1
-16.159 -6.924 1.015 20
-16.306 -6.844 0.908 28
-17.622 -7.251 0.644 25
-17.813 -7.198 0.521 18
-17.251 -6.849 0.507 20
-18.475 -7.228 0.225 31
-18.676 -7.205 0.089 31
-18.319 -6.983 0.036 0
-19.089 -7.199 -0.205 31
-36.074 -13.489 -3.29 36
-35.958 -13.348 -3.51 12
-35.721 -13.193 -3.722 255
-35.92 -13.221 -4.029 4
-25.09 -9.214 -2.107 9
-24.259 -8.905 -2.141 7
-24.376 -8.954 -2.38 0
-22.242 -8.191 -2.118 2
-21.642 -7.995 -2.192 1
-22.131 -8.214 -2.54 1
-22.689 -8.465 -2.928 1
-22.636 -8.501 -3.176 14
-21.699 -8.205 -3.183 18
-20.814 -7.931 -3.197 15
-19.912 -7.65 -3.195 14
-19.044 -7.376 -3.19 16
-18.304 -7.153 -3.218 14
-15.702 -7.725 1.638 22
-15.737 -7.542 1.534 25
-15.856 -7.409 1.425 17
-16.667 -7.596 1.246 16
-16.165 -7.192 1.207 21
-16.218 -7.049 1.111 20
-16.239 -6.905 1.02 27
-16.324 -6.797 0.922 1
-17.732 -7.236 0.649 10
-17.881 -7.165 0.533 26
-17.145 -6.749 0.544 30
-18.603 -7.215 0.231 26
-18.745 -7.167 0.104 21
-20.523 -7.754 -0.291 6
-19.118 -7.146 -0.182 11
-18.849 -6.986 -0.258 13
-35.83 -13.182 -3.429 9
-35.715 -13.074 -3.661 255
-36.185 -13.202 -4.02 4
-25.2 -9.174 -2.085 11
-24.371 -8.87 -2.121 3
-24.474 -8.915 -2.357 0
-22.377 -8.172 -2.107 2
-21.827 -7.999 -2.195 1
-22.335 -8.226 -2.548 1
-23.477 -8.694 -3.087 6
-22.76 -8.485 -3.164 16
-21.796 -8.183 -3.166 18
-20.924 -7.919 -3.187 15
-20.013 -7.638 -3.185 14
-19.129 -7.362 -3.178 16
-18.392 -7.142 -3.209 15
-15.707 -7.679 1.646 21
-15.811 -7.527 1.537 19
-16.133 -7.487 1.409 19
-16.638 -7.528 1.262 19
-15.917 -7.03 1.247 20
-16.257 -7.012 1.121 15
-16.307 -6.879 1.027 26
-16.245 -6.71 0.949 25
-17.744 -7.181 0.667 4
-17.944 -7.13 0.545 4
-17.536 -6.843 0.509 18
-18.615 -7.157 0.253 15
-18.743 -7.104 0.13 28
-19.526 -7.312 -0.104 11
-19.202 -7.112 -0.167 0
-18.869 -6.931 -0.232 10
-35.717 -13.023 -3.352 12
-35.713 -12.957 -3.602 255
-36.446 -13.18 -4.008 4
-25.122 -9.066 -2.025 5
-24.465 -8.828 -2.097 8
-24.582 -8.88 -2.335 0
-22.52 -8.157 -2.097 2
-21.998 -7.998 -2.194 1
-22.503 -8.223 -2.546 1
-23.784 -8.741 -3.121 38
-22.876 -8.465 -3.151 19
-21.896 -8.162 -3.151 18
-21.016 -7.899 -3.171 15
-20.107 -7.623 -3.173 13
-19.218 -7.349 -3.167 18
-18.483 -7.134 -3.201 14
-15.763 -7.657 1.65 24
-15.906 -7.522 1.538 20
-16.204 -7.467 1.413 23
-16.938 -7.609 1.243 21
-13.735 -6.021 1.499 4
-16.127 -6.903 1.15 19
-16.427 -6.875 1.029 15
-16.255 -6.66 0.964 20
-19.86 -7.971 0.41 5
-17.856 -7.035 0.578 9
-17.769 -6.874 0.498 32
-18.439 -7.026 0.303 28
-18.748 -7.042 0.155 4
-19.573 -7.263 -0.083 28
-42.542 -15.617 -3.953 2
-18.938 -6.892 -0.214 3
-35.662 -12.887 -3.285 14
-35.758 -12.857 -3.551 64
-36.703 -13.156 -3.995 4
-25.109 -8.982 -1.979 6
-24.552 -8.784 -2.071 9
-24.691 -8.844 -2.314 2
-22.663 -8.141 -2.087 2
-22.159 -7.991 -2.189 4
-22.693 -8.227 -2.549 1
-23.891 -8.713 -3.101 42
-22.996 -8.447 -3.137 16
-22.008 -8.145 -3.138 18
-21.126 -7.885 -3.161 16
-20.212 -7.612 -3.164 13
-19.307 -7.336 -3.156 15
-18.574 -7.125 -3.194 14
-17.618 -8.503 1.501 1
-16.099 -7.563 1.53 8
-15.637 -7.157 1.479 19
-16.531 -7.373 1.298 15
-17.515 -7.622 1.1 34
-16.43 -6.979 1.13 25
-16.983 -7.052 0.978 13
-16.305 -6.626 0.974 24
-19.674 -7.831 0.456 11
-17.912 -6.997 0.591 0
-17.806 -6.829 0.515 24
-18.451 -6.969 0.325 26
-18.471 -6.877 0.222 1
-19.349 -7.116 -0.02 22
0.0 -0.0 3.0 0
-36.073 -13.01 -3.067 40
-35.636 -12.76 -3.223 16
-35.903 -12.794 -3.519 5
-36.942 -13.123 -3.978 4
-25.066 -8.888 -1.927 4
-24.645 -8.741 -2.047 56
-24.696 -8.77 -2.27 66
-22.768 -8.112 -2.069 0
-22.359 -7.998 -2.194 2
-23.988 -8.628 -2.82 9
-24.053 -8.705 -3.095 35
-23.124 -8.432 -3.126 16
-22.126 -8.131 -3.127 18
-21.218 -7.866 -3.145 16
-20.306 -7.596 -3.151 14
-19.396 -7.323 -3.145 15
-18.666 -7.116 -3.186 13
-15.605 -7.483 1.681 26
-15.83 -7.387 1.564 1
-15.66 -7.117 1.487 21
-16.431 -7.276 1.32 17
-17.957 -7.756 1.066 16
-16.003 -6.746 1.193 21
-16.806 -6.923 1.015 15
-16.454 -6.632 0.972 21
-18.904 -7.462 0.575 3
-16.361 -6.336 0.818 0
-17.902 -6.806 0.523 18
-18.515 -6.932 0.339 14
-18.308 -6.755 0.271 18
-17.785 -6.481 0.249 2
0.0 -0.0 3.0 0
-36.08 -12.894 -3.013 37
-35.669 -12.656 -3.173 23
-36.134 -12.759 -3.501 17
-36.747 -12.937 -3.879 5
-25.061 -8.807 -1.882 8
-24.739 -8.698 -2.022 58
-24.742 -8.712 -2.234 1
-25.518 -9.016 -2.634 11
-22.56 -8.004 -2.198 3
-23.628 -8.432 -2.687 2
-24.182 -8.685 -3.081 40
-23.24 -8.411 -3.111 16
-22.227 -8.109 -3.111 18
-21.309 -7.845 -3.129 15
-20.407 -7.584 -3.141 14
-19.485 -7.31 -3.133 15
-18.753 -7.106 -3.177 14
-16.07 -7.656 1.65 16
-15.846 -7.344 1.572 23
-15.748 -7.109 1.489 19
-16.473 -7.242 1.328 12
-18.901 -8.103 0.98 24
-16.103 -6.735 1.195 29
-16.617 -6.791 1.053 24
-16.463 -6.582 0.988 26
-16.486 -6.453 0.903 0
-18.041 -6.927 0.615 39
-18.281 -6.889 0.493 28
-18.578 -6.894 0.354 5
-18.167 -6.642 0.317 33
-17.837 -6.441 0.266 22
0.0 -0.0 3.0 0
-36.196 -12.816 -2.976 12
-35.724 -12.559 -3.125 21
-36.499 -12.77 -3.507 5
-36.785 -12.833 -3.823 2
-35.177 -12.252 -3.791 8
-24.833 -8.654 -1.997 41
-26.503 -9.251 -2.559 1
-25.598 -8.967 -2.603 7
-22.706 -7.99 -2.189 0
-23.565 -8.342 -2.627 4
-24.259 -8.646 -3.054 40
-23.372 -8.396 -3.1 16
-22.334 -8.09 -3.096 18
-21.397 -7.823 -3.112 15
-20.494 -7.566 -3.126 13
-19.574 -7.296 -3.122 17
-18.834 -7.092 -3.165 14
-16.245 -7.69 1.644 19
-15.833 -7.29 1.583 24
-15.706 -7.039 1.504 17
-16.362 -7.141 1.351 23
-18.88 -8.033 0.997 24
-15.983 -6.633 1.223 27
-15.907 -6.449 1.151 4
-16.494 -6.54 1.001 21
-16.418 -6.372 0.93 13
-18.594 -7.077 0.563 1
-18.489 -6.906 0.486 24
-18.449 -6.784 0.396 11
-18.099 -6.558 0.351 24
-17.627 -6.306 0.323 17
-51.668 -18.282 -5.14 2
-36.464 -12.792 -2.965 9
-35.839 -12.483 -3.088 22
-36.696 -12.721 -3.482 4
-36.968 -12.78 -3.795 3
-35.414 -12.224 -3.776 8
-24.822 -8.574 -1.95 1
-27.41 -9.486 -2.699 18
-25.603 -8.894 -2.558 4
-25.622 -8.942 -2.807 29
-24.298 -8.533 -2.756 3
-24.333 -8.605 -3.025 21
-23.506 -8.381 -3.09 16
-22.446 -8.072 -3.082 19
-21.493 -7.803 -3.096 17
-20.598 -7.553 -3.116 14
-19.674 -7.286 -3.114 16
-18.918 -7.08 -3.154 18
-16.127 -7.585 1.663 21
-16.501 -7.546 1.533 30
-16.092 -7.162 1.478 27
-15.464 -6.7 1.453 1
-18.375 -7.76 1.065 28
-15.955 -6.57 1.239 23
-17.085 -6.871 1.03 14
-16.611 -6.532 1.003 22
-16.452 -6.331 0.943 24
-18.557 -7.002 0.589 14
-18.441 -6.827 0.515 18
0.0 -0.0 3.0 0
-18.069 -6.486 0.379 21
-17.473 -6.194 0.371 17
-52.063 -18.251 -5.126 5
-36.784 -12.783 -2.961 9
-35.942 -12.403 -3.049 29
-36.8 -12.64 -3.44 5
-37.262 -12.764 -3.787 7
-35.654 -12.196 -3.76 7
-25.998 -8.901 -2.139 28
-26.983 -9.257 -2.562 24
-25.557 -8.802 -2.5 5
-25.727 -8.905 -2.783 28
-23.992 -8.359 -2.638 1
-24.308 -8.529 -2.972 3
-23.623 -8.36 -3.074 16
-22.564 -8.056 -3.071 18
-21.592 -7.784 -3.082 15
-20.685 -7.534 -3.101 13
-19.766 -7.273 -3.103 15
-17.294 -6.432 -2.591 25
-16.439 -7.681 1.646 26
-16.39 -7.445 1.553 23
-16.232 -7.174 1.475 24
-15.46 -6.65 1.465 20
-18.081 -7.578 1.11 22
-15.926 -6.508 1.256 19
-17.298 -6.9 1.021 15
-16.816 -6.557 0.995 31
-16.513 -6.3 0.953 25
-18.371 -6.871 0.634 15
-18.388 -6.746 0.545 35
0.0 -0.0 3.0 0
-18.162 -6.459 0.39 24
-17.517 -6.151 0.389 20
-52.607 -18.268 -5.134 7
-37.06 -12.759 -2.95 9
-36.049 -12.323 -3.01 19
-36.826 -12.531 -3.385 8
-38.255 -12.983 -3.903 2
-35.902 -12.169 -3.746 8
-26.089 -8.852 -2.111 29
-27.027 -9.191 -2.523 27
-25.617 -8.748 -2.466 4
-25.832 -8.867 -2.758 30
-24.39 -8.429 -2.686 13
-24.565 -8.553 -2.989 24
-23.747 -8.341 -3.06 17
-22.683 -8.04 -3.058 19
-21.705 -7.77 -3.071 15
-20.771 -7.515 -3.086 14
-19.858 -7.26 -3.092 16
-17.301 -6.395 -2.559 28
-16.564 -7.69 1.644 21
-16.402 -7.401 1.561 21
-16.211 -7.115 1.488 25
-15.42 -6.585 1.48 24
-17.025 -7.082 1.234 2
-16.044 -6.504 1.257 11
-17.244 -6.823 1.044 15
-16.761 -6.482 1.018 6
-16.558 -6.263 0.965 22
-17.056 -6.323 0.823 0
-18.354 -6.673 0.571 8
-18.31 -6.551 0.485 12
-18.108 -6.381 0.422 19
-17.608 -6.126 0.4 21
-17.901 -6.158 0.258 28
-37.359 -12.74 -2.941 8
-36.241 -12.272 -2.985 15
-37.087 -12.501 -3.37 2
-38.548 -12.961 -3.892 4
-36.15 -12.142 -3.73 7
-26.18 -8.803 -2.083 30
-26.571 -8.957 -2.382 26
-25.722 -8.709 -2.442 3
-25.937 -8.829 -2.734 32
-24.33 -8.341 -2.626 7
-24.62 -8.505 -2.955 34
-23.863 -8.319 -3.044 17
-22.794 -8.02 -3.044 18
-21.815 -7.756 -3.059 15
-20.865 -7.498 -3.072 13
-19.954 -7.248 -3.082 15
-17.095 -6.279 -2.459 30
-16.587 -7.651 1.651 28
-16.596 -7.438 1.554 20
-16.683 -7.271 1.455 12
-15.534 -6.585 1.48 15
-15.809 -6.526 1.373 18
-16.299 -6.556 1.243 13
-17.424 -6.838 1.039 12
-16.633 -6.378 1.05 19
-16.719 -6.27 0.963 27
-17.158 -6.304 0.829 9
-18.151 -6.54 0.62 12
-18.009 -6.384 0.549 21
-18.092 -6.316 0.448 12
-17.678 -6.092 0.414 17
-17.84 -6.078 0.294 27
-37.669 -12.724 -2.933 8
-36.674 -12.3 -2.999 13
-37.501 -12.522 -3.38 5
-38.829 -12.934 -3.877 4
-36.406 -12.115 -3.716 8
-26.278 -8.757 -2.056 32
-26.562 -8.874 -2.332 20
-25.871 -8.685 -2.427 3
-26.042 -8.79 -2.709 34
-24.066 -8.183 -2.52 25
-24.631 -8.442 -2.911 3
-24.005 -8.305 -3.034 16
-22.912 -8.003 -3.031 19
-21.913 -7.736 -3.044 15
-20.959 -7.482 -3.059 14
-17.246 -6.224 -2.222 0
-17.043 -6.222 -2.408 53
-16.704 -7.655 1.65 23
-17.118 -7.62 1.519 16
-16.468 -7.127 1.485 17
-16.896 -7.11 1.359 11
-15.868 -6.5 1.379 18
-16.278 -6.495 1.26 25
-16.157 -6.29 1.196 26
-16.648 -6.33 1.065 10
-16.571 -6.161 0.998 1
-17.141 -6.243 0.85 16
-17.2 -6.141 0.765 9
-18.139 -6.37 0.555 14
-18.301 -6.328 0.443 5
-17.582 -6.001 0.453 23
-17.857 -6.026 0.317 28
-37.976 -12.704 -2.924 9
-36.99 -12.288 -2.993 18
0.0 -0.0 3.0 0
-39.125 -12.91 -3.864 4
-36.65 -12.084 -3.698 7
-26.368 -8.708 -2.027 31
-26.578 -8.801 -2.288 3
-26.006 -8.654 -2.408 3
-26.18 -8.763 -2.691 35
-24.083 -8.122 -2.478 43
-24.985 -8.496 -2.949 27
-24.14 -8.288 -3.021 16
-23.009 -7.978 -3.012 19
-22.016 -7.717 -3.029 15
-21.053 -7.464 -3.044 13
-17.201 -6.167 -2.175 28
-17.056 -6.188 -2.379 43
-16.93 -7.709 1.641 19
-17.039 -7.534 1.536 24
-16.469 -7.076 1.496 24
-18.922 -7.904 1.175 2
-15.86 -6.448 1.392 34
-16.326 -6.464 1.268 21
-16.232 -6.266 1.203 24
-16.671 -6.285 1.078 29
-16.441 -6.059 1.031 13
-17.059 -6.157 0.88 26
-17.205 -6.087 0.785 26
-18.055 -6.282 0.589 12
-17.823 -6.104 0.534 4
-17.539 -5.929 0.483 21
-17.937 -5.995 0.331 23
-38.282 -12.683 -2.914 9
-37.138 -12.218 -2.959 10
-38.028 -12.457 -3.347 8
-39.407 -12.88 -3.849 4
-36.903 -12.053 -3.681 7
-26.608 -8.707 -2.027 45
-26.851 -8.812 -2.295 37
-26.606 -8.777 -2.484 28
-26.285 -8.724 -2.665 37
-24.163 -8.083 -2.452 20
-24.77 -8.357 -2.851 3
-24.275 -8.271 -3.009 16
-23.131 -7.962 -3.0 21
-22.126 -7.702 -3.017 15
-21.146 -7.447 -3.03 14
-17.177 -6.119 -2.134 31
-17.057 -6.151 -2.347 39
-16.935 -7.661 1.649 23
-17.03 -7.479 1.546 27
-16.436 -7.013 1.509 22
-16.242 -6.735 1.445 14
-16.048 -6.474 1.386 25
-16.789 -6.594 1.233 12
-16.217 -6.209 1.219 28
-16.664 -6.229 1.096 24
-16.381 -5.984 1.056 30
-17.127 -6.126 0.891 2
-18.079 -6.336 0.694 14
-18.552 -6.394 0.546 4
-17.862 -6.059 0.552 11
-17.75 -5.943 0.478 16
-17.853 -5.908 0.369 17
-38.063 -12.488 -2.823 14
-37.083 -12.081 -2.892 10
-38.654 -12.54 -3.389 10
-39.685 -12.847 -3.831 4
-37.17 -12.027 -3.667 7
-26.785 -8.684 -2.013 45
-27.002 -8.782 -2.277 26
-26.581 -8.692 -2.431 12
-26.423 -8.695 -2.647 40
-24.796 -8.227 -2.549 14
-25.501 -8.536 -2.977 32
-24.417 -8.256 -2.998 16
-23.257 -7.946 -2.988 17
-22.239 -7.687 -3.005 15
-21.244 -7.431 -3.017 15
-17.168 -6.077 -2.099 28
-17.059 -6.113 -2.314 32
-16.888 -7.591 1.662 19
-16.486 -7.19 1.602 23
-15.967 -6.764 1.562 20
-16.71 -6.878 1.412 20
-16.029 -6.418 1.4 22
-16.426 -6.4 1.285 19
-16.51 -6.27 1.202 28
-16.769 -6.214 1.1 9
-16.351 -5.92 1.077 25
-18.48 -6.55 0.745 9
-18.164 -6.307 0.704 18
0.0 -0.0 3.0 0
-17.86 -6.001 0.576 16
-18.008 -5.97 0.466 12
-17.824 -5.841 0.4 25
-38.26 -12.429 -2.796 14
-37.705 -12.163 -2.933 10
-38.761 -12.453 -3.345 9
-40.0 -12.825 -3.819 3
-37.419 -11.993 -3.648 7
-26.916 -8.645 -1.991 38
-27.014 -8.707 -2.231 17
-27.044 -8.765 -2.477 48
-26.497 -8.646 -2.615 35
-25.114 -8.264 -2.574 29
-25.519 -8.473 -2.933 35
-24.552 -8.238 -2.985 18
-23.375 -7.928 -2.974 15
-22.345 -7.669 -2.991 16
-21.348 -7.417 -3.006 15
-17.177 -6.04 -2.068 36
-17.118 -6.096 -2.299 28
-16.827 -7.514 1.675 22
-16.402 -7.105 1.619 21
-15.992 -6.727 1.57 20
-16.943 -6.922 1.402 14
-16.154 -6.418 1.4 15
-16.522 -6.385 1.289 19
-16.879 -6.357 1.177 23
-16.761 -6.159 1.117 11
-16.411 -5.889 1.087 26
-17.728 -6.226 0.856 11
-18.409 -6.333 0.695 28
0.0 -0.0 3.0 0
-17.921 -5.962 0.591 18
-18.024 -5.917 0.488 24
-17.817 -5.781 0.426 24
-38.586 -12.411 -2.787 11
-37.819 -12.08 -2.892 7
-39.163 -12.458 -3.348 22
-40.305 -12.798 -3.805 4
-37.668 -11.958 -3.628 7
-26.778 -8.52 -1.919 36
-27.003 -8.624 -2.182 35
-26.876 -8.634 -2.395 46
-26.613 -8.609 -2.591 36
-25.131 -8.201 -2.531 19
-25.6 -8.432 -2.904 42
-24.698 -8.223 -2.975 18
-23.505 -7.913 -2.963 15
-22.451 -7.65 -2.977 15
-21.442 -7.398 -2.991 15
-17.171 -5.999 -2.033 32
-17.17 -6.076 -2.282 19
-16.875 -7.486 1.68 17
-16.548 -7.121 1.616 19
-16.477 -6.882 1.537 19
-16.127 -6.54 1.49 24
-16.38 -6.457 1.39 20
-16.444 -6.305 1.311 12
-17.069 -6.375 1.172 19
-17.404 -6.34 1.062 5
-16.549 -5.886 1.088 23
-17.564 -6.112 0.896 23
-18.67 -6.363 0.684 22
0.0 -0.0 3.0 0
-17.926 -5.906 0.614 9
-18.082 -5.878 0.505 20
-17.83 -5.728 0.45 14
-39.538 -12.591 -2.871 8
-38.298 -12.112 -2.907 13
-39.372 -12.401 -3.319 4
-40.613 -12.77 -3.79 4
-37.924 -11.924 -3.609 7
-26.804 -8.449 -1.878 46
-26.875 -8.505 -2.11 22
-26.577 -8.462 -2.288 48
-26.803 -8.596 -2.582 41
-25.197 -8.153 -2.499 18
-25.654 -8.382 -2.869 30
-24.837 -8.206 -2.962 17
-23.623 -7.894 -2.949 15
-22.557 -7.632 -2.963 14
-21.55 -7.386 -2.981 14
-17.208 -5.973 -2.012 31
-17.167 -6.038 -2.249 29
-17.251 -7.604 1.659 28
-16.625 -7.105 1.619 20
-16.591 -6.88 1.538 20
-16.174 -6.51 1.497 20
-16.39 -6.411 1.402 23
-16.719 -6.358 1.296 20
-16.715 -6.19 1.225 15
-17.431 -6.295 1.076 7
-16.653 -5.87 1.093 27
-17.245 -5.946 0.953 28
-18.679 -6.305 0.705 17
-88.249 -29.268 -8.235 9
-17.946 -5.854 0.635 4
-18.241 -5.871 0.508 3
-57.937 -18.427 -5.204 9
-40.266 -12.694 -2.919 22
-38.782 -12.142 -2.922 15
-40.446 -12.613 -3.427 8
-40.719 -12.678 -3.741 2
-38.188 -11.891 -3.591 7
-26.912 -8.403 -1.851 48
-26.901 -8.434 -2.068 8
-26.613 -8.398 -2.248 55
-26.881 -8.546 -2.55 69
-25.392 -8.148 -2.496 24
-25.623 -8.305 -2.815 33
-24.987 -8.191 -2.951 18
-23.745 -7.877 -2.935 15
-22.659 -7.612 -2.947 14
-21.654 -7.371 -2.969 15
-17.249 -5.948 -1.991 33
-17.183 -6.006 -2.221 30
-17.094 -7.485 1.68 17
-17.172 -7.289 1.583 26
-16.461 -6.778 1.559 23
-16.199 -6.472 1.506 19
-16.657 -6.465 1.388 9
-16.689 -6.295 1.313 28
-17.308 -6.356 1.178 92
-17.367 -6.216 1.099 17
-16.637 -5.811 1.112 21
-16.342 -5.583 1.078 16
-18.666 -6.241 0.728 6
0.0 -0.0 3.0 0
-17.961 -5.802 0.656 10
-18.22 -5.805 0.536 0
-58.454 -18.403 -5.194 7
-40.253 -12.561 -2.857 23
-39.089 -12.115 -2.909 14
-40.475 -12.496 -3.367 5
-40.861 -12.597 -3.698 4
-38.463 -11.861 -3.574 7
-26.998 -8.35 -1.821 23
-26.866 -8.346 -2.015 36
-26.706 -8.352 -2.219 45
-26.929 -8.487 -2.512 37
-25.472 -8.105 -2.467 24
-25.942 -8.34 -2.84 36
-25.118 -8.17 -2.936 19
-23.875 -7.86 -2.923 17
-22.783 -7.599 -2.937 15
-21.773 -7.361 -2.961 14
-17.29 -5.923 -1.97 26
-17.227 -5.984 -2.202 1
-17.321 -7.535 1.671 33
-17.139 -7.224 1.596 24
-16.143 -6.6 1.597 17
-16.576 -6.573 1.482 26
-16.273 -6.266 1.438 14
-16.71 -6.253 1.325 28
-17.398 -6.335 1.183 13
-16.898 -5.996 1.167 5
-16.727 -5.79 1.119 20
-16.413 -5.554 1.088 22
-18.901 -6.259 0.722 3
-18.996 -6.178 0.629 7
0.0 -0.0 3.0 0
0.0 -0.0 3.0 0
-59.191 -18.446 -5.213 3
-40.251 -12.433 -2.797 38
-39.408 -12.089 -2.896 14
-40.178 -12.279 -3.256 27
-41.446 -12.65 -3.726 3
-38.735 -11.828 -3.556 7
-36.304 -11.12 -3.42 10
-26.827 -8.256 -1.96 43
-26.833 -8.315 -2.196 64
-27.037 -8.446 -2.485 35
-25.582 -8.072 -2.444 21
-26.361 -8.406 -2.886 37
-24.391 -7.872 -2.719 62
-24.019 -7.849 -2.915 14
-22.896 -7.583 -2.924 15
-21.877 -7.345 -2.948 15
-17.345 -5.903 -1.954 1
-20.076 -6.93 -3.024 14
-17.12 -7.4 1.695 6
-17.238 -7.217 1.597 18
-16.448 -6.676 1.581 13
-16.2 -6.376 1.528 17
-16.235 -6.202 1.454 14
-16.735 -6.211 1.336 22
-17.446 -6.298 1.194 11
-16.759 -5.894 1.198 25
-17.068 -5.854 1.098 15
-16.419 -5.504 1.105 26
-21.096 -6.918 0.482 28
-19.005 -6.119 0.651 21
-77.696 -24.597 -6.938 6
0.0 -0.0 3.0 0
-18.055 -5.569 0.52 3
-40.267 -12.31 -2.74 26
-40.166 -12.196 -2.948 25
-40.422 -12.228 -3.231 9
-41.906 -12.662 -3.732 3
-39.015 -11.795 -3.538 6
-36.535 -11.083 -3.399 9
-26.984 -8.226 -1.943 48
-26.91 -8.263 -2.163 44
-27.156 -8.409 -2.461 28
-25.707 -8.042 -2.424 23
-24.393 -7.716 -2.402 23
-24.42 -7.82 -2.682 50
-24.163 -7.837 -2.906 15
-23.02 -7.569 -2.914 15
-21.967 -7.326 -2.932 15
-21.03 -7.112 -2.967 16
-20.155 -6.915 -3.011 10
-17.141 -7.361 1.702 29
-15.867 -6.598 1.718 0
-17.675 -7.122 1.486 20
-16.251 -6.348 1.534 22
-16.334 -6.192 1.456 23
-16.712 -6.151 1.352 19
-16.467 -5.894 1.31 26
-16.739 -5.835 1.216 28
-17.041 -5.79 1.119 19
-16.451 -5.462 1.119 22
-18.979 -6.163 0.757 10
-18.965 -6.046 0.679 13
0.0 -0.0 3.0 0
-20.985 -6.484 0.248 5
-18.04 -5.506 0.549 22
-40.56 -12.271 -2.722 6
-40.189 -12.077 -2.89 41
-40.753 -12.202 -3.217 10
-42.242 -12.635 -3.718 2
-39.279 -11.757 -3.517 7
-36.774 -11.047 -3.378 9
-27.073 -8.175 -1.912 25
-27.044 -8.229 -2.142 6
-27.271 -8.37 -2.436 28
-25.861 -8.021 -2.41 13
-24.396 -7.653 -2.359 56
-24.636 -7.828 -2.687 47
-24.3 -7.822 -2.894 16
-23.133 -7.552 -2.901 15
-22.071 -7.31 -2.919 16
-21.129 -7.098 -2.956 15
-20.246 -6.903 -3.001 10
-17.35 -7.402 1.695 40
-15.939 -6.582 1.721 13
-16.471 -6.59 1.599 0
-16.398 -6.356 1.533 46
-16.351 -6.149 1.467 28
-16.692 -6.093 1.367 18
-16.488 -5.851 1.322 15
-16.745 -5.785 1.231 19
-17.153 -5.775 1.123 20
-16.457 -5.412 1.136 19
-19.006 -6.112 0.775 10
-19.011 -6.0 0.697 4
0.0 -0.0 3.0 0
-20.928 -6.399 0.284 31
-18.039 -5.45 0.574 18
-41.115 -12.309 -2.74 8
-40.376 -12.006 -2.856 2
-41.076 -12.172 -3.202 8
-42.609 -12.614 -3.707 2
-39.582 -11.729 -3.502 6
-37.006 -11.009 -3.356 9
-27.237 -8.146 -1.895 21
-27.185 -8.195 -2.121 5
-27.375 -8.327 -2.408 37
-25.881 -7.959 -2.368 13
-24.403 -7.593 -2.317 69
-25.709 -8.104 -2.888 18
-24.437 -7.807 -2.883 16
-23.257 -7.538 -2.889 15
-22.183 -7.297 -2.909 15
-21.221 -7.083 -2.943 17
-20.333 -6.889 -2.989 10
-17.507 -7.42 1.692 31
-15.882 -6.513 1.734 0
-16.362 -6.499 1.619 17
-16.169 -6.221 1.564 19
-16.319 -6.089 1.482 23
-16.578 -6.001 1.392 25
-16.547 -5.821 1.331 17
-16.781 -5.746 1.243 13
-17.272 -5.761 1.128 16
-16.542 -5.388 1.145 33
-16.362 -5.209 1.104 2
-18.974 -5.928 0.725 4
-20.817 -6.39 0.418 1
-20.907 -6.327 0.314 26
-18.066 -5.399 0.596 11
-41.336 -12.245 -2.71 11
-40.71 -11.978 -2.842 12
-41.631 -12.207 -3.22 7
-42.93 -12.578 -3.688 4
-39.881 -11.699 -3.485 6
-37.252 -10.972 -3.335 8
-27.398 -8.116 -1.877 17
-27.251 -8.139 -2.086 9
-27.49 -8.287 -2.382 37
-25.994 -7.925 -2.346 24
-24.451 -7.544 -2.283 55
-25.855 -8.086 -2.875 19
-24.548 -7.784 -2.865 19
-23.363 -7.518 -2.874 12
-22.294 -7.283 -2.898 15
-21.331 -7.073 -2.935 15
-20.431 -6.88 -2.98 16
-17.286 -7.279 1.717 22
-17.272 -7.036 1.632 19
-16.049 -6.329 1.655 18
-16.186 -6.18 1.573 25
-16.253 -6.016 1.5 21
-16.674 -5.986 1.396 18
-16.469 -5.744 1.353 23
-16.76 -5.687 1.261 24
-17.453 -5.767 1.126 15
-17.047 -5.499 1.106 28
-19.045 -6.003 0.815 23
-20.212 -6.25 0.601 13
-20.564 -6.247 0.476 20
-20.822 -6.234 0.354 27
-62.743 -18.554 -5.261 3
-56.1 -16.441 -4.667 16
0.0 -0.0 3.0 0
-46.596 -13.52 -3.889 4
-43.27 -12.547 -3.671 4
-40.164 -11.663 -3.465 6
-37.499 -10.936 -3.314 9
-27.596 -8.096 -1.865 12
-28.386 -8.399 -2.248 1
-27.612 -8.249 -2.357 36
-24.416 -7.38 -1.978 37
-24.57 -7.519 -2.265 44
-25.979 -8.06 -2.856 23
-24.674 -7.764 -2.851 20
-23.487 -7.504 -2.862 16
-22.409 -7.271 -2.888 15
-21.434 -7.061 -2.925 16
-20.525 -6.869 -2.971 14
-17.307 -7.24 1.723 17
-17.367 -7.025 1.634 2
-16.087 -6.298 1.661 23
-16.09 -6.097 1.592 29
-16.18 -5.941 1.519 28
-16.645 -5.927 1.412 15
-16.753 -5.792 1.339 15
-16.762 -5.636 1.277 25
-16.997 -5.564 1.192 20
-17.114 -5.467 1.118 27
-19.152 -5.977 0.825 14
-20.202 -6.183 0.626 29
-20.361 -6.121 0.527 19
-20.763 -6.15 0.389 24
-63.545 -18.59 -5.277 3
-56.735 -16.449 -4.671 16
-41.619 -11.986 -2.846 2
-46.982 -13.488 -3.872 4
-43.607 -12.513 -3.653 5
-40.467 -11.63 -3.447 7
-37.799 -10.914 -3.301 14
-27.817 -8.082 -1.856 10
-28.396 -8.323 -2.201 5
-27.735 -8.211 -2.332 35
-24.392 -7.309 -1.93 55
-26.305 -7.982 -2.589 23
-26.114 -8.038 -2.84 25
-24.796 -7.744 -2.835 20
-23.607 -7.488 -2.85 15
-22.513 -7.254 -2.875 15
-21.537 -7.049 -2.915 15
-20.612 -6.855 -2.959 15
-17.343 -7.208 1.729 16
-17.314 -6.956 1.648 2
-16.494 -6.41 1.638 22
-16.125 -6.064 1.6 15
-16.267 -5.926 1.523 21
-16.974 -5.993 1.394 16
-16.717 -5.729 1.357 22
-16.783 -5.591 1.291 12
-16.995 -5.51 1.21 16
-17.256 -5.459 1.12 26
-17.145 -5.296 1.072 1
-20.157 -6.106 0.656 32
-20.381 -6.063 0.551 19
-20.62 -6.043 0.435 5
-64.245 -18.592 -5.278 6
-57.299 -16.433 -4.663 12
-51.728 -14.737 -4.188 13
-47.402 -13.463 -3.86 5
-43.955 -12.48 -3.636 9
-40.785 -11.601 -3.43 7
-38.026 -10.869 -3.275 11
-35.619 -10.248 -3.157 7
-28.492 -8.272 -2.169 4
-27.864 -8.175 -2.309 35
-24.45 -7.263 -1.899 47
-26.391 -7.942 -2.561 19
-26.248 -8.015 -2.824 23
-24.925 -7.725 -2.821 20
-23.717 -7.468 -2.835 15
-22.629 -7.242 -2.864 14
-21.654 -7.041 -2.908 16
-20.695 -6.84 -2.946 15
-17.98 -7.424 1.691 24
-18.295 -7.299 1.581 21
-16.476 -6.357 1.649 0
-16.223 -6.054 1.602 38
-16.205 -5.855 1.54 25
-16.945 -5.932 1.41 18
-16.658 -5.659 1.377 17
-16.78 -5.539 1.306 21
-16.933 -5.438 1.233 7
-17.235 -5.399 1.141 25
-17.037 -5.209 1.104 22
-18.913 -5.669 0.824 21
-19.978 -5.879 0.625 44
-20.587 -5.968 0.467 21
0.0 -0.0 3.0 0
-57.91 -16.428 -4.66 11
-52.244 -14.722 -4.18 11
-47.831 -13.438 -3.847 6
-44.193 -12.414 -3.601 6
-41.088 -11.565 -3.411 7
-37.889 -10.72 -3.189 14
-35.829 -10.207 -3.133 7
0.0 -0.0 3.0 0
-27.994 -8.138 -2.285 35
-24.569 -7.233 -1.879 33
-26.433 -7.888 -2.524 27
-26.372 -7.989 -2.804 26
-25.077 -7.713 -2.812 18
-23.844 -7.454 -2.823 16
-22.74 -7.227 -2.852 15
-21.753 -7.027 -2.896 13
-20.788 -6.828 -2.936 16
-17.085 -7.008 1.764 4
-18.301 -7.252 1.59 23
-17.83 -6.829 1.548 21
-16.104 -5.964 1.623 29
-16.232 -5.819 1.549 22
-16.856 -5.852 1.432 18
-16.384 -5.517 1.418 20
-16.725 -5.47 1.328 18
-16.816 -5.349 1.262 17
-17.191 -5.331 1.164 16
-16.985 -5.141 1.129 28
-18.855 -5.592 0.853 32
-19.692 -5.733 0.684 31
-20.672 -5.928 0.484 15
-65.774 -18.621 -5.291 4
-58.727 -16.476 -4.683 3
0.0 -0.0 3.0 0
-48.229 -13.402 -3.829 18
-44.622 -12.401 -3.594 4
-41.422 -11.537 -3.395 6
-37.793 -10.584 -3.111 15
-36.069 -10.174 -3.113 7
-28.063 -7.994 -1.995 1
-28.124 -8.1 -2.26 35
-24.657 -7.196 -1.854 0
-26.575 -7.864 -2.507 20
-26.484 -7.959 -2.782 21
-25.209 -7.695 -2.799 16
-23.961 -7.436 -2.81 14
-22.862 -7.216 -2.844 14
-21.855 -7.014 -2.886 13
-20.886 -6.818 -2.926 15
-16.991 -6.924 1.779 25
-18.415 -7.247 1.591 19
-17.85 -6.788 1.557 21
-16.082 -5.91 1.636 24
-16.15 -5.743 1.568 20
-16.959 -5.837 1.436 18
-16.475 -5.499 1.423 17
-16.699 -5.412 1.346 23
-16.89 -5.32 1.271 21
-17.246 -5.294 1.177 7
-17.02 -5.098 1.144 22
-18.935 -5.557 0.867 22
-19.73 -5.682 0.704 24
-20.761 -5.888 0.501 6
0.0 -0.0 3.0 0
0.0 -0.0 3.0 0
-53.409 -14.72 -4.18 5
-48.654 -13.373 -3.814 19
-44.952 -12.357 -3.571 4
