# .PCD v0.7 - Point Cloud Data file format
VERSION 0.7
FIELDS x y z intensity
SIZE 4 4 4 4
TYPE F F F F
COUNT 1 1 1 1
WIDTH 2067
HEIGHT 1
VIEWPOINT 0 0 0 1 0 0 0
POINTS 2067
DATA ascii
18.195 -11.323 -4.075 7
17.523 -10.854 -4.049 7
16.879 -10.408 -4.02 21
16.315 -10.021 -4.017 16
15.664 -9.585 -3.964 6
15.033 -9.17 -3.91 12
14.461 -8.791 -3.868 12
13.932 -8.444 -3.838 11
13.342 -8.066 -3.768 11
12.748 -7.686 -3.681 15
10.437 -8.201 1.554 24
9.177 -7.105 1.619 16
9.438 -7.198 1.47 26
9.392 -7.063 1.369 24
9.659 -7.162 1.214 23
9.607 -7.029 1.116 16
10.877 -7.854 0.748 17
10.946 -7.803 0.614 60
11.247 -7.923 0.426 4
35.581 -24.768 -5.528 5
9.885 -6.808 0.522 0
9.562 -6.513 0.5 21
9.928 -6.695 0.295 40
9.613 -6.419 0.275 10
9.251 -6.123 0.274 45
9.04 -5.931 0.234 25
10.186 -6.63 -0.234 8
11.779 -7.608 -0.876 29
21.348 -13.689 -4.279 5
20.436 -13.021 -4.218 6
19.623 -12.424 -4.173 7
18.839 -11.863 -4.128 7
18.102 -11.338 -4.085 6
17.425 -10.863 -4.054 8
16.796 -10.423 -4.03 11
16.233 -10.034 -4.026 17
15.603 -9.607 -3.98 5
14.974 -9.189 -3.924 13
14.397 -8.806 -3.88 12
13.869 -8.456 -3.847 11
13.265 -8.066 -3.768 16
12.682 -7.69 -3.685 12
11.863 -9.377 1.347 22
9.184 -7.153 1.61 25
9.41 -7.22 1.465 21
9.323 -7.054 1.371 18
9.421 -7.029 1.247 26
9.598 -7.066 1.107 5
10.849 -7.883 0.74 13
10.924 -7.837 0.604 14
37.147 -26.334 -5.557 17
35.278 -24.717 -5.511 5
9.863 -6.837 0.512 1
9.498 -6.511 0.501 31
10.199 -6.923 0.203 31
9.614 -6.462 0.257 30
9.586 -6.386 0.157 33
8.981 -5.931 0.234 32
10.188 -6.676 -0.256 29
11.745 -7.637 -0.891 22
11.893 -7.677 -1.082 1
20.325 -13.035 -4.226 6
19.511 -12.434 -4.179 6
18.732 -11.872 -4.133 7
18.003 -11.348 -4.091 7
17.344 -10.882 -4.067 7
16.71 -10.435 -4.039 18
16.155 -10.048 -4.036 20
15.53 -9.621 -3.99 5
14.908 -9.205 -3.936 12
14.335 -8.821 -3.891 12
13.816 -8.474 -3.862 16
13.191 -8.069 -3.77 11
12.619 -7.696 -3.69 12
11.861 -9.43 1.337 16
9.216 -7.221 1.596 1
9.391 -7.25 1.459 25
9.447 -7.191 1.34 32
9.383 -7.044 1.244 23
9.769 -7.238 1.061 6
10.754 -7.864 0.745 23
10.851 -7.834 0.605 20
10.802 -7.707 0.496 0
34.989 -24.673 -5.496 5
9.875 -6.891 0.492 0
9.48 -6.541 0.489 26
10.221 -6.983 0.179 28
9.598 -6.494 0.243 14
9.551 -6.405 0.148 36
9.005 -5.986 0.209 31
10.187 -6.719 -0.277 33
11.754 -7.692 -0.919 16
11.801 -7.667 -1.077 20
20.211 -13.047 -4.232 6
19.402 -12.445 -4.185 6
18.631 -11.885 -4.141 6
17.914 -11.365 -4.102 7
17.253 -10.894 -4.075 7
16.627 -10.449 -4.048 23
16.073 -10.06 -4.044 20
15.497 -9.66 -4.018 12
14.852 -9.226 -3.952 11
14.271 -8.834 -3.902 12
13.753 -8.485 -3.871 18
13.114 -8.068 -3.77 13
12.556 -7.702 -3.695 14
11.836 -9.466 1.331 22
10.511 -8.284 1.39 19
9.442 -7.333 1.441 18
9.865 -7.555 1.256 28
9.321 -7.04 1.245 33
9.693 -7.226 1.064 0
10.742 -7.904 0.733 23
10.791 -7.841 0.603 15
10.752 -7.72 0.491 0
34.719 -24.641 -5.485 5
32.252 -22.651 -5.244 5
9.528 -6.618 0.46 25
9.391 -6.459 0.391 1
9.605 -6.541 0.223 5
9.484 -6.402 0.15 32
9.158 -6.128 0.142 68
10.183 -6.761 -0.298 31
21.903 -14.429 -4.352 31
11.755 -7.688 -1.088 29
20.103 -13.062 -4.24 6
19.299 -12.46 -4.194 6
18.534 -11.899 -4.15 7
17.812 -11.372 -4.106 7
17.162 -10.905 -4.082 7
16.547 -10.464 -4.058 22
16.001 -10.078 -4.057 19
15.446 -9.688 -4.038 16
14.789 -9.244 -3.966 11
14.213 -8.851 -3.915 12
13.693 -8.499 -3.882 13
13.015 -8.055 -3.759 23
12.493 -7.708 -3.701 12
10.396 -8.363 1.525 0
10.465 -8.296 1.387 21
9.388 -7.335 1.441 19
9.739 -7.504 1.268 27
9.305 -7.072 1.237 25
11.079 -8.311 0.773 32
10.432 -7.724 0.785 30
10.769 -7.874 0.593 33
36.346 -26.266 -5.534 15
34.434 -24.597 -5.469 4
32.001 -22.621 -5.233 4
9.522 -6.657 0.445 27
9.475 -6.559 0.35 68
9.817 -6.729 0.144 14
9.43 -6.408 0.147 30
9.208 -6.202 0.108 56
10.217 -6.828 -0.33 24
21.776 -14.439 -4.357 30
11.731 -7.722 -1.106 23
11.818 -7.728 -1.284 6
19.19 -12.47 -4.2 6
18.43 -11.909 -4.156 7
17.723 -11.389 -4.116 6
17.081 -10.923 -4.093 7
16.461 -10.476 -4.066 13
15.926 -10.093 -4.067 11
15.378 -9.705 -4.051 16
14.721 -9.256 -3.975 11
14.152 -8.866 -3.927 14
13.63 -8.51 -3.891 18
12.976 -8.078 -3.778 11
12.427 -7.711 -3.703 13
10.415 -8.428 1.514 21
10.484 -8.361 1.375 17
9.563 -7.517 1.402 27
9.691 -7.513 1.265 34
9.239 -7.065 1.238 23
11.296 -8.526 0.715 18
0.0 -0.0 3.0 0
10.769 -7.925 0.577 5
36.047 -26.217 -5.518 7
34.156 -24.555 -5.455 5
31.76 -22.596 -5.224 5
10.25 -7.213 0.231 28
9.309 -6.486 0.379 33
9.883 -6.82 0.105 15
9.395 -6.426 0.139 35
9.615 -6.519 -0.04 32
10.165 -6.837 -0.335 19
21.645 -14.446 -4.361 31
11.742 -7.78 -1.137 18
11.771 -7.748 -1.295 21
19.082 -12.48 -4.205 6
18.326 -11.919 -4.161 6
17.631 -11.401 -4.124 7
16.99 -10.934 -4.101 7
16.382 -10.491 -4.076 10
15.845 -10.104 -4.075 10
15.302 -9.716 -4.059 13
14.658 -9.274 -3.988 12
14.088 -8.879 -3.937 11
13.539 -8.503 -3.886 11
12.893 -8.073 -3.774 12
12.367 -7.718 -3.709 16
10.304 -8.387 1.521 23
10.444 -8.379 1.371 10
9.574 -7.571 1.391 28
9.515 -7.422 1.287 30
9.186 -7.068 1.238 30
10.455 -7.941 0.872 25
10.686 -8.012 0.703 16
10.25 -7.591 0.679 0
10.705 -7.835 0.454 1
33.891 -24.522 -5.443 4
31.513 -22.565 -5.213 5
0.0 -0.0 3.0 0
0.0 -0.0 3.0 0
9.825 -6.824 0.103 28
9.417 -6.483 0.113 27
9.656 -6.59 -0.073 16
10.201 -6.907 -0.369 13
21.507 -14.449 -4.362 20
11.778 -7.854 -1.176 1
11.718 -7.763 -1.303 23
11.856 -7.805 -1.506 0
18.229 -11.932 -4.169 6
17.545 -11.419 -4.135 7
16.906 -10.949 -4.11 7
16.309 -10.509 -4.089 9
15.76 -10.113 -4.081 10
15.237 -9.735 -4.073 14
14.595 -9.29 -4.0 12
14.027 -8.894 -3.949 13
13.445 -8.495 -3.879 12
12.829 -8.08 -3.78 13
12.307 -7.726 -3.716 14
10.277 -8.414 1.516 24
9.489 -7.658 1.511 0
9.604 -7.641 1.376 23
9.24 -7.251 1.326 29
9.208 -7.129 1.223 31
9.546 -7.296 1.045 21
10.884 -8.212 0.645 20
10.197 -7.599 0.677 25
35.457 -26.118 -5.486 5
33.63 -24.49 -5.432 5
31.273 -22.539 -5.203 5
9.255 -6.597 0.467 27
9.319 -6.578 0.342 54
9.792 -6.845 0.094 19
9.36 -6.486 0.112 28
9.627 -6.613 -0.084 11
22.41 -15.273 -4.449 5
21.39 -14.464 -4.37 5
20.5 -13.761 -4.317 5
11.667 -7.781 -1.313 18
11.805 -7.821 -1.516 22
18.135 -11.946 -4.178 6
17.453 -11.431 -4.143 7
16.819 -10.961 -4.118 7
16.223 -10.52 -4.096 7
15.673 -10.119 -4.085 10
15.164 -9.748 -4.082 10
14.536 -9.309 -4.015 13
13.966 -8.909 -3.96 13
13.373 -8.5 -3.883 14
12.749 -8.077 -3.777 13
12.247 -7.732 -3.722 14
10.209 -8.407 1.518 19
10.231 -8.306 1.385 7
9.612 -7.693 1.365 25
9.196 -7.26 1.324 24
9.221 -7.182 1.209 7
9.46 -7.275 1.051 29
10.465 -7.945 0.722 6
10.16 -7.62 0.67 34
35.239 -26.124 -5.488 4
33.373 -24.458 -5.422 5
31.047 -22.52 -5.197 5
9.106 -6.533 0.492 24
9.338 -6.635 0.319 40
9.823 -6.912 0.066 7
9.458 -6.597 0.063 31
9.604 -6.641 -0.097 18
11.593 -7.952 -0.879 2
11.628 -7.915 -1.033 11
11.674 -7.888 -1.194 11
11.662 -7.827 -1.339 20
11.762 -7.843 -1.528 20
11.935 -7.912 -1.754 1
17.357 -11.442 -4.149 6
16.735 -10.975 -4.127 7
16.14 -10.532 -4.104 9
15.592 -10.129 -4.093 10
15.09 -9.76 -4.091 12
14.467 -9.321 -4.024 10
13.898 -8.919 -3.968 18
13.289 -8.496 -3.88 12
12.645 -8.058 -3.761 14
12.194 -7.743 -3.731 12
10.132 -8.393 1.52 23
10.384 -8.48 1.352 8
9.611 -7.738 1.355 26
9.239 -7.338 1.306 28
9.189 -7.201 1.205 7
9.412 -7.283 1.049 28
10.168 -7.769 0.772 0
10.133 -7.647 0.662 6
35.038 -26.14 -5.493 5
33.103 -24.416 -5.407 5
30.817 -22.497 -5.188 5
9.286 -6.706 0.426 6
9.306 -6.655 0.311 52
9.812 -6.949 0.05 13
9.394 -6.595 0.064 21
9.575 -6.663 -0.107 30
11.537 -7.966 -0.885 21
11.587 -7.938 -1.044 27
11.649 -7.922 -1.212 16
11.678 -7.889 -1.373 30
11.736 -7.876 -1.547 21
11.834 -7.896 -1.744 22
17.275 -11.46 -4.161 7
16.65 -10.989 -4.136 7
16.064 -10.548 -4.115 9
15.504 -10.135 -4.097 11
15.02 -9.774 -4.101 17
14.411 -9.342 -4.039 12
13.843 -8.937 -3.983 18
13.199 -8.489 -3.874 15
12.569 -8.056 -3.76 15
12.128 -7.746 -3.734 12
10.114 -8.427 1.514 17
10.565 -8.679 1.313 14
9.89 -8.01 1.297 22
9.158 -7.319 1.31 28
9.263 -7.304 1.179 24
9.399 -7.318 1.039 30
10.156 -7.807 0.761 0
10.083 -7.657 0.659 20
34.843 -26.16 -5.5 5
32.844 -24.379 -5.395 5
30.588 -22.473 -5.18 5
9.28 -6.744 0.411 26
10.095 -7.266 0.064 17
9.817 -6.998 0.03 3
9.59 -6.777 -0.017 8
9.498 -6.653 -0.102 32
11.509 -7.998 -0.901 21
11.565 -7.975 -1.063 14
11.65 -7.973 -1.239 1
11.688 -7.947 -1.405 0
11.724 -7.918 -1.572 20
11.799 -7.923 -1.76 21
17.183 -11.471 -4.168 7
16.563 -11.001 -4.144 7
15.981 -10.559 -4.122 9
15.426 -10.147 -4.105 21
14.943 -9.784 -4.108 19
14.336 -9.349 -4.045 11
13.788 -8.955 -3.997 13
13.115 -8.484 -3.871 10
12.498 -8.058 -3.762 15
12.077 -7.758 -3.744 13
9.638 -8.078 1.576 15
10.331 -8.537 1.341 37
10.336 -8.422 1.21 29
9.496 -7.635 1.237 31
9.216 -7.312 1.177 21
9.351 -7.326 1.037 29
9.383 -7.258 0.919 22
10.096 -7.716 0.641 7
34.646 -26.176 -5.505 4
32.598 -24.352 -5.385 5
30.363 -22.452 -5.172 5
10.233 -7.485 0.127 21
10.348 -7.497 -0.029 31
11.168 -8.013 -0.401 14
9.532 -6.779 -0.018 22
9.468 -6.676 -0.113 23
11.513 -8.053 -0.928 2
20.884 -14.494 -4.385 5
20.036 -13.802 -4.339 5
19.223 -13.155 -4.292 6
11.736 -7.978 -1.606 16
11.773 -7.956 -1.781 27
11.883 -7.984 -1.989 18
16.476 -11.012 -4.151 7
15.902 -10.573 -4.131 9
15.348 -10.158 -4.113 21
14.876 -9.8 -4.12 17
14.273 -9.365 -4.057 13
13.727 -8.969 -4.008 14
13.034 -8.482 -3.869 10
12.438 -8.066 -3.768 17
12.021 -7.767 -3.752 14
9.591 -8.084 1.575 23
9.936 -8.259 1.395 25
10.022 -8.215 1.254 33
9.365 -7.575 1.251 31
9.181 -7.328 1.173 28
9.331 -7.355 1.029 26
9.282 -7.226 0.928 2
10.093 -7.762 0.627 0
34.448 -26.193 -5.511 4
32.336 -24.31 -5.371 4
10.847 -8.072 0.062 0
10.356 -7.624 0.074 11
10.37 -7.56 -0.055 19
11.128 -8.036 -0.411 18
9.524 -6.818 -0.035 28
9.445 -6.702 -0.125 2
21.719 -15.29 -4.457 5
20.761 -14.501 -4.389 5
19.914 -13.807 -4.341 5
19.11 -13.161 -4.295 5
11.752 -8.039 -1.642 0
11.751 -7.991 -1.802 25
11.829 -7.997 -1.997 23
16.395 -11.027 -4.161 6
15.819 -10.584 -4.139 9
15.273 -10.171 -4.122 19
14.802 -9.811 -4.128 18
14.216 -9.384 -4.072 11
13.657 -8.977 -4.013 18
12.95 -8.477 -3.865 9
12.383 -8.078 -3.778 16
11.964 -7.775 -3.758 13
9.555 -8.101 1.572 27
9.805 -8.199 1.406 18
9.542 -7.868 1.328 26
9.376 -7.63 1.239 20
9.146 -7.345 1.169 27
9.33 -7.399 1.017 19
9.315 -7.296 0.908 35
10.177 -7.876 0.592 12
34.257 -26.212 -5.517 2
10.691 -8.088 0.215 0
10.798 -8.087 0.056 20
10.559 -7.823 -0.003 39
10.413 -7.641 -0.087 50
11.123 -8.084 -0.431 0
9.51 -6.852 -0.051 34
22.623 -16.158 -4.534 7
21.59 -15.298 -4.461 5
20.638 -14.509 -4.393 5
19.802 -13.818 -4.347 5
19.001 -13.17 -4.3 6
18.254 -12.569 -4.256 6
11.762 -8.05 -1.837 14
11.806 -8.032 -2.019 20
11.907 -8.059 -2.233 19
15.74 -10.597 -4.148 9
15.199 -10.184 -4.131 13
14.71 -9.811 -4.128 19
14.154 -9.4 -4.083 14
13.589 -8.986 -4.021 14
12.869 -8.474 -3.862 10
12.322 -8.085 -3.784 15
11.91 -7.785 -3.767 11
9.582 -8.172 1.559 23
9.771 -8.219 1.402 17
9.384 -7.784 1.345 21
9.288 -7.605 1.244 28
9.105 -7.357 1.166 5
9.297 -7.419 1.012 25
9.224 -7.27 0.915 44
9.203 -7.167 0.809 0
10.523 -8.103 0.367 24
10.652 -8.111 0.207 22
10.746 -8.1 0.052 21
10.848 -8.09 -0.105 13
26.303 -19.426 -4.849 5
24.905 -18.219 -4.733 6
9.506 -6.893 -0.069 21
22.483 -16.161 -4.536 7
21.458 -15.303 -4.464 5
20.514 -14.515 -4.396 5
19.691 -13.829 -4.353 5
18.9 -13.185 -4.308 6
18.149 -12.576 -4.261 6
17.458 -12.025 -4.225 6
11.752 -8.047 -2.028 27
11.831 -8.057 -2.232 23
15.658 -10.607 -4.154 9
15.121 -10.195 -4.139 11
14.619 -9.809 -4.126 17
14.082 -9.408 -4.09 27
13.51 -8.987 -4.022 22
12.798 -8.478 -3.865 9
12.264 -8.094 -3.792 15
11.851 -7.79 -3.772 13
9.622 -8.254 1.545 23
9.723 -8.226 1.401 18
9.275 -7.741 1.355 26
9.308 -7.667 1.23 22
9.272 -7.538 1.121 0
9.896 -7.945 0.871 30
9.161 -7.265 0.917 26
10.099 -7.913 0.581 20
10.088 -7.816 0.46 31
10.619 -8.137 0.198 25
10.722 -8.134 0.04 5
27.675 -20.769 -4.972 6
26.122 -19.417 -4.845 6
24.743 -18.217 -4.733 6
9.466 -6.908 -0.076 23
22.339 -16.162 -4.537 7
21.32 -15.303 -4.464 5
20.397 -14.526 -4.401 5
19.573 -13.835 -4.356 5
18.791 -13.193 -4.313 6
18.054 -12.59 -4.269 6
17.368 -12.039 -4.234 6
11.791 -8.124 -2.076 19
11.82 -8.1 -2.26 35
11.889 -8.104 -2.466 15
15.049 -10.209 -4.148 18
14.542 -9.817 -4.133 15
14.01 -9.417 -4.096 20
13.431 -8.988 -4.022 23
12.711 -8.47 -3.859 13
12.191 -8.092 -3.79 24
11.803 -7.804 -3.784 15
9.576 -8.263 1.543 4
9.692 -8.249 1.397 25
9.267 -7.78 1.346 24
9.294 -7.702 1.222 28
10.172 -8.32 0.926 77
9.864 -7.97 0.865 21
9.165 -7.314 0.903 27
10.092 -7.958 0.567 14
10.0 -7.798 0.466 24
9.898 -7.632 0.372 21
29.249 -22.328 -5.127 5
27.484 -20.758 -4.968 6
25.948 -19.41 -4.842 6
24.572 -18.207 -4.729 6
9.436 -6.931 -0.086 20
22.202 -16.167 -4.539 7
21.191 -15.309 -4.467 5
20.287 -14.541 -4.409 5
19.458 -13.843 -4.36 5
18.688 -13.204 -4.319 5
17.953 -12.6 -4.275 6
17.278 -12.053 -4.242 5
11.808 -8.187 -2.116 3
11.793 -8.133 -2.282 26
11.844 -8.124 -2.479 17
14.975 -10.221 -4.157 23
14.475 -9.831 -4.143 16
11.145 -7.536 -2.679 2
13.351 -8.988 -4.022 16
12.625 -8.462 -3.852 15
12.146 -8.11 -3.805 17
11.747 -7.812 -3.79 13
9.999 -8.679 1.47 28
9.683 -8.29 1.389 26
9.304 -7.857 1.33 22
9.334 -7.782 1.203 43
9.982 -8.214 0.952 19
9.839 -7.999 0.857 25
9.79 -7.86 0.746 25
10.051 -7.975 0.562 0
9.917 -7.781 0.472 22
9.845 -7.639 0.37 27
29.023 -22.297 -5.115 5
27.294 -20.746 -4.964 5
25.77 -19.402 -4.839 5
24.413 -18.206 -4.728 6
9.431 -6.972 -0.104 22
22.068 -16.173 -4.542 7
21.066 -15.317 -4.471 5
20.158 -14.541 -4.409 6
19.356 -13.858 -4.368 5
18.585 -13.215 -4.325 6
17.849 -12.607 -4.279 6
17.184 -12.064 -4.249 6
16.569 -11.561 -4.224 6
11.813 -8.197 -2.323 18
11.808 -8.149 -2.496 28
11.896 -8.17 -2.72 15
14.402 -9.842 -4.15 16
11.062 -7.526 -2.671 2
13.263 -8.982 -4.018 17
12.56 -8.468 -3.858 15
12.091 -8.12 -3.814 22
11.69 -7.819 -3.797 14
9.965 -8.699 1.466 28
9.676 -8.333 1.38 21
9.259 -7.866 1.328 22
9.198 -7.714 1.219 23
9.582 -7.933 1.022 9
9.872 -8.075 0.836 9
9.774 -7.897 0.736 26
34.27 -27.362 -5.366 15
9.833 -7.764 0.477 18
9.829 -7.676 0.357 26
28.822 -22.284 -5.111 5
27.088 -20.722 -4.954 5
25.587 -19.387 -4.833 6
24.252 -18.202 -4.726 6
9.435 -7.02 -0.125 13
21.928 -16.174 -4.542 7
20.938 -15.321 -4.473 5
20.042 -14.55 -4.414 5
19.239 -13.862 -4.371 5
18.472 -13.22 -4.328 5
17.766 -12.628 -4.291 6
17.094 -12.076 -4.256 6
16.484 -11.574 -4.232 7
11.813 -8.249 -2.357 1
11.793 -8.19 -2.524 21
11.835 -8.178 -2.727 31
11.177 -7.685 -2.583 2
10.976 -7.513 -2.661 2
11.193 -7.625 -2.957 0
12.45 -8.444 -3.838 56
12.027 -8.125 -3.818 21
11.643 -7.832 -3.808 16
9.906 -8.698 1.466 27
9.708 -8.41 1.365 10
9.368 -8.006 1.298 38
9.081 -7.661 1.231 19
9.442 -7.865 1.039 1
9.999 -8.229 0.795 12
9.746 -7.923 0.728 27
9.702 -7.795 0.617 27
9.835 -7.815 0.461 20
9.795 -7.697 0.35 21
28.61 -22.261 -5.102 6
26.895 -20.706 -4.948 6
25.41 -19.376 -4.829 6
24.097 -18.202 -4.726 7
22.871 -17.125 -4.625 6
21.788 -16.174 -4.542 8
20.816 -15.33 -4.477 5
19.925 -14.558 -4.418 5
19.134 -13.875 -4.378 5
18.373 -13.232 -4.335 6
17.662 -12.634 -4.294 6
17.004 -12.089 -4.264 6
16.398 -11.586 -4.24 6
15.815 -11.112 -4.216 7
11.788 -8.237 -2.556 18
11.805 -8.208 -2.747 42
11.124 -7.695 -2.591 5
10.897 -7.503 -2.654 3
11.11 -7.614 -2.949 2
12.409 -8.466 -3.856 35
11.97 -8.133 -3.824 20
11.571 -7.828 -3.805 22
9.827 -8.679 1.47 26
9.851 -8.584 1.331 14
9.41 -8.09 1.28 34
9.054 -7.686 1.226 27
10.398 -8.714 0.827 12
9.788 -8.104 0.828 26
9.791 -8.009 0.704 20
9.644 -7.796 0.616 27
9.779 -7.819 0.459 26
9.831 -7.774 0.323 4
28.41 -22.246 -5.097 5
26.718 -20.7 -4.946 5
25.23 -19.363 -4.823 6
23.936 -18.197 -4.724 6
22.735 -17.134 -4.628 6
21.661 -16.183 -4.546 7
20.676 -15.325 -4.474 5
19.809 -14.567 -4.422 5
19.023 -13.883 -4.382 5
18.267 -13.24 -4.339 5
17.564 -12.644 -4.3 6
16.915 -12.101 -4.271 6
16.307 -11.594 -4.245 7
15.731 -11.123 -4.224 6
11.797 -8.294 -2.594 2
11.775 -8.237 -2.767 33
11.071 -7.705 -2.598 5
10.827 -7.5 -2.652 4
11.021 -7.599 -2.937 2
12.329 -8.461 -3.852 37
11.909 -8.139 -3.83 24
11.533 -7.847 -3.822 14
9.81 -8.715 1.463 24
9.771 -8.565 1.335 26
9.589 -8.293 1.237 30
9.037 -7.717 1.218 31
10.377 -8.75 0.818 1
9.742 -8.115 0.826 29
35.583 -29.287 -5.398 29
9.616 -7.823 0.608 29
9.748 -7.843 0.452 26
30.135 -23.982 -5.258 5
28.198 -22.219 -5.087 6
26.526 -20.682 -4.939 5
25.057 -19.353 -4.819 6
23.773 -18.188 -4.72 6
22.58 -17.126 -4.625 7
21.525 -16.185 -4.547 7
20.552 -15.33 -4.477 5
19.687 -14.569 -4.423 5
18.915 -13.893 -4.387 5
18.161 -13.247 -4.343 6
17.473 -12.658 -4.308 6
16.822 -12.111 -4.277 6
16.222 -11.606 -4.252 7
15.651 -11.135 -4.231 6
15.11 -10.69 -4.21 10
11.775 -8.287 -2.803 19
11.009 -7.708 -2.6 4
10.747 -7.49 -2.644 6
10.942 -7.589 -2.929 2
11.178 -7.717 -3.249 2
11.849 -8.145 -3.835 28
11.479 -7.856 -3.829 12
9.782 -8.74 1.459 26
9.558 -8.428 1.362 21
9.651 -8.397 1.215 27
9.064 -7.787 1.202 25
10.133 -8.596 0.857 4
9.683 -8.116 0.825 29
35.299 -29.233 -5.383 23
9.621 -7.875 0.592 24
32.106 -25.994 -5.446 9
29.916 -23.957 -5.249 4
28.002 -22.205 -5.082 6
26.34 -20.668 -4.934 5
24.888 -19.344 -4.816 6
23.618 -18.186 -4.719 6
22.435 -17.125 -4.625 7
21.383 -16.18 -4.545 7
20.428 -15.336 -4.48 5
19.58 -14.583 -4.431 5
18.805 -13.9 -4.391 5
18.061 -13.259 -4.349 5
17.378 -12.67 -4.315 6
16.735 -12.124 -4.285 5
16.137 -11.618 -4.259 7
15.577 -11.151 -4.242 8
15.038 -10.704 -4.22 9
11.789 -8.349 -2.846 5
10.954 -7.716 -2.606 4
10.677 -7.486 -2.641 5
10.856 -7.575 -2.918 2
11.084 -7.697 -3.233 2
11.779 -8.145 -3.834 28
11.423 -7.863 -3.835 13
9.762 -8.774 1.453 23
9.569 -8.487 1.35 22
9.539 -8.349 1.225 18
9.124 -7.886 1.179 32
9.932 -8.477 0.886 10
9.687 -8.17 0.811 15
10.098 -8.414 0.587 4
9.614 -7.919 0.579 16
31.866 -25.962 -5.436 10
29.688 -23.925 -5.238 4
27.782 -22.17 -5.069 6
26.146 -20.646 -4.925 5
24.718 -19.335 -4.812 6
23.468 -18.186 -4.719 6
22.291 -17.123 -4.624 6
21.256 -16.188 -4.548 7
20.304 -15.34 -4.482 5
19.471 -14.594 -4.436 5
18.7 -13.91 -4.396 5
17.956 -13.265 -4.353 5
17.278 -12.676 -4.318 6
16.652 -12.14 -4.294 6
16.055 -11.631 -4.268 7
15.49 -11.159 -4.246 7
14.962 -10.716 -4.228 10
14.454 -10.298 -4.211 10
10.898 -7.724 -2.612 4
10.598 -7.476 -2.633 4
10.777 -7.564 -2.909 2
11.004 -7.686 -3.224 2
11.692 -8.132 -3.823 10
11.375 -7.875 -3.846 16
9.704 -8.772 1.453 20
9.54 -8.512 1.345 22
9.359 -8.241 1.248 25
9.112 -7.922 1.171 29
9.822 -8.434 0.897 23
9.62 -8.162 0.813 26
34.85 -29.22 -5.379 27
9.585 -7.944 0.571 27
9.789 -8.025 0.392 0
29.472 -23.901 -5.23 4
27.581 -22.149 -5.061 6
25.961 -20.63 -4.919 6
24.552 -19.328 -4.809 6
23.314 -18.182 -4.718 6
22.152 -17.126 -4.625 6
21.13 -16.194 -4.551 7
20.183 -15.346 -4.485 5
19.349 -14.596 -4.437 6
18.587 -13.914 -4.398 5
17.857 -13.275 -4.359 5
17.186 -12.689 -4.326 6
16.559 -12.148 -4.299 6
15.973 -11.645 -4.276 6
15.41 -11.17 -4.254 6
14.889 -10.73 -4.237 9
14.382 -10.31 -4.219 9
10.842 -7.731 -2.617 3
10.522 -7.467 -2.627 4
10.695 -7.551 -2.9 2
10.925 -7.676 -3.216 2
11.168 -7.813 -3.556 4
11.324 -7.885 -3.855 13
9.742 -8.859 1.438 15
9.326 -8.369 1.373 26
9.257 -8.199 1.257 19
9.102 -7.962 1.162 30
9.945 -8.591 0.858 11
9.558 -8.16 0.814 31
9.783 -8.253 0.633 24
9.738 -8.12 0.517 23
9.763 -8.054 0.383 30
29.233 -23.856 -5.214 5
27.392 -22.136 -5.057 6
25.791 -20.626 -4.918 6
24.386 -19.32 -4.806 6
23.161 -18.177 -4.716 7
21.993 -17.111 -4.618 8
20.994 -16.193 -4.551 7
20.062 -15.352 -4.487 5
19.234 -14.601 -4.439 5
18.479 -13.922 -4.402 5
17.758 -13.285 -4.364 5
17.095 -12.701 -4.333 6
16.469 -12.159 -4.306 6
15.889 -11.655 -4.283 6
15.33 -11.18 -4.261 7
14.811 -10.739 -4.243 9
11.153 -8.044 -2.633 4
10.786 -7.738 -2.622 3
10.462 -7.469 -2.628 5
10.622 -7.545 -2.895 2
10.834 -7.657 -3.201 2
11.079 -7.796 -3.542 3
11.183 -7.832 -3.808 14
9.719 -8.889 1.433 29
9.313 -8.407 1.366 17
9.235 -8.228 1.251 23
9.366 -8.242 1.097 26
9.77 -8.492 0.883 25
9.613 -8.257 0.788 55
9.712 -8.244 0.636 28
9.675 -8.119 0.518 30
9.683 -8.038 0.388 27
29.031 -23.841 -5.209 5
27.185 -22.108 -5.047 6
25.604 -20.605 -4.91 6
24.218 -19.308 -4.801 6
23.007 -18.172 -4.714 6
21.843 -17.103 -4.615 15
20.868 -16.198 -4.553 7
19.944 -15.359 -4.491 5
19.121 -14.609 -4.443 6
18.372 -13.929 -4.406 5
17.658 -13.295 -4.37 5
17.007 -12.715 -4.341 6
16.386 -12.174 -4.315 6
15.801 -11.663 -4.288 6
15.253 -11.194 -4.27 6
14.735 -10.75 -4.251 9
11.102 -8.057 -2.641 5
10.731 -7.744 -2.627 3
10.404 -7.472 -2.63 5
10.546 -7.535 -2.887 2
10.757 -7.648 -3.194 2
10.991 -7.779 -3.527 3
11.103 -7.821 -3.799 11
9.582 -8.814 1.446 18
9.258 -8.407 1.366 25
9.174 -8.224 1.252 24
9.29 -8.224 1.101 29
9.752 -8.528 0.874 23
9.572 -8.272 0.784 17
9.7 -8.285 0.624 31
9.646 -8.144 0.51 27
9.656 -8.066 0.379 33
28.811 -23.808 -5.198 5
26.997 -22.093 -5.041 6
25.429 -20.594 -4.905 6
24.059 -19.303 -4.799 6
22.858 -18.168 -4.712 6
21.705 -17.103 -4.615 24
20.73 -16.194 -4.551 7
19.827 -15.366 -4.494 5
19.015 -14.62 -4.449 5
18.268 -13.938 -4.411 5
17.563 -13.307 -4.376 5
16.907 -12.72 -4.344 6
16.3 -12.185 -4.322 6
15.722 -11.678 -4.297 6
15.17 -11.202 -4.275 6
14.656 -10.759 -4.257 9
11.039 -8.06 -2.644 4
10.678 -7.753 -2.633 3
10.358 -7.483 -2.639 5
10.468 -7.524 -2.878 3
10.675 -7.635 -3.183 2
10.906 -7.764 -3.515 3
11.033 -7.817 -3.795 9
9.529 -8.818 1.445 30
9.245 -8.445 1.359 19
9.164 -8.263 1.244 24
9.25 -8.239 1.098 27
9.773 -8.598 0.856 26
9.481 -8.244 0.791 25
9.629 -8.275 0.627 24
9.647 -8.196 0.494 32
9.645 -8.106 0.366 30
28.598 -23.781 -5.188 5
26.804 -22.074 -5.034 6
25.252 -20.58 -4.9 6
23.9 -19.298 -4.797 6
22.705 -18.162 -4.709 6
21.577 -17.11 -4.618 33
20.613 -16.206 -4.557 7
19.71 -15.372 -4.497 5
18.906 -14.629 -4.454 5
18.167 -13.949 -4.417 5
17.461 -13.313 -4.38 5
16.822 -12.736 -4.353 6
16.213 -12.197 -4.329 6
15.641 -11.69 -4.305 6
15.096 -11.216 -4.284 6
14.584 -10.771 -4.265 9
10.986 -8.07 -2.651 4
10.616 -7.756 -2.635 4
10.304 -7.489 -2.644 5
10.395 -7.516 -2.873 3
10.6 -7.625 -3.175 2
10.832 -7.757 -3.509 3
10.98 -7.823 -3.801 10
9.492 -8.834 1.442 26
8.962 -8.235 1.399 15
9.124 -8.276 1.241 27
9.292 -8.326 1.078 26
9.735 -8.616 0.852 23
9.419 -8.24 0.792 27
9.35 -8.084 0.682 25
9.668 -8.265 0.473 35
9.628 -8.143 0.354 29
28.379 -23.746 -5.176 5
26.616 -22.057 -5.028 6
25.065 -20.558 -4.891 6
23.732 -19.283 -4.791 6
22.562 -18.162 -4.709 6
21.442 -17.112 -4.619 37
20.479 -16.202 -4.555 7
19.596 -15.381 -4.502 5
18.795 -14.634 -4.456 5
18.058 -13.953 -4.419 5
17.359 -13.319 -4.383 6
16.725 -12.742 -4.357 6
16.13 -12.21 -4.337 6
15.553 -11.697 -4.309 6
15.022 -11.231 -4.293 6
14.511 -10.784 -4.274 9
10.926 -8.075 -2.654 3
10.573 -7.771 -2.646 4
10.255 -7.499 -2.651 4
10.323 -7.508 -2.866 4
10.518 -7.611 -3.164 2
10.739 -7.734 -3.49 3
10.924 -7.829 -3.805 8
9.486 -8.88 1.434 23
8.894 -8.221 1.402 24
9.044 -8.253 1.246 23
9.281 -8.366 1.068 21
9.599 -8.547 0.869 25
9.322 -8.205 0.802 26
9.25 -8.047 0.692 28
9.627 -8.28 0.468 12
9.715 -8.267 0.314 28
28.172 -23.721 -5.168 5
26.42 -22.033 -5.019 6
24.862 -20.519 -4.877 11
23.577 -19.279 -4.789 6
22.416 -18.159 -4.708 6
21.302 -17.108 -4.617 39
20.353 -16.206 -4.557 8
19.488 -15.393 -4.508 5
18.683 -14.64 -4.459 5
17.954 -13.961 -4.423 5
17.254 -13.323 -4.385 5
16.637 -12.756 -4.364 6
16.047 -12.224 -4.345 6
15.478 -11.713 -4.319 6
14.939 -11.238 -4.298 8
14.43 -10.79 -4.278 9
10.866 -8.081 -2.658 3
10.52 -7.779 -2.652 4
10.2 -7.503 -2.654 4
10.244 -7.496 -2.857 2
10.451 -7.608 -3.161 3
10.666 -7.727 -3.484 3
10.879 -7.842 -3.817 9
9.503 -8.948 1.422 20
8.863 -8.24 1.398 21
9.004 -8.265 1.243 31
9.253 -8.391 1.063 8
9.531 -8.538 0.871 25
9.294 -8.23 0.795 27
9.204 -8.057 0.69 26
9.636 -8.34 0.45 1
9.854 -8.438 0.258 1
27.957 -23.687 -5.156 5
26.231 -22.013 -5.012 6
24.685 -20.503 -4.87 25
23.413 -19.266 -4.784 6
22.264 -18.15 -4.704 6
21.178 -17.117 -4.621 40
20.234 -16.213 -4.56 7
19.356 -15.386 -4.504 5
18.571 -14.644 -4.462 5
17.86 -13.976 -4.431 5
17.171 -13.342 -4.395 5
16.54 -12.761 -4.368 6
15.958 -12.232 -4.35 6
15.39 -11.719 -4.323 7
14.862 -11.25 -4.306 8
14.357 -10.801 -4.286 9
10.81 -8.087 -2.663 3
10.464 -7.785 -2.656 4
10.149 -7.511 -2.66 4
10.169 -7.486 -2.848 2
10.373 -7.595 -3.151 2
10.581 -7.711 -3.47 3
10.809 -7.836 -3.812 18
9.474 -8.973 1.418 0
8.882 -8.307 1.385 2
9.028 -8.337 1.228 28
9.315 -8.498 1.038 8
9.631 -8.68 0.836 8
9.282 -8.27 0.784 27
9.146 -8.055 0.69 22
30.956 -26.958 -5.242 37
29.693 -25.586 -5.313 5
27.746 -23.656 -5.145 5
26.036 -21.986 -5.002 6
24.527 -20.499 -4.869 33
23.264 -19.264 -4.783 6
22.118 -18.146 -4.703 6
21.044 -17.117 -4.621 38
20.112 -16.217 -4.562 7
19.245 -15.395 -4.509 5
18.46 -14.649 -4.464 5
17.75 -13.978 -4.432 5
17.069 -13.347 -4.398 5
16.45 -12.771 -4.373 5
15.869 -12.24 -4.354 6
15.309 -11.73 -4.33 6
14.779 -11.256 -4.31 8
14.285 -10.813 -4.293 9
10.759 -8.099 -2.671 3
10.409 -7.791 -2.66 3
10.1 -7.519 -2.666 4
10.1 -7.479 -2.843 2
10.298 -7.584 -3.142 2
10.5 -7.696 -3.458 3
10.736 -7.829 -3.805 8
9.007 -8.581 1.487 0
8.889 -8.362 1.375 18
8.994 -8.355 1.224 28
9.265 -8.503 1.037 6
9.691 -8.787 0.809 15
9.292 -8.329 0.768 24
9.244 -8.191 0.651 23
30.757 -26.95 -5.239 17
29.471 -25.552 -5.302 5
27.541 -23.628 -5.136 5
25.847 -21.964 -4.994 6
24.363 -20.491 -4.866 35
23.104 -19.253 -4.779 6
21.976 -18.143 -4.701 6
20.919 -17.123 -4.624 33
19.984 -16.217 -4.562 7
19.135 -15.404 -4.513 5
18.352 -14.656 -4.467 6
17.65 -13.986 -4.437 5
16.983 -13.363 -4.407 6
16.359 -12.78 -4.379 5
15.786 -12.252 -4.362 6
15.228 -11.74 -4.336 6
14.708 -11.272 -4.32 8
14.213 -10.825 -4.301 9
10.703 -8.106 -2.676 3
10.359 -7.8 -2.667 3
10.045 -7.524 -2.669 4
10.026 -7.468 -2.835 2
10.22 -7.572 -3.132 2
10.427 -7.688 -3.451 3
10.651 -7.812 -3.791 12
8.97 -8.596 1.484 10
8.944 -8.464 1.355 19
8.975 -8.386 1.217 28
0.0 -0.0 3.0 0
9.661 -8.813 0.803 15
9.596 -8.654 0.681 28
9.285 -8.278 0.626 25
30.562 -26.945 -5.238 20
29.238 -25.508 -5.288 5
27.342 -23.604 -5.127 5
25.662 -21.943 -4.987 6
24.206 -20.486 -4.864 33
22.95 -19.245 -4.775 6
21.837 -18.143 -4.701 6
20.801 -17.134 -4.628 22
19.871 -16.227 -4.567 7
19.025 -15.412 -4.517 6
18.25 -14.666 -4.473 5
17.547 -13.992 -4.44 5
16.879 -13.365 -4.408 5
16.278 -12.796 -4.388 6
15.703 -12.264 -4.369 6
15.149 -11.753 -4.344 6
14.629 -11.28 -4.325 8
14.135 -10.831 -4.306 9
10.655 -8.119 -2.685 4
10.301 -7.803 -2.67 4
9.997 -7.533 -2.677 4
9.945 -7.452 -2.822 2
10.142 -7.559 -3.121 2
10.349 -7.675 -3.44 3
10.57 -7.797 -3.778 9
8.899 -8.578 1.487 21
8.879 -8.451 1.357 28
8.975 -8.437 1.207 26
0.0 -0.0 3.0 0
9.616 -8.826 0.8 28
9.496 -8.616 0.691 17
9.229 -8.279 0.626 30
30.322 -26.899 -5.224 18
29.022 -25.478 -5.278 5
27.135 -23.571 -5.116 5
25.483 -21.927 -4.981 6
24.057 -20.489 -4.865 28
22.796 -19.237 -4.772 6
21.695 -18.139 -4.7 6
20.677 -17.139 -4.631 11
19.747 -16.227 -4.567 7
18.911 -15.418 -4.52 5
18.15 -14.679 -4.479 5
17.45 -14.003 -4.445 5
16.787 -13.375 -4.414 5
16.178 -12.798 -4.389 6
15.618 -12.273 -4.375 5
15.068 -11.763 -4.35 6
14.558 -11.295 -4.335 6
14.065 -10.845 -4.315 9
10.601 -8.127 -2.691 4
10.257 -7.817 -2.68 4
9.945 -7.539 -2.681 4
9.883 -7.449 -2.82 2
10.07 -7.549 -3.113 2
10.274 -7.663 -3.43 3
10.491 -7.784 -3.766 6
8.842 -8.573 1.488 27
8.888 -8.511 1.346 21
8.998 -8.509 1.191 23
0.0 -0.0 3.0 0
9.606 -8.87 0.789 23
9.532 -8.702 0.668 32
9.203 -8.306 0.618 25
30.116 -26.882 -5.219 19
28.802 -25.441 -5.266 6
26.951 -23.559 -5.112 5
25.304 -21.91 -4.974 6
23.915 -20.496 -4.868 13
22.648 -19.233 -4.771 7
21.565 -18.144 -4.702 6
20.541 -17.135 -4.629 7
19.623 -16.227 -4.567 7
18.798 -15.422 -4.522 6
18.034 -14.677 -4.478 5
17.347 -14.009 -4.449 5
16.686 -13.379 -4.416 6
16.091 -12.809 -4.395 6
15.535 -12.284 -4.381 6
14.981 -11.768 -4.353 6
14.481 -11.305 -4.341 8
13.996 -10.858 -4.324 9
10.551 -8.138 -2.699 4
10.205 -7.824 -2.685 4
9.891 -7.542 -2.684 4
9.805 -7.435 -2.809 1
10.001 -7.542 -3.108 2
10.196 -7.65 -3.419 3
10.419 -7.775 -3.759 5
8.834 -8.615 1.481 22
8.779 -8.456 1.356 22
9.038 -8.598 1.172 26
0.0 -0.0 3.0 0
9.544 -8.865 0.79 25
9.499 -8.725 0.662 31
9.159 -8.317 0.615 1
29.921 -26.873 -5.216 20
28.564 -25.388 -5.249 5
26.745 -23.524 -5.1 4
25.123 -21.889 -4.967 6
23.749 -20.482 -4.862 5
22.498 -19.225 -4.767 7
21.421 -18.137 -4.699 7
20.408 -17.132 -4.628 7
19.504 -16.232 -4.569 7
18.688 -15.429 -4.525 5
17.935 -14.688 -4.484 5
17.25 -14.018 -4.454 5
16.599 -13.393 -4.424 6
15.998 -12.815 -4.399 5
15.44 -12.286 -4.382 6
14.903 -11.779 -4.36 6
14.402 -11.312 -4.346 7
13.924 -10.868 -4.33 8
10.5 -8.148 -2.706 4
10.155 -7.834 -2.692 4
9.848 -7.555 -2.693 4
9.737 -7.428 -2.803 2
9.93 -7.533 -3.1 2
10.122 -7.638 -3.409 3
10.338 -7.759 -3.745 4
8.768 -8.601 1.483 20
8.797 -8.524 1.343 7
9.021 -8.632 1.165 22
0.0 -0.0 3.0 0
9.539 -8.914 0.777 26
9.515 -8.793 0.644 28
9.275 -8.474 0.57 30
29.715 -26.854 -5.21 18
28.35 -25.355 -5.238 5
26.548 -23.497 -5.091 4
24.945 -21.87 -4.96 6
23.569 -20.455 -4.852 5
22.348 -19.217 -4.764 7
21.285 -18.136 -4.698 6
20.276 -17.128 -4.626 6
19.386 -16.236 -4.571 7
18.57 -15.428 -4.525 5
17.83 -14.694 -4.487 5
17.147 -14.022 -4.456 5
16.505 -13.401 -4.428 5
15.914 -12.827 -4.406 6
15.367 -12.304 -4.393 6
14.825 -11.79 -4.367 6
14.322 -11.319 -4.351 8
13.846 -10.874 -4.334 8
10.447 -8.157 -2.711 4
10.106 -7.843 -2.698 4
9.805 -7.568 -2.703 4
9.692 -7.437 -2.811 4
9.855 -7.52 -3.09 2
10.053 -7.631 -3.403 2
10.26 -7.745 -3.733 4
8.74 -8.623 1.479 25
8.777 -8.554 1.337 1
8.997 -8.661 1.159 26
9.545 -9.081 0.904 7
9.457 -8.891 0.783 24
9.617 -8.941 0.604 31
9.797 -9.006 0.417 19
29.501 -26.824 -5.201 11
28.14 -25.323 -5.228 5
26.36 -23.476 -5.083 5
24.77 -21.853 -4.954 6
23.41 -20.444 -4.848 5
22.204 -19.214 -4.763 7
21.144 -18.129 -4.695 6
20.155 -17.134 -4.628 7
19.268 -16.239 -4.572 8
18.463 -15.436 -4.529 5
17.723 -14.699 -4.489 5
17.051 -14.031 -4.46 5
16.419 -13.414 -4.436 6
15.824 -12.835 -4.41 6
15.278 -12.309 -4.396 6
14.75 -11.803 -4.376 6
14.246 -11.329 -4.357 8
13.78 -10.888 -4.344 9
10.393 -8.164 -2.717 4
10.056 -7.852 -2.705 4
9.76 -7.578 -2.711 4
9.695 -7.484 -2.847 4
9.784 -7.51 -3.082 2
9.975 -7.616 -3.391 3
10.18 -7.729 -3.719 4
8.709 -8.643 1.476 14
34.344 -33.671 -3.545 9
9.014 -8.729 1.145 7
9.611 -9.199 0.876 22
9.46 -8.948 0.769 21
9.411 -8.803 0.641 29
9.748 -9.016 0.415 18
29.227 -26.74 -5.175 8
27.933 -25.293 -5.218 5
26.17 -23.452 -5.075 5
24.596 -21.835 -4.947 5
23.251 -20.433 -4.843 5
22.048 -19.2 -4.757 7
21.007 -18.125 -4.694 6
20.029 -17.135 -4.629 6
19.151 -16.242 -4.574 8
18.353 -15.442 -4.531 5
17.612 -14.699 -4.49 5
16.948 -14.035 -4.463 5
16.327 -13.423 -4.441 4
15.74 -12.846 -4.417 6
15.205 -12.326 -4.406 6
14.666 -11.809 -4.379 6
14.172 -11.34 -4.364 8
13.705 -10.895 -4.349 9
10.34 -8.172 -2.722 4
10.01 -7.863 -2.712 4
9.711 -7.586 -2.716 4
9.695 -7.529 -2.883 4
9.716 -7.502 -3.075 2
9.904 -7.606 -3.382 3
10.113 -7.724 -3.714 3
8.863 -8.847 1.44 29
51.704 -50.991 -6.912 12
47.529 -46.302 -6.842 15
9.639 -9.282 0.857 20
9.37 -8.917 0.777 27
9.449 -8.892 0.617 28
9.711 -9.037 0.409 32
28.988 -26.684 -5.158 7
27.732 -25.267 -5.21 5
25.988 -23.435 -5.069 5
24.413 -21.809 -4.938 6
23.093 -20.421 -4.839 5
21.911 -19.2 -4.757 7
20.875 -18.125 -4.694 6
19.906 -17.136 -4.63 7
19.033 -16.244 -4.575 7
18.25 -15.452 -4.536 5
17.52 -14.714 -4.497 5
16.855 -14.045 -4.468 6
16.23 -13.427 -4.443 5
15.647 -12.85 -4.419 6
15.113 -12.329 -4.408 6
14.591 -11.821 -4.387 6
14.099 -11.351 -4.371 7
13.636 -10.907 -4.357 9
10.284 -8.177 -2.726 4
9.96 -7.872 -2.719 4
9.688 -7.613 -2.737 5
9.692 -7.572 -2.916 4
9.704 -7.537 -3.104 4
9.83 -7.594 -3.372 3
10.033 -7.707 -3.7 4
9.307 -9.345 1.352 22
33.795 -33.526 -3.517 17
47.212 -46.269 -6.835 25
9.579 -9.279 0.858 23
9.39 -8.99 0.758 20
9.549 -9.042 0.577 33
9.662 -9.047 0.406 30
28.796 -26.671 -5.154 7
27.529 -25.238 -5.2 5
25.79 -23.4 -5.057 5
24.245 -21.794 -4.932 6
22.934 -20.409 -4.834 5
21.759 -19.187 -4.752 7
20.743 -18.124 -4.693 7
19.778 -17.134 -4.628 7
18.922 -16.251 -4.578 8
18.132 -15.449 -4.535 5
17.416 -14.719 -4.5 5
16.759 -14.053 -4.472 5
16.138 -13.435 -4.447 5
15.56 -12.859 -4.424 6
15.037 -12.344 -4.417 6
14.516 -11.834 -4.395 6
14.029 -11.364 -4.38 7
13.564 -10.916 -4.363 8
10.233 -8.187 -2.733 4
9.908 -7.878 -2.724 4
9.691 -7.661 -2.773 6
9.689 -7.614 -2.949 4
9.704 -7.582 -3.139 4
9.764 -7.587 -3.366 3
9.965 -7.699 -3.692 4
9.274 -9.367 1.348 8
33.307 -33.238 -3.461 29
46.953 -46.29 -6.839 19
9.474 -9.233 0.868 24
9.351 -9.007 0.754 16
9.72 -9.26 0.519 23
9.67 -9.111 0.388 25
28.615 -26.668 -5.153 7
27.306 -25.189 -5.184 5
25.607 -23.379 -5.05 4
24.081 -21.782 -4.928 6
22.782 -20.401 -4.831 5
21.616 -19.181 -4.75 7
20.612 -18.123 -4.693 6
19.661 -17.139 -4.631 7
18.801 -16.249 -4.577 7
18.023 -15.453 -4.537 5
17.309 -14.72 -4.5 6
16.659 -14.058 -4.475 5
16.049 -13.445 -4.453 5
15.482 -12.875 -4.433 6
14.952 -12.35 -4.42 6
14.433 -11.839 -4.398 6
13.952 -11.372 -4.385 7
13.489 -10.923 -4.368 9
10.186 -8.198 -2.74 4
9.864 -7.89 -2.733 4
9.691 -7.707 -2.808 4
9.691 -7.661 -2.986 4
9.7 -7.624 -3.174 4
9.71 -7.589 -3.368 4
9.89 -7.686 -3.681 3
9.223 -9.371 1.348 5
28.092 -28.2 -2.481 17
46.567 -46.184 -6.817 19
9.339 -9.156 0.886 16
9.427 -9.136 0.722 15
9.745 -9.34 0.497 23
9.664 -9.16 0.373 0
28.458 -26.685 -5.158 6
27.103 -25.157 -5.174 5
25.401 -23.336 -5.035 13
23.905 -21.758 -4.919 5
22.625 -20.387 -4.826 5
21.482 -19.182 -4.75 7
20.475 -18.116 -4.69 6
19.53 -17.133 -4.628 7
18.69 -16.256 -4.58 7
17.914 -15.456 -4.538 5
17.214 -14.732 -4.506 5
16.563 -14.065 -4.478 5
15.961 -13.455 -4.458 5
15.392 -12.881 -4.437 6
14.867 -12.356 -4.425 6
14.358 -11.851 -4.405 6
13.879 -11.382 -4.392 8
13.412 -10.927 -4.37 8
10.132 -8.206 -2.746 4
9.812 -7.896 -2.737 4
9.698 -7.759 -2.847 4
9.691 -7.707 -3.021 4
9.705 -7.672 -3.213 4
9.709 -7.633 -3.405 4
9.816 -7.672 -3.669 3
26.945 -27.537 -1.855 27
27.46 -27.729 -2.39 25
28.129 -28.064 -2.965 8
9.333 -9.205 0.875 24
9.365 -9.131 0.723 31
9.837 -9.486 0.458 14
30.0 -28.611 -5.204 13
28.286 -26.688 -5.159 5
26.916 -25.138 -5.168 5
25.224 -23.318 -5.029 24
23.744 -21.747 -4.915 6
22.459 -20.364 -4.817 5
21.337 -19.172 -4.746 7
20.35 -18.119 -4.691 6
19.407 -17.133 -4.628 7
18.576 -16.258 -4.581 7
17.814 -15.467 -4.544 6
17.113 -14.738 -4.509 6
16.467 -14.071 -4.482 5
15.867 -13.46 -4.461 5
15.309 -12.891 -4.442 6
14.793 -12.372 -4.434 6
14.283 -11.862 -4.412 6
13.803 -11.39 -4.397 7
13.346 -10.94 -4.379 8
10.079 -8.212 -2.75 4
9.768 -7.909 -2.746 4
9.692 -7.801 -2.878 4
9.692 -7.754 -3.058 4
9.701 -7.715 -3.247 4
9.71 -7.679 -3.444 4
9.745 -7.661 -3.66 3
26.719 -27.467 -1.843 43
27.221 -27.652 -2.375 20
28.027 -28.129 -2.979 19
9.321 -9.25 0.865 23
9.367 -9.188 0.709 24
9.875 -9.58 0.433 4
29.804 -28.599 -5.201 16
28.132 -26.706 -5.165 5
26.709 -25.099 -5.155 5
25.041 -23.293 -5.02 25
23.577 -21.729 -4.909 5
22.322 -20.367 -4.818 5
21.197 -19.166 -4.744 7
20.217 -18.113 -4.689 6
19.288 -17.134 -4.629 7
18.465 -16.263 -4.583 7
17.72 -15.482 -4.551 6
17.012 -14.743 -4.512 6
16.369 -14.075 -4.484 5
15.776 -13.467 -4.465 5
15.222 -12.898 -4.447 6
14.708 -12.377 -4.437 6
14.203 -11.869 -4.417 6
13.73 -11.4 -4.403 7
13.28 -10.952 -4.388 8
10.023 -8.216 -2.753 4
9.722 -7.919 -2.754 4
9.699 -7.854 -2.918 4
9.691 -7.799 -3.093 4
9.699 -7.759 -3.283 4
9.708 -7.723 -3.48 4
9.713 -7.681 -3.677 4
26.635 -27.542 -1.856 36
27.06 -27.651 -2.375 19
27.47 -27.736 -2.895 21
9.192 -9.176 0.882 21
9.322 -9.199 0.706 23
31.824 -31.065 -5.324 13
29.647 -28.624 -5.208 13
27.978 -26.724 -5.17 5
26.522 -25.078 -5.148 5
24.857 -23.266 -5.011 30
23.417 -21.716 -4.904 5
22.168 -20.353 -4.813 5
21.061 -19.163 -4.742 7
20.089 -18.112 -4.688 6
19.166 -17.133 -4.628 7
18.349 -16.262 -4.583 7
17.608 -15.481 -4.551 6
16.911 -14.748 -4.515 5
16.281 -14.088 -4.491 5
15.682 -13.47 -4.467 5
15.136 -12.905 -4.451 6
14.632 -12.39 -4.445 6
14.128 -11.88 -4.423 7
13.665 -11.416 -4.414 7
13.214 -10.965 -4.396 8
9.97 -8.223 -2.758 4
9.684 -7.936 -2.766 5
9.683 -7.888 -2.944 6
9.689 -7.845 -3.129 4
9.7 -7.806 -3.322 3
9.704 -7.765 -3.515 4
9.716 -7.728 -3.718 4
26.53 -27.595 -1.866 25
26.808 -27.556 -2.356 19
27.097 -27.523 -2.85 28
9.147 -9.187 0.879 31
9.302 -9.235 0.697 16
31.613 -31.048 -5.319 12
28.774 -27.951 -5.015 2
27.816 -26.733 -5.173 5
26.327 -25.049 -5.139 5
24.678 -23.242 -5.003 26
23.254 -21.7 -4.898 6
22.023 -20.347 -4.81 6
20.922 -19.156 -4.74 7
19.962 -18.111 -4.688 6
19.047 -17.134 -4.629 6
18.241 -16.268 -4.586 7
17.497 -15.48 -4.55 6
16.808 -14.751 -4.516 5
16.186 -14.093 -4.493 5
15.6 -13.483 -4.474 5
15.052 -12.914 -4.456 6
14.548 -12.395 -4.448 6
14.051 -11.888 -4.429 6
13.587 -11.42 -4.416 7
13.139 -10.97 -4.4 8
9.925 -8.236 -2.767 1
9.691 -7.989 -2.805 6
9.687 -7.939 -2.983 6
9.69 -7.892 -3.166 4
9.637 -7.801 -3.317 2
9.704 -7.811 -3.554 4
9.711 -7.77 -3.754 3
26.3 -27.517 -1.852 42
26.535 -27.437 -2.333 30
26.883 -27.47 -2.839 22
9.124 -9.219 0.872 31
9.259 -9.248 0.694 26
31.264 -30.891 -5.277 10
28.845 -28.193 -5.084 4
27.668 -26.756 -5.18 6
26.13 -25.016 -5.128 5
24.5 -23.218 -4.995 25
23.091 -21.683 -4.892 6
21.855 -20.319 -4.8 7
20.781 -19.146 -4.736 7
19.832 -18.106 -4.686 6
18.929 -17.135 -4.629 7
18.128 -16.269 -4.586 7
17.4 -15.492 -4.556 5
16.708 -14.755 -4.518 5
16.096 -14.103 -4.498 5
15.512 -13.492 -4.479 5
14.969 -12.923 -4.461 6
14.469 -12.405 -4.454 6
13.974 -11.896 -4.434 6
13.508 -11.425 -4.419 7
13.073 -10.983 -4.408 8
9.864 -8.235 -2.766 0
9.683 -8.032 -2.836 4
9.69 -7.99 -3.021 4
9.693 -7.943 -3.206 4
9.318 -7.587 -3.144 2
9.705 -7.857 -3.593 4
9.714 -7.817 -3.795 4
26.169 -27.541 -1.856 32
26.413 -27.475 -2.341 29
26.708 -27.454 -2.836 37
9.126 -9.276 0.858 29
9.244 -9.289 0.684 25
30.968 -30.787 -5.249 11
28.629 -28.154 -5.073 9
27.503 -26.76 -5.181 8
25.939 -24.987 -5.119 5
24.328 -23.199 -4.988 26
22.926 -21.663 -4.885 5
21.702 -20.303 -4.794 18
20.645 -19.141 -4.734 7
19.71 -18.109 -4.687 6
18.813 -17.138 -4.63 7
18.014 -16.27 -4.587 8
17.292 -15.493 -4.556 6
16.613 -14.764 -4.523 5
15.998 -14.105 -4.5 5
15.427 -13.502 -4.484 6
14.886 -12.931 -4.466 6
14.387 -12.412 -4.458 6
13.899 -11.907 -4.44 6
13.441 -11.438 -4.428 7
13.002 -10.99 -4.413 8
12.59 -10.575 -4.405 8
9.686 -8.083 -2.873 4
9.685 -8.033 -3.054 6
9.647 -7.952 -3.213 3
9.256 -7.582 -3.14 3
9.705 -7.903 -3.632 4
9.714 -7.863 -3.835 4
26.015 -27.542 -1.856 43
26.267 -27.485 -2.343 38
26.687 -27.597 -2.866 25
9.122 -9.328 0.847 31
9.256 -9.359 0.667 21
30.765 -30.773 -5.246 16
28.355 -28.056 -5.045 18
27.355 -26.781 -5.188 7
25.745 -24.954 -5.108 5
24.15 -23.173 -4.979 25
22.756 -21.636 -4.875 6
21.567 -20.303 -4.794 26
20.51 -19.135 -4.731 7
19.584 -18.105 -4.685 6
18.692 -17.135 -4.629 7
17.907 -16.275 -4.589 7
17.184 -15.493 -4.556 5
16.516 -14.769 -4.525 5
15.911 -14.116 -4.506 5
15.336 -13.507 -4.487 5
14.8 -12.937 -4.469 6
14.308 -12.421 -4.463 6
13.825 -11.916 -4.446 6
13.368 -11.446 -4.433 7
12.936 -11.002 -4.421 8
12.517 -10.578 -4.407 8
9.684 -8.13 -2.907 4
9.685 -8.082 -3.09 6
9.402 -7.796 -3.091 5
9.191 -7.574 -3.133 4
9.338 -7.65 -3.419 3
9.708 -7.904 -3.871 4
25.928 -27.611 -1.869 30
26.176 -27.553 -2.356 40
26.436 -27.501 -2.846 38
9.237 -9.503 0.806 30
9.31 -9.47 0.639 22
30.693 -30.889 -5.277 15
28.196 -28.07 -5.049 21
27.188 -26.782 -5.188 9
25.564 -24.932 -5.101 5
23.979 -23.152 -4.972 24
22.619 -21.641 -4.877 5
21.417 -20.289 -4.788 27
20.383 -19.136 -4.731 7
19.46 -18.104 -4.685 6
18.574 -17.134 -4.629 7
17.8 -16.279 -4.591 7
17.085 -15.501 -4.56 6
16.419 -14.776 -4.529 5
15.813 -14.118 -4.507 5
15.251 -13.516 -4.492 5
14.722 -12.95 -4.477 6
14.235 -12.434 -4.471 6
13.751 -11.926 -4.452 6
13.295 -11.454 -4.438 7
12.867 -11.01 -4.427 8
12.458 -10.593 -4.417 8
9.686 -8.182 -2.944 4
9.688 -8.133 -3.129 5
9.353 -7.802 -3.096 4
9.132 -7.57 -3.13 3
9.276 -7.644 -3.414 3
9.713 -7.954 -3.914 4
25.864 -27.707 -1.885 41
26.014 -27.545 -2.354 41
26.302 -27.527 -2.851 37
9.298 -9.623 0.778 14
9.286 -9.503 0.631 21
27.983 -28.334 -4.592 19
28.064 -28.112 -5.061 17
27.035 -26.796 -5.192 9
25.382 -24.909 -5.093 5
23.811 -23.134 -4.966 24
22.455 -21.618 -4.868 6
21.274 -20.279 -4.784 28
20.246 -19.126 -4.728 8
19.334 -18.1 -4.683 7
18.459 -17.135 -4.629 6
17.693 -16.284 -4.593 7
16.983 -15.505 -4.562 6
16.325 -14.783 -4.533 6
15.721 -14.124 -4.51 5
15.163 -13.523 -4.496 5
14.639 -12.957 -4.481 6
14.151 -12.438 -4.473 6
13.674 -11.933 -4.456 7
13.228 -11.467 -4.447 7
12.793 -11.015 -4.429 8
12.388 -10.598 -4.421 8
9.678 -8.225 -2.975 5
9.69 -8.185 -3.168 4
9.301 -7.806 -3.098 4
9.068 -7.561 -3.123 3
9.214 -7.638 -3.409 3
9.379 -7.726 -3.716 2
25.689 -27.682 -1.881 34
26.001 -27.696 -2.384 36
9.39 -9.886 0.899 2
9.298 -9.682 0.765 0
9.27 -9.544 0.62 2
27.283 -27.793 -4.447 24
27.914 -28.132 -5.067 15
26.86 -26.788 -5.19 11
25.19 -24.874 -5.082 5
23.643 -23.113 -4.958 22
22.305 -21.608 -4.865 6
21.139 -20.277 -4.783 27
20.114 -19.122 -4.726 7
19.216 -18.103 -4.684 6
18.352 -17.143 -4.633 6
17.58 -16.282 -4.592 8
16.881 -15.51 -4.565 5
16.225 -14.785 -4.533 6
15.637 -14.137 -4.517 5
15.079 -13.532 -4.501 5
14.556 -12.964 -4.485 6
14.075 -12.448 -4.48 7
13.602 -11.944 -4.463 7
13.155 -11.474 -4.451 7
12.728 -11.025 -4.436 8
12.327 -10.609 -4.429 8
9.677 -8.274 -3.011 0
9.687 -8.231 -3.203 4
9.258 -7.816 -3.106 4
9.001 -7.55 -3.114 2
9.15 -7.629 -3.402 3
9.304 -7.708 -3.701 3
25.647 -27.8 -1.902 41
25.866 -27.717 -2.388 35
9.338 -9.891 0.898 25
26.319 -27.571 -3.365 40
26.637 -27.592 -3.88 24
27.101 -27.778 -4.443 25
27.59 -27.978 -5.022 37
26.676 -26.769 -5.184 13
25.006 -24.847 -5.073 6
23.478 -23.095 -4.952 22
22.156 -21.598 -4.861 6
21.015 -20.284 -4.786 19
19.98 -19.114 -4.722 7
19.093 -18.1 -4.683 7
18.237 -17.143 -4.633 6
17.477 -16.288 -4.595 7
16.777 -15.511 -4.565 6
16.125 -14.787 -4.534 5
15.539 -14.137 -4.517 5
14.991 -13.537 -4.504 5
14.479 -12.976 -4.492 6
13.996 -12.456 -4.484 7
13.528 -11.953 -4.469 6
13.082 -11.481 -4.456 7
12.662 -11.036 -4.444 8
12.265 -10.621 -4.437 7
11.896 -10.233 -4.435 9
9.683 -8.277 -3.237 4
9.207 -7.819 -3.109 4
8.945 -7.548 -3.112 4
9.093 -7.627 -3.4 3
9.239 -7.7 -3.694 3
25.499 -27.805 -1.903 33
25.776 -27.786 -2.401 36
9.329 -9.941 0.887 2
26.169 -27.579 -3.367 32
26.49 -27.609 -3.884 34
26.921 -27.762 -4.439 21
27.383 -27.938 -5.011 21
26.502 -26.759 -5.181 13
24.821 -24.815 -5.063 5
23.302 -23.066 -4.942 16
21.993 -21.573 -4.852 5
20.883 -20.284 -4.786 9
19.846 -19.105 -4.719 8
18.964 -18.092 -4.679 6
18.123 -17.143 -4.633 6
17.367 -16.288 -4.595 8
16.678 -15.517 -4.568 6
16.034 -14.797 -4.539 6
15.456 -14.15 -4.523 5
14.904 -13.543 -4.507 5
14.393 -12.98 -4.494 6
13.915 -12.462 -4.488 7
13.457 -11.964 -4.476 6
13.013 -11.491 -4.463 7
12.594 -11.044 -4.449 7
12.201 -10.63 -4.443 8
11.836 -10.243 -4.442 9
9.706 -8.348 -3.291 3
9.158 -7.825 -3.113 4
8.892 -7.548 -3.112 3
9.029 -7.618 -3.392 3
9.174 -7.691 -3.686 3
25.472 -27.939 -1.926 36
25.641 -27.806 -2.405 41
25.807 -27.665 -2.88 35
26.016 -27.584 -3.368 23
26.328 -27.606 -3.883 19
26.716 -27.719 -4.427 19
27.135 -27.857 -4.988 19
26.317 -26.737 -5.174 11
24.641 -24.788 -5.054 5
23.138 -23.047 -4.936 15
21.846 -21.564 -4.849 5
20.727 -20.259 -4.777 5
19.723 -19.106 -4.719 7
18.847 -18.093 -4.68 6
18.006 -17.139 -4.631 7
17.261 -16.29 -4.596 7
16.571 -15.514 -4.567 5
15.941 -14.803 -4.542 5
15.364 -14.154 -4.526 6
14.822 -13.553 -4.513 5
14.31 -12.986 -4.498 6
13.834 -12.466 -4.49 8
13.385 -11.974 -4.482 7
12.943 -11.5 -4.468 7
12.525 -11.052 -4.454 8
12.134 -10.637 -4.448 9
11.773 -10.251 -4.448 9
10.09 -8.73 -3.579 4
9.109 -7.83 -3.117 4
8.838 -7.548 -3.112 4
8.962 -7.607 -3.383 3
9.113 -7.684 -3.679 3
25.389 -28.013 -1.94 35
25.511 -27.831 -2.41 36
25.656 -27.668 -2.881 36
25.901 -27.629 -3.379 24
26.171 -27.61 -3.884 22
26.522 -27.688 -4.419 24
26.929 -27.816 -4.976 20
26.116 -26.697 -5.162 10
24.461 -24.761 -5.045 5
22.975 -23.026 -4.929 11
21.69 -21.543 -4.841 5
20.59 -20.251 -4.774 5
19.592 -19.099 -4.716 7
18.725 -18.09 -4.679 6
17.897 -17.144 -4.633 6
17.157 -16.295 -4.598 7
16.473 -15.519 -4.569 6
15.844 -14.806 -4.544 6
15.278 -14.163 -4.531 5
14.73 -13.554 -4.513 5
14.233 -12.997 -4.504 6
13.764 -12.48 -4.499 7
13.303 -11.975 -4.483 6
12.873 -11.509 -4.474 7
12.465 -11.067 -4.465 8
12.072 -10.648 -4.456 8
11.713 -10.261 -4.455 9
9.962 -8.672 -3.535 22
9.061 -7.835 -3.121 4
8.799 -7.559 -3.121 4
8.906 -7.604 -3.381 3
9.048 -7.675 -3.672 3
25.305 -28.087 -1.953 41
25.478 -27.961 -2.435 40
25.678 -27.859 -2.922 35
25.807 -27.696 -3.394 34
26.095 -27.699 -3.906 33
26.345 -27.671 -4.415 22
26.704 -27.754 -4.958 32
25.918 -26.659 -5.15 10
24.28 -24.73 -5.035 5
22.814 -23.008 -4.922 13
21.536 -21.525 -4.834 6
20.453 -20.244 -4.771 5
19.461 -19.091 -4.713 7
18.614 -18.095 -4.681 6
17.78 -17.139 -4.631 6
17.048 -16.294 -4.598 7
16.377 -15.527 -4.573 6
15.745 -14.806 -4.544 6
15.186 -14.167 -4.533 5
14.656 -13.571 -4.523 5
14.148 -13.001 -4.506 6
13.683 -12.484 -4.501 7
13.235 -11.988 -4.491 6
12.806 -11.52 -4.481 7
12.392 -11.069 -4.466 8
12.011 -10.658 -4.463 8
11.652 -10.271 -4.462 9
9.865 -8.64 -3.51 26
9.015 -7.843 -3.127 4
8.749 -7.561 -3.123 4
8.842 -7.594 -3.372 3
8.987 -7.668 -3.666 3
25.215 -28.155 -1.964 44
25.396 -28.038 -2.45 39
25.582 -27.923 -2.935 38
25.729 -27.78 -3.414 36
26.006 -27.772 -3.924 26
26.265 -27.758 -4.438 30
26.518 -27.73 -4.952 23
25.72 -26.62 -5.139 11
24.095 -24.695 -5.024 5
22.665 -23.0 -4.92 22
21.399 -21.521 -4.833 6
20.323 -20.24 -4.77 5
19.334 -19.085 -4.711 7
18.491 -18.089 -4.678 6
17.672 -17.142 -4.632 6
16.945 -16.297 -4.6 8
16.276 -15.528 -4.574 6
15.655 -14.814 -4.548 5
15.095 -14.17 -4.534 6
14.57 -13.575 -4.525 5
14.071 -13.011 -4.512 5
13.611 -12.496 -4.508 8
13.161 -11.995 -4.495 7
12.737 -11.529 -4.487 7
12.326 -11.079 -4.473 7
11.947 -10.667 -4.469 8
11.598 -10.284 -4.472 9
9.832 -8.663 -3.528 24
8.969 -7.85 -3.133 5
8.709 -7.572 -3.131 4
8.792 -7.596 -3.374 3
8.925 -7.661 -3.659 3
25.131 -28.228 -1.977 36
25.308 -28.109 -2.464 41
25.443 -27.94 -2.939 35
25.622 -27.833 -3.426 32
25.892 -27.819 -3.936 33
26.126 -27.781 -4.444 31
26.332 -27.706 -4.945 31
25.532 -26.589 -5.129 12
23.931 -24.68 -5.019 5
22.51 -22.986 -4.915 24
21.24 -21.496 -4.824 5
20.178 -20.223 -4.763 5
19.209 -19.081 -4.709 7
18.372 -18.086 -4.677 6
17.558 -17.139 -4.631 7
16.839 -16.297 -4.6 7
16.175 -15.529 -4.574 6
15.559 -14.816 -4.549 5
15.003 -14.173 -4.536 5
14.485 -13.582 -4.529 6
13.991 -13.018 -4.516 6
13.535 -12.504 -4.513 8
13.09 -12.004 -4.501 6
12.664 -11.535 -4.491 7
12.261 -11.088 -4.479 8
11.883 -10.675 -4.475 8
11.532 -10.289 -4.476 9
9.783 -8.672 -3.535 20
8.923 -7.857 -3.138 4
8.661 -7.575 -3.134 4
8.728 -7.586 -3.365 3
8.869 -7.657 -3.656 3
24.993 -28.241 -1.98 41
25.212 -28.171 -2.476 45
25.397 -28.057 -2.964 39
25.578 -27.954 -3.454 37
25.735 -27.821 -3.936 34
25.926 -27.737 -4.432 44
26.144 -27.679 -4.937 22
25.354 -26.568 -5.123 13
23.756 -24.652 -5.01 5
22.361 -22.977 -4.912 22
21.098 -21.486 -4.82 5
20.051 -20.221 -4.762 5
19.085 -19.077 -4.708 8
18.251 -18.08 -4.674 7
17.45 -17.142 -4.632 6
16.739 -16.303 -4.602 7
16.08 -15.536 -4.577 6
15.471 -14.825 -4.554 6
14.918 -14.181 -4.54 5
14.399 -13.585 -4.53 5
13.912 -13.025 -4.52 6
13.455 -12.507 -4.515 11
13.016 -12.011 -4.505 5
12.598 -11.545 -4.498 7
12.198 -11.099 -4.487 8
11.824 -10.688 -4.484 8
11.469 -10.296 -4.48 9
9.74 -8.686 -3.546 24
8.877 -7.863 -3.144 4
8.616 -7.582 -3.14 4
8.67 -7.58 -3.361 3
8.805 -7.647 -3.648 3
24.917 -28.323 -1.994 50
25.156 -28.277 -2.496 39
25.311 -28.132 -2.98 40
25.452 -27.985 -3.461 37
25.661 -27.911 -3.959 37
25.873 -27.851 -4.463 34
25.937 -27.63 -4.923 21
25.174 -26.543 -5.115 10
23.576 -24.618 -4.999 5
22.218 -22.973 -4.91 12
20.951 -21.47 -4.815 5
19.915 -20.212 -4.758 5
18.961 -19.073 -4.706 8
18.14 -18.084 -4.676 6
17.342 -17.144 -4.633 7
16.636 -16.305 -4.603 7
15.982 -15.538 -4.579 6
15.383 -14.834 -4.558 5
14.829 -14.185 -4.542 5
14.318 -13.593 -4.535 6
13.835 -13.035 -4.526 6
13.382 -12.518 -4.521 13
12.943 -12.018 -4.51 6
12.528 -11.553 -4.502 7
12.133 -11.108 -4.493 8
11.76 -10.695 -4.489 8
11.415 -10.309 -4.49 9
9.712 -8.715 -3.567 24
8.831 -7.871 -3.149 4
8.572 -7.587 -3.144 4
8.614 -7.577 -3.358 3
8.744 -7.639 -3.641 3
24.936 -28.515 -2.028 34
25.033 -28.309 -2.503 42
25.235 -28.218 -2.998 38
25.367 -28.063 -3.479 38
25.574 -27.986 -3.978 36
25.774 -27.916 -4.48 35
25.798 -27.652 -4.929 22
24.987 -26.51 -5.105 7
23.415 -24.603 -4.994 5
