# .PCD v0.7 - Point Cloud Data file format
VERSION 0.7
FIELDS x y z intensity
SIZE 4 4 4 4
TYPE F F F F
COUNT 1 1 1 1
WIDTH 2311
HEIGHT 1
VIEWPOINT 0 0 0 1 0 0 0
POINTS 2311
DATA ascii
-46.459 -11.12 0.433 26
-46.763 -10.435 0.398 13
-47.59 -9.875 0.354 19
-48.949 -9.417 0.3 26
-54.121 -9.639 0.053 23
-31.492 -5.183 1.316 14
-70.331 -10.701 -0.685 5
0.0 -0.0 3.0 0
-130.573 -17.106 -3.566 16
0.0 -0.0 3.0 0
-29.485 -3.434 1.542 215
-120.646 -13.536 -3.026 12
-55.689 -6.144 0.135 228
-103.83 -11.477 -2.598 9
0.0 -0.0 3.0 0
-63.957 -7.511 -0.994 8
-53.622 -6.61 -0.664 21
-52.8 -6.892 -0.979 27
-57.205 -7.93 -1.765 3
-50.997 -7.527 -1.703 7
-46.862 -7.356 -1.777 9
-43.649 -7.282 -1.912 16
-40.413 -7.145 -2.003 7
-6.84 -1.279 2.071 4
-2.128 -0.42 2.684 0
-3.083 -0.639 2.501 0
-2.169 -0.472 2.618 0
-1.239 -0.281 2.764 0
-1.206 -0.286 2.752 26
0.0 -0.0 3.0 0
0.0 -0.0 3.0 0
0.0 -0.0 3.0 0
-46.495 -11.057 0.447 12
-47.011 -10.413 0.404 14
-47.878 -9.85 0.361 16
-49.195 -9.372 0.313 25
-54.429 -9.584 0.07 20
-31.531 -5.121 1.336 9
0.0 -0.0 3.0 0
0.0 -0.0 3.0 0
-130.982 -16.822 -3.458 16
0.0 -0.0 3.0 0
-29.492 -3.352 1.577 0
-120.155 -13.134 -2.848 19
-55.678 -5.982 0.211 255
0.0 -0.0 3.0 0
0.0 -0.0 3.0 0
-64.52 -7.41 -0.94 8
-53.694 -6.489 -0.597 2
-52.796 -6.772 -0.91 40
-57.689 -7.878 -1.733 4
-51.565 -7.512 -1.694 6
-47.234 -7.331 -1.761 9
-43.936 -7.258 -1.896 16
-7.443 -1.305 2.086 0
-6.885 -1.278 2.072 4
-2.144 -0.42 2.684 0
-1.974 -0.407 2.682 0
-2.139 -0.463 2.625 0
-1.243 -0.281 2.764 0
-1.203 -0.284 2.754 25
-44.562 -12.847 0.735 46
0.0 -0.0 3.0 0
0.0 -0.0 3.0 0
0.0 -0.0 3.0 0
-47.317 -10.402 0.406 14
-48.146 -9.822 0.368 17
-49.519 -9.342 0.321 24
-51.159 -8.908 0.277 6
-55.667 -8.925 0.1 20
-60.475 -8.928 -0.074 10
-130.18 -17.701 -3.443 14
-131.439 -16.545 -3.351 14
-29.481 -3.458 1.603 9
0.0 -0.0 3.0 0
0.0 -0.0 3.0 0
-55.623 -5.815 0.288 255
0.0 -0.0 3.0 0
0.0 -0.0 3.0 0
-53.688 -6.028 -0.205 2
-52.846 -6.259 -0.47 5
-52.914 -6.67 -0.851 24
-58.279 -7.838 -1.71 4
-52.207 -7.507 -1.691 6
-47.586 -7.304 -1.743 8
-44.247 -7.238 -1.882 13
-7.466 -1.298 2.091 4
-6.966 -1.283 2.068 9
0.0 -0.0 3.0 0
-2.017 -0.413 2.677 0
-2.159 -0.465 2.624 0
-1.255 -0.283 2.762 0
-1.199 -0.282 2.755 27
-44.577 -12.794 0.744 4
0.0 -0.0 3.0 0
-46.446 -11.695 0.514 16
0.0 -0.0 3.0 0
-47.56 -10.38 0.412 13
-48.445 -9.8 0.374 17
-49.639 -9.275 0.34 41
-51.46 -8.861 0.291 7
-55.97 -8.858 0.122 21
0.0 -0.0 3.0 0
-130.579 -17.445 -3.35 15
0.0 -0.0 3.0 0
-29.484 -3.38 1.634 255
0.0 -0.0 3.0 0
0.0 -0.0 3.0 0
-55.564 -5.648 0.366 255
0.0 -0.0 3.0 0
-101.146 -10.608 -2.405 31
-53.624 -5.884 -0.128 23
-52.777 -6.126 -0.396 39
0.0 -0.0 3.0 0
-58.881 -7.801 -1.687 4
-52.884 -7.506 -1.69 6
-47.965 -7.279 -1.727 8
-44.6 -7.225 -1.874 9
-7.523 -1.297 2.092 4
-2.349 -0.429 2.688 0
0.0 -0.0 3.0 0
-2.165 -0.441 2.655 1
-2.187 -0.468 2.621 1
-2.204 -0.494 2.586 2
-1.2 -0.281 2.756 27
0.0 -0.0 3.0 0
0.0 -0.0 3.0 0
-46.489 -11.64 0.526 22
0.0 -0.0 3.0 0
-47.842 -10.366 0.415 13
-48.728 -9.776 0.38 19
-50.006 -9.254 0.346 20
-54.822 -9.336 0.146 40
-56.302 -8.794 0.143 20
-57.188 -8.189 0.18 6
0.0 -0.0 3.0 0
0.0 -0.0 3.0 0
0.0 -0.0 3.0 0
0.0 -0.0 3.0 0
-119.306 -12.013 -2.349 16
-55.511 -5.483 0.443 255
0.0 -0.0 3.0 0
0.0 -0.0 3.0 0
-53.73 -5.759 -0.062 3
-52.804 -6.005 -0.328 36
0.0 -0.0 3.0 0
-59.416 -7.753 -1.658 4
-53.452 -7.488 -1.679 7
-48.336 -7.254 -1.711 8
-44.977 -7.217 -1.868 4
-7.565 -1.293 2.095 4
-2.615 -0.475 2.655 1
-3.123 -0.6 2.548 0
-2.162 -0.438 2.658 2
-2.176 -0.464 2.625 1
-2.185 -0.488 2.591 2
-1.2 -0.28 2.757 27
0.0 -0.0 3.0 0
0.0 -0.0 3.0 0
0.0 -0.0 3.0 0
0.0 -0.0 3.0 0
-48.123 -10.354 0.419 11
-49.015 -9.754 0.386 20
-49.92 -9.152 0.376 15
-54.761 -9.223 0.18 38
-56.617 -8.731 0.163 21
-57.595 -8.124 0.203 18
0.0 -0.0 3.0 0
-29.48 -3.489 1.661 8
0.0 -0.0 3.0 0
0.0 -0.0 3.0 0
0.0 -0.0 3.0 0
-55.478 -5.32 0.519 255
0.0 -0.0 3.0 0
0.0 -0.0 3.0 0
-54.268 -5.679 -0.02 2
-52.94 -5.896 -0.268 14
0.0 -0.0 3.0 0
-60.009 -7.712 -1.634 4
-54.137 -7.487 -1.678 8
-48.77 -7.239 -1.701 7
-8.317 -1.322 2.108 2
-7.673 -1.301 2.089 8
-3.014 -0.543 2.605 9
-2.167 -0.414 2.688 0
-2.162 -0.435 2.66 1
-2.18 -0.462 2.626 1
-2.19 -0.486 2.592 2
-1.2 -0.279 2.758 24
0.0 -0.0 3.0 0
-46.473 -12.329 0.603 9
0.0 -0.0 3.0 0
0.0 -0.0 3.0 0
0.0 -0.0 3.0 0
-49.277 -9.728 0.393 15
-50.176 -9.113 0.387 20
-51.623 -8.6 0.371 2
-56.943 -8.669 0.183 19
-57.942 -8.05 0.228 20
0.0 -0.0 3.0 0
-29.494 -3.417 1.688 24
0.0 -0.0 3.0 0
0.0 -0.0 3.0 0
0.0 -0.0 3.0 0
-55.457 -5.159 0.594 67
0.0 -0.0 3.0 0
-53.644 -5.192 0.354 31
-54.747 -5.592 0.027 6
-66.898 -7.296 -1.044 17
0.0 -0.0 3.0 0
-60.591 -7.67 -1.608 3
-54.648 -7.461 -1.662 7
-49.153 -7.216 -1.686 7
-8.37 -1.318 2.111 4
-2.563 -0.431 2.698 0
-3.042 -0.545 2.604 5
-2.187 -0.415 2.688 1
-2.179 -0.437 2.659 1
-2.185 -0.461 2.627 1
-2.187 -0.484 2.594 1
-1.197 -0.277 2.759 20
0.0 -0.0 3.0 0
-46.456 -12.268 0.615 25
0.0 -0.0 3.0 0
-48.358 -11.077 0.443 15
0.0 -0.0 3.0 0
-49.579 -9.71 0.398 16
-50.459 -9.081 0.396 19
-51.887 -8.551 0.386 27
-57.273 -8.608 0.203 19
-58.273 -7.974 0.254 21
-80.788 -10.047 -0.657 6
0.0 -0.0 3.0 0
0.0 -0.0 3.0 0
0.0 -0.0 3.0 0
0.0 -0.0 3.0 0
-55.383 -4.992 0.672 8
0.0 -0.0 3.0 0
-53.725 -5.057 0.424 3
-54.844 -5.465 0.094 4
-67.281 -7.183 -0.982 13
-68.967 -7.953 -1.591 6
-61.251 -7.637 -1.589 3
-55.333 -7.458 -1.66 6
-49.637 -7.208 -1.681 8
-8.432 -1.315 2.113 4
-7.78 -1.298 2.091 1
-3.024 -0.538 2.609 5
-2.18 -0.411 2.69 2
-2.168 -0.432 2.662 3
-2.182 -0.458 2.629 1
-2.176 -0.479 2.598 0
-1.186 -0.274 2.762 18
0.0 -0.0 3.0 0
0.0 -0.0 3.0 0
0.0 -0.0 3.0 0
-48.392 -11.02 0.456 20
0.0 -0.0 3.0 0
-49.841 -9.685 0.405 17
-50.782 -9.056 0.403 16
-52.191 -8.509 0.398 28
-57.603 -8.549 0.222 19
0.0 -0.0 3.0 0
-29.48 -3.601 1.689 19
0.0 -0.0 3.0 0
0.0 -0.0 3.0 0
0.0 -0.0 3.0 0
0.0 -0.0 3.0 0
-136.361 -11.9 -2.549 16
-53.687 -4.723 0.696 2
-115.223 -10.538 -2.369 16
0.0 -0.0 3.0 0
-67.659 -7.07 -0.919 8
0.0 -0.0 3.0 0
-61.912 -7.603 -1.568 4
-55.801 -7.426 -1.64 4
0.0 -0.0 3.0 0
-8.529 -1.318 2.111 6
0.0 -0.0 3.0 0
-2.384 -0.421 2.694 0
-2.177 -0.408 2.692 1
-2.161 -0.428 2.665 3
-2.175 -0.454 2.632 1
-1.227 -0.269 2.774 0
-1.194 -0.274 2.762 17
-46.49 -13.015 0.705 26
0.0 -0.0 3.0 0
0.0 -0.0 3.0 0
0.0 -0.0 3.0 0
0.0 -0.0 3.0 0
-50.131 -9.668 0.409 15
-51.064 -9.025 0.412 15
-52.502 -8.47 0.41 27
-54.319 -7.961 0.413 3
-42.016 -5.578 1.079 1
-29.505 -3.539 1.712 2
0.0 -0.0 3.0 0
-121.045 -11.97 -1.836 10
0.0 -0.0 3.0 0
0.0 -0.0 3.0 0
0.0 -0.0 3.0 0
-53.652 -4.569 0.771 38
-54.796 -4.866 0.521 16
0.0 -0.0 3.0 0
0.0 -0.0 3.0 0
0.0 -0.0 3.0 0
0.0 -0.0 3.0 0
-56.32 -7.401 -1.625 19
-9.433 -1.341 2.129 4
-2.871 -0.44 2.703 1
-2.949 -0.484 2.661 0
-2.228 -0.391 2.716 2
-2.189 -0.408 2.693 1
-2.169 -0.428 2.666 2
-2.183 -0.454 2.632 1
-1.208 -0.264 2.779 1
-1.194 -0.273 2.762 14
0.0 -0.0 3.0 0
0.0 -0.0 3.0 0
-48.345 -11.736 0.506 14
0.0 -0.0 3.0 0
0.0 -0.0 3.0 0
-50.423 -9.652 0.414 13
-51.397 -9.005 0.418 15
-52.837 -8.436 0.421 21
-54.591 -7.902 0.433 8
-59.307 -7.756 0.329 8
0.0 -0.0 3.0 0
0.0 -0.0 3.0 0
0.0 -0.0 3.0 0
0.0 -0.0 3.0 0
0.0 -0.0 3.0 0
0.0 -0.0 3.0 0
-53.727 -4.426 0.841 5
-54.868 -4.728 0.591 3
0.0 -0.0 3.0 0
0.0 -0.0 3.0 0
0.0 -0.0 3.0 0
0.0 -0.0 3.0 0
-56.921 -7.387 -1.616 9
-9.511 -1.338 2.131 4
-8.691 -1.319 2.11 0
-2.797 -0.456 2.681 1
-2.213 -0.385 2.72 2
-2.182 -0.405 2.695 3
-2.17 -0.426 2.667 2
-1.299 -0.269 2.782 0
-1.189 -0.259 2.783 0
-1.183 -0.27 2.765 12
0.0 -0.0 3.0 0
0.0 -0.0 3.0 0
-48.37 -11.686 0.516 24
0.0 -0.0 3.0 0
-50.263 -10.393 0.409 41
-50.716 -9.638 0.418 12
-51.671 -8.975 0.426 17
-53.116 -8.394 0.434 18
-58.633 -8.383 0.276 21
-29.491 -3.8 1.692 12
0.0 -0.0 3.0 0
0.0 -0.0 3.0 0
0.0 -0.0 3.0 0
-121.67 -10.465 -1.442 13
0.0 -0.0 3.0 0
0.0 -0.0 3.0 0
-54.586 -4.343 0.882 7
0.0 -0.0 3.0 0
0.0 -0.0 3.0 0
-85.312 -8.349 -1.628 10
0.0 -0.0 3.0 0
-63.971 -7.509 -1.512 6
-57.27 -7.341 -1.587 10
-3.271 -0.455 2.705 0
0.0 -0.0 3.0 0
-2.849 -0.461 2.677 1
-2.198 -0.381 2.723 2
-2.179 -0.401 2.697 3
-2.163 -0.422 2.67 1
-1.187 -0.245 2.802 0
-1.132 -0.245 2.794 1
-1.145 -0.26 2.774 5
0.0 -0.0 3.0 0
0.0 -0.0 3.0 0
0.0 -0.0 3.0 0
0.0 -0.0 3.0 0
0.0 -0.0 3.0 0
0.0 -0.0 3.0 0
-52.0 -8.956 0.432 15
-52.968 -8.287 0.466 19
-58.957 -8.327 0.294 19
-59.435 -7.545 0.402 39
0.0 -0.0 3.0 0
0.0 -0.0 3.0 0
0.0 -0.0 3.0 0
0.0 -0.0 3.0 0
0.0 -0.0 3.0 0
-53.665 -4.067 1.104 44
-54.749 -4.204 0.95 21
0.0 -0.0 3.0 0
-98.86 -8.648 -1.598 25
-85.521 -8.185 -1.537 12
0.0 -0.0 3.0 0
0.0 -0.0 3.0 0
-10.828 -1.371 2.143 1
-3.268 -0.451 2.707 0
-2.964 -0.442 2.702 0
-3.113 -0.5 2.65 1
-2.218 -0.382 2.723 2
-2.175 -0.399 2.7 3
-1.48 -0.288 2.775 0
-1.121 -0.231 2.813 2
-1.105 -0.239 2.8 3
-1.1 -0.249 2.784 3
0.0 -0.0 3.0 0
-48.418 -12.467 0.577 26
0.0 -0.0 3.0 0
0.0 -0.0 3.0 0
0.0 -0.0 3.0 0
0.0 -0.0 3.0 0
-52.293 -8.933 0.439 15
-53.262 -8.25 0.478 20
-54.714 -7.636 0.519 6
-59.45 -7.437 0.439 8
-61.393 -6.848 0.507 13
0.0 -0.0 3.0 0
0.0 -0.0 3.0 0
0.0 -0.0 3.0 0
0.0 -0.0 3.0 0
-53.726 -3.918 1.173 4
0.0 -0.0 3.0 0
0.0 -0.0 3.0 0
0.0 -0.0 3.0 0
0.0 -0.0 3.0 0
0.0 -0.0 3.0 0
0.0 -0.0 3.0 0
-10.922 -1.366 2.147 4
-4.098 -0.559 2.637 34
-2.981 -0.441 2.702 2
-3.098 -0.494 2.654 1
-2.184 -0.374 2.729 4
-2.18 -0.398 2.7 1
-1.488 -0.288 2.775 1
-1.126 -0.231 2.813 3
-1.109 -0.239 2.8 4
-1.104 -0.25 2.783 4
0.0 -0.0 3.0 0
0.0 -0.0 3.0 0
0.0 -0.0 3.0 0
-50.28 -11.088 0.44 36
0.0 -0.0 3.0 0
-52.169 -9.708 0.399 23
-52.593 -8.911 0.445 15
-53.583 -8.22 0.487 17
-55.044 -7.592 0.533 21
-59.381 -7.322 0.479 4
-61.789 -6.77 0.536 20
0.0 -0.0 3.0 0
0.0 -0.0 3.0 0
0.0 -0.0 3.0 0
0.0 -0.0 3.0 0
-54.916 -3.847 1.206 4
0.0 -0.0 3.0 0
-115.715 -8.766 -1.467 22
0.0 -0.0 3.0 0
0.0 -0.0 3.0 0
0.0 -0.0 3.0 0
0.0 -0.0 3.0 0
-3.649 -0.451 2.718 0
-4.131 -0.558 2.638 1
-3.096 -0.455 2.693 2
-2.187 -0.347 2.757 2
-2.18 -0.371 2.731 5
-1.65 -0.299 2.774 1
0.0 -0.0 3.0 0
-1.165 -0.237 2.808 3
-1.113 -0.239 2.8 7
-1.1 -0.247 2.785 4
-125.363 -34.362 -3.059 21
-126.205 -32.254 -3.27 19
0.0 -0.0 3.0 0
0.0 -0.0 3.0 0
0.0 -0.0 3.0 0
-52.209 -9.651 0.414 9
-52.929 -8.899 0.448 15
-53.916 -8.193 0.495 17
-55.429 -7.557 0.545 24
-61.101 -7.427 0.443 14
-62.158 -6.689 0.566 19
0.0 -0.0 3.0 0
0.0 -0.0 3.0 0
0.0 -0.0 3.0 0
-53.677 -3.727 1.341 56
-54.79 -3.681 1.283 17
0.0 -0.0 3.0 0
-116.193 -8.505 -1.334 15
-100.153 -8.061 -1.286 10
0.0 -0.0 3.0 0
0.0 -0.0 3.0 0
0.0 -0.0 3.0 0
-4.707 -0.575 2.64 1
-3.164 -0.424 2.725 0
-3.108 -0.453 2.695 2
-2.184 -0.344 2.759 3
-2.161 -0.365 2.735 2
0.0 -0.0 3.0 0
-1.407 -0.27 2.789 1
-1.149 -0.233 2.811 3
-1.117 -0.239 2.8 8
-1.097 -0.246 2.786 8
-125.337 -34.248 -3.039 19
0.0 -0.0 3.0 0
0.0 -0.0 3.0 0
0.0 -0.0 3.0 0
0.0 -0.0 3.0 0
0.0 -0.0 3.0 0
-53.212 -8.878 0.454 13
-54.248 -8.168 0.503 17
-55.767 -7.517 0.558 22
-61.46 -7.366 0.464 8
-62.53 -6.61 0.594 20
0.0 -0.0 3.0 0
0.0 -0.0 3.0 0
0.0 -0.0 3.0 0
-53.733 -3.581 1.406 5
0.0 -0.0 3.0 0
0.0 -0.0 3.0 0
0.0 -0.0 3.0 0
-100.69 -7.876 -1.188 8
0.0 -0.0 3.0 0
0.0 -0.0 3.0 0
-12.729 -1.389 2.165 4
-3.802 -0.459 2.713 0
-3.153 -0.418 2.729 2
-3.105 -0.449 2.697 3
-2.181 -0.341 2.762 2
-1.978 -0.332 2.759 2
-1.643 -0.295 2.778 1
-1.376 -0.263 2.794 1
-1.154 -0.233 2.811 3
-1.114 -0.237 2.801 8
-1.104 -0.247 2.785 9
0.0 -0.0 3.0 0
0.0 -0.0 3.0 0
-50.279 -11.842 0.483 41
0.0 -0.0 3.0 0
-52.142 -10.419 0.402 14
0.0 -0.0 3.0 0
-53.535 -8.866 0.458 11
-54.556 -8.141 0.511 15
-56.1 -7.479 0.57 22
-57.965 -6.851 0.641 7
-62.905 -6.534 0.622 20
0.0 -0.0 3.0 0
0.0 -0.0 3.0 0
0.0 -0.0 3.0 0
0.0 -0.0 3.0 0
-55.676 -3.422 1.404 17
0.0 -0.0 3.0 0
0.0 -0.0 3.0 0
0.0 -0.0 3.0 0
0.0 -0.0 3.0 0
0.0 -0.0 3.0 0
-12.863 -1.384 2.168 5
-4.686 -0.56 2.65 3
-3.118 -0.41 2.734 2
-3.11 -0.446 2.699 4
-2.114 -0.329 2.77 1
-1.908 -0.319 2.768 2
-1.577 -0.282 2.787 1
-1.384 -0.263 2.794 2
-1.189 -0.239 2.806 3
-1.114 -0.237 2.802 10
-1.097 -0.245 2.787 9
0.0 -0.0 3.0 0
0.0 -0.0 3.0 0
0.0 -0.0 3.0 0
0.0 -0.0 3.0 0
-52.207 -10.38 0.412 14
0.0 -0.0 3.0 0
-54.071 -8.89 0.451 33
-54.903 -8.121 0.517 19
-56.297 -7.425 0.587 14
-59.041 -6.884 0.63 15
-63.284 -6.46 0.649 20
-75.945 -6.744 0.411 4
0.0 -0.0 3.0 0
-53.68 -3.625 1.461 69
-54.81 -3.346 1.51 14
-56.063 -3.285 1.468 8
0.0 -0.0 3.0 0
0.0 -0.0 3.0 0
0.0 -0.0 3.0 0
0.0 -0.0 3.0 0
0.0 -0.0 3.0 0
-4.795 -0.509 2.694 0
-4.707 -0.556 2.652 18
-3.111 -0.405 2.737 2
-3.11 -0.443 2.701 3
-2.06 -0.318 2.777 3
-1.877 -0.312 2.773 2
-1.511 -0.269 2.797 2
-1.385 -0.262 2.795 2
-1.251 -0.252 2.796 3
-1.099 -0.233 2.805 9
-1.093 -0.243 2.789 13
0.0 -0.0 3.0 0
-128.371 -32.374 -3.293 18
0.0 -0.0 3.0 0
0.0 -0.0 3.0 0
0.0 -0.0 3.0 0
0.0 -0.0 3.0 0
0.0 -0.0 3.0 0
-55.23 -8.1 0.523 15
-56.277 -7.345 0.614 18
-58.973 -6.786 0.664 26
-63.654 -6.387 0.675 18
-68.246 -5.925 0.726 4
0.0 -0.0 3.0 0
-53.734 -3.493 1.517 5
0.0 -0.0 3.0 0
-56.401 -3.144 1.534 6
-57.714 -3.317 1.382 34
0.0 -0.0 3.0 0
0.0 -0.0 3.0 0
0.0 -0.0 3.0 0
-15.189 -1.412 2.185 2
-4.594 -0.481 2.711 1
-4.715 -0.551 2.656 16
-3.119 -0.403 2.739 3
-2.039 -0.289 2.805 0
-2.04 -0.313 2.781 3
-1.771 -0.293 2.787 2
-1.515 -0.269 2.797 2
-1.396 -0.264 2.794 3
-1.305 -0.261 2.788 3
-1.095 -0.231 2.806 9
-1.101 -0.244 2.788 12
0.0 -0.0 3.0 0
-128.763 -32.376 -3.293 18
0.0 -0.0 3.0 0
-52.187 -11.209 0.412 12
0.0 -0.0 3.0 0
-54.075 -9.702 0.4 22
0.0 -0.0 3.0 0
-55.565 -8.083 0.529 17
-56.6 -7.312 0.624 16
-58.555 -6.651 0.71 11
-64.016 -6.316 0.701 18
0.0 -0.0 3.0 0
0.0 -0.0 3.0 0
0.0 -0.0 3.0 0
0.0 -0.0 3.0 0
0.0 -0.0 3.0 0
-58.128 -3.183 1.448 27
0.0 -0.0 3.0 0
0.0 -0.0 3.0 0
0.0 -0.0 3.0 0
-6.743 -0.617 2.644 0
-4.781 -0.494 2.703 12
-3.111 -0.36 2.775 2
-3.112 -0.398 2.741 3
-2.019 -0.283 2.809 0
-2.009 -0.307 2.785 3
-1.615 -0.266 2.807 4
-1.523 -0.269 2.798 3
-1.412 -0.266 2.792 3
-1.286 -0.257 2.792 2
-1.095 -0.231 2.806 11
-1.105 -0.245 2.787 12
0.0 -0.0 3.0 0
-129.208 -32.396 -3.297 20
0.0 -0.0 3.0 0
-52.243 -11.179 0.419 6
0.0 -0.0 3.0 0
-54.12 -9.659 0.412 5
0.0 -0.0 3.0 0
-55.938 -8.074 0.532 17
-56.971 -7.288 0.632 15
-58.47 -6.558 0.742 24
-64.035 -6.215 0.738 36
-65.565 -5.446 0.91 10
0.0 -0.0 3.0 0
-54.879 -3.294 1.602 11
-127.2 -6.71 0.013 15
0.0 -0.0 3.0 0
-58.346 -3.037 1.519 7
0.0 -0.0 3.0 0
0.0 -0.0 3.0 0
0.0 -0.0 3.0 0
-6.768 -0.609 2.649 2
0.0 -0.0 3.0 0
-3.116 -0.357 2.777 4
-2.349 -0.299 2.806 1
-2.004 -0.28 2.811 0
-1.951 -0.296 2.792 2
-1.592 -0.261 2.81 9
-1.547 -0.272 2.795 4
-1.381 -0.259 2.798 2
-1.294 -0.257 2.792 2
-1.099 -0.231 2.806 10
-1.109 -0.245 2.787 14
0.0 -0.0 3.0 0
0.0 -0.0 3.0 0
0.0 -0.0 3.0 0
0.0 -0.0 3.0 0
0.0 -0.0 3.0 0
0.0 -0.0 3.0 0
-55.98 -8.967 0.429 4
-56.264 -8.061 0.536 14
-57.317 -7.263 0.64 15
-58.841 -6.52 0.755 42
-63.958 -6.109 0.777 36
-65.994 -5.363 0.941 17
-89.904 -6.141 0.519 10
0.0 -0.0 3.0 0
0.0 -0.0 3.0 0
-126.397 -5.964 0.219 19
-58.688 -2.897 1.587 4
0.0 -0.0 3.0 0
0.0 -0.0 3.0 0
-100.329 -7.675 -1.254 12
-5.157 -0.456 2.736 3
-4.076 -0.411 2.753 4
-3.112 -0.353 2.779 2
-2.31 -0.291 2.811 1
-2.016 -0.28 2.811 0
-1.837 -0.277 2.806 2
-1.588 -0.259 2.812 9
-1.52 -0.267 2.799 2
-1.389 -0.26 2.797 2
-1.318 -0.261 2.788 2
-1.103 -0.231 2.806 8
-1.121 -0.247 2.785 14
0.0 -0.0 3.0 0
0.0 -0.0 3.0 0
-130.807 -30.195 -3.418 17
0.0 -0.0 3.0 0
-54.061 -10.512 0.379 14
0.0 -0.0 3.0 0
-55.969 -8.914 0.444 36
-56.617 -8.053 0.538 14
-57.707 -7.247 0.645 16
-59.284 -6.492 0.765 19
-63.909 -6.009 0.813 31
-66.411 -5.282 0.972 19
0.0 -0.0 3.0 0
0.0 -0.0 3.0 0
0.0 -0.0 3.0 0
0.0 -0.0 3.0 0
0.0 -0.0 3.0 0
0.0 -0.0 3.0 0
0.0 -0.0 3.0 0
0.0 -0.0 3.0 0
-5.011 -0.437 2.748 0
-4.045 -0.403 2.758 10
-2.728 -0.306 2.809 2
-2.306 -0.289 2.812 1
-2.028 -0.28 2.811 1
-1.829 -0.275 2.808 2
-1.588 -0.258 2.813 10
-1.524 -0.266 2.8 2
-1.401 -0.261 2.796 2
-1.31 -0.259 2.79 1
-1.115 -0.233 2.804 7
-1.125 -0.248 2.785 14
0.0 -0.0 3.0 0
0.0 -0.0 3.0 0
0.0 -0.0 3.0 0
0.0 -0.0 3.0 0
-54.12 -10.484 0.386 7
0.0 -0.0 3.0 0
0.0 -0.0 3.0 0
0.0 -0.0 3.0 0
-58.053 -7.228 0.652 14
-59.686 -6.463 0.774 17
-61.685 -5.713 0.921 6
-66.816 -5.205 1.002 18
-54.321 -3.495 1.588 7
0.0 -0.0 3.0 0
0.0 -0.0 3.0 0
0.0 -0.0 3.0 0
-60.08 -2.645 1.71 4
0.0 -0.0 3.0 0
0.0 -0.0 3.0 0
-4.871 -0.357 2.802 0
-5.999 -0.514 2.703 50
-3.052 -0.301 2.819 1
-2.808 -0.313 2.805 3
-2.346 -0.291 2.811 2
-2.036 -0.279 2.812 2
-1.81 -0.271 2.81 1
-1.585 -0.256 2.814 15
-1.528 -0.266 2.8 3
-1.405 -0.261 2.796 1
-1.322 -0.261 2.789 1
-1.146 -0.239 2.8 2
-1.129 -0.248 2.785 13
0.0 -0.0 3.0 0
0.0 -0.0 3.0 0
0.0 -0.0 3.0 0
0.0 -0.0 3.0 0
0.0 -0.0 3.0 0
0.0 -0.0 3.0 0
0.0 -0.0 3.0 0
-57.864 -8.121 0.517 26
-58.398 -7.212 0.657 15
-59.781 -6.405 0.795 9
-63.788 -5.824 0.88 29
-67.224 -5.131 1.03 19
-54.385 -3.397 1.628 7
0.0 -0.0 3.0 0
0.0 -0.0 3.0 0
-124.307 -4.801 0.761 18
0.0 -0.0 3.0 0
0.0 -0.0 3.0 0
0.0 -0.0 3.0 0
-4.888 -0.351 2.805 3
-4.085 -0.345 2.801 2
-2.985 -0.291 2.825 2
-2.836 -0.314 2.804 4
-2.287 -0.283 2.817 3
-2.072 -0.283 2.809 1
-1.799 -0.267 2.813 2
-1.577 -0.255 2.815 17
-1.544 -0.268 2.798 2
-1.41 -0.261 2.796 1
-1.349 -0.266 2.785 1
-1.2 -0.25 2.79 2
-1.133 -0.248 2.784 11
0.0 -0.0 3.0 0
0.0 -0.0 3.0 0
0.0 -0.0 3.0 0
0.0 -0.0 3.0 0
0.0 -0.0 3.0 0
-55.97 -9.765 0.383 40
0.0 -0.0 3.0 0
0.0 -0.0 3.0 0
-58.79 -7.204 0.659 14
-59.896 -6.352 0.813 19
-63.692 -5.735 0.912 31
-67.627 -5.062 1.057 17
-54.539 -3.308 1.663 3
0.0 -0.0 3.0 0
0.0 -0.0 3.0 0
-99.662 -3.565 1.338 28
-124.88 -4.844 0.638 12
-61.65 -2.903 1.521 4
-130.05 -7.561 -1.02 13
-4.884 -0.344 2.809 12
-3.627 -0.303 2.825 1
-2.977 -0.287 2.828 2
-2.793 -0.306 2.809 4
-2.292 -0.281 2.818 2
-2.017 -0.274 2.815 0
-1.803 -0.267 2.813 1
-1.577 -0.254 2.816 16
-1.536 -0.266 2.8 1
-1.429 -0.264 2.794 1
-4.754 -0.934 2.244 1
-1.204 -0.25 2.79 3
-1.156 -0.253 2.78 9
0.0 -0.0 3.0 0
-131.201 -32.444 -3.306 17
-132.55 -30.295 -3.439 17
0.0 -0.0 3.0 0
0.0 -0.0 3.0 0
0.0 -0.0 3.0 0
0.0 -0.0 3.0 0
0.0 -0.0 3.0 0
-59.142 -7.195 0.662 14
-60.281 -6.332 0.82 17
-63.648 -5.657 0.941 37
-68.014 -4.995 1.082 19
0.0 -0.0 3.0 0
0.0 -0.0 3.0 0
-99.955 -3.666 1.368 18
-99.51 -3.275 1.473 31
-61.314 -2.221 1.917 32
0.0 -0.0 3.0 0
-8.65 -0.489 2.74 0
-4.861 -0.336 2.814 16
-3.751 -0.308 2.822 3
-3.009 -0.288 2.827 3
-2.638 -0.287 2.821 3
-2.248 -0.274 2.822 1
-2.025 -0.273 2.816 0
-1.827 -0.27 2.811 1
-1.573 -0.252 2.817 19
-1.548 -0.267 2.799 1
-1.445 -0.267 2.792 0
-7.059 -1.384 1.879 9
-1.185 -0.246 2.794 3
-1.164 -0.254 2.779 10
0.0 -0.0 3.0 0
-131.599 -32.485 -3.314 20
0.0 -0.0 3.0 0
0.0 -0.0 3.0 0
-55.979 -10.707 0.331 8
0.0 -0.0 3.0 0
-57.868 -8.996 0.42 27
0.0 -0.0 3.0 0
-59.509 -7.192 0.663 14
-60.657 -6.315 0.825 14
-62.372 -5.476 1.007 18
-68.46 -4.939 1.104 15
0.0 -0.0 3.0 0
0.0 -0.0 3.0 0
-99.814 -3.405 1.484 22
-99.369 -2.987 1.607 28
-61.849 -2.084 1.983 5
0.0 -0.0 3.0 0
-7.801 -0.429 2.772 0
-4.845 -0.329 2.818 17
-3.819 -0.31 2.821 6
-3.038 -0.287 2.828 2
-2.559 -0.276 2.827 2
-2.268 -0.275 2.821 1
-2.045 -0.275 2.815 1
-1.815 -0.267 2.813 0
-1.57 -0.251 2.818 20
-1.591 -0.273 2.794 0
-7.662 -1.41 1.898 4
-7.102 -1.39 1.874 8
-1.185 -0.246 2.794 4
-1.168 -0.255 2.779 10
0.0 -0.0 3.0 0
0.0 -0.0 3.0 0
0.0 -0.0 3.0 0
0.0 -0.0 3.0 0
-56.043 -10.691 0.334 12
0.0 -0.0 3.0 0
-57.897 -8.967 0.429 3
0.0 -0.0 3.0 0
-59.868 -7.191 0.664 13
-61.053 -6.305 0.829 14
-62.769 -5.448 1.017 26
-68.646 -4.87 1.131 45
-70.109 -3.917 1.418 3
-94.676 -4.005 1.3 10
-99.672 -3.15 1.598 23
-99.223 -2.701 1.741 31
-4.861 -0.152 2.926 1
-4.719 -0.195 2.901 0
-7.921 -0.424 2.775 88
-4.834 -0.322 2.821 18
-3.851 -0.309 2.821 4
-2.982 -0.28 2.832 3
-2.564 -0.275 2.828 2
-2.273 -0.275 2.822 2
-2.085 -0.279 2.812 0
-3.378 -0.496 2.653 4
-1.574 -0.251 2.818 19
-4.888 -0.839 2.367 16
-4.702 -0.864 2.325 0
-7.149 -1.397 1.869 9
-1.189 -0.246 2.794 7
-1.168 -0.254 2.779 6
0.0 -0.0 3.0 0
0.0 -0.0 3.0 0
0.0 -0.0 3.0 0
0.0 -0.0 3.0 0
0.0 -0.0 3.0 0
0.0 -0.0 3.0 0
0.0 -0.0 3.0 0
-59.72 -8.167 0.503 23
0.0 -0.0 3.0 0
-61.444 -6.297 0.832 13
-63.177 -5.426 1.025 19
-68.536 -4.787 1.162 36
-70.582 -3.845 1.446 16
0.0 -0.0 3.0 0
-4.83 -0.141 2.937 0
-99.08 -2.414 1.874 30
-4.85 -0.14 2.932 8
-4.719 -0.186 2.905 1
-4.927 -0.257 2.864 0
-4.559 -0.299 2.834 6
-3.613 -0.287 2.834 4
-2.971 -0.276 2.834 3
-2.588 -0.276 2.827 2
-2.34 -0.281 2.817 1
-3.527 -0.47 2.683 4
-3.363 -0.492 2.656 4
-1.57 -0.249 2.819 17
-4.693 -0.804 2.394 17
-4.675 -0.857 2.33 2
-7.193 -1.403 1.864 8
-1.193 -0.247 2.793 8
-1.161 -0.253 2.78 4
0.0 -0.0 3.0 0
0.0 -0.0 3.0 0
0.0 -0.0 3.0 0
0.0 -0.0 3.0 0
0.0 -0.0 3.0 0
-57.888 -9.945 0.335 33
0.0 -0.0 3.0 0
-59.788 -8.145 0.51 14
0.0 -0.0 3.0 0
-61.831 -6.294 0.833 16
-63.405 -5.395 1.036 42
-65.749 -4.527 1.262 4
-71.019 -3.78 1.473 15
-85.888 -3.331 1.586 7
-4.814 -0.129 2.943 2
-98.944 -2.129 2.007 30
-4.842 -0.129 2.937 7
-4.72 -0.178 2.909 7
-4.928 -0.251 2.867 1
-4.556 -0.295 2.836 7
-3.589 -0.282 2.837 4
-2.999 -0.277 2.833 2
-2.639 -0.28 2.825 1
-4.712 -0.564 2.634 33
-3.543 -0.471 2.683 5
-3.406 -0.497 2.652 4
-1.57 -0.249 2.819 15
-4.717 -0.806 2.392 26
-4.656 -0.852 2.334 17
-7.236 -1.41 1.858 8
-1.182 -0.244 2.795 8
-1.176 -0.255 2.778 3
0.0 -0.0 3.0 0
0.0 -0.0 3.0 0
0.0 -0.0 3.0 0
0.0 -0.0 3.0 0
0.0 -0.0 3.0 0
0.0 -0.0 3.0 0
0.0 -0.0 3.0 0
0.0 -0.0 3.0 0
-61.609 -7.29 0.631 24
-62.229 -6.297 0.832 15
-63.524 -5.359 1.049 13
-66.077 -4.492 1.276 4
-71.475 -3.724 1.495 16
-84.875 -3.161 1.658 10
-4.822 -0.118 2.948 12
-4.807 -0.09 2.958 1
-4.846 -0.118 2.942 4
-4.716 -0.171 2.913 19
-4.936 -0.246 2.869 4
-4.759 -0.304 2.831 21
-3.586 -0.28 2.838 2
-3.07 -0.282 2.83 2
-5.025 -0.531 2.668 27
-4.721 -0.563 2.634 25
-3.539 -0.469 2.683 5
-3.544 -0.516 2.639 3
-1.566 -0.248 2.82 14
-4.729 -0.807 2.392 24
-4.68 -0.856 2.332 29
-7.287 -1.418 1.852 8
-1.178 -0.243 2.796 7
-1.172 -0.254 2.779 4
0.0 -0.0 3.0 0
0.0 -0.0 3.0 0
0.0 -0.0 3.0 0
0.0 -0.0 3.0 0
0.0 -0.0 3.0 0
0.0 -0.0 3.0 0
-59.743 -9.147 0.377 8
0.0 -0.0 3.0 0
-61.676 -7.27 0.638 5
-62.606 -6.303 0.83 14
-63.827 -5.346 1.054 18
-68.335 -4.593 1.237 47
-71.915 -3.676 1.515 17
0.0 -0.0 3.0 0
-4.819 -0.108 2.952 31
-4.807 -0.076 2.965 2
-4.863 -0.108 2.947 4
-4.72 -0.165 2.916 29
-4.912 -0.24 2.873 19
-4.895 -0.309 2.829 31
-3.649 -0.282 2.837 0
-4.749 -0.434 2.739 38
-4.982 -0.525 2.672 25
-4.733 -0.562 2.635 30
-3.559 -0.471 2.683 4
-1.619 -0.235 2.836 0
-1.562 -0.247 2.821 11
-4.741 -0.808 2.391 32
-4.684 -0.855 2.332 45
-7.346 -1.428 1.844 8
-1.174 -0.242 2.797 9
-1.18 -0.256 2.778 5
0.0 -0.0 3.0 0
0.0 -0.0 3.0 0
-78.664 -17.795 -0.782 14
0.0 -0.0 3.0 0
0.0 -0.0 3.0 0
0.0 -0.0 3.0 0
-59.777 -9.135 0.381 14
0.0 -0.0 3.0 0
0.0 -0.0 3.0 0
-63.003 -6.316 0.825 13
-64.264 -5.349 1.053 14
-68.255 -4.544 1.256 31
-72.358 -3.638 1.53 15
-76.342 -2.647 1.876 6
-4.807 -0.099 2.956 40
-4.808 -0.063 2.971 23
-4.855 -0.098 2.952 16
-4.733 -0.159 2.919 32
-4.913 -0.236 2.875 15
-4.784 -0.299 2.834 21
-4.853 -0.373 2.784 18
-4.749 -0.432 2.74 41
-4.915 -0.515 2.678 23
-4.745 -0.563 2.635 32
-3.587 -0.473 2.681 4
-1.611 -0.233 2.837 0
-1.559 -0.246 2.821 9
-4.753 -0.809 2.391 29
-4.692 -0.855 2.332 41
-7.389 -1.434 1.838 8
-1.178 -0.243 2.797 10
-1.184 -0.257 2.777 3
0.0 -0.0 3.0 0
0.0 -0.0 3.0 0
0.0 -0.0 3.0 0
0.0 -0.0 3.0 0
0.0 -0.0 3.0 0
0.0 -0.0 3.0 0
0.0 -0.0 3.0 0
-61.615 -8.305 0.461 21
0.0 -0.0 3.0 0
-63.415 -6.335 0.819 11
-64.653 -5.355 1.051 14
-66.494 -4.393 1.314 18
-72.788 -3.612 1.541 15
0.0 -0.0 3.0 0
-4.799 -0.091 2.96 42
-4.8 -0.049 2.977 25
-4.855 -0.091 2.956 24
-4.741 -0.156 2.921 26
-4.913 -0.232 2.876 18
-4.708 -0.292 2.838 30
-4.797 -0.367 2.788 14
-4.753 -0.431 2.741 41
-4.911 -0.514 2.679 29
-4.745 -0.561 2.635 26
-3.611 -0.476 2.679 2
-1.623 -0.235 2.836 0
-1.559 -0.246 2.822 8
-4.769 -0.811 2.389 29
-4.704 -0.857 2.33 32
-7.44 -1.443 1.831 8
-1.182 -0.243 2.796 12
-1.188 -0.258 2.776 1
0.0 -0.0 3.0 0
0.0 -0.0 3.0 0
0.0 -0.0 3.0 0
0.0 -0.0 3.0 0
0.0 -0.0 3.0 0
0.0 -0.0 3.0 0
0.0 -0.0 3.0 0
-61.656 -8.298 0.463 7
0.0 -0.0 3.0 0
0.0 -0.0 3.0 0
-65.09 -5.371 1.045 13
-66.943 -4.396 1.312 22
-73.153 -3.593 1.548 19
-4.765 -0.157 2.934 0
-4.803 -0.084 2.963 30
-4.78 -0.034 2.984 40
-4.847 -0.084 2.959 30
-4.809 -0.154 2.922 26
-4.929 -0.231 2.877 27
-4.708 -0.29 2.839 30
-4.821 -0.367 2.788 16
-4.762 -0.43 2.742 37
-4.883 -0.51 2.681 33
-4.761 -0.562 2.635 20
-3.635 -0.478 2.677 1
-1.627 -0.235 2.835 0
-1.555 -0.245 2.822 8
-4.785 -0.813 2.387 23
-4.712 -0.858 2.33 2
-7.494 -1.454 1.823 8
-1.186 -0.244 2.795 12
-1.215 -0.263 2.772 0
0.0 -0.0 3.0 0
0.0 -0.0 3.0 0
0.0 -0.0 3.0 0
0.0 -0.0 3.0 0
0.0 -0.0 3.0 0
0.0 -0.0 3.0 0
0.0 -0.0 3.0 0
0.0 -0.0 3.0 0
-63.51 -7.421 0.589 33
0.0 -0.0 3.0 0
-65.509 -5.392 1.037 14
-67.355 -4.406 1.309 18
-56.754 -2.768 1.882 4
-4.777 -0.155 2.934 3
-4.803 -0.08 2.965 10
-4.78 -0.021 2.99 44
-4.755 -0.077 2.962 34
-4.841 -0.152 2.922 24
-4.881 -0.227 2.879 25
-4.72 -0.289 2.84 26
-4.881 -0.37 2.786 24
-4.762 -0.429 2.742 35
-4.824 -0.503 2.686 38
-4.777 -0.563 2.634 15
-4.84 -0.636 2.571 53
-1.631 -0.236 2.835 0
-1.559 -0.245 2.822 7
-1.722 -0.292 2.78 0
-4.716 -0.858 2.329 0
-7.549 -1.463 1.815 9
-1.19 -0.244 2.795 11
-1.23 -0.266 2.768 0
0.0 -0.0 3.0 0
0.0 -0.0 3.0 0
0.0 -0.0 3.0 0
0.0 -0.0 3.0 0
0.0 -0.0 3.0 0
0.0 -0.0 3.0 0
-61.671 -9.39 0.308 41
0.0 -0.0 3.0 0
0.0 -0.0 3.0 0
-65.356 -6.495 0.764 14
-65.94 -5.422 1.027 18
-67.83 -4.429 1.3 19
-56.622 -2.752 1.888 9
-4.773 -0.154 2.935 13
-4.795 -0.077 2.966 3
-4.776 -0.007 2.997 54
-4.731 -0.075 2.963 34
-4.897 -0.153 2.922 28
-4.841 -0.224 2.881 44
-4.732 -0.29 2.839 20
-4.901 -0.372 2.785 52
-4.714 -0.424 2.745 27
-4.744 -0.495 2.691 35
-4.801 -0.566 2.632 16
-5.006 -0.658 2.557 30
-1.631 -0.236 2.835 0
-1.606 -0.252 2.817 12
-1.714 -0.291 2.781 8
-1.727 -0.314 2.754 0
-7.595 -1.472 1.808 10
-1.182 -0.243 2.796 11
-1.227 -0.266 2.769 1
0.0 -0.0 3.0 0
0.0 -0.0 3.0 0
0.0 -0.0 3.0 0
0.0 -0.0 3.0 0
0.0 -0.0 3.0 0
0.0 -0.0 3.0 0
0.0 -0.0 3.0 0
0.0 -0.0 3.0 0
0.0 -0.0 3.0 0
-65.388 -6.5 0.762 14
-66.37 -5.458 1.013 16
-67.746 -4.424 1.302 14
-70.559 -3.431 1.614 6
-4.781 -0.154 2.935 13
-4.795 -0.077 2.966 3
-4.784 -0.006 2.997 57
-4.739 -0.075 2.963 33
-4.829 -0.151 2.923 22
-4.785 -0.222 2.882 19
-4.744 -0.29 2.839 15
-4.909 -0.372 2.785 58
-4.726 -0.426 2.744 31
-4.701 -0.489 2.694 28
-4.825 -0.569 2.631 36
-5.021 -0.659 2.555 23
-1.631 -0.236 2.835 0
-1.622 -0.255 2.815 12
-1.714 -0.291 2.781 11
-1.719 -0.313 2.756 1
-7.479 -1.449 1.826 5
-1.175 -0.241 2.798 10
-1.219 -0.264 2.77 1
0.0 -0.0 3.0 0
0.0 -0.0 3.0 0
0.0 -0.0 3.0 0
0.0 -0.0 3.0 0
0.0 -0.0 3.0 0
0.0 -0.0 3.0 0
0.0 -0.0 3.0 0
-63.531 -8.545 0.388 42
0.0 -0.0 3.0 0
0.0 -0.0 3.0 0
-66.8 -5.501 0.998 15
-68.121 -4.458 1.289 15
-4.857 -0.237 2.904 1
-4.785 -0.155 2.934 11
-4.791 -0.08 2.965 23
-4.772 -0.02 2.991 51
-4.763 -0.077 2.962 32
-4.777 -0.15 2.924 22
-4.861 -0.226 2.88 33
-4.796 -0.294 2.837 15
-4.897 -0.371 2.786 51
-4.726 -0.426 2.744 37
-4.713 -0.491 2.693 29
-4.809 -0.567 2.632 46
-5.013 -0.658 2.556 18
-1.651 -0.238 2.833 5
-1.626 -0.256 2.814 12
-1.71 -0.29 2.782 11
-1.734 -0.315 2.754 0
-1.192 -0.231 2.813 0
-1.171 -0.241 2.798 10
-1.219 -0.264 2.77 1
0.0 -0.0 3.0 0
0.0 -0.0 3.0 0
0.0 -0.0 3.0 0
0.0 -0.0 3.0 0
0.0 -0.0 3.0 0
0.0 -0.0 3.0 0
0.0 -0.0 3.0 0
0.0 -0.0 3.0 0
-65.375 -7.652 0.514 13
0.0 -0.0 3.0 0
-67.205 -5.55 0.98 13
-56.712 -3.727 1.569 3
-72.734 -3.576 1.555 27
-4.785 -0.158 2.933 35
-4.787 -0.084 2.963 40
-4.76 -0.034 2.984 44
-4.819 -0.082 2.96 39
-4.769 -0.152 2.922 23
-4.833 -0.226 2.88 32
-4.884 -0.301 2.833 17
-4.909 -0.374 2.784 44
-4.738 -0.428 2.743 34
-4.736 -0.494 2.691 31
-4.634 -0.547 2.645 17
-4.99 -0.656 2.558 13
-1.654 -0.239 2.832 9
-1.622 -0.255 2.815 15
-1.702 -0.289 2.782 14
-7.674 -1.397 1.909 6
-1.18 -0.229 2.815 0
-1.19 -0.244 2.795 10
-1.234 -0.267 2.768 2
0.0 -0.0 3.0 0
0.0 -0.0 3.0 0
0.0 -0.0 3.0 0
0.0 -0.0 3.0 0
0.0 -0.0 3.0 0
0.0 -0.0 3.0 0
0.0 -0.0 3.0 0
0.0 -0.0 3.0 0
-65.393 -7.67 0.508 15
0.0 -0.0 3.0 0
-67.645 -5.609 0.959 6
-69.015 -4.563 1.249 14
-70.95 -3.526 1.576 10
-4.769 -0.161 2.932 43
-4.791 -0.091 2.96 60
-4.76 -0.047 2.978 43
-4.859 -0.09 2.956 35
-4.777 -0.156 2.921 23
-4.833 -0.228 2.879 22
-5.0 -0.309 2.828 30
-4.889 -0.373 2.785 33
-4.746 -0.43 2.742 24
-4.796 -0.501 2.687 31
-4.626 -0.547 2.645 21
-1.632 -0.214 2.855 0
-1.654 -0.24 2.832 10
-1.645 -0.259 2.812 25
-1.698 -0.289 2.783 22
-7.498 -1.365 1.933 6
-1.199 -0.233 2.812 0
-1.229 -0.252 2.788 10
-1.342 -0.291 2.747 4
0.0 -0.0 3.0 0
0.0 -0.0 3.0 0
0.0 -0.0 3.0 0
0.0 -0.0 3.0 0
0.0 -0.0 3.0 0
0.0 -0.0 3.0 0
0.0 -0.0 3.0 0
0.0 -0.0 3.0 0
0.0 -0.0 3.0 0
-67.239 -6.746 0.677 35
0.0 -0.0 3.0 0
-69.479 -4.63 1.223 13
-71.443 -3.6 1.546 17
-4.753 -0.165 2.93 47
-4.799 -0.099 2.956 55
-4.76 -0.06 2.972 39
-4.847 -0.098 2.952 19
-4.805 -0.161 2.918 18
-4.885 -0.234 2.876 16
-5.047 -0.315 2.826 39
-4.893 -0.375 2.783 32
-4.769 -0.433 2.74 25
-4.851 -0.508 2.682 45
-4.626 -0.548 2.644 19
-1.655 -0.218 2.853 0
-1.654 -0.24 2.832 12
-1.657 -0.261 2.81 27
-1.702 -0.29 2.782 23
-7.323 -1.335 1.957 6
-1.195 -0.232 2.812 0
-1.321 -0.271 2.772 18
-1.323 -0.286 2.751 4
0.0 -0.0 3.0 0
0.0 -0.0 3.0 0
0.0 -0.0 3.0 0
0.0 -0.0 3.0 0
0.0 -0.0 3.0 0
0.0 -0.0 3.0 0
0.0 -0.0 3.0 0
-65.442 -8.867 0.289 39
0.0 -0.0 3.0 0
0.0 -0.0 3.0 0
-69.089 -5.795 0.891 38
-69.939 -4.706 1.193 17
-71.878 -3.682 1.512 17
-4.748 -0.17 2.928 39
-4.791 -0.108 2.952 44
-4.763 -0.073 2.966 35
-5.066 -0.111 2.946 33
-4.876 -0.169 2.914 16
-4.972 -0.242 2.871 18
-5.055 -0.318 2.823 43
-4.905 -0.378 2.782 31
-4.785 -0.436 2.738 24
-4.847 -0.509 2.682 50
-4.63 -0.55 2.643 15
-1.647 -0.218 2.853 2
-1.654 -0.24 2.832 18
-1.657 -0.261 2.81 27
-1.694 -0.288 2.783 24
-7.17 -1.308 1.978 6
-1.211 -0.235 2.81 0
-1.368 -0.281 2.764 17
-1.292 -0.28 2.757 5
0.0 -0.0 3.0 0
0.0 -0.0 3.0 0
0.0 -0.0 3.0 0
0.0 -0.0 3.0 0
0.0 -0.0 3.0 0
0.0 -0.0 3.0 0
0.0 -0.0 3.0 0
0.0 -0.0 3.0 0
0.0 -0.0 3.0 0
0.0 -0.0 3.0 0
0.0 -0.0 3.0 0
-70.389 -4.791 1.161 14
-72.381 -3.78 1.473 28
-4.744 -0.177 2.925 36
-4.79 -0.118 2.948 28
-4.839 -0.089 2.959 24
-5.13 -0.124 2.94 36
-5.064 -0.182 2.907 38
-4.992 -0.247 2.869 20
-5.071 -0.323 2.821 44
-4.916 -0.382 2.78 25
-4.832 -0.443 2.734 35
-4.95 -0.522 2.674 57
-4.634 -0.551 2.642 14
-1.639 -0.217 2.854 6
-1.654 -0.241 2.832 21
-1.657 -0.262 2.81 29
-1.698 -0.29 2.782 29
-1.73 -0.316 2.753 0
-1.226 -0.238 2.807 0
-1.391 -0.286 2.76 16
-1.276 -0.277 2.759 5
0.0 -0.0 3.0 0
0.0 -0.0 3.0 0
0.0 -0.0 3.0 0
0.0 -0.0 3.0 0
0.0 -0.0 3.0 0
0.0 -0.0 3.0 0
0.0 -0.0 3.0 0
0.0 -0.0 3.0 0
-67.247 -8.004 0.399 37
0.0 -0.0 3.0 0
0.0 -0.0 3.0 0
-70.875 -4.887 1.124 11
-72.332 -3.86 1.441 15
-4.74 -0.184 2.922 28
-4.786 -0.129 2.943 8
-4.859 -0.103 2.952 6
-5.094 -0.134 2.935 37
-5.08 -0.19 2.903 43
-5.012 -0.253 2.865 18
-4.971 -0.321 2.822 40
-4.9 -0.384 2.778 29
-4.82 -0.445 2.733 44
-4.854 -0.514 2.679 40
-4.625 -0.552 2.641 13
-1.631 -0.216 2.854 8
-1.65 -0.24 2.832 21
-1.664 -0.264 2.808 30
-1.694 -0.289 2.782 29
-1.726 -0.316 2.753 0
-1.28 -0.249 2.798 0
-1.433 -0.295 2.752 24
-1.28 -0.278 2.759 5
0.0 -0.0 3.0 0
0.0 -0.0 3.0 0
0.0 -0.0 3.0 0
0.0 -0.0 3.0 0
0.0 -0.0 3.0 0
0.0 -0.0 3.0 0
0.0 -0.0 3.0 0
0.0 -0.0 3.0 0
0.0 -0.0 3.0 0
-69.11 -7.094 0.557 38
0.0 -0.0 3.0 0
-71.336 -4.991 1.084 12
-72.786 -3.976 1.393 15
-4.759 -0.192 2.918 5
-4.798 -0.14 2.938 1
-4.846 -0.117 2.945 5
-4.878 -0.139 2.932 20
-5.067 -0.198 2.899 45
-5.043 -0.261 2.861 19
-4.906 -0.32 2.823 27
-4.864 -0.385 2.778 24
-4.836 -0.449 2.73 36
-4.759 -0.506 2.684 29
-4.661 -0.558 2.637 15
-1.631 -0.217 2.854 10
-1.642 -0.24 2.832 26
-1.656 -0.263 2.809 30
-1.69 -0.289 2.782 27
-6.725 -1.231 2.038 7
-1.381 -0.269 2.782 1
-1.475 -0.304 2.745 30
-1.265 -0.275 2.761 5
0.0 -0.0 3.0 0
0.0 -0.0 3.0 0
0.0 -0.0 3.0 0
0.0 -0.0 3.0 0
0.0 -0.0 3.0 0
0.0 -0.0 3.0 0
0.0 -0.0 3.0 0
0.0 -0.0 3.0 0
0.0 -0.0 3.0 0
0.0 -0.0 3.0 0
-17.063 -1.485 2.46 2
-71.816 -5.104 1.041 10
-73.266 -4.104 1.342 12
-4.739 -0.2 2.915 1
-82.047 -2.592 1.846 19
-4.862 -0.131 2.939 5
-4.877 -0.151 2.926 25
-4.835 -0.197 2.899 36
-5.091 -0.27 2.856 40
-4.926 -0.327 2.819 26
-4.804 -0.383 2.779 22
-4.867 -0.455 2.726 35
-4.675 -0.5 2.688 26
-4.771 -0.575 2.627 5
-1.631 -0.217 2.853 15
-1.642 -0.241 2.831 27
-1.66 -0.264 2.808 31
-1.69 -0.289 2.782 28
-6.576 -1.206 2.058 7
-1.432 -0.279 2.774 1
-1.51 -0.312 2.738 25
-1.307 -0.284 2.753 7
0.0 -0.0 3.0 0
0.0 -0.0 3.0 0
0.0 -0.0 3.0 0
0.0 -0.0 3.0 0
0.0 -0.0 3.0 0
0.0 -0.0 3.0 0
0.0 -0.0 3.0 0
0.0 -0.0 3.0 0
-69.094 -8.368 0.281 3
0.0 -0.0 3.0 0
-16.779 -1.477 2.462 2
-72.77 -5.26 0.981 27
-73.746 -4.242 1.286 14
-75.789 -3.353 1.577 6
-82.079 -2.799 1.754 40
-4.865 -0.145 2.932 1
-4.877 -0.163 2.921 31
-4.811 -0.205 2.896 41
-4.879 -0.266 2.859 29
-4.901 -0.331 2.817 25
-4.807 -0.389 2.776 32
-4.918 -0.464 2.721 27
-4.651 -0.5 2.687 26
-4.767 -0.576 2.626 0
-1.627 -0.218 2.853 19
-1.634 -0.24 2.832 28
-1.66 -0.265 2.808 29
-1.685 -0.289 2.782 29
-6.455 -1.186 2.073 7
-1.474 -0.288 2.767 2
-1.518 -0.314 2.737 27
-1.322 -0.288 2.75 13
0.0 -0.0 3.0 0
0.0 -0.0 3.0 0
0.0 -0.0 3.0 0
0.0 -0.0 3.0 0
0.0 -0.0 3.0 0
0.0 -0.0 3.0 0
0.0 -0.0 3.0 0
0.0 -0.0 3.0 0
-69.134 -8.43 0.261 14
0.0 -0.0 3.0 0
-16.518 -1.472 2.464 2
0.0 -0.0 3.0 0
-74.245 -4.391 1.226 14
-76.304 -3.531 1.501 19
-83.113 -3.048 1.643 8
-4.853 -0.159 2.926 3
-4.876 -0.175 2.915 29
-4.798 -0.214 2.891 39
-1.693 -0.095 2.95 1
-4.909 -0.337 2.813 24
-4.846 -0.396 2.771 36
-4.89 -0.465 2.721 19
-4.65 -0.504 2.685 22
-9.323 -1.134 2.264 19
-1.627 -0.219 2.852 20
-1.634 -0.24 2.832 28
-1.652 -0.264 2.808 29
-1.685 -0.29 2.782 27
-6.33 -1.165 2.09 7
-1.478 -0.289 2.766 3
-1.514 -0.314 2.737 29
-1.287 -0.28 2.756 10
0.0 -0.0 3.0 0
0.0 -0.0 3.0 0
0.0 -0.0 3.0 0
0.0 -0.0 3.0 0
0.0 -0.0 3.0 0
0.0 -0.0 3.0 0
0.0 -0.0 3.0 0
0.0 -0.0 3.0 0
0.0 -0.0 3.0 0
-14.155 -1.504 2.482 2
-16.293 -1.472 2.464 2
0.0 -0.0 3.0 0
-74.735 -4.548 1.162 16
-76.838 -3.719 1.421 34
-83.575 -3.283 1.538 16
-4.852 -0.172 2.92 21
-4.876 -0.188 2.908 23
-4.781 -0.223 2.887 26
-1.688 -0.097 2.948 2
-4.825 -0.338 2.813 29
-4.858 -0.402 2.768 39
-4.858 -0.466 2.72 13
-4.665 -0.509 2.682 15
-9.23 -1.129 2.267 11
-1.619 -0.219 2.852 23
-1.63 -0.241 2.831 29
-1.652 -0.265 2.808 29
-1.685 -0.29 2.781 28
-6.204 -1.144 2.106 8
-1.485 -0.292 2.764 5
-1.517 -0.315 2.736 28
-1.203 -0.263 2.772 6
0.0 -0.0 3.0 0
0.0 -0.0 3.0 0
0.0 -0.0 3.0 0
0.0 -0.0 3.0 0
0.0 -0.0 3.0 0
0.0 -0.0 3.0 0
0.0 -0.0 3.0 0
0.0 -0.0 3.0 0
0.0 -0.0 3.0 0
-13.974 -1.501 2.483 2
-16.116 -1.476 2.463 3
0.0 -0.0 3.0 0
-75.224 -4.713 1.096 14
-77.271 -3.91 1.34 16
-84.123 -3.527 1.43 14
-4.872 -0.187 2.913 18
-4.855 -0.199 2.903 19
-4.765 -0.233 2.881 33
-1.676 -0.099 2.947 3
-4.924 -0.351 2.805 24
-4.881 -0.41 2.763 43
-4.821 -0.467 2.719 13
-4.677 -0.515 2.678 23
-9.027 -1.111 2.279 11
-1.614 -0.219 2.852 27
-1.626 -0.241 2.831 28
-1.644 -0.265 2.808 29
-1.685 -0.291 2.781 28
-6.094 -1.127 2.12 8
-1.493 -0.294 2.762 7
-1.482 -0.308 2.741 22
-1.164 -0.255 2.779 7
0.0 -0.0 3.0 0
0.0 -0.0 3.0 0
0.0 -0.0 3.0 0
0.0 -0.0 3.0 0
0.0 -0.0 3.0 0
0.0 -0.0 3.0 0
0.0 -0.0 3.0 0
0.0 -0.0 3.0 0
-12.148 -1.517 2.507 0
-13.801 -1.498 2.484 2
-15.918 -1.479 2.462 2
-74.647 -5.828 0.763 29
-15.419 -0.996 2.598 0
-77.301 -4.088 1.265 11
-4.778 -0.213 2.905 0
-4.891 -0.201 2.906 34
-4.81 -0.21 2.898 11
-4.752 -0.242 2.877 32
-1.664 -0.101 2.946 3
-4.939 -0.36 2.8 16
-4.988 -0.425 2.754 37
-4.825 -0.474 2.715 16
-4.68 -0.519 2.676 25
-8.674 -1.074 2.303 9
-1.61 -0.22 2.852 27
-1.621 -0.242 2.831 27
-1.648 -0.266 2.807 27
-1.681 -0.292 2.78 27
-5.992 -1.111 2.132 8
-1.493 -0.294 2.762 9
-1.351 -0.281 2.764 23
-1.16 -0.254 2.779 10
0.0 -0.0 3.0 0
0.0 -0.0 3.0 0
0.0 -0.0 3.0 0
0.0 -0.0 3.0 0
0.0 -0.0 3.0 0
0.0 -0.0 3.0 0
0.0 -0.0 3.0 0
0.0 -0.0 3.0 0
-12.027 -1.515 2.508 2
-13.628 -1.496 2.485 2
-15.721 -1.483 2.46 3
0.0 -0.0 3.0 0
-13.797 -0.918 2.629 0
-15.44 -0.852 2.638 9
-4.786 -0.226 2.899 6
-4.878 -0.215 2.9 37
-4.758 -0.221 2.892 32
-4.752 -0.253 2.871 31
-1.676 -0.106 2.944 4
-1.686 -0.125 2.931 1
-5.075 -0.439 2.747 36
-4.832 -0.479 2.712 26
-4.683 -0.524 2.672 26
-8.669 -1.081 2.298 18
-1.606 -0.221 2.851 24
-1.535 -0.23 2.839 25
-1.639 -0.266 2.807 23
-1.681 -0.293 2.779 28
-5.976 -1.111 2.132 12
-1.493 -0.295 2.761 12
-1.328 -0.277 2.768 22
-1.148 -0.252 2.781 7
0.0 -0.0 3.0 0
0.0 -0.0 3.0 0
0.0 -0.0 3.0 0
0.0 -0.0 3.0 0
0.0 -0.0 3.0 0
0.0 -0.0 3.0 0
0.0 -0.0 3.0 0
0.0 -0.0 3.0 0
-11.894 -1.511 2.509 2
-13.539 -1.504 2.482 2
-15.547 -1.49 2.458 2
0.0 -0.0 3.0 0
-13.739 -0.941 2.62 22
-13.817 -0.796 2.662 0
-4.781 -0.239 2.894 3
-4.873 -0.228 2.894 43
-4.737 -0.232 2.887 34
-4.751 -0.264 2.866 30
-1.672 -0.109 2.942 4
-1.662 -0.126 2.93 3
-5.09 -0.448 2.742 36
-4.823 -0.484 2.709 24
-4.695 -0.53 2.669 24
-8.624 -1.083 2.297 4
-1.515 -0.209 2.859 25
-1.393 -0.21 2.853 34
-1.478 -0.241 2.825 29
-1.672 -0.292 2.78 27
-5.975 -1.114 2.13 9
-1.492 -0.296 2.761 14
-1.3 -0.272 2.772 19
-1.118 -0.246 2.786 10
0.0 -0.0 3.0 0
0.0 -0.0 3.0 0
0.0 -0.0 3.0 0
0.0 -0.0 3.0 0
0.0 -0.0 3.0 0
0.0 -0.0 3.0 0
0.0 -0.0 3.0 0
-10.528 -1.524 2.534 2
-11.765 -1.51 2.509 2
-13.342 -1.5 2.483 4
-15.362 -1.496 2.455 2
-76.473 -6.367 0.556 17
-13.66 -0.965 2.61 24
-13.811 -0.829 2.648 33
-16.237 -0.857 2.618 1
-4.809 -0.239 2.888 34
-4.728 -0.244 2.881 35
-4.802 -0.278 2.858 28
-1.667 -0.112 2.941 6
-1.634 -0.126 2.93 3
-5.097 -0.455 2.737 3
-4.818 -0.489 2.706 26
-4.872 -0.555 2.653 26
-8.555 -1.082 2.297 4
-1.499 -0.208 2.859 25
-1.408 -0.213 2.851 31
-1.408 -0.23 2.833 29
-1.668 -0.292 2.78 23
-5.892 -1.102 2.139 1
-1.484 -0.295 2.761 13
-1.238 -0.259 2.782 15
-1.117 -0.246 2.786 10
0.0 -0.0 3.0 0
0.0 -0.0 3.0 0
0.0 -0.0 3.0 0
0.0 -0.0 3.0 0
0.0 -0.0 3.0 0
0.0 -0.0 3.0 0
0.0 -0.0 3.0 0
-10.431 -1.522 2.535 2
-11.64 -1.509 2.51 2
-13.248 -1.509 2.48 4
-15.168 -1.502 2.453 2
0.0 -0.0 3.0 0
-13.638 -0.993 2.599 44
-13.824 -0.864 2.633 0
-16.202 -0.899 2.6 8
-4.764 -0.25 2.883 43
-4.723 -0.257 2.874 37
-4.829 -0.291 2.852 29
-1.667 -0.115 2.939 9
-1.566 -0.124 2.931 7
-1.567 -0.142 2.918 0
-4.821 -0.496 2.702 25
-4.931 -0.567 2.646 37
-8.142 -1.038 2.326 0
-1.503 -0.21 2.858 24
-1.424 -0.216 2.849 28
-1.407 -0.231 2.832 27
-1.563 -0.275 2.793 21
-5.837 -1.095 2.144 13
-1.476 -0.294 2.762 13
-1.215 -0.255 2.786 14
-1.056 -0.233 2.797 11
0.0 -0.0 3.0 0
0.0 -0.0 3.0 0
0.0 -0.0 3.0 0
0.0 -0.0 3.0 0
0.0 -0.0 3.0 0
-13.183 -2.384 2.361 6
-9.337 -1.529 2.561 0
-10.327 -1.519 2.536 2
-11.579 -1.516 2.507 5
-13.059 -1.507 2.481 4
-14.97 -1.507 2.451 2
-17.122 -1.49 2.428 7
-12.132 -0.91 2.633 6
-12.142 -0.79 2.665 2
-16.203 -0.944 2.58 8
-4.763 -0.264 2.877 43
-4.73 -0.27 2.868 30
-4.824 -0.302 2.846 13
-1.655 -0.118 2.937 8
-1.577 -0.128 2.929 8
-1.567 -0.144 2.917 2
-4.825 -0.503 2.698 23
-4.958 -0.576 2.64 16
-7.943 -1.02 2.337 0
-1.503 -0.211 2.858 15
-1.345 -0.206 2.856 21
-1.36 -0.224 2.837 17
-1.418 -0.251 2.811 33
-1.638 -0.308 2.759 4
-1.464 -0.293 2.763 13
-1.223 -0.257 2.784 14
-1.044 -0.231 2.799 12
0.0 -0.0 3.0 0
0.0 -0.0 3.0 0
0.0 -0.0 3.0 0
0.0 -0.0 3.0 0
0.0 -0.0 3.0 0
-13.18 -2.398 2.358 86
-9.265 -1.528 2.562 2
-10.226 -1.517 2.536 2
-11.473 -1.519 2.507 7
-12.945 -1.513 2.479 4
-14.776 -1.514 2.449 2
-17.015 -1.514 2.419 2
-12.07 -0.933 2.623 19
-12.139 -0.82 2.652 23
-16.0 -0.977 2.565 5
-4.754 -0.277 2.871 42
-4.745 -0.284 2.861 22
-4.847 -0.316 2.839 3
-1.658 -0.121 2.936 6
-1.601 -0.132 2.927 11
-1.543 -0.144 2.917 7
-1.588 -0.167 2.899 3
-4.969 -0.583 2.635 1
-7.776 -1.008 2.346 0
-1.451 -0.205 2.861 11
-1.333 -0.205 2.857 18
-1.274 -0.211 2.847 13
-1.421 -0.252 2.81 33
-1.638 -0.309 2.758 8
-1.456 -0.292 2.764 12
-1.141 -0.241 2.798 11
-1.048 -0.233 2.798 12
0.0 -0.0 3.0 0
0.0 -0.0 3.0 0
0.0 -0.0 3.0 0
0.0 -0.0 3.0 0
-11.862 -2.377 2.407 0
-13.181 -2.413 2.353 86
-9.176 -1.525 2.563 2
-10.129 -1.516 2.536 2
-11.356 -1.52 2.506 10
-12.804 -1.518 2.477 3
-14.618 -1.524 2.445 2
-10.478 -0.954 2.634 0
-12.004 -0.955 2.614 21
-10.518 -0.737 2.687 0
-15.889 -1.014 2.548 9
-4.757 -0.291 2.864 36
-4.752 -0.298 2.855 26
-4.838 -0.327 2.833 0
-1.654 -0.125 2.934 3
-1.589 -0.135 2.925 10
-1.539 -0.147 2.915 7
-1.572 -0.168 2.899 3
-1.608 -0.191 2.881 0
-7.604 -0.994 2.354 0
-1.423 -0.203 2.863 11
-1.301 -0.201 2.859 15
-1.273 -0.212 2.846 12
-1.417 -0.253 2.81 28
-1.622 -0.307 2.76 7
-1.448 -0.291 2.764 11
-1.079 -0.229 2.808 10
-1.047 -0.233 2.797 12
0.0 -0.0 3.0 0
0.0 -0.0 3.0 0
0.0 -0.0 3.0 0
0.0 -0.0 3.0 0
-11.792 -2.376 2.408 68
-8.314 -1.532 2.59 3
-9.107 -1.524 2.563 2
-10.075 -1.522 2.535 3
-11.243 -1.521 2.506 10
-12.658 -1.522 2.476 3
-14.416 -1.53 2.443 2
-10.452 -0.974 2.626 55
-11.985 -0.982 2.603 18
-10.503 -0.764 2.676 29
-15.81 -1.053 2.531 29
-4.768 -0.305 2.858 31
-4.775 -0.312 2.848 6
-9.523 -0.667 2.66 0
-1.634 -0.127 2.933 1
-1.568 -0.136 2.925 14
-1.538 -0.15 2.914 8
-1.552 -0.168 2.899 7
-1.588 -0.19 2.881 3
-7.444 -0.982 2.362 0
-1.36 -0.196 2.868 9
-1.257 -0.196 2.863 16
-1.25 -0.209 2.848 13
-1.3 -0.233 2.825 12
-1.547 -0.294 2.77 3
-1.417 -0.285 2.769 11
-1.083 -0.23 2.807 10
-1.055 -0.235 2.796 13
0.0 -0.0 3.0 0
0.0 -0.0 3.0 0
0.0 -0.0 3.0 0
-10.382 -2.286 2.472 0
-11.782 -2.387 2.405 86
-8.253 -1.53 2.59 3
-9.03 -1.523 2.563 2
-10.002 -1.525 2.534 5
-11.137 -1.524 2.505 7
-12.52 -1.527 2.474 4
-14.254 -1.54 2.439 3
-10.406 -0.991 2.619 98
-10.497 -0.884 2.643 7
-15.987 -1.204 2.489 5
-15.196 -1.055 2.53 39
-4.815 -0.322 2.85 26
-4.75 -0.324 2.842 2
-9.489 -0.689 2.649 10
-4.757 -0.379 2.798 0
-1.564 -0.139 2.923 13
-1.538 -0.152 2.912 12
-1.547 -0.17 2.898 7
-1.58 -0.192 2.88 6
-7.293 -0.971 2.369 0
-1.383 -0.201 2.865 11
-1.261 -0.198 2.862 16
-1.238 -0.208 2.849 15
-1.264 -0.227 2.829 11
-1.5 -0.287 2.776 10
-1.382 -0.279 2.774 9
-1.083 -0.231 2.806 11
-1.055 -0.236 2.795 13
0.0 -0.0 3.0 0
0.0 -0.0 3.0 0
0.0 -0.0 3.0 0
-10.177 -2.252 2.48 56
-7.583 -1.544 2.615 0
-8.192 -1.529 2.59 2
-8.961 -1.524 2.563 2
-9.909 -1.525 2.534 10
-11.028 -1.527 2.504 10
-12.414 -1.536 2.471 4
-14.084 -1.549 2.436 3
-10.368 -1.01 2.612 103
-10.462 -0.907 2.634 15
-15.887 -1.238 2.474 9
-15.153 -1.095 2.512 45
-4.806 -0.335 2.844 6
-12.577 -0.892 2.565 16
-9.442 -0.71 2.638 11
-9.364 -0.768 2.592 15
-1.56 -0.141 2.922 14
-1.542 -0.155 2.91 16
-1.547 -0.172 2.896 10
-1.56 -0.192 2.88 7
-7.145 -0.96 2.376 0
-1.446 -0.211 2.857 10
-1.288 -0.203 2.858 16
-1.241 -0.21 2.847 15
-1.237 -0.224 2.831 12
-1.411 -0.271 2.788 12
-1.351 -0.274 2.778 8
-1.09 -0.233 2.804 11
-1.054 -0.236 2.795 13
0.0 -0.0 3.0 0
0.0 -0.0 3.0 0
-9.413 -2.26 2.52 0
-10.081 -2.242 2.482 59
-7.545 -1.547 2.614 3
-8.139 -1.53 2.59 2
-8.896 -1.525 2.563 2
-9.819 -1.525 2.534 8
-10.946 -1.534 2.502 5
-12.268 -1.54 2.47 2
-13.822 -1.548 2.436 6
-10.349 -1.032 2.604 61
-10.416 -0.928 2.625 20
-15.815 -1.275 2.459 26
-15.013 -1.127 2.498 13
-4.829 -0.351 2.836 1
-9.528 -0.702 2.658 0
-9.416 -0.733 2.627 12
-9.326 -0.787 2.582 103
-1.563 -0.146 2.919 17
-1.561 -0.16 2.908 19
-1.539 -0.174 2.896 11
-1.551 -0.193 2.88 8
-1.583 -0.215 2.86 0
-1.591 -0.234 2.842 7
-1.327 -0.211 2.852 14
-1.241 -0.211 2.847 16
-1.225 -0.222 2.832 16
-1.36 -0.262 2.795 12
-1.319 -0.269 2.782 7
-1.094 -0.235 2.803 11
-1.058 -0.238 2.793 12
0.0 -0.0 3.0 0
0.0 -0.0 3.0 0
-9.41 -2.27 2.518 26
-10.07 -2.251 2.48 57
-7.493 -1.545 2.615 3
-8.082 -1.529 2.59 2
-8.897 -1.538 2.559 8
-9.769 -1.533 2.531 11
-10.816 -1.534 2.502 5
-12.115 -1.543 2.469 3
-13.755 -1.569 2.429 13
-10.339 -1.054 2.596 34
-10.449 -0.957 2.613 17
-15.238 -1.27 2.461 57
-14.017 -1.092 2.514 1
-12.728 -0.961 2.552 27
-9.482 -0.726 2.646 10
-9.394 -0.755 2.615 12
-9.299 -0.806 2.571 255
-1.583 -0.15 2.917 13
-1.541 -0.161 2.907 18
-1.538 -0.176 2.894 18
-1.551 -0.195 2.878 11
-1.567 -0.215 2.861 3
-1.634 -0.243 2.836 10
-1.319 -0.211 2.852 13
-1.248 -0.214 2.845 16
-1.228 -0.224 2.831 15
-1.332 -0.258 2.798 15
-1.28 -0.262 2.788 8
-1.094 -0.236 2.802 11
-1.062 -0.239 2.792 12
0.0 -0.0 3.0 0
0.0 -0.0 3.0 0
-9.38 -2.273 2.517 29
-6.942 -1.56 2.64 3
-7.436 -1.543 2.615 3
-8.029 -1.531 2.59 2
-8.808 -1.535 2.56 17
-9.676 -1.534 2.531 14
-10.734 -1.541 2.499 7
-11.996 -1.551 2.466 8
-8.861 -1.029 2.625 6
-8.837 -0.921 2.647 0
-10.454 -0.983 2.603 16
-8.849 -0.761 2.677 2
-12.77 -1.031 2.541 6
-12.525 -0.982 2.542 11
-9.443 -0.748 2.635 11
-9.375 -0.778 2.604 12
-9.138 -0.814 2.567 255
-1.598 -0.155 2.914 11
-1.529 -0.162 2.906 20
-1.538 -0.179 2.892 21
-1.547 -0.197 2.877 13
-1.515 -0.21 2.864 6
-1.634 -0.245 2.835 13
-1.358 -0.218 2.847 26
-1.268 -0.218 2.842 16
-1.232 -0.226 2.83 14
-1.266 -0.246 2.808 13
-1.234 -0.254 2.795 11
-1.101 -0.238 2.8 11
-1.069 -0.242 2.789 12
0.0 -0.0 3.0 0
-8.952 -2.341 2.545 0
-9.343 -2.276 2.516 32
-6.901 -1.56 2.64 3
-7.391 -1.544 2.615 3
-7.972 -1.531 2.59 3
-8.755 -1.539 2.559 5
-9.582 -1.535 2.531 7
-10.637 -1.546 2.498 6
-11.894 -1.561 2.463 4
-8.775 -1.038 2.622 19
-8.831 -0.94 2.639 15
-8.848 -0.855 2.654 0
-14.871 -1.319 2.44 21
-12.755 -1.066 2.525 49
-9.522 -0.773 2.64 1
-9.413 -0.772 2.623 12
-9.353 -0.8 2.592 20
-8.769 -0.802 2.573 255
-1.594 -0.158 2.912 6
-1.528 -0.165 2.905 19
-1.533 -0.182 2.891 20
-1.538 -0.199 2.876 19
-1.503 -0.21 2.863 7
-1.59 -0.24 2.838 13
-1.373 -0.223 2.844 27
-1.271 -0.22 2.84 17
-1.235 -0.228 2.828 15
-1.238 -0.242 2.811 13
-1.28 -0.264 2.786 10
-1.097 -0.238 2.8 11
-1.069 -0.243 2.789 12
-7.97 -2.238 2.605 0
-8.907 -2.34 2.545 41
-6.418 -1.57 2.666 1
-6.848 -1.557 2.641 3
-7.338 -1.542 2.615 3
-7.966 -1.542 2.587 4
-8.693 -1.543 2.558 18
-9.521 -1.542 2.529 6
-10.527 -1.549 2.497 6
-11.752 -1.565 2.461 8
-8.756 -1.054 2.616 14
-8.777 -0.955 2.633 25
-8.842 -0.876 2.646 33
-14.011 -1.281 2.456 2
-12.715 -1.099 2.511 16
-9.483 -0.798 2.628 10
-9.398 -0.798 2.611 13
-9.314 -0.821 2.581 66
-8.675 -0.815 2.567 255
-1.577 -0.16 2.911 0
-1.54 -0.17 2.902 19
-1.533 -0.184 2.889 21
-1.526 -0.199 2.876 22
-1.499 -0.212 2.862 8
-1.57 -0.239 2.839 18
-1.396 -0.228 2.84 26
-1.306 -0.228 2.834 21
-1.243 -0.23 2.826 16
-1.215 -0.239 2.813 14
-1.291 -0.267 2.784 11
-1.104 -0.24 2.798 12
-1.076 -0.245 2.787 12
-7.976 -2.248 2.604 2
-8.885 -2.344 2.544 75
-6.393 -1.573 2.666 2
-6.807 -1.556 2.641 3
-7.293 -1.543 2.615 3
-7.912 -1.543 2.587 20
-8.612 -1.542 2.558 5
-9.451 -1.546 2.527 8
-10.445 -1.556 2.494 12
-11.638 -1.574 2.458 8
-8.726 -1.07 2.61 14
-8.746 -0.973 2.627 20
-8.823 -0.898 2.637 2
-16.231 -1.529 2.351 0
-12.512 -1.117 2.503 8
-9.441 -0.821 2.617 11
-9.379 -0.822 2.599 13
-9.288 -0.844 2.57 255
-8.669 -0.835 2.556 255
-8.095 -0.84 2.534 1
-1.527 -0.172 2.901 15
-1.529 -0.186 2.888 20
-1.51 -0.199 2.875 21
-1.506 -0.215 2.86 12
-1.554 -0.239 2.839 23
-1.447 -0.238 2.833 23
-1.317 -0.231 2.832 22
-1.25 -0.233 2.824 16
-1.218 -0.241 2.812 16
-1.279 -0.266 2.785 13
-1.108 -0.242 2.797 12
-1.076 -0.246 2.786 12
-7.969 -2.256 2.602 79
-8.882 -2.354 2.542 63
-6.348 -1.57 2.666 2
-6.762 -1.556 2.641 3
-7.251 -1.545 2.615 3
-7.867 -1.546 2.586 3
-8.574 -1.549 2.556 13
-9.361 -1.548 2.527 9
-10.343 -1.561 2.493 6
-7.145 -0.981 2.662 0
-8.703 -1.087 2.605 22
-8.716 -0.991 2.62 20
-8.88 -0.927 2.626 1
-12.606 -1.222 2.481 7
-9.536 -0.878 2.609 1
-9.414 -0.846 2.606 11
-9.353 -0.846 2.587 27
-8.704 -0.814 2.585 44
-8.654 -0.856 2.545 76
-7.902 -0.837 2.536 0
-1.554 -0.178 2.897 11
-1.52 -0.189 2.887 23
-1.501 -0.201 2.874 25
-1.494 -0.216 2.86 14
-1.549 -0.24 2.838 22
-1.513 -0.251 2.824 22
-1.321 -0.234 2.83 23
-1.258 -0.236 2.822 18
-1.222 -0.242 2.811 17
-1.279 -0.267 2.784 13
-1.104 -0.242 2.797 11
-1.079 -0.248 2.785 12
-7.974 -2.267 2.6 79
-5.934 -1.58 2.693 3
-6.307 -1.568 2.667 2
-6.721 -1.555 2.641 3
-7.253 -1.556 2.612 19
-7.806 -1.547 2.586 19
-8.485 -1.547 2.556 9
-9.279 -1.552 2.526 7
-10.237 -1.565 2.491 9
-7.143 -0.996 2.657 1
-8.709 -1.107 2.597 16
-8.701 -1.011 2.612 27
-7.196 -0.77 2.689 5
-12.061 -1.203 2.49 3
-9.481 -0.9 2.599 9
-9.399 -0.871 2.594 12
-9.302 -0.867 2.577 35
-8.674 -0.835 2.575 42
-8.604 -0.872 2.537 20
-7.729 -0.837 2.536 0
-1.578 -0.184 2.894 10
-1.532 -0.193 2.884 30
-1.481 -0.201 2.875 23
-1.494 -0.218 2.858 20
-1.533 -0.24 2.838 21
-1.521 -0.255 2.822 25
-1.328 -0.237 2.828 24
-1.292 -0.244 2.816 24
-1.241 -0.247 2.807 19
-1.297 -0.272 2.779 13
-1.119 -0.246 2.793 12
-1.079 -0.249 2.784 13
-7.972 -2.276 2.599 78
-5.901 -1.579 2.693 2
-6.267 -1.566 2.667 2
-6.688 -1.557 2.64 3
-7.192 -1.554 2.613 3
-7.772 -1.552 2.584 5
-8.466 -1.558 2.553 8
-9.237 -1.561 2.523 12
-10.17 -1.575 2.488 7
-7.18 -1.016 2.65 22
