# .PCD v0.7 - Point Cloud Data file format
VERSION 0.7
FIELDS x y z intensity
SIZE 4 4 4 4
TYPE F F F F
COUNT 1 1 1 1
WIDTH 2082
HEIGHT 1
VIEWPOINT 0 0 0 1 0 0 0
POINTS 2082
DATA ascii
19.019 -8.593 -3.243 14
18.308 -8.287 -3.245 14
17.608 -7.986 -3.239 20
16.873 -7.671 -3.212 12
16.209 -7.392 -3.202 13
15.564 -7.12 -3.189 15
10.715 -6.355 1.88 34
10.471 -6.085 1.817 34
10.723 -6.106 1.702 26
11.08 -6.19 1.571 28
11.413 -6.254 1.441 17
11.451 -6.162 1.349 17
10.966 -5.799 1.337 25
10.49 -5.454 1.332 35
12.257 -6.274 0.961 10
10.772 -5.432 1.13 6
12.159 -6.046 0.8 8
11.971 -5.874 0.745 4
9.878 -4.791 1.064 5
11.054 -5.301 0.75 26
11.907 -5.654 0.483 27
33.725 -15.87 -4.4 7
31.796 -14.85 -4.243 4
30.081 -13.951 -4.109 5
28.487 -13.133 -3.983 4
27.029 -12.404 -3.876 7
22.187 -10.142 -2.856 22
21.344 -9.732 -2.848 21
22.453 -10.215 -3.383 25
21.339 -9.699 -3.299 16
20.546 -9.334 -3.296 14
19.734 -8.97 -3.281 13
18.96 -8.625 -3.266 14
18.24 -8.311 -3.263 14
17.527 -8.001 -3.251 20
16.801 -7.687 -3.225 12
16.149 -7.41 -3.217 13
15.512 -7.138 -3.205 15
10.694 -6.381 1.875 31
10.206 -5.968 1.84 21
10.409 -5.966 1.732 24
11.01 -6.191 1.571 21
11.377 -6.277 1.435 6
11.37 -6.16 1.349 22
10.91 -5.809 1.334 22
10.644 -5.574 1.296 20
12.234 -6.308 0.95 5
10.758 -5.464 1.119 20
11.048 -5.535 0.986 0
9.569 -4.731 1.184 5
9.498 -4.641 1.125 13
11.011 -5.321 0.741 29
11.133 -5.328 0.628 44
33.475 -15.874 -4.402 6
31.57 -14.858 -4.247 4
29.883 -13.965 -4.116 5
28.298 -13.146 -3.99 4
26.85 -12.416 -3.882 7
22.143 -10.198 -2.888 16
21.091 -9.687 -2.821 19
21.579 -9.889 -3.179 66
21.199 -9.705 -3.302 16
20.466 -9.364 -3.316 15
19.656 -8.996 -3.299 13
18.909 -8.659 -3.291 15
18.179 -8.339 -3.284 14
17.454 -8.019 -3.265 21
16.732 -7.704 -3.238 12
16.078 -7.423 -3.229 14
15.449 -7.152 -3.217 15
10.659 -6.4 1.871 27
10.385 -6.112 1.812 23
10.684 -6.164 1.69 25
11.058 -6.259 1.555 34
11.303 -6.278 1.435 21
11.062 -6.035 1.383 30
10.85 -5.819 1.331 25
10.501 -5.539 1.307 27
12.21 -6.342 0.939 0
10.709 -5.479 1.113 8
11.044 -5.574 0.971 36
9.504 -4.734 1.183 20
9.475 -4.665 1.115 24
10.894 -5.304 0.749 41
11.001 -5.305 0.638 28
10.279 -4.911 0.71 0
31.352 -14.867 -4.251 4
29.671 -13.972 -4.119 5
28.11 -13.157 -3.996 4
26.686 -12.433 -3.892 6
22.019 -10.216 -2.898 1
21.088 -9.757 -2.863 18
21.663 -10.0 -3.249 21
21.126 -9.74 -3.326 17
20.401 -9.4 -3.34 14
19.592 -9.029 -3.322 14
18.853 -8.693 -3.316 14
18.118 -8.365 -3.304 14
17.384 -8.038 -3.28 22
16.677 -7.727 -3.257 12
16.017 -7.44 -3.243 14
15.386 -7.165 -3.229 15
10.682 -6.454 1.862 20
10.155 -6.014 1.831 22
10.684 -6.204 1.681 24
11.07 -6.308 1.544 22
11.319 -6.329 1.422 24
11.089 -6.09 1.368 25
10.839 -5.853 1.322 29
10.48 -5.567 1.298 27
13.995 -7.32 0.621 27
10.67 -5.499 1.106 33
11.022 -5.604 0.96 46
9.523 -4.78 1.165 10
9.516 -4.721 1.093 23
10.826 -5.311 0.746 28
10.994 -5.342 0.622 28
10.308 -4.963 0.686 5
31.123 -14.872 -4.253 4
29.47 -13.983 -4.125 5
27.923 -13.169 -4.002 4
26.515 -12.446 -3.899 6
25.263 -11.809 -3.818 19
20.909 -9.746 -2.856 19
21.265 -9.887 -3.178 24
21.182 -9.836 -3.388 20
20.326 -9.43 -3.361 15
19.518 -9.056 -3.341 14
18.794 -8.724 -3.338 13
18.064 -8.395 -3.326 14
17.31 -8.056 -3.294 13
16.612 -7.745 -3.272 12
15.963 -7.461 -3.261 14
15.327 -7.181 -3.242 15
10.746 -6.532 1.848 3
10.158 -6.054 1.823 24
10.497 -6.135 1.696 24
11.086 -6.358 1.532 20
11.22 -6.316 1.425 27
11.046 -6.108 1.363 31
10.838 -5.894 1.31 28
10.675 -5.711 1.254 22
13.961 -7.356 0.61 3
10.638 -5.523 1.098 26
10.993 -5.631 0.951 21
9.476 -4.791 1.161 32
9.69 -4.843 1.043 22
10.815 -5.346 0.731 28
10.362 -5.073 0.741 56
10.266 -4.98 0.678 20
30.923 -14.888 -4.261 4
29.269 -13.992 -4.129 5
27.746 -13.184 -4.01 4
26.358 -12.464 -3.909 6
25.108 -11.823 -3.826 17
20.828 -9.779 -2.876 21
21.149 -9.904 -3.189 20
21.104 -9.87 -3.41 32
20.253 -9.463 -3.383 14
19.458 -9.091 -3.366 14
18.745 -8.76 -3.365 14
17.996 -8.419 -3.344 14
17.24 -8.075 -3.309 13
16.536 -7.758 -3.283 12
15.896 -7.475 -3.272 13
15.274 -7.199 -3.258 15
10.663 -6.521 1.85 4
10.141 -6.082 1.818 18
10.301 -6.058 1.712 25
11.04 -6.373 1.529 17
11.194 -6.345 1.418 29
11.069 -6.163 1.349 28
11.091 -6.073 1.259 36
10.685 -5.757 1.24 15
53.394 -28.335 -6.207 16
10.686 -5.589 1.076 25
11.002 -5.678 0.934 30
9.484 -4.831 1.145 30
9.607 -4.838 1.046 30
10.801 -5.379 0.717 27
10.285 -5.073 0.741 22
10.206 -4.989 0.673 28
30.712 -14.899 -4.267 4
29.086 -14.01 -4.138 5
27.572 -13.199 -4.018 5
26.208 -12.486 -3.921 9
24.954 -11.838 -3.834 9
20.737 -9.807 -2.893 19
20.789 -9.806 -3.128 22
20.846 -9.818 -3.376 27
20.188 -9.498 -3.406 13
19.387 -9.119 -3.385 13
18.679 -8.787 -3.384 14
17.921 -8.439 -3.359 15
17.18 -8.099 -3.328 13
16.478 -7.779 -3.299 12
15.835 -7.492 -3.287 13
15.208 -7.211 -3.268 15
10.896 -6.705 1.818 3
10.185 -6.146 1.805 25
10.304 -6.099 1.704 25
11.018 -6.402 1.522 26
11.165 -6.37 1.412 22
11.033 -6.185 1.343 28
11.204 -6.178 1.228 31
10.608 -5.755 1.24 6
10.559 -5.643 1.166 1
10.707 -5.639 1.058 33
10.97 -5.701 0.925 32
9.521 -4.886 1.125 6
9.65 -4.895 1.022 27
10.055 -5.045 0.859 64
10.204 -5.071 0.742 29
10.185 -5.016 0.661 29
30.499 -14.906 -4.27 4
28.882 -14.015 -4.141 4
27.392 -13.211 -4.024 4
26.058 -12.507 -3.933 14
24.82 -11.861 -3.848 7
20.758 -9.888 -2.942 20
20.506 -9.741 -3.087 29
20.72 -9.828 -3.383 27
20.109 -9.526 -3.425 21
19.33 -9.155 -3.41 14
18.613 -8.815 -3.404 14
17.849 -8.46 -3.375 13
17.103 -8.115 -3.34 14
16.419 -7.8 -3.317 12
15.767 -7.506 -3.299 13
15.148 -7.225 -3.281 15
10.786 -6.678 1.823 24
10.205 -6.197 1.795 25
10.287 -6.127 1.698 23
11.139 -6.515 1.496 1
11.101 -6.376 1.41 25
11.027 -6.224 1.332 28
11.146 -6.189 1.225 17
10.284 -5.619 1.282 15
10.607 -5.71 1.145 16
10.974 -5.823 0.995 23
10.993 -5.756 0.905 34
10.911 -5.641 0.835 31
9.592 -4.902 1.019 27
9.961 -5.036 0.863 38
10.176 -5.095 0.732 28
10.175 -5.049 0.646 20
30.296 -14.917 -4.276 5
28.692 -14.028 -4.147 4
27.209 -13.22 -4.029 4
25.891 -12.518 -3.939 24
24.669 -11.874 -3.856 7
20.6 -9.884 -2.939 19
20.551 -9.833 -3.145 22
20.559 -9.82 -3.377 22
20.001 -9.541 -3.436 17
19.255 -9.182 -3.429 14
18.54 -8.839 -3.422 14
17.774 -8.481 -3.391 13
17.033 -8.133 -3.354 14
16.35 -7.817 -3.33 12
15.707 -7.523 -3.313 14
15.092 -7.241 -3.295 14
10.693 -6.66 1.826 22
10.599 -6.476 1.741 22
10.381 -6.224 1.677 26
10.976 -6.462 1.508 7
11.016 -6.369 1.412 11
10.946 -6.22 1.333 30
12.438 -6.953 1.006 37
10.249 -5.639 1.276 32
10.582 -5.736 1.136 23
10.865 -5.806 1.001 20
11.155 -5.883 0.859 42
9.816 -5.112 1.038 4
9.561 -4.922 1.011 29
9.884 -5.034 0.863 27
10.151 -5.121 0.72 28
31.842 -15.917 -4.422 6
10.499 -5.208 0.46 0
28.517 -14.046 -4.157 4
27.039 -13.235 -4.037 5
25.724 -12.529 -3.945 27
24.526 -11.892 -3.866 7
20.533 -9.924 -2.963 21
20.38 -9.82 -3.136 22
20.59 -9.904 -3.432 29
19.918 -9.567 -3.453 19
19.187 -9.211 -3.45 14
18.467 -8.863 -3.44 14
17.702 -8.501 -3.406 14
16.969 -8.155 -3.371 18
16.278 -7.831 -3.341 11
15.646 -7.539 -3.326 13
15.033 -7.256 -3.307 14
10.701 -6.706 1.818 24
10.56 -6.492 1.738 28
10.452 -6.306 1.66 20
10.752 -6.371 1.529 23
10.956 -6.377 1.41 8
10.917 -6.246 1.327 35
12.733 -7.167 0.945 9
10.151 -5.624 1.28 22
10.612 -5.793 1.118 27
10.829 -5.828 0.993 22
11.341 -6.025 0.807 31
9.782 -5.131 1.03 24
9.492 -4.923 1.011 32
9.87 -5.064 0.851 35
10.144 -5.155 0.705 35
31.597 -15.913 -4.42 6
10.47 -5.233 0.448 31
28.31 -14.047 -4.157 4
26.88 -13.255 -4.048 4
25.571 -12.546 -3.954 28
24.393 -11.913 -3.878 7
20.498 -9.977 -2.995 22
20.226 -9.816 -3.134 22
20.353 -9.859 -3.402 26
19.874 -9.612 -3.483 18
19.116 -9.24 -3.47 14
18.39 -8.885 -3.456 13
17.617 -8.515 -3.417 14
16.903 -8.174 -3.386 13
16.222 -7.853 -3.359 12
15.581 -7.555 -3.339 13
14.969 -7.268 -3.318 15
10.672 -6.729 1.814 25
10.504 -6.498 1.737 28
10.369 -6.295 1.662 20
10.634 -6.342 1.536 26
10.718 -6.279 1.434 11
10.898 -6.276 1.318 21
10.995 -6.232 1.213 1
10.234 -5.709 1.254 27
10.178 -5.596 1.182 13
9.661 -5.237 1.197 4
11.405 -6.102 0.779 24
9.744 -5.148 1.024 23
9.444 -4.934 1.007 31
9.86 -5.096 0.837 31
10.105 -5.173 0.697 29
31.392 -15.927 -4.427 7
10.452 -5.262 0.433 23
28.125 -14.058 -4.163 4
26.704 -13.264 -4.053 4
25.412 -12.559 -3.961 29
24.246 -11.927 -3.886 7
20.42 -10.011 -3.015 9
20.094 -9.82 -3.137 22
20.1 -9.804 -3.367 39
19.863 -9.673 -3.524 19
19.048 -9.269 -3.49 15
18.32 -8.91 -3.473 13
17.545 -8.535 -3.432 14
16.836 -8.194 -3.402 15
16.157 -7.87 -3.373 12
15.517 -7.569 -3.351 13
14.91 -7.283 -3.331 15
10.731 -6.807 1.8 20
10.502 -6.538 1.729 14
10.49 -6.409 1.638 20
10.537 -6.324 1.54 23
10.767 -6.35 1.417 21
10.868 -6.301 1.312 27
11.144 -6.359 1.177 14
10.278 -5.774 1.235 31
10.402 -5.759 1.129 51
9.64 -5.263 1.188 30
10.812 -5.827 0.879 17
9.723 -5.175 1.013 13
9.473 -4.985 0.986 32
9.839 -5.123 0.826 27
10.067 -5.191 0.689 31
31.173 -15.932 -4.429 7
10.458 -5.304 0.413 28
27.946 -14.071 -4.17 4
26.536 -13.277 -4.059 5
25.256 -12.572 -3.969 29
24.109 -11.945 -3.897 7
23.008 -11.36 -3.826 19
20.0 -9.844 -3.151 23
20.006 -9.826 -3.381 29
19.794 -9.704 -3.546 25
18.984 -9.3 -3.512 14
18.247 -8.934 -3.491 14
17.476 -8.557 -3.449 14
16.762 -8.211 -3.415 12
16.088 -7.885 -3.385 12
15.46 -7.587 -3.366 15
14.857 -7.299 -3.345 15
11.061 -7.059 1.755 13
10.45 -6.546 1.728 26
10.407 -6.399 1.64 27
10.583 -6.393 1.524 30
10.785 -6.403 1.404 1
10.859 -6.338 1.302 20
11.296 -6.49 1.139 9
10.438 -5.905 1.195 22
10.594 -5.907 1.081 23
9.599 -5.278 1.183 21
11.25 -6.106 0.777 24
9.702 -5.201 1.004 26
9.511 -5.042 0.963 25
9.797 -5.138 0.819 28
10.07 -5.231 0.671 27
30.954 -15.937 -4.431 7
10.478 -5.353 0.389 1
10.467 -5.309 0.295 4
26.374 -13.292 -4.067 5
25.107 -12.589 -3.978 29
23.962 -11.958 -3.904 9
22.881 -11.377 -3.836 17
19.94 -9.883 -3.176 24
19.891 -9.838 -3.389 24
19.724 -9.737 -3.567 23
18.902 -9.322 -3.527 14
18.157 -8.948 -3.501 14
17.408 -8.58 -3.465 14
16.695 -8.229 -3.429 13
16.032 -7.907 -3.403 12
15.399 -7.603 -3.38 13
14.797 -7.314 -3.358 14
10.676 -6.854 1.791 24
10.69 -6.737 1.69 22
10.506 -6.501 1.618 7
10.523 -6.398 1.523 30
11.097 -6.631 1.347 19
10.891 -6.4 1.285 20
10.892 -6.3 1.193 30
10.471 -5.964 1.176 18
10.661 -5.986 1.055 32
9.599 -5.315 1.17 22
11.116 -6.077 0.788 25
9.778 -5.28 0.973 23
9.48 -5.062 0.955 27
9.464 -5.0 0.878 25
10.069 -5.269 0.654 27
30.739 -15.942 -4.434 7
10.469 -5.388 0.372 7
10.403 -5.316 0.292 9
26.205 -13.304 -4.074 5
24.962 -12.606 -3.988 26
23.83 -11.977 -3.915 7
22.76 -11.398 -3.849 11
19.76 -9.862 -3.163 19
19.955 -9.938 -3.454 23
19.648 -9.766 -3.587 25
18.807 -9.337 -3.538 15
18.087 -8.972 -3.519 14
17.336 -8.599 -3.48 13
16.621 -8.245 -3.441 13
15.97 -7.925 -3.417 12
15.334 -7.617 -3.391 15
14.737 -7.328 -3.37 14
11.409 -7.37 1.701 25
10.748 -6.816 1.675 21
10.68 -6.65 1.587 13
10.64 -6.51 1.497 13
10.828 -6.513 1.376 0
10.851 -6.419 1.28 23
10.407 -6.061 1.262 25
10.449 -5.993 1.168 31
10.456 -5.912 1.079 24
9.623 -5.366 1.152 27
10.972 -6.041 0.801 28
9.875 -5.37 0.938 20
9.588 -5.156 0.917 31
9.364 -4.983 0.885 24
10.661 -5.619 0.498 27
30.534 -15.952 -4.439 7
10.409 -5.396 0.368 27
10.405 -5.355 0.272 4
26.044 -13.317 -4.081 5
24.823 -12.627 -3.999 6
23.693 -11.994 -3.925 7
22.626 -11.411 -3.856 17
19.731 -9.917 -3.197 14
19.871 -9.964 -3.471 28
19.564 -9.79 -3.604 31
18.729 -9.361 -3.555 14
18.013 -8.994 -3.535 15
17.268 -8.621 -3.496 13
16.551 -8.262 -3.455 13
15.908 -7.943 -3.432 11
15.283 -7.638 -3.409 12
14.684 -7.344 -3.384 14
11.224 -7.294 1.714 28
10.749 -6.858 1.667 17
10.711 -6.711 1.574 15
10.631 -6.547 1.488 19
10.795 -6.536 1.37 21
10.821 -6.443 1.274 20
10.364 -6.077 1.257 24
10.461 -6.04 1.153 28
10.049 -5.721 1.141 30
9.626 -5.406 1.139 27
9.825 -5.447 1.017 5
9.936 -5.443 0.911 26
9.584 -5.192 0.902 30
9.278 -4.973 0.889 27
32.218 -17.106 -4.616 6
10.533 -5.543 0.415 0
10.379 -5.419 0.357 28
10.383 -5.382 0.258 33
25.89 -13.334 -4.09 5
24.682 -12.645 -4.009 6
23.551 -12.006 -3.932 7
22.489 -11.422 -3.863 18
19.702 -9.972 -3.231 17
19.653 -9.923 -3.444 21
19.491 -9.819 -3.623 30
18.678 -9.398 -3.58 14
17.933 -9.013 -3.548 14
17.192 -8.638 -3.509 13
16.49 -8.284 -3.472 13
15.842 -7.959 -3.445 11
15.215 -7.65 -3.419 13
14.624 -7.358 -3.396 14
10.971 -7.172 1.735 21
10.746 -6.899 1.659 24
10.711 -6.754 1.564 2
10.571 -6.552 1.487 28
10.951 -6.674 1.336 14
10.808 -6.479 1.264 12
10.41 -6.145 1.238 24
10.438 -6.069 1.145 27
9.976 -5.719 1.142 26
9.698 -5.484 1.112 24
9.814 -5.48 1.006 0
9.949 -5.488 0.893 17
9.563 -5.217 0.892 27
9.295 -5.018 0.87 35
31.986 -17.106 -4.616 6
10.49 -5.56 0.407 16
10.388 -5.463 0.335 24
10.336 -5.396 0.25 25
25.735 -13.35 -4.098 5
24.533 -12.658 -4.017 6
23.418 -12.023 -3.942 7
22.369 -11.44 -3.874 11
21.394 -10.903 -3.813 18
19.669 -9.998 -3.493 7
19.411 -9.846 -3.641 29
18.688 -9.465 -3.628 21
17.856 -9.033 -3.563 14
17.114 -8.654 -3.521 13
16.413 -8.297 -3.483 12
15.779 -7.977 -3.46 11
15.158 -7.667 -3.433 13
14.578 -7.378 -3.414 14
10.864 -7.146 1.74 22
10.699 -6.911 1.657 25
10.702 -6.79 1.557 19
10.548 -6.579 1.481 25
11.151 -6.839 1.295 28
41.085 -24.793 -3.643 10
10.377 -6.167 1.232 25
10.487 -6.139 1.123 27
9.923 -5.729 1.139 26
9.684 -5.514 1.101 28
9.858 -5.544 0.982 55
9.951 -5.528 0.878 23
9.676 -5.317 0.852 29
9.316 -5.066 0.85 29
31.762 -17.109 -4.617 5
10.415 -5.56 0.407 28
10.362 -5.489 0.323 33
26.886 -14.139 -4.204 5
25.574 -13.361 -4.104 5
24.392 -12.675 -4.026 6
23.282 -12.038 -3.95 7
22.245 -11.457 -3.884 8
21.297 -10.929 -3.829 15
19.52 -9.991 -3.488 19
19.366 -9.888 -3.67 31
18.61 -9.488 -3.644 21
17.779 -9.054 -3.578 13
17.038 -8.671 -3.534 13
16.356 -8.32 -3.501 13
15.717 -7.994 -3.473 12
15.1 -7.684 -3.448 13
14.514 -7.389 -3.423 14
10.668 -7.059 1.755 22
10.736 -6.978 1.644 21
10.729 -6.85 1.544 19
10.552 -6.625 1.471 35
11.147 -6.882 1.284 18
11.218 -6.814 1.174 3
10.562 -6.318 1.188 22
10.423 -6.143 1.122 26
9.881 -5.743 1.134 22
9.686 -5.554 1.088 31
9.894 -5.603 0.961 19
9.957 -5.571 0.862 21
9.672 -5.353 0.837 25
9.375 -5.134 0.821 25
10.528 -5.711 0.457 5
10.399 -5.592 0.392 24
10.343 -5.518 0.309 36
26.709 -14.147 -4.208 5
25.42 -13.376 -4.112 5
24.25 -12.691 -4.035 6
23.153 -12.056 -3.96 7
22.122 -11.473 -3.894 8
21.182 -10.945 -3.839 16
19.906 -10.258 -3.662 9
19.296 -9.919 -3.69 34
18.49 -9.49 -3.645 15
17.696 -9.07 -3.59 13
16.973 -8.694 -3.551 12
16.286 -8.337 -3.513 12
15.655 -8.012 -3.488 18
15.029 -7.694 -3.456 13
14.461 -7.406 -3.438 14
10.734 -7.145 1.74 17
10.636 -6.956 1.648 29
10.962 -7.044 1.503 2
10.25 -6.476 1.505 27
10.479 -6.512 1.376 12
10.748 -6.572 1.239 33
10.559 -6.359 1.176 24
10.482 -6.22 1.098 25
9.784 -5.726 1.139 24
9.705 -5.604 1.071 21
10.112 -5.766 0.901 31
10.068 -5.673 0.822 32
9.699 -5.406 0.816 26
9.824 -5.418 0.7 29
10.477 -5.725 0.451 26
10.329 -5.594 0.392 28
10.313 -5.542 0.297 33
26.536 -14.155 -4.212 5
25.277 -13.395 -4.122 5
24.095 -12.7 -4.04 6
23.028 -12.075 -3.971 7
22.002 -11.491 -3.904 8
21.057 -10.956 -3.846 12
19.822 -10.284 -3.678 7
19.212 -9.942 -3.706 30
18.398 -9.505 -3.656 14
17.622 -9.091 -3.605 14
16.908 -8.715 -3.568 16
16.222 -8.356 -3.528 13
15.592 -8.028 -3.501 12
14.977 -7.714 -3.473 13
14.408 -7.422 -3.452 14
10.664 -7.142 1.741 3
10.599 -6.974 1.644 21
10.511 -6.796 1.556 1
10.147 -6.451 1.511 23
10.856 -6.789 1.307 16
10.677 -6.571 1.239 31
10.569 -6.408 1.163 24
10.554 -6.305 1.072 14
9.919 -5.845 1.101 40
9.728 -5.656 1.053 23
10.11 -5.805 0.887 27
10.248 -5.815 0.768 47
9.759 -5.478 0.787 28
9.744 -5.412 0.703 32
10.454 -5.753 0.439 32
10.268 -5.6 0.389 29
10.297 -5.573 0.282 34
26.376 -14.17 -4.22 4
10.311 -5.503 0.074 0
10.31 -5.472 -0.033 10
22.889 -12.086 -3.978 7
21.879 -11.505 -3.913 7
20.953 -10.976 -3.859 15
20.049 -10.473 -3.801 16
19.135 -9.969 -3.724 24
18.31 -9.522 -3.667 14
17.549 -9.111 -3.62 14
16.836 -8.734 -3.581 13
16.161 -8.377 -3.545 12
15.533 -8.047 -3.516 11
14.916 -7.729 -3.485 13
14.348 -7.435 -3.463 14
11.403 -7.682 1.645 26
10.622 -7.032 1.633 21
10.325 -6.717 1.572 19
10.148 -6.493 1.501 20
10.732 -6.755 1.316 17
10.599 -6.567 1.24 35
10.542 -6.434 1.155 26
10.47 -6.297 1.075 17
10.399 -6.17 0.995 24
9.648 -5.648 1.055 20
10.09 -5.835 0.876 25
10.279 -5.874 0.745 33
9.809 -5.545 0.76 22
9.489 -5.309 0.747 25
10.431 -5.781 0.426 32
10.221 -5.615 0.382 29
10.295 -5.612 0.263 1
10.209 -5.523 0.186 18
10.278 -5.524 0.063 27
10.263 -5.486 -0.041 19
22.757 -12.1 -3.986 6
21.752 -11.518 -3.921 7
20.825 -10.984 -3.863 18
19.964 -10.499 -3.818 17
19.062 -9.997 -3.743 21
18.225 -9.54 -3.68 13
17.472 -9.131 -3.634 14
16.771 -8.756 -3.598 14
16.091 -8.393 -3.557 13
15.46 -8.059 -3.526 11
14.858 -7.745 -3.499 13
14.294 -7.45 -3.477 14
10.778 -7.305 1.712 29
10.635 -7.084 1.623 25
10.295 -6.739 1.568 7
10.081 -6.492 1.501 24
10.467 -6.631 1.347 29
10.505 -6.551 1.245 28
10.549 -6.482 1.141 26
10.575 -6.403 1.042 23
10.365 -6.192 0.988 23
9.661 -5.695 1.039 24
10.119 -5.892 0.855 31
10.229 -5.886 0.741 21
9.736 -5.542 0.761 23
9.44 -5.319 0.742 29
10.421 -5.816 0.41 27
10.191 -5.638 0.371 36
10.234 -5.618 0.26 10
10.04 -5.471 0.213 33
10.128 -5.482 0.085 35
10.223 -5.502 -0.05 16
22.618 -12.11 -3.992 7
21.626 -11.53 -3.928 7
20.714 -11.0 -3.873 18
19.858 -10.513 -3.827 18
18.965 -10.013 -3.754 25
18.126 -9.55 -3.687 13
17.405 -9.154 -3.651 14
16.699 -8.773 -3.611 14
16.03 -8.413 -3.573 13
15.404 -8.079 -3.542 12
14.797 -7.76 -3.511 13
14.244 -7.468 -3.492 15
10.678 -7.281 1.716 23
10.598 -7.102 1.62 21
10.265 -6.762 1.563 22
10.092 -6.54 1.49 20
10.289 -6.56 1.364 16
10.384 -6.518 1.254 28
10.694 -6.614 1.103 17
10.642 -6.487 1.017 27
10.345 -6.221 0.979 24
9.594 -5.694 1.039 29
10.103 -5.924 0.844 29
10.22 -5.921 0.727 25
9.639 -5.526 0.768 26
9.514 -5.398 0.709 40
10.782 -6.061 0.301 5
10.162 -5.662 0.36 26
10.153 -5.612 0.263 28
9.983 -5.478 0.209 30
9.939 -5.417 0.12 22
23.535 -12.756 -4.071 6
22.49 -12.125 -4.0 7
21.507 -11.545 -3.937 7
20.6 -11.013 -3.882 18
19.746 -10.524 -3.835 18
18.861 -10.024 -3.761 18
18.051 -9.574 -3.704 13
17.328 -9.172 -3.664 13
16.63 -8.793 -3.626 13
15.963 -8.43 -3.587 13
15.338 -8.093 -3.554 11
14.739 -7.776 -3.525 13
14.184 -7.481 -3.503 14
10.743 -7.368 1.701 14
10.571 -7.127 1.615 17
10.086 -6.685 1.579 16
10.092 -6.582 1.481 29
10.319 -6.622 1.349 39
10.401 -6.571 1.239 22
10.673 -6.645 1.095 32
10.672 -6.549 0.998 29
10.315 -6.246 0.971 29
9.694 -5.793 1.005 11
10.137 -5.985 0.822 19
10.179 -5.94 0.72 33
9.606 -5.546 0.759 31
9.734 -5.561 0.639 39
10.391 -5.882 0.381 4
10.132 -5.684 0.349 26
10.083 -5.613 0.262 26
9.984 -5.517 0.189 27
9.937 -5.454 0.1 27
23.391 -12.766 -4.076 6
22.365 -12.141 -4.01 7
21.387 -11.559 -3.946 7
20.489 -11.029 -3.892 14
19.644 -10.541 -3.845 19
18.781 -10.048 -3.777 9
17.969 -9.592 -3.717 12
17.258 -9.194 -3.68 13
16.561 -8.811 -3.64 13
15.902 -8.45 -3.602 13
15.276 -8.11 -3.567 12
14.687 -7.795 -3.541 13
14.137 -7.499 -3.519 14
10.663 -7.358 1.703 27
10.613 -7.199 1.601 13
10.179 -6.789 1.557 24
10.106 -6.631 1.469 27
10.269 -6.632 1.346 22
10.234 -6.507 1.256 20
10.645 -6.671 1.087 15
10.59 -6.543 1.0 21
10.302 -6.279 0.96 26
10.094 -6.073 0.909 22
10.199 -6.062 0.794 7
10.153 -5.965 0.71 31
9.581 -5.569 0.75 27
9.715 -5.589 0.627 34
10.405 -5.931 0.359 2
10.095 -5.703 0.34 29
10.039 -5.629 0.255 28
9.91 -5.515 0.19 31
9.917 -5.482 0.085 29
23.251 -12.778 -4.083 6
22.227 -12.149 -4.014 7
21.264 -11.572 -3.953 7
20.378 -11.043 -3.901 23
19.548 -10.56 -3.858 18
18.701 -10.071 -3.793 7
17.887 -9.611 -3.73 14
17.178 -9.21 -3.692 13
16.489 -8.829 -3.653 13
15.841 -8.47 -3.618 13
15.207 -8.122 -3.577 11
14.62 -7.806 -3.55 14
14.067 -7.506 -3.525 14
10.756 -7.467 1.683 13
10.559 -7.206 1.599 11
10.169 -6.824 1.55 29
10.112 -6.678 1.458 17
10.326 -6.711 1.327 29
10.09 -6.458 1.27 33
11.752 -7.413 0.874 2
10.643 -6.619 0.976 7
10.204 -6.262 0.965 23
10.128 -6.134 0.888 12
11.103 -6.645 0.581 12
10.221 -6.046 0.679 26
9.697 -5.676 0.707 33
9.787 -5.67 0.593 31
10.384 -5.961 0.346 6
10.062 -5.725 0.33 24
10.06 -5.68 0.23 31
9.86 -5.525 0.185 30
9.871 -5.494 0.079 34
23.111 -12.789 -4.089 5
22.116 -12.172 -4.027 7
21.152 -11.589 -3.963 7
20.261 -11.054 -3.907 19
19.436 -10.569 -3.864 18
18.601 -10.083 -3.801 7
17.815 -9.635 -3.747 14
17.108 -9.232 -3.707 12
16.417 -8.845 -3.665 13
15.774 -8.487 -3.631 13
15.141 -8.137 -3.589 11
14.565 -7.823 -3.564 14
14.023 -7.527 -3.543 16
10.647 -7.435 1.689 14
10.594 -7.274 1.586 9
10.106 -6.824 1.55 20
10.053 -6.68 1.458 28
0.0 -0.0 3.0 0
10.063 -6.482 1.263 23
11.738 -7.454 0.863 0
10.78 -6.748 0.937 0
10.244 -6.329 0.944 24
10.004 -6.101 0.899 26
11.068 -6.67 0.572 9
10.157 -6.05 0.678 27
10.043 -5.92 0.608 23
10.072 -5.875 0.506 21
29.61 -17.116 -4.621 6
10.048 -5.757 0.316 31
10.037 -5.706 0.217 32
9.851 -5.558 0.168 28
9.848 -5.519 0.065 22
22.987 -12.809 -4.1 6
21.978 -12.179 -4.032 7
21.033 -11.602 -3.971 7
20.157 -11.072 -3.918 17
19.341 -10.587 -3.876 18
18.507 -10.098 -3.811 6
17.74 -9.656 -3.762 13
17.031 -9.249 -3.72 13
16.345 -8.863 -3.679 13
15.713 -8.507 -3.646 14
15.081 -8.154 -3.603 11
14.507 -7.838 -3.577 13
13.966 -7.54 -3.555 24
10.877 -7.64 1.653 28
10.559 -7.295 1.582 23
10.112 -6.871 1.54 23
10.029 -6.707 1.452 0
9.963 -6.558 1.365 29
10.017 -6.495 1.26 30
10.276 -6.568 1.117 7
10.771 -6.788 0.925 4
10.197 -6.342 0.939 24
9.99 -6.134 0.888 21
10.998 -6.673 0.571 27
10.11 -6.063 0.673 6
10.235 -6.074 0.546 17
9.971 -5.858 0.514 30
10.279 -5.983 0.336 0
10.123 -5.84 0.277 16
10.007 -5.728 0.206 24
9.831 -5.586 0.154 30
9.838 -5.552 0.048 30
22.841 -12.815 -4.103 6
21.857 -12.195 -4.041 6
20.924 -11.62 -3.982 7
20.057 -11.091 -3.93 8
19.232 -10.598 -3.882 18
18.46 -10.139 -3.839 12
17.672 -9.682 -3.779 13
16.96 -9.27 -3.735 14
16.279 -8.882 -3.693 12
15.629 -8.514 -3.652 12
15.005 -8.163 -3.61 11
14.445 -7.851 -3.588 12
13.916 -7.557 -3.569 25
10.679 -7.546 1.669 17
10.571 -7.347 1.572 22
10.128 -6.923 1.529 24
10.924 -7.351 1.303 31
9.924 -6.575 1.361 28
10.01 -6.532 1.25 27
10.209 -6.567 1.117 20
10.697 -6.785 0.925 4
10.457 -6.547 0.873 6
9.98 -6.17 0.876 32
10.939 -6.683 0.568 22
10.079 -6.087 0.663 2
10.184 -6.086 0.541 30
9.91 -5.862 0.512 29
29.209 -17.12 -4.622 6
10.146 -5.895 0.251 7
10.0 -5.764 0.189 26
9.815 -5.615 0.139 34
9.822 -5.581 0.033 18
22.708 -12.827 -4.11 5
21.729 -12.206 -4.047 6
20.808 -11.635 -3.991 7
19.95 -11.105 -3.939 8
19.13 -10.612 -3.891 15
18.377 -10.159 -3.852 19
17.59 -9.7 -3.792 13
16.884 -9.286 -3.747 13
16.204 -8.897 -3.704 14
15.572 -8.535 -3.668 13
14.946 -8.179 -3.624 12
14.387 -7.867 -3.601 13
13.862 -7.572 -3.582 22
10.443 -7.424 1.691 26
10.579 -7.397 1.562 16
10.094 -6.943 1.524 34
10.675 -7.229 1.331 32
9.9 -6.601 1.354 22
9.966 -6.545 1.246 30
10.175 -6.589 1.111 21
10.632 -6.789 0.924 1
10.686 -6.736 0.811 53
10.02 -6.236 0.853 19
10.901 -6.705 0.56 18
11.034 -6.709 0.425 12
10.093 -6.072 0.547 23
9.873 -5.88 0.504 26
29.012 -17.122 -4.623 6
10.082 -5.898 0.25 28
9.98 -5.792 0.175 29
9.832 -5.664 0.114 24
23.623 -13.514 -4.186 5
22.568 -12.836 -4.115 6
21.612 -12.223 -4.057 7
20.689 -11.647 -3.998 7
19.843 -11.12 -3.949 8
19.042 -10.633 -3.905 11
18.293 -10.18 -3.866 18
17.515 -9.72 -3.806 14
16.81 -9.305 -3.76 12
16.129 -8.911 -3.715 13
15.498 -8.546 -3.677 13
14.893 -8.2 -3.64 11
14.329 -7.882 -3.613 16
13.805 -7.585 -3.594 14
10.319 -7.379 1.699 24
10.56 -7.429 1.556 25
10.498 -7.265 1.456 1
10.47 -7.134 1.353 9
9.933 -6.664 1.338 22
9.959 -6.583 1.236 10
10.032 -6.538 1.125 19
12.018 -7.724 0.638 22
11.443 -7.261 0.641 21
10.403 -6.518 0.756 23
10.979 -6.798 0.526 23
10.985 -6.725 0.419 26
10.123 -6.133 0.522 27
9.8 -5.877 0.506 29
10.156 -6.035 0.313 2
10.075 -5.935 0.233 22
9.993 -5.841 0.151 16
9.832 -5.703 0.094 19
23.484 -13.528 -4.193 4
22.438 -12.85 -4.123 5
21.484 -12.233 -4.063 6
20.581 -11.663 -4.008 7
19.723 -11.126 -3.952 12
18.94 -10.645 -3.913 11
18.217 -10.202 -3.882 18
17.44 -9.74 -3.82 13
16.73 -9.32 -3.771 13
16.056 -8.927 -3.727 13
15.427 -8.56 -3.688 13
14.824 -8.212 -3.65 12
14.271 -7.896 -3.626 14
13.758 -7.603 -3.609 18
10.359 -7.451 1.686 27
10.711 -7.58 1.527 28
10.49 -7.304 1.447 25
10.406 -7.135 1.353 4
9.893 -6.679 1.335 28
9.893 -6.581 1.237 29
9.948 -6.526 1.129 18
12.175 -7.877 0.592 20
10.875 -6.946 0.743 20
10.349 -6.527 0.752 24
11.483 -7.159 0.394 1
10.992 -6.775 0.399 30
10.008 -6.105 0.534 28
9.756 -5.891 0.499 29
9.838 -5.886 0.379 0
10.075 -5.975 0.214 38
9.939 -5.849 0.147 31
9.869 -5.764 0.063 0
23.346 -13.54 -4.199 5
22.312 -12.864 -4.131 5
21.36 -12.245 -4.07 6
20.462 -11.674 -4.015 7
19.633 -11.15 -3.967 7
18.841 -10.66 -3.923 8
18.12 -10.215 -3.89 18
17.351 -9.754 -3.83 13
16.643 -9.33 -3.779 13
15.991 -8.946 -3.741 13
15.366 -8.579 -3.703 12
14.767 -8.23 -3.664 12
14.209 -7.909 -3.637 14
13.694 -7.612 -3.617 15
10.302 -7.455 1.686 24
10.42 -7.419 1.558 22
10.442 -7.315 1.445 16
10.649 -7.347 1.304 1
9.869 -6.705 1.328 24
9.738 -6.519 1.253 24
9.947 -6.568 1.117 1
12.054 -7.85 0.6 14
11.35 -7.297 0.629 25
10.311 -6.547 0.746 26
11.037 -6.927 0.479 0
11.126 -6.905 0.35 50
9.961 -6.117 0.528 25
9.733 -5.917 0.488 23
9.741 -5.868 0.387 16
10.061 -6.008 0.198 36
9.919 -5.877 0.134 15
24.294 -14.286 -4.279 26
23.204 -13.55 -4.205 5
22.176 -12.872 -4.135 6
21.24 -12.258 -4.077 6
20.353 -11.69 -4.024 7
19.526 -11.163 -3.975 8
18.743 -10.674 -3.932 11
18.036 -10.234 -3.903 17
17.283 -9.778 -3.847 11
16.573 -9.349 -3.792 14
15.922 -8.963 -3.754 14
15.296 -8.592 -3.712 13
14.711 -8.248 -3.679 12
14.154 -7.925 -3.65 13
13.647 -7.63 -3.633 14
10.303 -7.5 1.678 23
10.379 -7.434 1.555 28
10.41 -7.339 1.44 14
10.415 -7.231 1.331 16
9.842 -6.729 1.322 31
9.763 -6.578 1.237 22
9.999 -6.645 1.095 0
12.095 -7.929 0.576 10
11.346 -7.344 0.614 29
10.279 -6.571 0.738 21
10.994 -6.947 0.472 5
11.0 -6.872 0.362 16
9.93 -6.14 0.519 21
9.699 -5.937 0.48 29
9.704 -5.886 0.379 20
10.04 -6.036 0.185 30
25.395 -15.15 -4.389 4
24.144 -14.294 -4.283 28
23.063 -13.559 -4.209 20
22.051 -12.886 -4.143 6
21.113 -12.267 -4.082 7
20.235 -11.699 -4.03 7
19.413 -11.171 -3.981 7
18.632 -10.68 -3.936 17
17.95 -10.251 -3.914 18
17.207 -9.798 -3.861 6
16.499 -9.366 -3.805 13
15.85 -8.978 -3.766 13
15.228 -8.607 -3.725 12
14.652 -8.264 -3.692 14
14.102 -7.943 -3.665 13
13.587 -7.641 -3.642 14
10.358 -7.585 1.663 16
10.837 -7.809 1.482 14
10.382 -7.363 1.435 24
10.305 -7.198 1.338 19
9.818 -6.756 1.316 27
9.717 -6.589 1.235 23
12.621 -8.442 0.579 21
10.417 -6.873 0.899 0
11.306 -7.366 0.607 23
10.225 -6.579 0.735 21
36.275 -23.074 -5.398 16
10.055 -6.324 0.572 1
10.092 -6.283 0.462 21
9.672 -5.961 0.47 34
9.554 -5.835 0.402 29
10.045 -6.081 0.164 33
25.243 -15.161 -4.395 4
23.994 -14.302 -4.287 28
22.909 -13.56 -4.21 27
21.918 -12.896 -4.148 5
20.992 -12.278 -4.089 6
20.13 -11.716 -4.04 7
19.316 -11.189 -3.992 7
18.534 -10.693 -3.944 16
17.853 -10.261 -3.921 17
17.122 -9.812 -3.87 4
16.429 -9.386 -3.819 13
15.784 -8.997 -3.78 13
15.164 -8.623 -3.737 13
14.586 -8.277 -3.702 11
14.05 -7.961 -3.68 17
13.533 -7.655 -3.654 13
10.138 -7.467 1.683 29
10.991 -7.969 1.451 12
9.985 -7.125 1.485 19
9.943 -6.988 1.387 23
9.797 -6.783 1.309 29
9.693 -6.615 1.227 21
12.487 -8.406 0.59 31
10.313 -6.849 0.906 2
11.456 -7.514 0.559 4
10.213 -6.616 0.722 21
11.682 -7.48 0.278 12
10.037 -6.356 0.56 38
10.131 -6.349 0.435 27
9.645 -5.985 0.46 30
9.497 -5.84 0.4 23
10.011 -6.101 0.155 25
25.07 -15.16 -4.394 4
23.847 -14.312 -4.292 28
22.771 -13.57 -4.215 28
21.789 -12.906 -4.154 6
20.876 -12.292 -4.097 6
20.018 -11.729 -4.048 7
19.2 -11.195 -3.996 14
18.442 -10.71 -3.955 13
17.77 -10.28 -3.934 17
17.041 -9.827 -3.881 5
16.362 -9.406 -3.834 13
15.716 -9.013 -3.792 13
15.106 -8.643 -3.752 13
14.523 -8.291 -3.714 11
13.995 -7.977 -3.693 14
13.466 -7.661 -3.66 13
10.014 -7.421 1.692 23
10.824 -7.894 1.466 26
10.038 -7.206 1.468 24
9.854 -6.969 1.391 26
9.825 -6.846 1.293 30
9.695 -6.659 1.216 17
9.514 -6.446 1.152 5
10.35 -6.918 0.885 4
40.418 -26.681 -5.669 14
10.165 -6.628 0.718 25
11.716 -7.552 0.251 12
9.973 -6.357 0.56 25
9.957 -6.283 0.462 20
9.608 -6.002 0.452 28
9.474 -5.865 0.389 28
9.986 -6.128 0.143 25
24.918 -15.17 -4.399 5
23.697 -14.318 -4.295 29
22.637 -13.581 -4.221 27
21.667 -12.92 -4.162 6
20.759 -12.305 -4.105 6
19.907 -11.741 -4.055 7
19.1 -11.21 -4.005 7
18.337 -10.719 -3.961 19
17.673 -10.29 -3.94 19
16.956 -9.84 -3.89 5
16.291 -9.425 -3.848 12
15.643 -9.028 -3.803 12
15.039 -8.656 -3.763 11
14.466 -8.308 -3.728 14
13.94 -7.993 -3.707 16
13.393 -7.664 -3.663 15
9.974 -7.434 1.689 18
10.096 -7.407 1.56 8
9.949 -7.187 1.472 22
9.736 -6.928 1.4 18
9.759 -6.842 1.294 23
9.583 -6.624 1.225 23
9.393 -6.405 1.163 9
12.01 -8.08 0.53 5
40.2 -26.711 -5.679 14
10.157 -6.666 0.705 13
11.586 -7.518 0.264 16
9.807 -6.294 0.584 24
9.876 -6.273 0.465 27
9.641 -6.063 0.426 28
9.454 -5.892 0.377 28
9.968 -6.158 0.128 10
24.762 -15.178 -4.403 4
23.561 -14.332 -4.302 29
22.499 -13.59 -4.226 27
21.535 -12.928 -4.166 5
20.645 -12.32 -4.113 6
19.802 -11.757 -4.064 7
19.0 -11.225 -4.014 7
18.243 -10.733 -3.97 24
17.586 -10.305 -3.951 17
16.916 -9.88 -3.918 9
16.224 -9.445 -3.862 13
15.581 -9.047 -3.818 12
14.975 -8.673 -3.776 11
14.4 -8.32 -3.737 12
13.872 -8.0 -3.713 13
13.311 -7.661 -3.66 12
10.013 -7.507 1.676 9
10.812 -7.981 1.449 43
9.877 -7.178 1.474 24
9.66 -6.917 1.403 17
9.414 -6.642 1.344 13
9.388 -6.529 1.251 25
9.353 -6.419 1.159 0
42.349 -28.678 -5.768 20
10.208 -6.828 0.782 2
10.092 -6.668 0.704 26
11.548 -7.544 0.254 13
9.71 -6.272 0.592 31
9.786 -6.258 0.472 27
9.643 -6.105 0.408 29
9.407 -5.902 0.372 25
10.049 -6.25 0.086 21
9.919 -6.121 0.015 4
23.421 -14.343 -4.308 27
22.372 -13.603 -4.233 27
21.413 -12.941 -4.173 6
20.522 -12.328 -4.118 6
19.684 -11.764 -4.068 7
18.891 -11.233 -4.019 8
18.155 -10.751 -3.982 18
17.503 -10.322 -3.962 17
16.857 -9.909 -3.938 20
16.157 -9.465 -3.877 13
15.502 -9.058 -3.826 17
14.907 -8.686 -3.786 12
14.341 -8.335 -3.75 13
13.82 -8.018 -3.728 19
13.241 -7.666 -3.664 12
9.956 -7.509 1.676 25
10.027 -7.445 1.553 15
9.897 -7.235 1.462 20
9.652 -6.954 1.395 23
9.626 -6.835 1.296 7
9.289 -6.502 1.258 25
9.388 -6.484 1.141 0
41.912 -28.566 -5.734 19
10.173 -6.849 0.775 1
10.041 -6.678 0.701 26
11.523 -7.577 0.242 14
9.702 -6.31 0.578 25
9.864 -6.35 0.434 32
9.619 -6.131 0.398 26
9.327 -5.892 0.377 34
9.991 -6.256 0.083 34
24.455 -15.192 -4.41 4
23.292 -14.36 -4.317 22
22.238 -13.613 -4.238 24
21.275 -12.943 -4.175 5
20.416 -12.345 -4.128 6
19.582 -11.78 -4.078 8
18.788 -11.246 -4.027 7
18.06 -10.764 -3.99 8
17.404 -10.329 -3.967 11
16.782 -9.927 -3.951 18
16.096 -9.489 -3.894 14
15.446 -9.081 -3.843 13
14.84 -8.7 -3.797 16
14.278 -8.349 -3.761 11
13.768 -8.035 -3.742 20
13.165 -7.666 -3.664 12
9.928 -7.532 1.672 21
10.087 -7.535 1.535 2
9.651 -7.099 1.491 25
9.599 -6.958 1.394 29
9.589 -6.851 1.292 20
9.214 -6.49 1.261 26
9.338 -6.491 1.139 28
41.519 -28.481 -5.708 25
39.161 -26.536 -5.622 26
10.026 -6.711 0.689 24
9.915 -6.563 0.611 0
9.553 -6.255 0.599 25
9.944 -6.444 0.396 29
9.578 -6.147 0.391 31
9.314 -5.923 0.363 24
9.769 -6.158 0.128 40
9.83 -6.148 0.001 0
23.166 -14.378 -4.326 16
22.124 -13.634 -4.249 17
21.154 -12.955 -4.181 5
20.296 -12.355 -4.133 6
19.478 -11.794 -4.087 13
18.688 -11.259 -4.035 8
17.972 -10.78 -4.001 7
17.314 -10.342 -3.976 10
16.72 -9.953 -3.969 16
16.029 -9.508 -3.908 13
15.374 -9.094 -3.853 11
14.776 -8.715 -3.809 12
14.221 -8.366 -3.774 14
13.71 -8.048 -3.753 14
13.092 -7.668 -3.665 12
9.846 -7.514 1.675 21
12.314 -9.254 1.201 12
9.576 -7.087 1.494 25
9.546 -6.963 1.393 21
9.543 -6.86 1.29 25
9.284 -6.581 1.237 24
9.25 -6.471 1.145 26
41.266 -28.49 -5.71 33
38.884 -26.519 -5.616 15
9.987 -6.73 0.683 19
9.874 -6.579 0.606 9
9.545 -6.291 0.585 24
9.974 -6.507 0.371 23
9.669 -6.246 0.349 21
9.283 -5.944 0.354 33
9.355 -5.936 0.232 21
9.94 -6.259 -0.052 13
23.017 -14.382 -4.328 7
22.004 -13.651 -4.258 10
21.032 -12.966 -4.187 6
20.183 -12.367 -4.14 6
19.373 -11.808 -4.095 7
18.592 -11.274 -4.045 7
17.877 -10.793 -4.009 7
17.227 -10.356 -3.985 10
16.638 -9.966 -3.978 18
15.962 -9.528 -3.922 13
15.305 -9.109 -3.864 11
14.715 -8.732 -3.822 14
14.162 -8.381 -3.787 13
13.654 -8.062 -3.765 14
13.026 -7.673 -3.67 13
9.872 -7.577 1.664 8
9.273 -7.01 1.637 0
9.485 -7.062 1.499 22
9.493 -6.966 1.392 24
9.553 -6.91 1.277 22
9.177 -6.546 1.246 26
9.204 -6.48 1.142 27
40.877 -28.404 -5.684 21
38.561 -26.47 -5.601 18
9.962 -6.757 0.674 26
9.823 -6.589 0.602 16
9.488 -6.294 0.584 30
9.766 -6.414 0.409 48
9.651 -6.276 0.336 28
9.269 -5.974 0.34 28
9.256 -5.913 0.243 24
9.911 -6.282 -0.064 30
22.868 -14.384 -4.329 5
21.864 -13.654 -4.26 6
20.917 -12.981 -4.196 5
20.073 -12.381 -4.148 6
19.266 -11.82 -4.102 7
18.493 -11.287 -4.053 7
17.78 -10.804 -4.016 7
17.138 -10.368 -3.994 10
16.556 -9.98 -3.988 20
15.898 -9.548 -3.937 11
15.24 -9.126 -3.877 12
14.657 -8.75 -3.836 15
14.099 -8.394 -3.797 14
13.593 -8.074 -3.775 19
12.956 -7.676 -3.673 12
9.843 -7.6 1.66 14
9.243 -7.029 1.634 20
9.429 -7.063 1.499 19
9.453 -6.979 1.389 23
9.523 -6.93 1.272 24
9.263 -6.649 1.219 16
9.228 -6.538 1.125 30
40.557 -28.362 -5.671 25
11.239 -7.765 0.477 8
9.95 -6.792 0.661 25
9.794 -6.613 0.593 21
9.493 -6.34 0.566 31
9.842 -6.507 0.371 27
9.701 -6.35 0.305 26
9.229 -5.988 0.334 29
9.16 -5.891 0.253 24
9.876 -6.302 -0.073 25
22.723 -14.387 -4.331 5
21.724 -13.657 -4.261 5
20.796 -12.991 -4.201 5
19.964 -12.395 -4.156 6
19.155 -11.828 -4.107 7
18.387 -11.295 -4.058 7
17.698 -10.823 -4.029 7
17.055 -10.384 -4.004 10
16.478 -9.995 -3.999 18
15.824 -9.563 -3.948 6
15.161 -9.135 -3.884 12
14.589 -8.763 -3.846 13
14.049 -8.414 -3.813 12
13.506 -8.07 -3.771 11
12.89 -7.682 -3.677 14
10.525 -8.175 1.559 18
9.209 -7.045 1.63 20
9.439 -7.113 1.488 22
9.556 -7.099 1.361 22
9.616 -7.043 1.244 27
9.597 -6.933 1.142 33
9.188 -6.551 1.121 24
11.108 -7.818 0.61 8
11.205 -7.792 0.468 35
9.911 -6.81 0.655 6
9.834 -6.683 0.568 11
9.618 -6.466 0.518 21
9.853 -6.557 0.351 25
9.653 -6.361 0.3 28
9.205 -6.012 0.323 23
9.104 -5.894 0.252 32
9.848 -6.326 -0.085 29
22.587 -14.397 -4.336 5
21.594 -13.666 -4.266 5
20.675 -13.001 -4.206 6
19.845 -12.401 -4.16 6
19.047 -11.839 -4.114 7
18.294 -11.311 -4.068 7
17.607 -10.837 -4.038 7
16.956 -10.389 -4.008 17
16.396 -10.009 -4.008 18
15.757 -9.582 -3.962 8
15.102 -9.155 -3.899 12
14.525 -8.777 -3.857 11
13.986 -8.426 -3.823 12
13.419 -8.065 -3.767 12
12.823 -7.687 -3.682 12
10.489 -8.194 1.555 6
9.204 -7.084 1.623 24
9.399 -7.126 1.485 25
9.604 -7.178 1.343 17
9.515 -7.011 1.252 29
9.649 -7.014 1.121 25
9.213 -6.61 1.105 1
11.035 -7.816 0.61 13
11.195 -7.835 0.454 28
35.875 -24.811 -5.543 4
33.274 -22.76 -5.284 5
9.587 -6.487 0.51 23
9.814 -6.575 0.344 18
9.638 -6.393 0.286 21
9.172 -6.03 0.315 30
9.08 -5.917 0.241 26
9.848 -6.368 -0.106 28
11.835 -7.593 -0.869 15
21.462 -13.672 -4.269 5
20.557 -13.012 -4.213 5
19.732 -12.412 -4.166 6
18.943 -11.851 -4.121 7
18.192 -11.321 -4.074 7
17.513 -10.848 -4.045 7
16.882 -10.41 -4.022 20
16.318 -10.024 -4.019 16
15.671 -9.589 -3.967 6
15.03 -9.167 -3.908 12
14.461 -8.791 -3.868 12
13.929 -8.442 -3.836 11
13.345 -8.067 -3.769 11
12.751 -7.687 -3.683 14
10.474 -8.231 1.549 15
9.162 -7.093 1.621 21
9.441 -7.201 1.469 26
9.519 -7.158 1.347 27
9.659 -7.162 1.214 23
9.627 -7.042 1.113 19
10.887 -7.861 0.746 17
10.881 -7.757 0.629 31
11.257 -7.93 0.424 6
35.575 -24.763 -5.527 4
9.864 -6.791 0.528 0
9.552 -6.506 0.503 22
9.863 -6.651 0.313 21
9.613 -6.419 0.275 25
9.19 -6.082 0.292 28
9.043 -5.933 0.234 29
10.114 -6.584 -0.211 0
11.782 -7.61 -0.878 29
21.348 -13.689 -4.279 5
20.436 -13.021 -4.218 6
19.62 -12.422 -4.172 6
18.832 -11.858 -4.125 7
18.099 -11.335 -4.083 6
17.428 -10.865 -4.056 7
16.796 -10.423 -4.03 11
16.23 -10.032 -4.025 17
15.603 -9.607 -3.98 5
14.974 -9.189 -3.924 13
14.4 -8.807 -3.881 12
13.866 -8.454 -3.846 11
13.262 -8.064 -3.767 16
12.685 -7.692 -3.686 12
11.888 -9.397 1.343 23
9.191 -7.158 1.609 24
9.41 -7.22 1.465 22
9.352 -7.076 1.366 18
9.446 -7.047 1.243 26
9.609 -7.072 1.105 11
10.859 -7.89 0.738 13
10.911 -7.827 0.607 11
37.154 -26.339 -5.558 17
35.282 -24.719 -5.511 5
9.877 -6.845 0.509 0
9.501 -6.514 0.499 31
10.034 -6.811 0.248 33
9.614 -6.462 0.257 34
9.586 -6.386 0.157 34
9.007 -5.948 0.226 32
10.178 -6.669 -0.253 11
11.745 -7.637 -0.891 22
11.89 -7.674 -1.08 1
20.325 -13.035 -4.226 6
19.514 -12.436 -4.18 6
18.732 -11.872 -4.133 7
18.003 -11.348 -4.091 7
17.338 -10.877 -4.064 7
16.713 -10.437 -4.04 18
16.151 -10.047 -4.035 19
15.527 -9.619 -3.989 5
14.908 -9.205 -3.936 12
14.335 -8.821 -3.891 12
13.819 -8.476 -3.863 16
13.188 -8.066 -3.768 11
12.622 -7.698 -3.692 12
11.895 -9.458 1.332 21
9.22 -7.223 1.596 3
9.388 -7.248 1.459 27
9.447 -7.191 1.34 33
9.393 -7.051 1.242 21
9.79 -7.25 1.057 4
10.764 -7.871 0.743 23
10.857 -7.838 0.604 21
10.802 -7.707 0.496 0
34.999 -24.68 -5.498 5
32.504 -22.672 -5.252 4
9.483 -6.544 0.488 28
10.198 -6.968 0.185 29
9.579 -6.481 0.249 24
9.573 -6.42 0.141 37
8.957 -5.954 0.223 21
10.162 -6.703 -0.269 35
11.751 -7.69 -0.918 16
11.805 -7.669 -1.078 20
20.211 -13.047 -4.232 6
19.405 -12.447 -4.186 6
18.641 -11.891 -4.145 7
17.914 -11.365 -4.102 7
17.253 -10.894 -4.075 7
16.624 -10.447 -4.046 23
16.073 -10.06 -4.044 20
15.5 -9.663 -4.02 12
14.846 -9.222 -3.949 11
14.271 -8.834 -3.902 12
13.756 -8.487 -3.873 18
13.12 -8.072 -3.773 13
12.559 -7.704 -3.697 14
11.858 -9.484 1.328 21
10.558 -8.321 1.383 21
9.467 -7.353 1.437 20
9.865 -7.555 1.256 29
9.327 -7.045 1.243 34
9.691 -7.222 1.065 1
10.739 -7.902 0.734 25
10.797 -7.845 0.601 16
10.777 -7.739 0.485 1
34.707 -24.632 -5.481 5
32.249 -22.641 -5.241 4
9.515 -6.609 0.463 25
9.378 -6.449 0.394 0
9.589 -6.53 0.228 6
9.503 -6.415 0.144 33
9.113 -6.099 0.156 65
10.141 -6.733 -0.284 33
21.9 -14.427 -4.351 30
11.761 -7.691 -1.089 28
20.11 -13.066 -4.243 6
19.293 -12.456 -4.191 7
18.53 -11.897 -4.149 6
17.819 -11.377 -4.109 7
17.169 -10.91 -4.085 7
16.544 -10.462 -4.057 22
16.001 -10.078 -4.057 19
15.446 -9.688 -4.038 16
14.789 -9.244 -3.966 11
14.21 -8.849 -3.914 12
13.693 -8.499 -3.882 13
13.012 -8.053 -3.757 23
12.486 -7.704 -3.697 12
10.421 -8.384 1.522 0
10.481 -8.309 1.385 21
9.395 -7.34 1.44 18
9.754 -7.517 1.265 26
9.315 -7.079 1.235 30
11.128 -8.345 0.764 29
10.438 -7.729 0.784 32
10.766 -7.872 0.593 35
36.346 -26.266 -5.534 14
34.447 -24.606 -5.472 5
32.005 -22.615 -5.231 4
9.516 -6.652 0.446 27
9.494 -6.572 0.345 69
9.813 -6.727 0.144 27
9.442 -6.416 0.143 29
9.098 -6.128 0.142 63
10.159 -6.79 -0.312 27
21.772 -14.437 -4.356 30
11.734 -7.724 -1.107 23
11.818 -7.728 -1.284 6
19.19 -12.47 -4.2 6
18.433 -11.911 -4.157 7
17.72 -11.386 -4.115 6
17.075 -10.919 -4.091 7
16.461 -10.476 -4.066 12
15.929 -10.095 -4.069 11
15.375 -9.703 -4.05 17
14.717 -9.255 -3.974 11
14.152 -8.866 -3.927 14
13.63 -8.51 -3.891 18
12.97 -8.074 -3.775 11
12.433 -7.715 -3.707 12
10.378 -8.397 1.519 19
10.478 -8.356 1.376 17
9.56 -7.515 1.403 27
9.694 -7.515 1.265 34
9.255 -7.077 1.235 24
11.307 -8.532 0.714 19
10.104 -7.528 0.841 62
10.788 -7.938 0.573 4
36.041 -26.212 -5.517 7
34.169 -24.565 -5.458 4
31.758 -22.586 -5.221 4
10.266 -7.224 0.227 28
9.331 -6.501 0.373 40
9.874 -6.813 0.108 23
9.401 -6.43 0.137 36
9.654 -6.545 -0.052 22
10.136 -6.818 -0.325 25
21.648 -14.449 -4.362 31
11.742 -7.78 -1.137 18
11.768 -7.746 -1.294 20
19.075 -12.476 -4.203 6
18.333 -11.923 -4.164 7
17.637 -11.406 -4.127 7
16.99 -10.934 -4.101 7
16.388 -10.495 -4.079 10
15.845 -10.104 -4.075 10
15.305 -9.718 -4.06 13
14.661 -9.276 -3.99 12
14.088 -8.879 -3.937 11
13.539 -8.503 -3.886 12
12.896 -8.075 -3.776 12
12.364 -7.717 -3.708 16
10.246 -8.339 1.53 25
9.508 -7.629 1.517 0
9.571 -7.569 1.391 29
9.583 -7.475 1.274 28
9.208 -7.085 1.234 28
10.466 -7.946 0.871 23
10.698 -8.021 0.7 17
11.294 -8.364 0.443 3
10.717 -7.845 0.451 1
33.901 -24.528 -5.446 4
31.517 -22.561 -5.211 5
9.258 -6.557 0.483 6
9.22 -6.466 0.388 2
9.812 -6.815 0.107 27
9.382 -6.459 0.124 26
9.663 -6.594 -0.075 5
10.125 -6.855 -0.344 18
21.504 -14.447 -4.361 20
11.784 -7.859 -1.179 1
11.718 -7.763 -1.303 23
11.862 -7.809 -1.509 0
18.232 -11.934 -4.17 6
17.545 -11.419 -4.135 7
16.906 -10.949 -4.11 7
16.302 -10.505 -4.086 9
15.76 -10.113 -4.081 10
15.237 -9.735 -4.073 14
14.598 -9.292 -4.002 12
14.024 -8.892 -3.947 13
13.448 -8.497 -3.88 12
12.816 -8.072 -3.773 13
12.307 -7.726 -3.716 13
10.28 -8.416 1.516 26
9.48 -7.65 1.513 1
9.608 -7.643 1.375 25
9.243 -7.253 1.326 29
9.193 -7.117 1.226 30
9.685 -7.399 1.017 35
10.868 -8.2 0.649 18
10.216 -7.614 0.672 21
35.46 -26.12 -5.487 5
33.634 -24.492 -5.433 5
31.271 -22.529 -5.2 5
9.236 -6.583 0.473 28
9.379 -6.621 0.325 68
9.798 -6.85 0.092 12
9.471 -6.563 0.078 29
9.672 -6.644 -0.098 7
10.18 -6.938 -0.384 0
21.386 -14.462 -4.369 5
20.507 -13.765 -4.319 4
11.671 -7.782 -1.314 18
11.805 -7.821 -1.516 22
18.132 -11.944 -4.177 6
17.453 -11.431 -4.143 7
16.816 -10.959 -4.117 7
16.216 -10.516 -4.093 7
15.676 -10.122 -4.087 10
15.167 -9.75 -4.084 10
14.536 -9.309 -4.015 13
13.966 -8.909 -3.96 13
13.37 -8.497 -3.881 13
12.752 -8.079 -3.779 13
12.25 -7.735 -3.724 14
10.234 -8.428 1.514 8
10.24 -8.313 1.384 7
9.619 -7.698 1.364 25
9.196 -7.26 1.324 25
9.105 -7.092 1.232 19
9.471 -7.28 1.049 29
10.484 -7.96 0.717 6
10.173 -7.629 0.668 33
35.246 -26.129 -5.49 5
33.373 -24.458 -5.422 5
31.044 -22.51 -5.193 5
9.099 -6.529 0.494 23
9.417 -6.69 0.297 58
9.918 -6.979 0.038 8
9.525 -6.643 0.042 27
9.607 -6.642 -0.097 5
11.593 -7.952 -0.879 2
11.631 -7.916 -1.034 11
11.681 -7.892 -1.196 11
11.668 -7.831 -1.341 20
11.765 -7.845 -1.529 20
11.922 -7.904 -1.749 1
17.36 -11.443 -4.151 6
16.738 -10.978 -4.129 7
16.137 -10.531 -4.103 8
15.595 -10.132 -4.094 10
15.09 -9.76 -4.091 12
14.473 -9.325 -4.027 10
13.904 -8.923 -3.972 18
13.286 -8.494 -3.878 12
12.645 -8.058 -3.761 13
12.194 -7.743 -3.731 12
10.16 -8.415 1.516 35
10.412 -8.503 1.347 2
9.595 -7.726 1.358 27
9.254 -7.351 1.303 29
9.096 -7.129 1.223 15
9.439 -7.301 1.044 27
11.198 -8.555 0.547 10
10.145 -7.657 0.659 13
35.041 -26.142 -5.494 5
33.116 -24.425 -5.41 4
30.821 -22.492 -5.187 5
9.293 -6.71 0.424 3
9.337 -6.677 0.302 67
9.802 -6.943 0.053 0
9.588 -6.731 0.003 22
9.587 -6.672 -0.111 17
11.537 -7.966 -0.885 21
11.584 -7.936 -1.044 27
11.649 -7.922 -1.212 16
11.681 -7.891 -1.374 30
11.74 -7.879 -1.549 21
11.84 -7.9 -1.747 21
17.268 -11.455 -4.158 7
16.647 -10.987 -4.135 7
16.064 -10.548 -4.115 8
15.507 -10.137 -4.098 11
15.02 -9.774 -4.101 17
14.404 -9.337 -4.036 12
13.843 -8.937 -3.983 18
13.199 -8.489 -3.874 14
12.569 -8.056 -3.76 15
12.134 -7.75 -3.737 12
10.105 -8.419 1.516 16
10.608 -8.714 1.306 19
9.88 -8.003 1.299 19
9.158 -7.319 1.31 25
9.235 -7.282 1.184 23
9.403 -7.319 1.039 29
10.162 -7.812 0.76 0
10.102 -7.672 0.654 21
34.84 -26.157 -5.499 5
32.85 -24.384 -5.396 5
30.592 -22.469 -5.178 5
9.286 -6.749 0.409 26
10.029 -7.218 0.084 11
25.594 -18.246 -4.745 5
9.625 -6.801 -0.028 14
9.504 -6.658 -0.105 32
11.515 -8.003 -0.903 21
11.565 -7.975 -1.063 13
11.656 -7.977 -1.242 1
11.691 -7.948 -1.406 1
11.727 -7.921 -1.573 20
11.799 -7.923 -1.76 20
17.18 -11.469 -4.167 7
16.566 -11.002 -4.145 7
15.978 -10.557 -4.121 7
15.429 -10.149 -4.107 20
14.943 -9.784 -4.108 18
14.339 -9.351 -4.046 11
13.791 -8.957 -3.998 13
13.115 -8.484 -3.871 10
12.502 -8.06 -3.763 16
12.074 -7.757 -3.743 14
9.654 -8.09 1.574 15
10.193 -8.423 1.363 48
10.247 -8.349 1.225 27
9.469 -7.612 1.243 32
9.225 -7.319 1.175 18
9.377 -7.344 1.032 11
9.523 -7.367 0.887 58
10.084 -7.707 0.644 12
34.661 -26.189 -5.509 4
32.588 -24.344 -5.382 5
30.373 -22.451 -5.171 5
10.249 -7.497 0.122 21
10.354 -7.501 -0.031 26
11.168 -8.013 -0.401 14
9.557 -6.797 -0.026 23
9.468 -6.676 -0.113 21
11.513 -8.053 -0.928 2
20.884 -14.494 -4.385 5
20.032 -13.799 -4.337 5
19.227 -13.157 -4.293 6
11.743 -7.982 -1.609 16
11.77 -7.954 -1.779 26
11.88 -7.981 -1.987 18
16.482 -11.016 -4.154 9
15.902 -10.573 -4.131 9
15.351 -10.161 -4.115 21
14.876 -9.8 -4.12 16
14.273 -9.365 -4.057 13
13.727 -8.969 -4.008 13
13.034 -8.482 -3.869 10
12.441 -8.068 -3.77 17
12.021 -7.767 -3.752 13
9.636 -8.123 1.568 22
9.936 -8.259 1.395 26
10.099 -8.278 1.24 29
9.372 -7.58 1.25 31
9.193 -7.337 1.171 27
9.348 -7.366 1.026 17
9.581 -7.458 0.861 60
10.093 -7.762 0.627 4
34.458 -26.199 -5.513 4
32.336 -24.31 -5.371 5
10.857 -8.077 0.06 0
10.343 -7.614 0.077 19
10.596 -7.726 -0.122 31
11.125 -8.034 -0.41 18
9.515 -6.811 -0.033 28
22.764 -16.154 -4.533 6
21.722 -15.292 -4.458 5
20.761 -14.501 -4.389 5
19.911 -13.805 -4.34 5
19.114 -13.164 -4.297 6
11.748 -8.038 -1.641 0
11.754 -7.994 -1.803 27
11.826 -7.995 -1.996 23
16.392 -11.025 -4.159 7
15.819 -10.584 -4.139 9
15.27 -10.169 -4.121 19
14.809 -9.816 -4.132 18
14.213 -9.383 -4.07 11
13.654 -8.975 -4.012 18
12.95 -8.477 -3.865 9
12.389 -8.081 -3.781 16
11.964 -7.775 -3.758 13
9.6 -8.14 1.565 21
9.79 -8.186 1.409 14
9.67 -7.974 1.305 27
9.373 -7.628 1.239 19
9.17 -7.364 1.164 24
9.331 -7.398 1.018 21
9.405 -7.367 0.888 58
10.19 -7.885 0.589 6
34.257 -26.212 -5.517 2
32.094 -24.282 -5.361 2
10.799 -8.086 0.057 20
10.512 -7.789 0.01 35
10.965 -8.046 -0.251 20
11.11 -8.076 -0.428 0
9.517 -6.856 -0.053 28
22.627 -16.16 -4.536 7
21.59 -15.298 -4.461 5
20.641 -14.511 -4.394 5
19.802 -13.818 -4.347 5
19.007 -13.175 -4.303 6
18.251 -12.566 -4.255 5
11.762 -8.05 -1.837 13
11.806 -8.032 -2.019 21
11.907 -8.059 -2.233 19
15.74 -10.597 -4.148 9
15.196 -10.182 -4.129 13
14.704 -9.806 -4.125 19
14.151 -9.398 -4.082 14
13.596 -8.99 -4.024 15
12.872 -8.477 -3.864 10
12.325 -8.087 -3.786 14
11.91 -7.785 -3.767 11
9.607 -8.192 1.555 21
9.787 -8.232 1.4 17
9.39 -7.789 1.344 22
9.298 -7.612 1.243 30
9.12 -7.369 1.163 5
9.32 -7.435 1.008 23
9.351 -7.37 0.887 50
9.243 -7.198 0.799 0
10.443 -8.04 0.388 28
10.661 -8.117 0.205 22
10.751 -8.1 0.052 21
10.77 -8.032 -0.083 13
26.297 -19.422 -4.847 5
24.905 -18.219 -4.733 6
9.509 -6.895 -0.07 23
22.486 -16.164 -4.537 8
21.458 -15.303 -4.464 5
20.514 -14.515 -4.396 5
19.691 -13.829 -4.353 5
18.904 -13.187 -4.31 6
18.156 -12.581 -4.264 6
17.464 -12.029 -4.228 6
11.755 -8.048 -2.029 27
11.831 -8.057 -2.232 23
15.664 -10.611 -4.157 9
15.124 -10.197 -4.14 11
14.615 -9.806 -4.125 17
14.082 -9.408 -4.09 27
13.51 -8.987 -4.022 23
12.798 -8.478 -3.865 9
12.261 -8.092 -3.79 15
11.857 -7.794 -3.775 13
9.643 -8.272 1.541 24
9.726 -8.229 1.401 17
9.293 -7.755 1.352 24
9.317 -7.674 1.228 19
9.278 -7.542 1.119 1
9.451 -7.586 0.967 54
9.207 -7.302 0.906 37
9.325 -7.308 0.766 69
10.113 -7.836 0.454 29
10.622 -8.139 0.197 26
10.727 -8.134 0.04 5
27.672 -20.767 -4.972 6
26.119 -19.414 -4.844 6
24.743 -18.217 -4.733 6
9.463 -6.906 -0.075 27
22.345 -16.167 -4.539 8
21.332 -15.312 -4.468 5
20.397 -14.526 -4.401 5
19.576 -13.837 -4.357 5
18.791 -13.193 -4.313 6
18.051 -12.589 -4.268 6
17.374 -12.044 -4.237 6
11.794 -8.127 -2.078 19
11.823 -8.102 -2.262 33
11.886 -8.102 -2.465 15
15.052 -10.211 -4.15 18
14.542 -9.817 -4.133 15
14.016 -9.421 -4.1 20
13.434 -8.99 -4.024 23
12.711 -8.47 -3.859 13
12.198 -8.097 -3.794 24
11.803 -7.804 -3.784 14
9.67 -8.343 1.529 2
9.716 -8.27 1.393 23
9.273 -7.785 1.345 26
9.297 -7.703 1.222 29
0.0 -0.0 3.0 0
9.875 -7.975 0.863 21
9.187 -7.331 0.898 22
10.086 -7.953 0.569 18
10.081 -7.861 0.446 25
10.034 -7.738 0.336 0
29.246 -22.319 -5.123 5
27.484 -20.758 -4.968 5
25.944 -19.409 -4.842 6
24.575 -18.21 -4.73 6
9.427 -6.925 -0.083 21
22.205 -16.169 -4.54 7
21.191 -15.309 -4.467 5
20.275 -14.532 -4.404 5
19.461 -13.844 -4.361 5
18.685 -13.202 -4.318 5
17.956 -12.602 -4.276 6
17.278 -12.053 -4.242 5
11.808 -8.187 -2.116 3
11.793 -8.133 -2.282 25
11.838 -8.119 -2.476 16
14.972 -10.219 -4.155 22
14.475 -9.831 -4.143 16
11.142 -7.535 -2.678 2
13.351 -8.988 -4.022 16
12.622 -8.46 -3.851 15
12.143 -8.108 -3.803 17
11.75 -7.813 -3.792 12
10.023 -8.699 1.466 29
9.704 -8.308 1.385 28
9.292 -7.847 1.332 21
9.313 -7.763 1.208 32
9.991 -8.222 0.95 19
9.85 -8.004 0.855 22
9.314 -7.479 0.856 57
10.054 -7.977 0.561 1
9.96 -7.815 0.461 23
9.87 -7.658 0.363 31
29.03 -22.295 -5.115 5
27.284 -20.739 -4.961 5
25.764 -19.397 -4.837 5
24.404 -18.2 -4.725 6
9.443 -6.981 -0.108 15
22.065 -16.17 -4.54 8
21.066 -15.317 -4.471 5
20.155 -14.539 -4.408 5
19.35 -13.854 -4.366 5
18.578 -13.211 -4.323 6
17.855 -12.611 -4.281 6
17.181 -12.061 -4.247 6
16.563 -11.556 -4.221 7
11.813 -8.197 -2.323 18
11.811 -8.151 -2.498 27
11.896 -8.17 -2.72 15
14.402 -9.842 -4.15 16
11.059 -7.524 -2.67 2
