# .PCD v0.7 - Point Cloud Data file format
VERSION 0.7
FIELDS x y z intensity
SIZE 4 4 4 4
TYPE F F F F
COUNT 1 1 1 1
WIDTH 1948
HEIGHT 1
VIEWPOINT 0 0 0 1 0 0 0
POINTS 1948
DATA ascii
-12.978 -16.011 -4.809 41
-12.533 -15.345 -4.819 9
-12.081 -14.68 -4.805 8
-11.692 -14.097 -4.814 6
-11.331 -13.56 -4.829 6
-10.963 -13.019 -4.823 9
-10.63 -12.532 -4.831 9
-10.331 -12.087 -4.849 8
-10.03 -11.65 -4.858 9
-9.753 -11.242 -4.872 8
-9.49 -10.861 -4.891 10
-9.236 -10.489 -4.904 11
-8.978 -10.122 -4.908 17
-8.731 -9.772 -4.913 16
-8.264 -9.179 -4.702 14
-8.005 -8.826 -4.672 12
-9.401 -13.263 0.661 255
-9.4 -13.129 0.448 255
-9.4 -13.006 0.236 255
-9.404 -12.887 0.025 255
-9.407 -12.773 -0.185 255
-9.414 -12.663 -0.393 255
-21.303 -28.4 -5.144 11
-19.907 -26.307 -5.043 5
-18.735 -24.537 -4.972 4
-17.748 -23.047 -4.936 7
-16.855 -21.689 -4.894 10
-16.058 -20.501 -4.869 8
-15.319 -19.391 -4.835 19
-14.717 -18.48 -4.844 5
-14.097 -17.554 -4.816 7
-13.566 -16.761 -4.816 6
-13.064 -16.012 -4.81 40
-12.616 -15.344 -4.818 7
-12.161 -14.681 -4.806 7
-11.766 -14.093 -4.812 9
-11.401 -13.555 -4.826 8
-11.039 -13.023 -4.825 9
-10.7 -12.532 -4.831 9
-10.392 -12.079 -4.844 8
-10.092 -11.646 -4.855 9
-9.813 -11.238 -4.869 8
-9.55 -10.858 -4.889 10
-9.289 -10.482 -4.899 11
-9.03 -10.117 -4.904 12
-8.782 -9.767 -4.909 16
-8.316 -9.178 -4.701 14
-8.056 -8.825 -4.672 12
-9.4 -13.177 0.677 255
-9.4 -13.048 0.464 255
-9.405 -12.931 0.251 255
-9.407 -12.808 0.043 255
-9.41 -12.695 -0.165 255
-9.417 -12.585 -0.372 255
-21.46 -28.424 -5.15 10
-20.058 -26.334 -5.051 5
-18.886 -24.572 -4.984 4
-17.869 -23.052 -4.938 7
-16.972 -21.697 -4.897 12
-16.172 -20.51 -4.873 9
-15.432 -19.406 -4.841 17
-14.815 -18.482 -4.845 6
-14.195 -17.561 -4.819 6
-13.652 -16.758 -4.814 6
-13.146 -16.007 -4.807 40
-12.7 -15.347 -4.82 7
-12.242 -14.681 -4.806 8
-11.84 -14.089 -4.81 8
-11.471 -13.55 -4.823 8
-11.1 -13.01 -4.817 9
-10.767 -12.528 -4.828 9
-10.455 -12.073 -4.84 8
-10.151 -11.638 -4.85 9
-9.869 -11.229 -4.863 9
-9.605 -10.85 -4.883 10
-9.345 -10.478 -4.896 11
-9.083 -10.11 -4.899 11
-8.833 -9.762 -4.905 16
-8.358 -9.167 -4.692 17
-8.095 -8.812 -4.66 11
-9.412 -13.111 0.688 255
-9.403 -12.968 0.479 255
-9.41 -12.855 0.268 255
-9.407 -12.726 0.062 255
-9.415 -12.62 -0.146 255
-9.424 -12.514 -0.353 255
-21.615 -28.444 -5.156 6
-20.226 -26.382 -5.066 5
-19.023 -24.59 -4.99 4
-18.004 -23.076 -4.946 7
-17.092 -21.707 -4.901 10
-16.291 -20.526 -4.879 10
-15.543 -19.418 -4.845 13
-14.917 -18.486 -4.847 7
-14.293 -17.567 -4.821 6
-13.748 -16.766 -4.818 7
-13.233 -16.008 -4.807 43
-12.781 -15.342 -4.817 7
-12.323 -14.681 -4.806 6
-11.919 -14.09 -4.81 7
-11.549 -13.552 -4.824 8
-11.176 -13.014 -4.82 9
-10.834 -12.525 -4.826 9
-10.519 -12.068 -4.837 8
-10.218 -11.639 -4.851 9
-9.933 -11.229 -4.863 8
-9.662 -10.845 -4.879 10
-9.399 -10.471 -4.891 12
-9.136 -10.105 -4.895 14
-8.89 -9.761 -4.905 14
-8.41 -9.165 -4.69 17
-8.143 -8.809 -4.658 16
-9.4 -13.013 0.706 255
-9.408 -12.893 0.494 255
-9.41 -12.774 0.285 255
-9.411 -12.651 0.079 255
-9.417 -12.541 -0.127 255
-9.424 -12.432 -0.331 255
-21.796 -28.498 -5.172 3
-20.382 -26.415 -5.076 6
-19.177 -24.629 -5.002 6
-18.133 -23.089 -4.95 7
-17.224 -21.732 -4.91 10
-16.414 -20.548 -4.887 9
-15.659 -19.434 -4.852 12
-15.018 -18.489 -4.848 6
-14.387 -17.567 -4.821 6
-13.837 -16.764 -4.817 6
-13.323 -16.01 -4.809 40
-12.859 -15.335 -4.814 7
-12.403 -14.681 -4.806 6
-11.998 -14.091 -4.811 7
-11.619 -13.545 -4.82 8
-11.245 -13.008 -4.816 9
-10.899 -12.517 -4.822 9
-10.589 -12.071 -4.839 8
-10.28 -11.634 -4.847 9
-9.989 -11.219 -4.856 8
-9.719 -10.839 -4.875 10
-9.453 -10.464 -4.885 11
-9.191 -10.101 -4.891 23
-8.939 -9.754 -4.898 17
-8.46 -9.16 -4.686 20
-8.189 -8.803 -4.652 17
-9.428 -12.969 0.713 255
-9.414 -12.82 0.508 255
-9.417 -12.702 0.3 255
-9.418 -12.579 0.096 255
-9.418 -12.463 -0.107 255
-9.427 -12.358 -0.311 255
-21.963 -28.532 -5.181 3
-20.546 -26.456 -5.088 6
-19.317 -24.649 -5.009 6
-18.257 -23.097 -4.953 7
-17.346 -21.745 -4.915 11
-16.534 -20.562 -4.893 8
-15.77 -19.445 -4.856 9
-15.115 -18.488 -4.848 7
-14.479 -17.563 -4.82 6
-13.929 -16.765 -4.818 6
-13.41 -16.01 -4.808 40
-12.949 -15.342 -4.817 9
-12.482 -14.678 -4.804 8
-12.07 -14.083 -4.807 7
-11.692 -13.541 -4.818 8
-11.313 -13.003 -4.813 9
-10.971 -12.519 -4.823 9
-10.653 -12.065 -4.835 9
-10.34 -11.627 -4.842 9
-10.052 -11.218 -4.855 8
-9.779 -10.836 -4.873 10
-9.512 -10.461 -4.883 13
-9.243 -10.093 -4.886 32
-8.993 -9.75 -4.895 15
-8.505 -9.151 -4.679 18
-8.233 -8.794 -4.645 15
-9.455 -12.925 0.721 16
-9.418 -12.745 0.523 255
-9.416 -12.619 0.318 255
-9.424 -12.507 0.112 255
-9.424 -12.392 -0.09 255
-9.429 -12.281 -0.291 255
-22.145 -28.584 -5.196 3
-20.708 -26.493 -5.1 7
-19.46 -24.67 -5.016 6
-18.381 -23.103 -4.955 7
-17.479 -21.768 -4.923 13
-16.646 -20.567 -4.895 10
-15.884 -19.458 -4.862 8
-15.214 -18.488 -4.848 6
-14.583 -17.574 -4.825 6
-14.023 -16.769 -4.819 6
-13.495 -16.006 -4.807 39
-13.029 -15.336 -4.814 9
-12.563 -14.677 -4.804 8
-12.149 -14.084 -4.807 7
-11.767 -13.541 -4.818 8
-11.384 -13.001 -4.812 9
-11.038 -12.514 -4.819 9
-10.719 -12.061 -4.833 9
-10.405 -11.624 -4.841 9
-10.106 -11.206 -4.846 8
-9.832 -10.825 -4.865 11
-9.566 -10.454 -4.877 11
-9.298 -10.09 -4.883 36
-9.04 -9.739 -4.886 17
-8.554 -9.147 -4.675 14
-8.281 -8.791 -4.642 15
-9.499 -12.904 0.725 11
-9.42 -12.666 0.538 255
-9.424 -12.55 0.332 255
-9.425 -12.429 0.131 255
-9.43 -12.321 -0.072 255
-9.434 -12.209 -0.271 255
-9.366 -12.011 -0.444 1
-20.883 -26.545 -5.116 8
-19.601 -24.689 -5.022 5
-18.52 -23.128 -4.963 6
-17.602 -21.78 -4.927 17
-16.763 -20.578 -4.899 9
-16.008 -19.483 -4.872 13
-15.308 -18.482 -4.845 6
-14.679 -17.576 -4.825 6
-14.113 -16.766 -4.818 6
-13.587 -16.011 -4.809 33
-13.115 -15.337 -4.815 7
-12.641 -14.673 -4.802 7
-12.229 -14.084 -4.807 8
-11.837 -13.533 -4.813 8
-11.453 -12.994 -4.808 9
-11.106 -12.509 -4.817 9
-10.78 -12.052 -4.827 9
-10.467 -11.619 -4.837 10
-10.172 -11.207 -4.847 9
-9.891 -10.821 -4.862 10
-9.622 -10.449 -4.874 11
-9.351 -10.082 -4.877 33
-9.101 -9.743 -4.89 13
-8.597 -9.135 -4.665 17
-8.327 -8.785 -4.636 16
-9.507 -12.835 0.737 0
-9.425 -12.595 0.552 255
-9.429 -12.479 0.348 255
-9.427 -12.354 0.148 255
-9.435 -12.248 -0.054 255
-9.437 -12.135 -0.251 255
-9.409 -11.99 -0.438 6
-21.046 -26.58 -5.126 9
-19.754 -24.722 -5.033 6
-18.644 -23.133 -4.965 6
-17.73 -21.797 -4.934 17
-16.9 -20.612 -4.912 16
-16.115 -19.486 -4.873 23
-15.413 -18.487 -4.847 6
-14.781 -17.583 -4.828 7
-14.208 -16.769 -4.819 6
-13.674 -16.01 -4.808 36
-13.198 -15.334 -4.813 7
-12.725 -14.675 -4.803 7
-12.301 -14.075 -4.802 7
-11.915 -13.534 -4.814 8
-11.527 -12.994 -4.808 9
-11.171 -12.501 -4.812 9
-10.844 -12.045 -4.822 8
-10.529 -11.613 -4.833 9
-10.23 -11.2 -4.842 8
-9.951 -10.818 -4.86 10
-9.678 -10.443 -4.869 12
-9.406 -10.078 -4.874 32
-9.148 -9.732 -4.881 13
-8.649 -9.132 -4.663 15
-8.378 -8.783 -4.635 14
-9.376 -12.578 0.782 1
-9.428 -12.52 0.566 255
-9.434 -12.407 0.363 255
-9.43 -12.279 0.165 255
-9.44 -12.177 -0.036 255
-9.441 -12.063 -0.232 255
-9.443 -11.955 -0.428 255
-21.19 -26.591 -5.13 7
-19.907 -24.754 -5.043 6
-18.275 -22.529 -4.757 5
-17.841 -21.793 -4.932 13
-17.011 -20.612 -4.912 45
-16.215 -19.481 -4.871 26
-15.512 -18.486 -4.847 6
-14.876 -17.581 -4.828 6
-14.3 -16.769 -4.819 6
-13.765 -16.011 -4.809 32
-13.286 -15.337 -4.814 7
-12.804 -14.67 -4.8 7
-12.381 -14.075 -4.802 9
-11.986 -13.527 -4.81 8
-11.594 -12.985 -4.802 9
-11.238 -12.497 -4.809 8
-10.915 -12.046 -4.823 9
-10.592 -11.607 -4.829 9
-10.294 -11.198 -4.841 8
-10.009 -10.811 -4.855 11
-9.734 -10.437 -4.865 11
-9.461 -10.074 -4.871 31
-9.207 -9.733 -4.881 14
-8.696 -9.125 -4.657 12
-8.419 -8.772 -4.625 12
-9.35 -12.465 0.802 2
-9.435 -12.45 0.58 255
-9.436 -12.333 0.379 255
-9.439 -12.214 0.18 255
-9.442 -12.103 -0.018 255
-9.448 -11.995 -0.214 255
-9.452 -11.891 -0.41 255
-21.354 -26.625 -5.14 6
-20.063 -24.788 -5.054 8
-18.398 -22.534 -4.759 5
-17.85 -21.663 -4.885 11
-17.112 -20.601 -4.908 54
-16.327 -19.489 -4.874 10
-15.622 -18.496 -4.851 6
-14.976 -17.585 -4.829 5
-14.4 -16.777 -4.823 6
-13.855 -16.011 -4.809 36
-13.367 -15.33 -4.811 7
-12.885 -14.668 -4.799 7
-12.46 -14.074 -4.801 7
-12.064 -13.527 -4.81 8
-11.668 -12.984 -4.802 9
-11.308 -12.493 -4.807 9
-10.976 -12.037 -4.817 9
-10.654 -11.602 -4.825 9
-10.357 -11.195 -4.839 8
-10.071 -10.809 -4.853 10
-9.791 -10.432 -4.861 11
-9.514 -10.066 -4.864 34
-9.254 -9.722 -4.873 15
-8.745 -9.119 -4.652 12
-8.468 -8.768 -4.622 14
-9.325 -12.356 0.821 3
-9.434 -12.373 0.595 255
-9.438 -12.257 0.395 255
-9.441 -12.14 0.197 255
-9.448 -12.035 -0.001 255
-9.447 -11.918 -0.193 255
-9.453 -11.818 -0.389 255
-21.518 -26.659 -5.151 6
-20.225 -24.828 -5.067 9
-18.543 -22.567 -4.77 8
-17.843 -21.515 -4.831 12
-17.237 -20.619 -4.915 18
-16.455 -19.515 -4.885 8
-15.732 -18.507 -4.856 6
-15.078 -17.59 -4.832 5
-14.492 -16.775 -4.822 6
-13.945 -16.012 -4.81 32
-13.453 -15.33 -4.811 7
-12.969 -14.668 -4.799 7
-12.543 -14.076 -4.803 7
-12.137 -13.522 -4.807 8
-11.739 -12.979 -4.799 9
-11.378 -12.491 -4.805 9
-11.042 -12.032 -4.813 8
-10.719 -11.598 -4.823 9
-10.419 -11.19 -4.835 8
-10.131 -10.806 -4.851 10
-9.845 -10.423 -4.855 11
-9.57 -10.061 -4.861 32
-9.231 -9.638 -4.804 13
-8.79 -9.11 -4.644 16
-8.519 -8.766 -4.62 13
-9.324 -12.278 0.835 3
-9.434 -12.294 0.61 255
-9.44 -12.182 0.411 255
-9.447 -12.071 0.213 255
-9.454 -11.966 0.016 255
-9.453 -11.85 -0.175 255
-9.454 -11.744 -0.368 255
-21.697 -26.71 -5.166 6
-20.37 -24.846 -5.073 12
-18.667 -22.572 -4.772 24
-17.855 -21.392 -4.786 11
-17.37 -20.644 -4.925 13
-16.575 -19.531 -4.891 8
-15.837 -18.51 -4.857 6
-15.178 -17.593 -4.833 6
-14.588 -16.777 -4.823 6
-14.031 -16.006 -4.807 8
-13.541 -15.332 -4.812 7
-13.049 -14.663 -4.796 7
-12.618 -14.069 -4.799 7
-12.21 -13.516 -4.803 8
-11.813 -12.978 -4.798 9
-11.446 -12.485 -4.801 9
-11.106 -12.025 -4.809 8
-10.782 -11.591 -4.818 9
-10.475 -11.179 -4.828 8
-10.189 -10.798 -4.845 11
-9.904 -10.42 -4.852 11
-9.625 -10.056 -4.857 32
-9.16 -9.505 -4.697 11
-8.845 -9.11 -4.644 13
-8.562 -8.757 -4.612 14
-9.311 -12.184 0.852 3
-9.437 -12.223 0.624 255
-9.448 -12.117 0.424 255
-9.448 -11.997 0.23 255
-9.455 -11.892 0.035 255
-9.459 -11.782 -0.157 255
-9.462 -11.68 -0.349 255
-21.855 -26.733 -5.173 7
-20.518 -24.867 -5.08 14
-18.81 -22.6 -4.782 24
-17.894 -21.301 -4.753 8
-17.492 -20.655 -4.929 16
-16.688 -19.538 -4.894 8
-15.947 -18.519 -4.861 6
-15.286 -17.604 -4.838 6
-14.68 -16.775 -4.822 6
-14.126 -16.011 -4.809 7
-13.628 -15.33 -4.811 7
-13.133 -14.663 -4.797 6
-12.7 -14.07 -4.799 7
-12.286 -13.513 -4.802 8
-11.885 -12.974 -4.795 9
-11.516 -12.482 -4.799 9
-11.17 -12.016 -4.803 8
-10.849 -11.59 -4.817 9
-10.539 -11.176 -4.826 9
-10.247 -10.791 -4.84 10
-9.963 -10.416 -4.849 10
-9.68 -10.05 -4.852 32
-9.159 -9.443 -4.647 8
-8.892 -9.101 -4.637 13
-8.616 -8.757 -4.613 13
-9.313 -12.112 0.864 4
-9.441 -12.151 0.638 255
-9.449 -12.043 0.44 255
-9.454 -11.929 0.246 255
-9.461 -11.825 0.052 255
-9.462 -11.712 -0.138 255
-9.46 -11.603 -0.327 255
-22.035 -26.783 -5.188 7
-20.666 -24.887 -5.086 15
-18.909 -22.575 -4.773 25
-18.042 -21.34 -4.767 7
-17.611 -20.663 -4.932 16
-16.807 -19.55 -4.899 8
-16.05 -18.519 -4.861 6
-15.386 -17.606 -4.839 6
-14.781 -16.781 -4.825 7
-14.217 -16.012 -4.809 7
-13.707 -15.319 -4.806 7
-13.217 -14.662 -4.796 7
-12.778 -14.066 -4.797 8
-12.36 -13.507 -4.798 8
-11.955 -12.965 -4.79 9
-11.587 -12.477 -4.797 9
-11.239 -12.014 -4.802 9
-10.914 -11.586 -4.815 9
-10.603 -11.173 -4.824 9
-10.304 -10.784 -4.835 10
-10.019 -10.41 -4.844 12
-9.738 -10.047 -4.85 32
-9.212 -9.439 -4.643 9
-8.937 -9.091 -4.628 13
-8.66 -8.748 -4.604 14
-9.331 -12.06 0.873 4
-9.448 -12.086 0.651 255
-9.454 -11.975 0.455 255
-9.459 -11.861 0.262 255
-9.463 -11.754 0.069 255
-9.467 -11.645 -0.12 255
-9.468 -11.539 -0.309 255
-9.396 -11.348 -0.469 0
-20.821 -24.915 -5.095 15
-19.023 -22.566 -4.77 25
-18.153 -21.334 -4.765 26
-17.75 -20.693 -4.943 17
-16.918 -19.553 -4.9 8
-16.166 -18.533 -4.867 6
-15.489 -17.609 -4.84 7
-14.872 -16.776 -4.823 6
-14.306 -16.007 -4.807 6
-13.798 -15.323 -4.807 7
-13.299 -14.659 -4.794 7
-12.853 -14.058 -4.792 7
-12.438 -13.506 -4.798 7
-12.029 -12.963 -4.789 9
-11.657 -12.474 -4.795 9
-11.308 -12.011 -4.8 9
-10.972 -11.574 -4.806 9
-10.664 -11.167 -4.819 9
-10.367 -10.781 -4.833 10
-10.076 -10.403 -4.839 11
-9.786 -10.035 -4.84 45
-9.255 -9.425 -4.633 8
-8.984 -9.083 -4.621 16
-8.703 -8.737 -4.595 14
-9.338 -11.996 0.885 4
-9.453 -12.018 0.664 255
-9.459 -11.906 0.469 255
-9.464 -11.793 0.277 255
-9.466 -11.683 0.087 255
-9.467 -11.571 -0.1 255
-9.467 -11.465 -0.288 255
-9.405 -11.288 -0.451 2
-20.975 -24.94 -5.103 4
-19.148 -22.569 -4.771 23
-18.241 -21.301 -4.753 27
-17.872 -20.701 -4.947 18
-17.041 -19.57 -4.907 8
-16.276 -18.54 -4.87 6
-15.592 -17.613 -4.842 6
-14.965 -16.773 -4.821 7
-14.402 -16.012 -4.809 8
-13.885 -15.32 -4.806 7
-13.381 -14.655 -4.792 4
-12.943 -14.066 -4.797 7
-12.51 -13.497 -4.792 6
-12.099 -12.955 -4.784 9
-11.723 -12.464 -4.789 9
-11.377 -12.008 -4.798 9
-11.038 -11.569 -4.803 9
-10.726 -11.161 -4.815 9
-10.423 -10.771 -4.826 10
-10.133 -10.396 -4.834 11
-9.849 -10.036 -4.841 28
-9.311 -9.424 -4.631 8
-9.017 -9.06 -4.602 30
-8.749 -8.73 -4.589 14
-9.354 -11.943 0.894 4
-9.473 -11.968 0.674 32
-9.461 -11.835 0.484 255
-9.468 -11.725 0.293 255
-9.465 -11.609 0.106 255
-9.466 -11.497 -0.081 255
-9.472 -11.398 -0.268 255
-9.469 -11.293 -0.452 93
-21.132 -24.966 -5.112 3
-19.259 -22.557 -4.767 22
-18.339 -21.279 -4.745 24
-18.014 -20.734 -4.959 16
-17.158 -19.578 -4.91 9
-16.4 -18.561 -4.879 6
-15.691 -17.611 -4.841 6
-15.061 -16.772 -4.821 6
-14.491 -16.007 -4.807 8
-13.974 -15.319 -4.806 7
-13.461 -14.648 -4.788 7
-13.016 -14.055 -4.791 7
-12.586 -13.492 -4.79 7
-12.173 -12.952 -4.783 10
-11.793 -12.46 -4.786 9
-11.442 -12.0 -4.793 8
-11.103 -11.564 -4.8 9
-10.787 -11.155 -4.811 9
-10.485 -10.768 -4.823 10
-10.192 -10.392 -4.831 11
-9.907 -10.033 -4.839 15
-9.367 -9.421 -4.629 10
-9.045 -9.032 -4.578 13
-8.798 -8.725 -4.584 13
-9.371 -11.891 0.903 4
-9.482 -11.907 0.685 22
-9.46 -11.761 0.5 255
-9.472 -11.658 0.309 255
-9.469 -11.542 0.122 255
-9.47 -11.43 -0.063 255
-9.475 -11.331 -0.249 255
-9.481 -11.234 -0.435 255
-21.291 -24.996 -5.122 3
-19.379 -22.552 -4.765 20
-18.455 -21.278 -4.745 18
-18.104 -20.704 -4.948 20
-17.277 -19.589 -4.914 9
-16.522 -18.58 -4.887 6
-15.797 -17.617 -4.843 23
-15.154 -16.769 -4.819 6
-14.584 -16.008 -4.808 8
-14.058 -15.313 -4.802 7
-13.548 -14.649 -4.789 6
-13.102 -14.057 -4.792 6
-12.665 -13.491 -4.789 8
-12.25 -12.951 -4.782 9
-11.867 -12.457 -4.784 9
-11.513 -11.999 -4.792 8
-11.168 -11.559 -4.797 9
-10.851 -11.15 -4.807 9
-10.543 -10.76 -4.818 10
-10.246 -10.382 -4.823 11
-9.962 -10.026 -4.833 16
-9.415 -9.412 -4.621 9
-9.06 -8.992 -4.545 5
-8.844 -8.718 -4.578 15
-9.384 -11.836 0.913 3
-9.494 -11.848 0.697 2
-9.464 -11.694 0.514 255
-9.474 -11.587 0.325 255
-9.475 -11.478 0.138 255
-9.473 -11.363 -0.045 255
-9.476 -11.261 -0.229 255
-9.482 -11.165 -0.413 255
-21.458 -25.033 -5.134 3
-19.496 -22.545 -4.763 13
-18.559 -21.262 -4.739 21
-18.16 -20.637 -4.922 19
-17.397 -19.598 -4.918 9
-16.643 -18.598 -4.894 7
-15.898 -17.617 -4.843 27
-15.258 -16.776 -4.823 6
-14.676 -16.005 -4.806 8
-14.145 -15.31 -4.801 7
-13.638 -14.653 -4.791 4
-13.175 -14.046 -4.786 6
-12.741 -13.486 -4.786 9
-12.323 -12.946 -4.779 9
-11.937 -12.453 -4.781 9
-11.578 -11.99 -4.786 9
-11.236 -11.556 -4.795 9
-10.913 -11.143 -4.803 8
-10.601 -10.752 -4.812 10
-10.308 -10.38 -4.822 11
-10.016 -10.018 -4.827 12
-9.474 -9.412 -4.621 9
-9.11 -8.986 -4.54 5
-8.888 -8.708 -4.569 14
-9.41 -11.795 0.92 3
-9.435 -11.703 0.725 2
-9.473 -11.632 0.527 255
-9.475 -11.516 0.341 255
-9.471 -11.401 0.157 255
-9.472 -11.289 -0.025 255
-9.48 -11.194 -0.21 255
-9.485 -11.098 -0.393 255
-21.624 -25.067 -5.145 3
-19.626 -22.552 -4.765 17
-18.653 -21.233 -4.728 22
-18.219 -20.572 -4.897 9
-17.506 -19.596 -4.917 8
-16.76 -18.609 -4.899 7
-15.999 -17.616 -4.843 27
-15.36 -16.779 -4.824 6
-14.773 -16.008 -4.808 8
-14.24 -15.314 -4.803 7
-13.716 -14.641 -4.785 6
-13.261 -14.047 -4.786 6
-12.818 -13.48 -4.783 8
-12.395 -12.939 -4.774 9
-12.013 -12.453 -4.781 9
-11.647 -11.986 -4.784 9
-11.297 -11.546 -4.788 10
-10.975 -11.136 -4.798 9
-10.662 -10.746 -4.807 10
-10.367 -10.374 -4.818 11
-10.074 -10.014 -4.824 13
-9.522 -9.402 -4.613 8
-9.142 -8.963 -4.521 4
-8.934 -8.699 -4.562 14
-9.441 -11.762 0.926 4
-9.404 -11.593 0.747 5
-9.469 -11.555 0.544 255
-9.478 -11.449 0.357 255
-9.477 -11.337 0.173 255
-9.477 -11.225 -0.008 255
-9.485 -11.131 -0.192 255
-9.482 -11.026 -0.371 255
-21.789 -25.1 -5.155 3
-19.751 -22.552 -4.765 17
-18.741 -21.199 -4.716 24
-18.273 -20.501 -4.87 15
-17.624 -19.603 -4.92 8
-16.87 -18.612 -4.9 6
-16.106 -17.62 -4.845 32
-15.461 -16.783 -4.826 7
-14.862 -16.003 -4.805 8
-14.327 -15.31 -4.801 7
-13.804 -14.641 -4.785 7
-13.339 -14.04 -4.783 6
-12.897 -13.478 -4.782 7
-12.467 -12.932 -4.771 10
-12.076 -12.439 -4.773 10
-11.719 -11.984 -4.783 9
-11.367 -11.545 -4.787 8
-11.037 -11.129 -4.793 9
-10.725 -10.742 -4.804 10
-10.421 -10.364 -4.81 11
-10.129 -10.007 -4.818 13
-9.576 -9.397 -4.609 9
-9.196 -8.961 -4.519 6
-8.985 -8.696 -4.56 14
-9.436 -11.685 0.94 7
-9.381 -11.495 0.766 3
-9.474 -11.492 0.557 255
-9.475 -11.375 0.374 255
-9.477 -11.267 0.191 255
-9.48 -11.159 0.01 255
-9.485 -11.061 -0.172 255
-9.487 -10.963 -0.352 255
-21.955 -25.131 -5.166 3
-19.892 -22.57 -4.771 22
-18.809 -21.141 -4.695 26
-18.339 -20.445 -4.848 16
-17.744 -19.61 -4.923 8
-16.987 -18.622 -4.904 6
-16.207 -17.619 -4.844 32
-15.561 -16.783 -4.826 6
-14.954 -15.999 -4.803 8
-14.414 -15.306 -4.799 7
-13.886 -14.635 -4.782 6
-13.417 -14.034 -4.779 7
-12.976 -13.475 -4.78 9
-12.545 -12.93 -4.769 9
-12.15 -12.436 -4.771 9
-11.786 -11.977 -4.778 9
-11.428 -11.534 -4.779 9
-11.098 -11.122 -4.787 9
-10.788 -10.738 -4.801 10
-10.481 -10.359 -4.806 11
-10.18 -9.995 -4.809 13
-9.629 -9.392 -4.605 7
-9.261 -8.969 -4.526 7
-9.034 -8.69 -4.554 16
-9.461 -11.645 0.947 10
-9.373 -11.415 0.781 3
-9.466 -11.411 0.574 255
-9.478 -11.308 0.389 255
-9.479 -11.2 0.208 255
-9.484 -11.095 0.027 255
-9.487 -10.995 -0.153 255
-9.492 -10.898 -0.332 255
-22.122 -25.163 -5.176 3
-20.067 -22.624 -4.79 22
-18.894 -21.103 -4.681 25
-18.397 -20.38 -4.823 15
-17.859 -19.612 -4.924 8
-17.1 -18.626 -4.906 6
-16.314 -17.622 -4.846 34
-15.655 -16.778 -4.824 7
-15.046 -15.996 -4.802 7
-14.504 -15.303 -4.797 7
-13.974 -14.635 -4.781 6
-13.504 -14.034 -4.779 7
-13.053 -13.468 -4.776 9
-12.623 -12.928 -4.768 9
-12.218 -12.428 -4.766 9
-11.853 -11.969 -4.773 8
-11.496 -11.53 -4.777 9
-11.165 -11.119 -4.785 9
-10.846 -10.729 -4.795 10
-10.54 -10.354 -4.802 11
-10.238 -9.991 -4.806 14
-9.68 -9.384 -4.599 10
-9.291 -8.943 -4.504 7
-9.065 -8.668 -4.535 6
-9.466 -11.58 0.958 7
-9.365 -11.335 0.797 3
-9.471 -11.347 0.588 255
-9.48 -11.241 0.405 255
-9.484 -11.136 0.223 255
-9.491 -11.035 0.043 255
-9.494 -10.934 -0.135 255
-9.496 -10.835 -0.313 255
-9.431 -10.659 -0.463 2
-20.242 -22.678 -4.809 21
-19.016 -21.105 -4.681 28
-18.465 -20.326 -4.802 12
-17.99 -19.631 -4.932 14
-17.22 -18.638 -4.911 6
-16.427 -17.631 -4.85 34
-15.757 -16.78 -4.825 6
-15.148 -16.002 -4.805 8
-14.594 -15.3 -4.796 6
-14.065 -14.637 -4.782 6
-13.587 -14.032 -4.778 6
-13.13 -13.463 -4.773 9
-12.69 -12.916 -4.761 9
-12.292 -12.424 -4.764 10
-11.925 -11.967 -4.771 9
-11.564 -11.526 -4.774 9
-11.23 -11.114 -4.782 9
-10.909 -10.724 -4.792 10
-10.597 -10.346 -4.796 14
-10.294 -9.983 -4.8 14
-9.736 -9.381 -4.596 5
-9.21 -8.812 -4.394 3
-9.092 -8.641 -4.512 4
-9.368 -11.391 0.992 8
-9.357 -11.256 0.812 3
-9.478 -11.287 0.601 255
-9.482 -11.174 0.42 255
-9.488 -11.072 0.239 255
-9.493 -10.968 0.061 255
-9.496 -10.868 -0.116 255
-9.498 -10.769 -0.292 255
-9.458 -10.624 -0.452 6
-20.417 -22.73 -4.827 22
-19.06 -21.02 -4.651 29
-18.543 -20.284 -4.786 9
-18.098 -19.624 -4.929 22
-17.325 -18.633 -4.909 6
-16.539 -17.64 -4.854 33
-15.859 -16.782 -4.826 6
-15.248 -16.005 -4.806 8
-14.687 -15.3 -4.796 6
-14.146 -14.627 -4.777 6
-13.671 -14.029 -4.777 7
-13.212 -13.462 -4.772 9
-12.768 -12.913 -4.759 9
-12.363 -12.418 -4.759 9
-11.993 -11.959 -4.766 9
-11.633 -11.522 -4.772 9
-11.292 -11.106 -4.776 9
-10.97 -10.718 -4.787 11
-10.656 -10.339 -4.791 21
-10.352 -9.979 -4.796 18
-9.778 -9.363 -4.582 7
-9.277 -8.822 -4.403 4
-9.143 -8.638 -4.509 4
-9.424 -11.391 0.991 255
-9.366 -11.199 0.823 3
-9.485 -11.225 0.614 255
-9.488 -11.113 0.434 255
-9.489 -11.005 0.256 255
-9.494 -10.901 0.079 255
-9.499 -10.804 -0.098 255
-9.501 -10.707 -0.273 255
-9.495 -10.598 -0.444 255
-19.886 -22.0 -4.575 2
-19.268 -21.115 -4.685 26
-18.65 -20.272 -4.782 9
-18.219 -19.631 -4.931 17
-17.425 -18.622 -4.905 6
-16.647 -17.642 -4.855 33
-15.957 -16.778 -4.824 6
-15.346 -16.005 -4.806 10
-14.777 -15.297 -4.794 7
-14.234 -14.626 -4.777 7
-13.75 -14.021 -4.772 7
-13.289 -13.454 -4.768 7
-12.841 -12.905 -4.754 9
-12.437 -12.413 -4.757 9
-12.062 -11.954 -4.763 9
-11.696 -11.512 -4.765 9
-11.356 -11.1 -4.772 9
-11.028 -10.708 -4.78 10
-10.713 -10.331 -4.785 25
-10.4 -9.964 -4.785 29
-9.414 -8.96 -4.255 1
-9.316 -8.805 -4.389 5
-9.196 -8.636 -4.507 6
-9.426 -11.323 1.003 255
-9.372 -11.138 0.835 4
-9.493 -11.167 0.626 255
-9.489 -11.046 0.45 255
-9.495 -10.944 0.271 255
-9.5 -10.841 0.095 255
-9.508 -10.746 -0.081 255
-9.507 -10.646 -0.255 255
-9.501 -10.538 -0.424 255
-20.744 -22.804 -4.852 23
-19.387 -21.112 -4.684 25
-18.791 -20.297 -4.791 9
-18.351 -19.648 -4.938 10
-17.536 -18.621 -4.904 6
-16.765 -17.654 -4.86 33
-16.062 -16.781 -4.825 6
-15.438 -16.0 -4.804 8
-14.863 -15.288 -4.79 7
-14.317 -14.618 -4.772 7
-13.834 -14.018 -4.77 6
-13.369 -13.45 -4.766 8
-12.919 -12.902 -4.753 10
-12.509 -12.406 -4.752 10
-12.135 -11.95 -4.761 9
-11.762 -11.505 -4.76 9
-11.418 -11.091 -4.766 9
-11.089 -10.7 -4.774 22
-10.775 -10.327 -4.782 34
-10.466 -9.966 -4.786 19
-9.311 -8.808 -4.133 3
-9.332 -8.768 -4.357 6
-9.243 -8.627 -4.5 7
-9.427 -11.257 1.015 255
-9.382 -11.083 0.846 4
-9.515 -11.125 0.635 143
-9.495 -10.986 0.464 255
-9.498 -10.881 0.287 255
-9.503 -10.777 0.112 255
-9.506 -10.678 -0.062 255
-9.505 -10.578 -0.234 255
-9.504 -10.476 -0.404 255
-20.9 -22.832 -4.862 25
-19.536 -21.141 -4.695 26
-18.941 -20.329 -4.804 17
-18.475 -19.656 -4.941 9
-17.657 -18.632 -4.909 6
-16.884 -17.667 -4.866 33
-16.178 -16.796 -4.832 6
-15.539 -16.003 -4.805 8
-14.953 -15.284 -4.787 7
-14.406 -14.616 -4.772 6
-13.921 -14.017 -4.77 6
-13.451 -13.448 -4.764 7
-12.994 -12.896 -4.749 9
-12.585 -12.405 -4.751 10
-12.2 -11.939 -4.754 9
-11.831 -11.501 -4.757 9
-11.488 -11.09 -4.765 9
-11.15 -10.693 -4.769 11
-10.832 -10.318 -4.775 36
-10.52 -9.955 -4.778 16
-9.309 -8.753 -4.088 4
-9.348 -8.73 -4.326 6
-9.296 -8.625 -4.498 7
-9.43 -11.192 1.026 255
-9.39 -11.026 0.857 6
-9.552 -11.099 0.641 20
-9.493 -10.916 0.48 255
-9.501 -10.817 0.303 255
-9.506 -10.714 0.129 255
-9.506 -10.611 -0.043 255
-9.508 -10.514 -0.215 255
-9.509 -10.416 -0.384 255
-20.455 -22.205 -4.646 3
-19.688 -21.172 -4.706 24
-19.054 -20.321 -4.801 24
-18.594 -19.658 -4.942 9
-17.771 -18.634 -4.91 6
-16.995 -17.671 -4.868 35
-16.297 -16.812 -4.84 6
-15.632 -15.997 -4.802 8
-15.041 -15.277 -4.784 7
-14.492 -14.61 -4.768 7
-14.008 -14.016 -4.769 7
-13.526 -13.437 -4.758 7
-13.073 -12.893 -4.747 9
-12.659 -12.4 -4.748 33
-12.275 -11.938 -4.753 8
-11.904 -11.5 -4.757 9
-11.55 -11.082 -4.76 9
-11.213 -10.687 -4.765 10
-10.89 -10.309 -4.769 37
-9.325 -8.771 -3.852 2
-9.327 -8.717 -4.059 5
-9.377 -8.704 -4.304 6
-9.322 -8.598 -4.474 6
-9.433 -11.129 1.038 255
-9.408 -10.98 0.866 7
-9.557 -11.038 0.654 5
-9.503 -10.861 0.492 255
-9.504 -10.754 0.319 255
-9.511 -10.653 0.146 255
-9.516 -10.557 -0.027 255
-9.513 -10.455 -0.196 255
-9.509 -10.351 -0.363 255
-20.507 -22.122 -4.617 4
-19.837 -21.198 -4.715 25
-19.172 -20.319 -4.8 27
-18.719 -19.664 -4.945 9
-17.887 -18.637 -4.911 7
-17.108 -17.676 -4.87 29
-16.405 -16.817 -4.842 7
-15.738 -16.004 -4.806 8
-15.137 -15.278 -4.784 7
-14.575 -14.602 -4.764 7
-14.087 -14.006 -4.764 6
-13.608 -13.435 -4.757 7
-13.148 -12.886 -4.743 9
-12.726 -12.387 -4.74 29
-12.342 -11.929 -4.747 9
-11.968 -11.491 -4.751 9
-11.615 -11.075 -4.755 9
-11.277 -10.683 -4.761 10
-10.952 -10.305 -4.765 35
-9.312 -8.705 -3.801 3
-9.343 -8.678 -4.028 5
-9.426 -8.697 -4.297 5
-9.389 -8.607 -4.482 4
-9.432 -11.062 1.049 255
-9.429 -10.938 0.874 8
-9.482 -10.885 0.686 5
-9.503 -10.795 0.508 255
-9.509 -10.693 0.334 255
-9.514 -10.59 0.162 255
-9.513 -10.489 -0.008 255
-9.518 -10.395 -0.178 255
-9.513 -10.291 -0.344 255
-19.894 -21.327 -4.344 226
-19.976 -21.213 -4.721 26
-19.296 -20.321 -4.801 28
-18.841 -19.668 -4.947 9
-18.006 -18.643 -4.914 6
-17.206 -17.665 -4.865 18
-16.511 -16.819 -4.843 6
-15.831 -15.997 -4.802 8
-15.231 -15.275 -4.783 8
-14.675 -14.609 -4.768 6
-14.169 -13.999 -4.76 6
-13.688 -13.429 -4.753 7
-13.221 -12.877 -4.737 9
-12.8 -12.381 -4.737 10
-12.415 -11.925 -4.744 9
-12.039 -11.487 -4.748 9
-11.68 -11.068 -4.75 9
-11.337 -10.674 -4.755 10
-9.344 -8.738 -3.584 1
-9.324 -8.664 -3.769 5
-9.368 -8.65 -4.004 5
-9.475 -8.69 -4.291 5
-9.442 -8.605 -4.481 7
-9.435 -10.999 1.061 255
-9.462 -10.91 0.879 7
-9.445 -10.777 0.709 2
-9.508 -10.734 0.522 255
-9.511 -10.63 0.35 255
-9.513 -10.524 0.18 255
-9.515 -10.425 0.011 255
-9.519 -10.332 -0.159 255
-9.515 -10.229 -0.324 255
-19.906 -21.207 -4.302 234
-20.124 -21.236 -4.729 24
-19.419 -20.323 -4.801 28
-18.968 -19.677 -4.95 11
-18.131 -18.654 -4.918 6
-17.309 -17.66 -4.863 15
-16.615 -16.818 -4.843 6
-15.935 -16.0 -4.804 8
-15.319 -15.267 -4.779 6
-14.756 -14.598 -4.762 7
-14.259 -13.999 -4.76 7
-13.769 -13.423 -4.75 9
-13.303 -12.875 -4.736 10
-12.877 -12.378 -4.735 9
-12.483 -11.915 -4.738 8
-12.111 -11.484 -4.746 16
-11.747 -11.063 -4.746 9
-11.401 -10.668 -4.751 10
-9.327 -8.669 -3.533 3
-9.339 -8.625 -3.739 5
-9.407 -8.632 -3.99 5
-9.495 -8.656 -4.264 5
-9.476 -8.584 -4.462 10
-9.437 -10.936 1.072 255
-9.5 -10.888 0.884 10
-9.415 -10.678 0.73 3
-9.504 -10.665 0.538 255
-9.51 -10.564 0.366 255
-9.517 -10.464 0.196 255
-9.519 -10.366 0.028 255
-9.518 -10.267 -0.139 255
-9.519 -10.17 -0.304 255
-19.951 -21.122 -4.273 11
-20.213 -21.197 -4.715 30
-19.544 -20.325 -4.802 28
-19.094 -19.683 -4.952 11
-18.253 -18.662 -4.921 7
-17.408 -17.648 -4.857 20
-16.727 -16.825 -4.845 6
-16.039 -16.003 -4.805 7
-15.413 -15.264 -4.777 6
-14.845 -14.593 -4.759 7
-14.349 -13.999 -4.76 6
-13.854 -13.422 -4.749 7
-13.381 -12.87 -4.733 9
-12.951 -12.372 -4.731 9
-12.556 -11.91 -4.735 8
-12.169 -11.469 -4.736 38
-11.812 -11.056 -4.742 9
-9.522 -8.855 -3.434 255
-9.331 -8.62 -3.496 5
-9.364 -8.596 -3.716 5
-9.45 -8.62 -3.98 3
-9.635 -8.731 -4.326 6
-9.54 -8.591 -4.468 5
-9.438 -10.872 1.083 255
-42.884 -48.854 -6.496 8
-9.403 -10.6 0.747 3
-9.503 -10.599 0.553 255
-9.517 -10.507 0.38 255
-9.516 -10.398 0.214 255
-9.518 -10.3 0.046 255
-9.519 -10.205 -0.12 255
-9.523 -10.11 -0.285 255
-21.146 -22.249 -4.661 3
-20.315 -21.17 -4.705 26
-19.665 -20.323 -4.801 28
-19.227 -19.696 -4.958 15
-18.379 -18.672 -4.926 7
-17.519 -17.649 -4.858 17
-16.839 -16.83 -4.848 6
-16.14 -16.003 -4.805 7
-15.512 -15.266 -4.778 6
-14.932 -14.586 -4.756 7
-14.431 -13.991 -4.755 6
-13.932 -13.413 -4.744 7
-13.455 -12.86 -4.727 9
-13.023 -12.363 -4.725 9
-12.629 -11.905 -4.731 10
-12.236 -11.46 -4.73 34
-11.877 -11.049 -4.736 9
-9.402 -8.691 -3.314 6
-9.343 -8.578 -3.464 5
-9.394 -8.571 -3.696 5
-9.517 -8.629 -3.988 2
-9.671 -8.711 -4.31 6
-9.589 -8.583 -4.461 5
-9.439 -10.809 1.094 255
0.0 -0.0 3.0 0
-9.394 -10.526 0.763 3
-9.507 -10.538 0.567 255
-9.515 -10.441 0.397 255
-9.519 -10.338 0.23 255
-9.524 -10.243 0.063 255
-9.526 -10.149 -0.103 255
-9.55 -10.076 -0.274 29
-21.893 -22.89 -4.882 13
-20.528 -21.258 -4.737 30
-19.795 -20.329 -4.803 29
-19.361 -19.709 -4.963 15
-18.496 -18.673 -4.926 7
-17.639 -17.658 -4.862 12
-16.945 -16.831 -4.848 6
-16.258 -16.018 -4.813 7
-15.606 -15.261 -4.776 7
-15.018 -14.579 -4.752 7
-14.516 -13.985 -4.752 6
-14.015 -13.408 -4.741 7
-13.536 -12.857 -4.725 9
-13.1 -12.359 -4.723 9
-12.694 -11.893 -4.723 9
-12.307 -11.455 -4.727 9
-11.948 -11.045 -4.734 9
-9.329 -8.571 -3.227 12
-9.362 -8.544 -3.439 6
-9.434 -8.557 -3.685 5
-10.276 -9.262 -4.5 15
-9.972 -8.929 -4.492 25
-9.651 -8.587 -4.465 4
-9.44 -10.745 1.105 255
-9.407 -10.588 0.942 3
-9.397 -10.465 0.776 4
-9.51 -10.479 0.581 255
-9.513 -10.375 0.413 255
-9.517 -10.273 0.247 255
-9.522 -10.178 0.082 255
-9.526 -10.086 -0.084 255
-9.591 -10.057 -0.268 4
-22.13 -22.993 -4.917 14
-20.787 -21.392 -4.786 27
-19.925 -20.335 -4.806 29
-19.49 -19.715 -4.966 15
-18.622 -18.681 -4.93 7
-17.762 -17.669 -4.867 9
-17.058 -16.836 -4.851 6
-16.368 -16.025 -4.816 7
-15.701 -15.257 -4.774 7
-15.11 -14.576 -4.75 7
-14.609 -13.987 -4.753 7
-14.096 -13.402 -4.737 8
-13.618 -12.853 -4.723 9
-13.18 -12.357 -4.721 12
-12.767 -11.887 -4.72 10
-12.382 -11.453 -4.725 9
-9.343 -8.584 -3.011 2
-9.343 -8.531 -3.198 6
-9.392 -8.519 -3.419 5
-9.485 -8.55 -3.68 3
-10.269 -9.2 -4.45 22
-9.996 -8.898 -4.466 15
-9.697 -8.577 -4.456 9
-9.444 -10.685 1.116 255
-9.434 -10.554 0.948 17
-9.403 -10.408 0.788 4
-9.516 -10.421 0.594 255
-9.513 -10.313 0.429 255
-9.523 -10.216 0.263 255
-9.525 -10.118 0.099 255
-9.556 -10.055 -0.074 22
-24.662 -25.699 -5.35 2
-22.251 -22.975 -4.911 12
-20.885 -21.359 -4.774 28
-20.05 -20.333 -4.805 29
-19.627 -19.73 -4.971 16
-18.737 -18.68 -4.929 6
-17.888 -17.683 -4.873 7
-17.168 -16.837 -4.851 7
-16.47 -16.025 -4.816 8
-15.809 -15.266 -4.778 6
-15.2 -14.571 -4.748 6
-14.697 -13.982 -4.751 7
-14.182 -13.399 -4.736 7
-13.697 -12.848 -4.72 9
-13.252 -12.348 -4.716 23
-12.843 -11.884 -4.718 8
-12.451 -11.446 -4.721 9
-9.338 -8.527 -2.971 4
-9.362 -8.495 -3.172 6
-9.429 -8.501 -3.406 5
-10.197 -9.136 -4.138 6
-10.433 -9.292 -4.524 13
-10.036 -8.879 -4.451 11
-9.738 -8.563 -4.444 10
-9.441 -10.619 1.128 255
-9.46 -10.522 0.955 255
-9.405 -10.348 0.8 4
-9.524 -10.367 0.607 255
-9.519 -10.255 0.443 255
-9.523 -10.153 0.279 255
-9.533 -10.064 0.114 255
-9.599 -10.038 -0.069 4
-24.821 -25.705 -5.352 3
0.0 -0.0 3.0 0
-21.1 -21.444 -4.805 23
-20.178 -20.336 -4.806 30
-19.748 -19.726 -4.97 16
-18.861 -18.684 -4.931 7
-17.995 -17.677 -4.87 6
-17.259 -16.821 -4.844 6
-16.57 -16.02 -4.814 7
-15.911 -15.269 -4.78 7
-15.29 -14.565 -4.744 6
-14.771 -13.965 -4.741 8
-14.265 -13.394 -4.733 7
-13.778 -12.844 -4.717 9
-13.327 -12.34 -4.711 29
-12.916 -11.878 -4.713 8
-9.359 -8.551 -2.768 1
-9.34 -8.477 -2.935 5
-9.388 -8.468 -3.152 6
-9.475 -8.49 -3.398 4
-10.25 -9.129 -4.132 17
-10.361 -9.171 -4.427 10
-10.088 -8.873 -4.445 11
-9.797 -8.564 -4.445 15
-9.441 -10.556 1.139 255
-9.46 -10.458 0.967 255
-9.415 -10.298 0.811 4
-9.548 -10.331 0.615 22
-9.519 -10.193 0.459 255
-9.525 -10.094 0.295 255
-9.557 -10.028 0.124 37
-20.032 -20.819 -3.365 3
-25.016 -25.746 -5.365 3
-22.633 -23.08 -4.947 12
-21.228 -21.439 -4.803 26
-20.303 -20.334 -4.805 31
-19.883 -19.737 -4.974 17
-18.984 -18.689 -4.933 6
-18.118 -17.687 -4.875 6
-17.358 -16.811 -4.839 6
-16.678 -16.023 -4.815 7
-16.011 -15.268 -4.779 7
-15.385 -14.564 -4.744 6
-14.859 -13.961 -4.739 7
-14.351 -13.39 -4.731 7
-9.329 -8.642 -2.193 6
-13.402 -12.332 -4.706 32
-12.987 -11.869 -4.708 8
-9.345 -8.486 -2.724 3
-9.353 -8.437 -2.907 5
-9.42 -8.444 -3.135 6
-9.541 -8.498 -3.403 1
-10.263 -9.085 -4.098 17
-10.534 -9.268 -4.505 24
-10.238 -8.952 -4.511 20
-9.854 -8.563 -4.444 43
-9.444 -10.496 1.149 255
-9.46 -10.395 0.979 255
-9.426 -10.247 0.822 4
-9.537 -10.256 0.632 12
-9.524 -10.136 0.473 255
-9.527 -10.035 0.311 255
-9.597 -10.008 0.13 4
-26.988 -27.875 -5.522 5
-25.212 -25.786 -5.378 2
-22.818 -23.124 -4.962 15
-21.275 -21.352 -4.772 24
-20.423 -20.327 -4.803 30
-20.02 -19.749 -4.979 15
-19.108 -18.693 -4.935 7
-18.239 -17.693 -4.877 5
-17.465 -16.809 -4.838 7
-16.783 -16.023 -4.815 8
-16.128 -15.283 -4.787 7
-15.478 -14.56 -4.742 7
-14.939 -13.948 -4.732 7
-14.438 -13.387 -4.729 7
-9.368 -8.625 -2.182 32
-13.482 -12.33 -4.705 33
-9.381 -8.521 -2.533 0
-9.344 -8.433 -2.688 5
-9.379 -8.409 -2.888 5
-9.462 -8.431 -3.125 5
-10.232 -9.059 -3.826 3
-10.266 -9.033 -4.057 19
-10.444 -9.135 -4.397 12
-10.286 -8.939 -4.501 24
-9.895 -8.549 -4.431 37
-9.441 -10.43 1.161 255
-9.451 -10.325 0.993 255
-9.441 -10.202 0.832 4
-9.556 -10.214 0.642 1
-9.531 -10.083 0.486 255
-9.556 -10.003 0.32 53
-20.036 -20.767 -2.955 11
-27.195 -27.915 -5.535 5
-25.4 -25.818 -5.389 3
-22.973 -23.137 -4.967 11
-21.373 -21.317 -4.759 24
-20.56 -20.335 -4.806 29
-20.158 -19.76 -4.984 12
-19.23 -18.694 -4.935 6
-18.361 -17.699 -4.88 6
-17.576 -16.809 -4.838 6
-16.883 -16.018 -4.812 8
-16.237 -15.289 -4.79 7
-15.571 -14.555 -4.739 7
-15.033 -13.948 -4.731 7
-14.516 -13.376 -4.722 7
-9.4 -8.599 -2.167 255
-13.552 -12.316 -4.696 32
-9.355 -8.445 -2.484 2
-9.356 -8.392 -2.66 5
-9.407 -8.382 -2.869 5
-9.513 -8.424 -3.12 3
-10.256 -9.024 -3.8 6
-10.292 -9.002 -4.033 18
-10.399 -9.041 -4.321 22
-10.331 -8.925 -4.489 27
-9.939 -8.536 -4.42 35
-9.44 -10.368 1.172 255
-9.458 -10.271 1.004 255
-9.464 -10.166 0.839 4
-9.498 -10.09 0.67 2
-9.53 -10.019 0.502 255
-9.599 -9.987 0.324 6
-29.531 -30.42 -5.723 5
-27.427 -27.98 -5.554 5
-25.612 -25.873 -5.407 3
-23.164 -23.185 -4.983 14
-21.529 -21.34 -4.767 24
-20.697 -20.342 -4.808 29
-20.294 -19.769 -4.987 16
-19.362 -18.705 -4.94 6
-18.477 -17.699 -4.88 5
-17.689 -16.812 -4.84 6
-16.988 -16.017 -4.812 8
-16.351 -15.301 -4.796 7
-15.652 -14.54 -4.731 32
-15.113 -13.935 -4.724 7
-9.328 -8.542 -1.932 1
-9.384 -8.532 -2.127 255
-13.632 -12.313 -4.694 21
-9.353 -8.391 -2.449 4
-9.376 -8.358 -2.638 6
-9.449 -8.368 -2.86 5
-9.596 -8.446 -3.136 0
-10.301 -9.009 -3.789 7
-10.162 -8.835 -3.903 13
-10.222 -8.834 -4.154 28
-10.371 -8.906 -4.473 18
-9.979 -8.52 -4.407 20
-9.438 -10.305 1.183 255
-9.454 -10.204 1.016 255
-9.487 -10.129 0.847 3
-9.45 -9.98 0.696 3
-9.561 -9.991 0.509 38
-20.034 -20.715 -2.551 31
-29.778 -30.487 -5.742 5
-27.63 -28.013 -5.564 5
-25.809 -25.91 -5.419 3
-23.348 -23.224 -4.997 15
-21.453 -21.132 -4.691 27
-20.837 -20.352 -4.812 29
-20.427 -19.775 -4.99 16
-19.492 -18.713 -4.943 7
-18.607 -17.712 -4.886 7
-17.8 -16.811 -4.839 6
-17.08 -16.002 -4.805 8
-16.455 -15.301 -4.796 7
-15.745 -14.535 -4.729 31
-15.207 -13.934 -4.724 7
-9.373 -8.529 -1.924 10
-9.379 -8.475 -2.092 255
-9.315 -8.361 -2.225 4
-9.362 -8.347 -2.42 5
-9.404 -8.332 -2.62 5
-9.494 -8.357 -2.852 4
-12.115 -10.599 -4.701 11
-10.321 -8.973 -3.761 24
-10.333 -8.93 -3.977 28
-10.261 -8.815 -4.139 26
-10.405 -8.883 -4.454 20
-9.996 -8.485 -4.376 19
-9.437 -10.243 1.194 255
-9.453 -10.142 1.029 255
-9.529 -10.113 0.85 2
-9.429 -9.898 0.715 3
-9.595 -9.966 0.515 3
-30.711 -31.564 -5.458 20
-30.024 -30.549 -5.76 5
-27.858 -28.071 -5.582 5
-26.009 -25.95 -5.432 3
-23.529 -23.259 -5.009 14
-21.501 -21.047 -4.661 26
-20.971 -20.355 -4.814 27
-20.566 -19.785 -4.994 12
-19.617 -18.715 -4.944 6
-18.704 -17.692 -4.877 33
-17.922 -16.82 -4.843 6
-17.175 -15.99 -4.799 8
-16.561 -15.304 -4.798 7
-15.844 -14.535 -4.728 31
-15.295 -13.928 -4.72 7
-9.395 -8.496 -1.905 255
-9.355 -8.4 -2.047 255
-9.29 -8.288 -2.179 12
-9.379 -8.311 -2.397 5
-9.435 -8.308 -2.604 5
-9.561 -8.364 -2.857 1
-12.182 -10.593 -4.696 26
-10.385 -8.973 -3.762 29
-10.21 -8.771 -3.853 24
-10.343 -8.833 -4.153 36
-10.455 -8.874 -4.446 41
-10.008 -8.445 -4.341 17
-9.441 -10.187 1.204 255
-9.456 -10.086 1.039 255
-9.418 -9.936 0.888 2
-9.403 -9.81 0.735 6
-32.122 -33.163 -5.269 24
-30.899 -31.563 -5.457 21
-30.27 -30.612 -5.778 6
-28.084 -28.124 -5.598 5
-26.21 -25.989 -5.444 3
-23.694 -23.276 -5.015 14
-21.916 -21.32 -4.76 29
-21.12 -20.372 -4.82 25
-20.702 -19.791 -4.996 16
-19.737 -18.711 -4.942 5
-18.82 -17.691 -4.877 36
-18.036 -16.821 -4.844 7
-17.272 -15.98 -4.794 8
-16.66 -15.299 -4.795 7
-15.94 -14.531 -4.726 29
-15.384 -13.921 -4.717 7
-9.387 -8.436 -1.871 255
-9.346 -8.341 -2.012 255
-9.293 -8.239 -2.148 255
-9.404 -8.282 -2.378 5
-9.482 -8.299 -2.598 4
-12.623 -10.976 -4.685 10
-12.243 -10.582 -4.688 35
-10.432 -8.96 -3.752 24
-10.414 -8.892 -3.947 23
-10.361 -8.796 -4.123 27
-10.5 -8.859 -4.434 41
-10.062 -8.441 -4.338 16
-9.441 -10.127 1.214 255
-9.457 -10.027 1.051 255
-9.421 -9.879 0.9 13
-9.417 -9.766 0.745 5
-32.393 -33.241 -5.288 25
-31.139 -31.615 -5.471 18
-30.514 -30.669 -5.794 6
-28.321 -28.187 -5.618 4
-26.42 -26.035 -5.459 3
-23.857 -23.291 -5.02 11
-22.056 -21.323 -4.761 33
-21.277 -20.396 -4.829 24
-20.847 -19.806 -5.002 16
-19.878 -18.727 -4.949 6
-18.951 -17.702 -4.882 29
-18.145 -16.817 -4.842 6
-17.376 -15.975 -4.791 8
-16.753 -15.287 -4.789 6
-16.045 -14.536 -4.729 31
-15.475 -13.916 -4.714 7
-9.367 -8.366 -1.83 255
-9.329 -8.274 -1.971 255
-9.284 -8.18 -2.112 255
-9.437 -8.26 -2.364 5
-9.535 -8.293 -2.594 2
-12.688 -10.965 -4.678 19
-12.31 -10.575 -4.683 39
-10.499 -8.963 -3.754 21
-10.377 -8.808 -3.882 29
-10.419 -8.792 -4.12 22
-10.523 -8.826 -4.406 36
-10.121 -8.441 -4.338 15
-9.442 -10.068 1.225 255
-9.46 -9.971 1.062 255
-9.468 -9.868 0.902 255
-9.419 -9.709 0.758 4
-32.66 -33.311 -5.305 22
-31.324 -31.609 -5.47 20
-30.772 -30.74 -5.815 6
-28.554 -28.243 -5.635 5
-26.61 -26.06 -5.467 3
-24.048 -23.332 -5.034 11
-22.185 -21.314 -4.758 29
-21.43 -20.413 -4.836 23
-20.982 -19.808 -5.003 16
-20.015 -18.738 -4.954 6
-19.065 -17.698 -4.88 25
-18.259 -16.817 -4.842 7
-17.474 -15.964 -4.786 7
-16.851 -15.281 -4.786 6
-16.147 -14.536 -4.729 31
-15.564 -13.909 -4.71 7
-9.355 -8.304 -1.794 255
-9.317 -8.212 -1.934 255
-9.269 -8.117 -2.072 255
-9.473 -8.24 -2.351 4
-13.151 -11.369 -4.668 34
-12.754 -10.955 -4.671 34
-12.372 -10.564 -4.675 39
-10.56 -8.961 -3.752 13
-10.465 -8.83 -3.899 32
-10.493 -8.802 -4.128 30
-10.584 -8.825 -4.405 42
-10.178 -8.438 -4.335 16
-9.444 -10.012 1.235 255
-9.46 -9.911 1.073 255
-9.476 -9.819 0.913 255
-9.422 -9.654 0.771 5
-32.918 -33.372 -5.32 21
-31.535 -31.628 -5.475 19
-31.029 -30.806 -5.834 6
-28.79 -28.302 -5.653 4
-26.835 -26.117 -5.486 3
-24.239 -23.372 -5.048 9
-22.528 -21.509 -4.829 30
-21.574 -20.422 -4.839 23
-21.124 -19.819 -5.007 16
-20.146 -18.743 -4.956 6
-19.185 -17.697 -4.879 21
-18.379 -16.821 -4.844 6
-17.588 -15.968 -4.788 6
-16.947 -15.272 -4.782 7
-16.246 -14.535 -4.728 30
-15.662 -13.909 -4.71 8
-9.332 -8.231 -1.752 255
-9.297 -8.143 -1.893 255
-9.291 -8.085 -2.052 66
-9.528 -8.237 -2.349 2
-13.218 -11.357 -4.66 38
-12.819 -10.944 -4.663 14
-12.445 -10.561 -4.673 42
-10.64 -8.975 -3.763 12
-10.485 -8.793 -3.87 27
-10.832 -9.033 -4.315 28
-10.629 -8.81 -4.393 38
-10.235 -8.436 -4.334 16
-9.444 -9.953 1.245 255
-9.457 -9.849 1.085 255
-9.478 -9.762 0.925 255
-9.432 -9.606 0.782 5
-33.427 -33.683 -5.398 17
-31.718 -31.618 -5.472 21
-31.286 -30.872 -5.852 6
-29.034 -28.367 -5.673 5
-27.048 -26.163 -5.501 3
-24.417 -23.397 -5.056 7
-22.827 -21.659 -4.883 27
-21.718 -20.431 -4.843 23
-21.267 -19.828 -5.011 16
-20.267 -18.737 -4.953 6
-19.302 -17.694 -4.878 14
-18.491 -16.817 -4.842 6
-17.695 -15.965 -4.787 8
-17.04 -15.26 -4.775 6
-16.348 -14.535 -4.728 35
-9.393 -8.29 -1.595 0
-9.333 -8.181 -1.724 255
-9.318 -8.111 -1.873 72
-9.379 -8.112 -2.069 9
-9.606 -8.253 -2.36 0
-13.291 -11.349 -4.655 37
-12.891 -10.938 -4.659 10
-12.509 -10.552 -4.666 43
-10.663 -8.94 -3.737 23
-10.551 -8.796 -3.872 28
-10.754 -8.915 -4.219 30
-10.673 -8.795 -4.38 21
-10.278 -8.423 -4.322 13
-9.449 -9.899 1.255 255
-9.459 -9.793 1.096 255
-9.48 -9.707 0.937 255
-9.442 -9.559 0.793 5
-33.791 -33.844 -5.438 8
-31.941 -31.647 -5.48 22
-31.552 -30.945 -5.873 7
-29.263 -28.415 -5.687 4
-27.257 -26.202 -5.514 3
-24.579 -23.405 -5.059 6
-22.964 -21.653 -4.881 29
-21.865 -20.441 -4.847 22
-21.402 -19.829 -5.012 16
-20.401 -18.743 -4.956 6
-19.431 -17.701 -4.881 8
-18.609 -16.818 -4.843 6
-17.807 -15.966 -4.787 8
-17.134 -15.248 -4.769 6
-16.442 -14.527 -4.724 32
-9.38 -8.227 -1.561 3
-9.377 -8.169 -1.716 6
-9.401 -8.132 -1.886 7
-9.498 -8.164 -2.102 4
-13.801 -11.785 -4.653 33
-13.363 -11.341 -4.65 34
-12.959 -10.93 -4.653 10
-12.576 -10.544 -4.661 42
-10.747 -8.956 -3.749 17
-10.596 -8.78 -3.86 21
-10.788 -8.89 -4.199 29
-10.745 -8.802 -4.386 36
-10.333 -8.418 -4.317 12
-9.459 -9.852 1.263 110
-9.458 -9.734 1.108 255
-9.479 -9.648 0.949 255
-9.455 -9.515 0.803 5
-38.221 -38.05 -6.487 3
-32.166 -31.677 -5.488 24
-31.817 -31.012 -5.893 7
-29.51 -28.478 -5.707 4
-27.469 -26.243 -5.527 3
-24.791 -23.461 -5.078 5
-23.058 -21.607 -4.864 33
-21.985 -20.425 -4.84 23
-21.549 -19.84 -5.016 18
-20.539 -18.752 -4.96 6
-19.568 -17.714 -4.887 6
-18.727 -16.818 -4.843 7
-17.914 -15.96 -4.784 7
-17.221 -15.23 -4.76 6
-16.542 -14.524 -4.723 20
-9.375 -8.171 -1.529 5
-9.395 -8.133 -1.696 6
-9.453 -8.127 -1.883 5
-9.576 -8.18 -2.112 1
-13.878 -11.778 -4.649 20
-13.436 -11.334 -4.645 35
-13.031 -10.922 -4.648 10
-12.643 -10.538 -4.656 41
-10.841 -8.981 -3.768 24
-10.869 -8.954 -3.995 3
-10.883 -8.915 -4.219 17
-10.804 -8.798 -4.383 29
-10.384 -8.411 -4.311 14
-9.497 -9.833 1.266 12
-9.462 -9.682 1.118 255
-9.487 -9.597 0.96 255
-9.47 -9.472 0.813 5
-9.502 -9.403 0.656 0
-32.364 -31.678 -5.488 23
-32.079 -31.077 -5.911 9
-29.742 -28.526 -5.721 4
-27.693 -26.294 -5.544 4
-24.984 -23.499 -5.091 5
-23.261 -21.661 -4.884 30
-22.156 -20.456 -4.852 24
-21.692 -19.848 -5.019 18
-20.677 -18.759 -4.963 6
-19.706 -17.727 -4.893 5
-18.847 -16.821 -4.844 7
-18.03 -15.963 -4.786 7
-17.318 -15.219 -4.755 6
-9.389 -8.192 -1.356 2
-9.379 -8.124 -1.503 6
-9.424 -8.108 -1.681 5
-9.502 -8.119 -1.878 5
-14.423 -12.245 -4.651 14
-13.958 -11.773 -4.646 11
-13.514 -11.33 -4.642 30
-13.099 -10.914 -4.642 11
-12.708 -10.527 -4.648 40
-10.861 -8.943 -3.739 31
0.0 -0.0 3.0 0
-11.234 -9.148 -4.408 21
-10.84 -8.776 -4.364 28
-10.436 -8.403 -4.305 13
-9.51 -9.788 1.274 3
-9.464 -9.626 1.129 255
-9.474 -9.527 0.975 255
-9.488 -9.433 0.822 4
-9.47 -9.314 0.678 2
-32.591 -31.705 -5.495 24
-32.347 -31.146 -5.931 11
-29.984 -28.582 -5.738 4
-27.907 -26.333 -5.556 3
-24.328 -22.739 -4.83 3
-23.389 -21.646 -4.879 32
-22.295 -20.456 -4.852 24
-21.834 -19.852 -5.021 17
-20.809 -18.761 -4.964 6
-19.838 -17.735 -4.896 5
-18.966 -16.821 -4.844 6
-18.137 -15.957 -4.783 7
-17.414 -15.208 -4.749 5
-9.378 -8.132 -1.324 4
-9.397 -8.088 -1.483 6
-9.453 -8.083 -1.667 5
-9.56 -8.117 -1.877 2
-14.499 -12.233 -4.644 9
-14.032 -11.763 -4.639 9
-13.59 -11.324 -4.638 29
-13.171 -10.906 -4.637 25
-12.778 -10.521 -4.644 37
-11.032 -9.029 -3.804 18
-10.94 -8.905 -3.957 6
-11.308 -9.154 -4.413 26
-10.904 -8.776 -4.364 30
-10.487 -8.395 -4.298 13
-9.528 -9.749 1.281 0
-9.47 -9.576 1.139 255
-9.481 -9.477 0.985 255
-9.517 -9.406 0.828 4
-9.454 -9.242 0.696 3
-32.846 -31.76 -5.51 26
-32.608 -31.205 -5.948 14
-30.241 -28.649 -5.759 6
-28.129 -26.379 -5.571 3
-25.364 -23.56 -5.112 5
-23.51 -21.622 -4.87 29
-22.429 -20.45 -4.85 26
-21.969 -19.85 -5.02 13
-20.948 -18.768 -4.966 6
-19.968 -17.738 -4.898 5
-19.084 -16.82 -4.843 6
-18.253 -15.959 -4.784 8
-9.401 -8.159 -1.157 1
-9.381 -8.083 -1.298 5
-9.414 -8.053 -1.464 6
-9.494 -8.066 -1.657 5
-15.093 -12.737 -4.653 7
-14.583 -12.228 -4.641 9
-14.11 -11.755 -4.634 8
-13.657 -11.31 -4.629 25
-13.236 -10.894 -4.628 32
-12.843 -10.51 -4.636 18
-11.057 -8.996 -3.779 22
-10.923 -8.838 -3.905 11
-11.287 -9.083 -4.355 22
-10.954 -8.765 -4.355 37
-10.541 -8.39 -4.293 14
0.0 -0.0 3.0 0
-9.468 -9.517 1.15 255
-9.476 -9.417 0.998 255
-9.546 -9.378 0.835 2
-9.451 -9.183 0.71 5
-33.102 -31.814 -5.524 26
-32.864 -31.258 -5.963 14
-30.476 -28.694 -5.773 4
-28.369 -26.44 -5.591 3
-25.538 -23.575 -5.118 4
-23.771 -21.726 -4.908 32
-22.581 -20.461 -4.854 27
-22.099 -19.843 -5.017 13
-21.08 -18.769 -4.967 6
-20.098 -17.742 -4.899 5
-19.203 -16.818 -4.843 6
-18.363 -15.954 -4.781 7
-9.384 -8.093 -1.124 4
-9.395 -8.045 -1.278 6
-9.449 -8.032 -1.452 6
-9.543 -8.058 -1.652 3
-15.179 -12.73 -4.649 9
-14.665 -12.221 -4.636 9
-14.19 -11.749 -4.63 9
-13.736 -11.306 -4.626 15
-13.305 -10.884 -4.621 33
-12.91 -10.502 -4.63 12
-11.108 -8.983 -3.769 18
-10.987 -8.837 -3.904 16
-11.182 -8.945 -4.244 32
-11.012 -8.76 -4.351 34
-10.593 -8.382 -4.286 15
0.0 -0.0 3.0 0
-9.472 -9.465 1.16 255
-9.482 -9.366 1.009 255
-9.457 -9.234 0.868 6
-9.443 -9.12 0.726 4
-33.356 -31.863 -5.538 27
-33.14 -31.328 -5.983 15
-30.734 -28.76 -5.793 4
-28.589 -26.481 -5.604 3
-25.191 -23.111 -4.958 4
-23.935 -21.739 -4.913 31
-22.733 -20.47 -4.858 26
-22.238 -19.844 -5.017 12
-21.216 -18.772 -4.968 6
-20.228 -17.745 -4.901 5
-19.322 -16.817 -4.842 6
-9.413 -8.127 -0.964 0
-9.387 -8.044 -1.099 5
-9.418 -8.014 -1.261 6
-9.486 -8.014 -1.442 5
-9.621 -8.073 -1.661 0
-15.26 -12.718 -4.642 9
-14.743 -12.211 -4.63 9
-14.267 -11.741 -4.625 9
-13.806 -11.294 -4.618 11
-13.374 -10.875 -4.615 36
-12.981 -10.496 -4.626 11
-11.096 -8.919 -3.721 27
-11.071 -8.852 -3.916 34
-11.417 -9.08 -4.353 22
-11.063 -8.748 -4.341 30
-10.634 -8.366 -4.272 13
0.0 -0.0 3.0 0
-9.475 -9.412 1.17 255
-9.488 -9.317 1.02 255
-9.462 -9.185 0.88 35
-9.443 -9.066 0.74 5
-33.63 -31.93 -5.556 26
-33.405 -31.386 -6.0 12
-30.99 -28.822 -5.812 4
-28.813 -26.524 -5.618 3
-25.963 -23.672 -5.151 5
-24.102 -21.756 -4.918 29
-22.888 -20.481 -4.862 26
-22.372 -19.837 -5.015 11
-21.358 -18.779 -4.971 7
-20.358 -17.748 -4.902 6
-19.455 -16.827 -4.846 6
-9.398 -8.063 -0.933 3
-9.4 -8.006 -1.079 5
-9.447 -7.988 -1.247 5
-9.532 -8.002 -1.435 4
-15.917 -13.273 -4.663 7
-15.349 -12.713 -4.639 7
-14.831 -12.208 -4.628 9
-14.342 -11.729 -4.617 34
-13.879 -11.285 -4.612 9
-13.449 -10.869 -4.61 34
-13.045 -10.484 -4.617 11
-11.269 -9.004 -3.785 20
-11.189 -8.893 -3.948 11
-11.225 -8.874 -4.186 26
-11.127 -8.748 -4.341 26
-10.688 -8.359 -4.266 12
0.0 -0.0 3.0 0
-9.475 -9.356 1.181 255
-9.488 -9.261 1.032 255
-9.493 -9.16 0.885 255
-9.446 -9.014 0.753 5
-33.945 -32.033 -5.583 23
-32.3 -30.163 -5.649 26
-31.237 -28.873 -5.827 4
-29.058 -26.584 -5.638 3
-26.162 -23.706 -5.163 5
-24.252 -21.755 -4.918 25
-23.032 -20.481 -4.862 26
-22.5 -19.827 -5.011 12
-21.506 -18.791 -4.976 6
-20.492 -17.751 -4.903 5
-9.416 -8.092 -0.774 0
-9.391 -8.006 -0.905 5
-9.417 -7.97 -1.061 6
-9.478 -7.964 -1.235 5
-9.595 -8.004 -1.437 1
-16.016 -13.273 -4.663 8
-15.43 -12.7 -4.631 9
-14.91 -12.197 -4.622 9
-14.419 -11.721 -4.612 36
-13.961 -11.282 -4.61 9
-13.52 -10.86 -4.605 33
-13.113 -10.475 -4.61 11
-11.294 -8.97 -3.759 3
-11.791 -9.316 -4.278 15
-11.413 -8.97 -4.263 43
-11.197 -8.751 -4.343 22
-10.737 -8.349 -4.258 14
0.0 -0.0 3.0 0
-9.475 -9.302 1.192 255
-9.482 -9.2 1.044 255
-9.502 -9.113 0.896 255
-9.454 -8.966 0.764 5
-34.324 -32.194 -5.626 24
-32.258 -29.939 -5.585 12
-31.503 -28.941 -5.848 4
-29.286 -26.628 -5.652 3
-26.356 -23.733 -5.172 5
-24.46 -21.805 -4.937 28
-23.199 -20.501 -4.87 28
-22.633 -19.82 -5.008 11
-21.655 -18.802 -4.981 6
-20.622 -17.753 -4.904 5
-9.403 -8.031 -0.745 3
-9.401 -7.965 -0.885 6
-9.445 -7.944 -1.048 6
-9.523 -7.953 -1.229 4
-16.719 -13.861 -4.683 7
-16.11 -13.268 -4.661 7
-15.522 -12.697 -4.629 8
-14.992 -12.188 -4.616 8
-14.499 -11.714 -4.607 9
-14.028 -11.267 -4.6 10
-13.592 -10.852 -4.598 28
-13.186 -10.47 -4.607 11
-11.791 -9.309 -4.015 8
-11.305 -8.878 -3.936 1
-11.284 -8.816 -4.139 17
-11.264 -8.752 -4.344 16
-10.788 -8.34 -4.25 15
0.0 -0.0 3.0 0
-9.477 -9.249 1.202 255
-9.493 -9.157 1.054 255
-9.501 -9.057 0.909 255
-9.462 -8.92 0.776 5
-32.385 -30.191 -5.09 25
-32.345 -29.836 -5.555 22
-31.799 -29.033 -5.876 4
-29.541 -26.693 -5.673 3
-26.559 -23.767 -5.184 3
-24.535 -21.736 -4.911 30
-23.358 -20.513 -4.874 26
-22.764 -19.81 -5.004 11
-21.792 -18.802 -4.981 6
-20.753 -17.754 -4.905 3
-9.398 -7.976 -0.719 4
-9.418 -7.929 -0.867 6
-9.473 -7.917 -1.034 5
-9.578 -7.948 -1.226 2
-16.818 -13.856 -4.68 6
-16.204 -13.262 -4.657 11
-15.611 -12.691 -4.626 9
-15.074 -12.18 -4.611 8
-14.58 -11.706 -4.602 9
-14.102 -11.256 -4.593 14
-13.667 -10.845 -4.594 26
-13.254 -10.461 -4.6 11
-11.392 -8.941 -3.737 12
-12.105 -9.451 -4.384 20
-11.608 -9.016 -4.301 36
-11.311 -8.738 -4.332 31
-10.846 -8.336 -4.246 17
0.0 -0.0 3.0 0
-9.479 -9.197 1.212 255
-9.495 -9.104 1.065 255
-9.509 -9.011 0.92 255
-9.469 -8.873 0.788 5
-9.503 -8.805 0.641 2
-32.347 -29.656 -5.504 43
-32.014 -29.049 -5.881 18
-29.761 -26.727 -5.684 3
-26.75 -23.791 -5.192 3
-24.818 -21.849 -4.953 30
-23.508 -20.515 -4.875 28
