# .PCD v0.7 - Point Cloud Data file format
VERSION 0.7
FIELDS x y z intensity
SIZE 4 4 4 4
TYPE F F F F
COUNT 1 1 1 1
WIDTH 1983
HEIGHT 1
VIEWPOINT 0 0 0 1 0 0 0
POINTS 1983
DATA ascii
-15.18 -17.596 -4.834 6
-14.585 -16.774 -4.822 6
-14.038 -16.015 -4.811 8
-13.541 -15.332 -4.812 7
-13.054 -14.668 -4.799 8
-12.618 -14.069 -4.799 7
-12.208 -13.513 -4.802 7
-11.811 -12.975 -4.796 9
-11.449 -12.488 -4.803 9
-11.109 -12.027 -4.811 9
-10.782 -11.591 -4.818 8
-10.478 -11.181 -4.829 8
-10.191 -10.801 -4.847 11
-9.904 -10.42 -4.852 11
-9.625 -10.056 -4.857 32
-9.165 -9.51 -4.701 10
-8.84 -9.105 -4.64 13
-8.56 -8.755 -4.61 14
-9.308 -12.181 0.852 3
-9.435 -12.22 0.625 255
-9.446 -12.114 0.425 255
-9.456 -12.006 0.228 255
-9.46 -11.899 0.033 255
-9.461 -11.785 -0.158 255
-9.465 -11.683 -0.35 255
-21.858 -26.736 -5.174 7
-20.515 -24.864 -5.079 14
-18.81 -22.6 -4.782 24
-17.897 -21.304 -4.754 8
-17.487 -20.65 -4.927 16
-16.686 -19.535 -4.893 7
-15.949 -18.522 -4.862 6
-15.281 -17.598 -4.835 6
-14.683 -16.778 -4.824 6
-14.129 -16.015 -4.811 7
-13.628 -15.33 -4.811 7
-13.135 -14.666 -4.798 6
-12.698 -14.067 -4.797 7
-12.289 -13.515 -4.803 8
-11.88 -12.968 -4.792 9
-11.514 -12.478 -4.797 9
-11.173 -12.02 -4.806 8
-10.847 -11.587 -4.816 9
-10.539 -11.176 -4.826 9
-10.247 -10.791 -4.84 10
-9.963 -10.416 -4.849 11
-9.68 -10.05 -4.852 32
-9.159 -9.443 -4.647 8
-8.892 -9.101 -4.637 13
-8.609 -8.75 -4.606 12
-9.318 -12.119 0.863 4
-9.441 -12.151 0.638 255
-9.449 -12.043 0.44 255
-9.459 -11.935 0.245 255
-9.463 -11.828 0.051 255
-9.464 -11.715 -0.139 255
-9.468 -11.612 -0.33 255
-22.026 -26.77 -5.184 6
-20.663 -24.884 -5.085 14
-18.912 -22.577 -4.774 25
-18.042 -21.34 -4.767 7
-17.613 -20.666 -4.933 15
-16.802 -19.544 -4.896 8
-16.052 -18.522 -4.862 6
-15.386 -17.606 -4.839 7
-14.781 -16.781 -4.825 6
-14.22 -16.014 -4.811 8
-13.711 -15.325 -4.808 7
-13.217 -14.662 -4.796 7
-12.778 -14.066 -4.797 7
-12.36 -13.507 -4.798 9
-11.957 -12.969 -4.792 9
-11.584 -12.475 -4.795 9
-11.237 -12.011 -4.8 9
-10.91 -11.581 -4.811 9
-10.6 -11.171 -4.822 9
-10.307 -10.786 -4.837 10
-10.017 -10.407 -4.842 12
-9.736 -10.045 -4.848 32
-9.209 -9.436 -4.641 8
-8.937 -9.091 -4.628 14
-8.657 -8.745 -4.602 14
-9.328 -12.057 0.874 4
-9.446 -12.083 0.651 255
-9.452 -11.972 0.455 255
-9.464 -11.868 0.26 255
-9.468 -11.76 0.068 255
-9.467 -11.645 -0.12 255
-9.468 -11.539 -0.309 255
-9.399 -11.351 -0.47 0
-20.819 -24.912 -5.095 16
-19.023 -22.566 -4.77 26
-18.15 -21.331 -4.764 26
-17.745 -20.687 -4.941 17
-16.92 -19.556 -4.901 8
-16.166 -18.533 -4.867 5
-15.489 -17.609 -4.84 7
-14.867 -16.77 -4.82 6
-14.311 -16.013 -4.81 6
-13.798 -15.323 -4.807 7
-13.302 -14.662 -4.796 7
-12.858 -14.063 -4.795 7
-12.436 -13.503 -4.796 8
-12.027 -12.961 -4.788 9
-11.655 -12.471 -4.793 9
-11.308 -12.011 -4.8 8
-10.977 -11.579 -4.81 9
-10.664 -11.167 -4.819 9
-10.365 -10.779 -4.831 10
-10.076 -10.403 -4.839 11
-9.786 -10.035 -4.84 46
-9.258 -9.428 -4.635 8
-8.982 -9.08 -4.619 16
-8.701 -8.735 -4.593 14
-9.338 -11.996 0.885 4
-9.456 -12.021 0.663 255
-9.457 -11.903 0.47 255
-9.461 -11.79 0.278 255
-9.468 -11.686 0.086 255
-9.474 -11.58 -0.103 255
-9.472 -11.471 -0.289 255
-9.405 -11.288 -0.451 2
-20.975 -24.94 -5.103 5
-19.145 -22.566 -4.77 23
-18.239 -21.298 -4.752 26
-17.877 -20.708 -4.949 17
-17.041 -19.57 -4.907 9
-16.276 -18.54 -4.87 6
-15.59 -17.61 -4.841 6
-14.967 -16.776 -4.823 7
-14.404 -16.014 -4.811 8
-13.89 -15.326 -4.809 7
-13.384 -14.657 -4.793 4
-12.933 -14.055 -4.791 7
-12.512 -13.499 -4.794 6
-12.101 -12.958 -4.786 9
-11.725 -12.467 -4.79 9
-11.372 -12.003 -4.795 9
-11.04 -11.571 -4.805 9
-10.723 -11.158 -4.813 9
-10.423 -10.771 -4.826 10
-10.133 -10.396 -4.834 11
-9.847 -10.034 -4.839 28
-9.314 -9.426 -4.633 8
-9.012 -9.055 -4.598 30
-8.749 -8.73 -4.589 13
-9.349 -11.937 0.895 4
-9.468 -11.962 0.675 31
-9.459 -11.832 0.485 255
-9.471 -11.728 0.292 255
-9.47 -11.615 0.104 255
-9.471 -11.503 -0.082 255
-9.474 -11.401 -0.269 255
-9.474 -11.298 -0.454 58
-21.124 -24.958 -5.109 3
-19.259 -22.557 -4.767 22
-18.337 -21.276 -4.744 23
-18.009 -20.728 -4.957 16
-17.163 -19.584 -4.912 8
-16.398 -18.559 -4.878 6
-15.693 -17.614 -4.842 6
-15.056 -16.767 -4.818 6
-14.493 -16.01 -4.808 8
-13.976 -15.322 -4.807 7
-13.469 -14.656 -4.793 7
-13.021 -14.06 -4.794 7
-12.583 -13.489 -4.788 7
-12.168 -12.947 -4.779 10
-11.796 -12.463 -4.787 9
-11.444 -12.002 -4.794 8
-11.105 -11.567 -4.802 9
-10.785 -11.151 -4.808 9
-10.483 -10.765 -4.821 10
-10.194 -10.394 -4.833 12
-9.909 -10.036 -4.841 15
-9.367 -9.421 -4.629 10
-9.042 -9.029 -4.576 13
-8.791 -8.718 -4.578 13
-9.368 -11.888 0.904 4
-9.482 -11.907 0.685 22
-9.463 -11.765 0.499 255
-9.472 -11.658 0.309 255
-9.472 -11.545 0.122 255
-9.477 -11.439 -0.065 255
-9.478 -11.334 -0.25 255
-9.483 -11.237 -0.436 255
-21.291 -24.996 -5.122 3
-19.379 -22.552 -4.765 20
-18.458 -21.281 -4.746 18
-18.106 -20.707 -4.949 19
-17.275 -19.586 -4.913 9
-16.524 -18.583 -4.888 6
-15.797 -17.617 -4.843 23
-15.159 -16.774 -4.822 6
-14.584 -16.008 -4.808 7
-14.063 -15.319 -4.806 7
-13.548 -14.649 -4.789 6
-13.099 -14.054 -4.79 6
-12.665 -13.491 -4.789 8
-12.248 -12.949 -4.78 9
-11.867 -12.457 -4.784 9
-11.511 -11.996 -4.79 8
-11.166 -11.556 -4.795 9
-10.851 -11.15 -4.807 9
-10.543 -10.76 -4.818 10
-10.248 -10.385 -4.825 10
-9.96 -10.024 -4.831 16
-9.42 -9.417 -4.625 9
-9.063 -8.994 -4.547 5
-8.844 -8.718 -4.578 15
-9.384 -11.836 0.913 4
-9.486 -11.839 0.699 2
-9.467 -11.697 0.514 255
-9.476 -11.59 0.324 255
-9.475 -11.478 0.138 255
-9.476 -11.366 -0.046 255
-9.481 -11.268 -0.231 255
-9.487 -11.171 -0.415 255
-21.463 -25.039 -5.136 3
-19.496 -22.545 -4.763 13
-18.559 -21.262 -4.739 21
-18.163 -20.64 -4.923 19
-17.394 -19.596 -4.917 9
-16.641 -18.595 -4.893 7
-15.898 -17.617 -4.843 28
-15.253 -16.77 -4.82 6
-14.676 -16.005 -4.806 8
-14.15 -15.315 -4.803 7
-13.641 -14.655 -4.792 4
-13.177 -14.049 -4.787 6
-12.736 -13.481 -4.783 9
-12.32 -12.942 -4.777 9
-11.935 -12.45 -4.78 9
-11.58 -11.992 -4.788 8
-11.236 -11.556 -4.795 9
-10.911 -11.141 -4.801 9
-10.606 -10.757 -4.815 10
-10.31 -10.382 -4.824 12
-10.013 -10.015 -4.825 12
-9.469 -9.407 -4.617 9
-9.107 -8.983 -4.538 5
-8.888 -8.708 -4.569 13
-9.412 -11.798 0.92 3
-9.438 -11.707 0.724 2
-9.468 -11.626 0.529 255
-9.475 -11.516 0.341 255
-9.476 -11.407 0.156 255
-9.479 -11.298 -0.027 255
-9.485 -11.2 -0.212 255
-9.487 -11.101 -0.394 255
-21.626 -25.069 -5.146 3
-19.626 -22.552 -4.765 14
-18.65 -21.23 -4.727 21
-18.219 -20.572 -4.897 8
-17.506 -19.596 -4.917 8
-16.758 -18.606 -4.898 7
-15.999 -17.616 -4.843 27
-15.355 -16.774 -4.822 7
-14.773 -16.008 -4.808 8
-14.24 -15.314 -4.803 7
-13.724 -14.65 -4.79 6
-13.258 -14.045 -4.785 5
-12.815 -13.478 -4.781 7
-12.398 -12.941 -4.776 10
-12.008 -12.448 -4.778 9
-11.644 -11.983 -4.782 9
-11.299 -11.548 -4.789 9
-10.975 -11.136 -4.798 9
-10.664 -10.749 -4.809 10
-10.364 -10.372 -4.816 11
-10.071 -10.011 -4.822 13
-9.522 -9.402 -4.613 8
-9.137 -8.958 -4.517 4
-8.937 -8.702 -4.564 15
-9.441 -11.762 0.926 4
-9.399 -11.587 0.748 5
-9.474 -11.562 0.542 255
-9.478 -11.449 0.357 255
-9.477 -11.337 0.173 255
-9.48 -11.229 -0.009 255
-9.488 -11.134 -0.193 255
-9.49 -11.035 -0.374 255
-21.792 -25.103 -5.156 3
-19.751 -22.552 -4.765 18
-18.736 -21.193 -4.714 24
-18.273 -20.501 -4.87 15
-17.624 -19.603 -4.92 8
-16.875 -18.617 -4.902 6
-16.108 -17.623 -4.846 32
-15.459 -16.78 -4.825 7
-14.864 -16.005 -4.806 8
-14.332 -15.315 -4.804 7
-13.804 -14.641 -4.785 7
-13.334 -14.035 -4.78 5
-12.897 -13.478 -4.782 7
-12.467 -12.932 -4.771 9
-12.082 -12.444 -4.776 9
-11.714 -11.979 -4.779 9
-11.365 -11.542 -4.785 8
-11.037 -11.129 -4.793 9
-10.725 -10.742 -4.804 10
-10.424 -10.367 -4.812 11
-10.127 -10.004 -4.816 13
-9.573 -9.394 -4.607 9
-9.191 -8.956 -4.515 6
-8.983 -8.694 -4.558 14
-9.436 -11.685 0.94 7
-9.379 -11.492 0.766 3
-9.471 -11.488 0.558 255
-9.478 -11.378 0.373 255
-9.484 -11.276 0.189 255
-9.482 -11.162 0.009 255
-9.487 -11.064 -0.173 255
-9.495 -10.972 -0.354 255
-21.953 -25.129 -5.165 3
-19.89 -22.567 -4.77 23
-18.803 -21.135 -4.693 26
-18.334 -20.44 -4.846 15
-17.739 -19.605 -4.921 8
-16.979 -18.614 -4.901 6
-16.213 -17.624 -4.847 32
-15.558 -16.78 -4.825 6
-14.956 -16.002 -4.805 8
-14.419 -15.311 -4.801 7
-13.889 -14.638 -4.783 6
-13.423 -14.039 -4.782 7
-12.976 -13.475 -4.78 7
-12.542 -12.928 -4.768 9
-12.153 -12.439 -4.773 9
-11.786 -11.977 -4.778 9
-11.433 -11.539 -4.783 9
-11.101 -11.124 -4.789 9
-10.788 -10.738 -4.801 10
-10.481 -10.359 -4.806 11
-10.183 -9.998 -4.811 13
-9.629 -9.392 -4.605 7
-9.256 -8.964 -4.522 7
-9.032 -8.688 -4.552 16
-9.461 -11.645 0.947 10
-9.371 -11.412 0.782 3
-9.464 -11.408 0.575 255
-9.48 -11.311 0.389 255
-9.482 -11.203 0.207 255
-9.489 -11.101 0.026 255
-9.495 -11.003 -0.155 255
-9.495 -10.901 -0.333 255
-22.112 -25.151 -5.172 3
-20.067 -22.624 -4.79 22
-18.892 -21.1 -4.68 25
-18.399 -20.383 -4.824 14
-17.862 -19.616 -4.925 9
-17.094 -18.62 -4.904 6
-16.317 -17.625 -4.847 33
-15.66 -16.783 -4.826 7
-15.051 -16.001 -4.804 8
-14.501 -15.3 -4.796 7
-13.977 -14.637 -4.783 6
-13.504 -14.034 -4.779 7
-13.05 -13.466 -4.774 9
-12.62 -12.926 -4.767 9
-12.221 -12.43 -4.767 9
-11.853 -11.969 -4.773 8
-11.499 -11.532 -4.779 9
-11.168 -11.121 -4.787 9
-10.848 -10.732 -4.797 10
-10.54 -10.354 -4.802 11
-10.238 -9.991 -4.806 14
-9.68 -9.384 -4.599 9
-9.293 -8.945 -4.506 7
-9.06 -8.663 -4.531 6
-9.466 -11.58 0.958 8
-9.365 -11.335 0.797 3
-9.471 -11.347 0.588 255
-9.482 -11.244 0.404 255
-9.484 -11.136 0.223 255
-9.491 -11.035 0.043 255
-9.497 -10.937 -0.136 255
-9.499 -10.838 -0.314 255
-9.431 -10.659 -0.463 2
-20.239 -22.675 -4.808 22
-19.016 -21.105 -4.681 28
-18.465 -20.326 -4.802 11
-17.987 -19.628 -4.93 14
-17.217 -18.635 -4.91 7
-16.427 -17.631 -4.85 34
-15.754 -16.777 -4.823 6
-15.148 -16.002 -4.805 8
-14.597 -15.303 -4.797 6
-14.068 -14.639 -4.784 6
-13.59 -14.034 -4.779 6
-13.132 -13.465 -4.774 9
-12.69 -12.916 -4.761 9
-12.295 -12.427 -4.765 10
-11.925 -11.967 -4.771 9
-11.562 -11.523 -4.773 9
-11.227 -11.111 -4.78 9
-10.909 -10.724 -4.792 10
-10.597 -10.346 -4.796 14
-10.291 -9.981 -4.798 14
-9.736 -9.381 -4.596 5
-9.21 -8.812 -4.394 3
-9.092 -8.641 -4.512 4
-9.368 -11.391 0.992 8
-9.359 -11.26 0.811 3
-9.475 -11.283 0.602 255
-9.484 -11.177 0.419 255
-9.49 -11.075 0.239 255
-9.495 -10.971 0.06 255
-9.501 -10.873 -0.118 255
-9.5 -10.772 -0.293 255
-9.458 -10.624 -0.452 4
-20.415 -22.727 -4.826 23
-19.055 -21.014 -4.649 29
-18.541 -20.281 -4.785 9
-18.101 -19.627 -4.93 22
-17.323 -18.63 -4.908 6
-16.539 -17.64 -4.854 33
-15.859 -16.782 -4.826 7
-15.251 -16.008 -4.808 8
-14.69 -15.303 -4.797 6
-14.146 -14.627 -4.777 6
-13.669 -14.027 -4.775 7
-13.209 -13.459 -4.771 9
-12.768 -12.913 -4.759 9
-12.363 -12.418 -4.759 9
-11.99 -11.957 -4.765 9
-11.633 -11.522 -4.772 9
-11.292 -11.106 -4.776 9
-10.965 -10.713 -4.783 10
-10.654 -10.337 -4.789 21
-10.355 -9.981 -4.798 17
-9.778 -9.363 -4.582 7
-9.274 -8.82 -4.401 3
-9.143 -8.638 -4.509 4
-9.427 -11.394 0.991 255
-9.368 -11.202 0.823 3
-9.485 -11.225 0.614 255
-9.488 -11.113 0.434 255
-9.492 -11.008 0.255 255
-9.502 -10.91 0.077 255
-9.507 -10.813 -0.101 255
-9.504 -10.71 -0.274 255
-9.5 -10.604 -0.445 255
-19.892 -22.006 -4.577 2
-19.265 -21.113 -4.684 26
-18.648 -20.269 -4.781 9
-18.216 -19.628 -4.93 17
-17.423 -18.619 -4.904 6
-16.65 -17.644 -4.856 33
-15.957 -16.778 -4.824 6
-15.346 -16.005 -4.806 10
-14.777 -15.297 -4.794 7
-14.231 -14.623 -4.775 7
-13.75 -14.021 -4.772 7
-13.291 -13.457 -4.769 7
-12.846 -12.91 -4.757 10
-12.44 -12.416 -4.758 9
-12.06 -11.951 -4.761 9
-11.699 -11.515 -4.767 9
-11.356 -11.1 -4.772 9
-11.031 -10.71 -4.782 10
-10.716 -10.333 -4.787 25
-10.4 -9.964 -4.785 28
-9.424 -8.969 -4.263 1
-9.313 -8.803 -4.386 5
-9.196 -8.636 -4.507 6
-9.426 -11.323 1.003 255
-9.372 -11.138 0.835 4
-9.493 -11.167 0.626 255
-9.489 -11.046 0.45 255
-9.498 -10.947 0.271 255
-9.5 -10.841 0.095 255
-9.505 -10.743 -0.081 255
-9.51 -10.649 -0.256 255
-9.508 -10.547 -0.427 255
-20.746 -22.807 -4.853 23
-19.39 -21.115 -4.685 25
-18.794 -20.299 -4.792 9
-18.351 -19.648 -4.938 10
-17.541 -18.627 -4.907 6
-16.768 -17.657 -4.861 33
-16.065 -16.784 -4.826 6
-15.441 -16.003 -4.805 8
-14.863 -15.288 -4.79 7
-14.322 -14.623 -4.775 7
-13.834 -14.018 -4.77 6
-13.366 -13.448 -4.764 9
-12.919 -12.902 -4.753 10
-12.511 -12.409 -4.754 10
-12.132 -11.948 -4.759 8
-11.765 -11.508 -4.762 9
-11.421 -11.094 -4.768 9
-11.089 -10.7 -4.774 22
-10.773 -10.324 -4.78 34
-10.469 -9.969 -4.788 20
-9.311 -8.808 -4.133 3
-9.325 -8.761 -4.351 6
-9.24 -8.625 -4.498 7
-9.432 -11.263 1.014 255
-9.38 -11.079 0.846 4
-9.51 -11.119 0.637 143
-9.495 -10.986 0.464 255
-9.501 -10.884 0.286 255
-9.506 -10.78 0.112 255
-9.511 -10.684 -0.063 255
-9.51 -10.583 -0.236 255
-9.509 -10.481 -0.406 255
-20.902 -22.835 -4.863 25
-19.536 -21.141 -4.695 25
-18.941 -20.329 -4.804 17
-18.467 -19.647 -4.938 9
-17.649 -18.623 -4.905 6
-16.884 -17.667 -4.866 33
-16.181 -16.798 -4.833 6
-15.542 -16.006 -4.806 8
-14.95 -15.281 -4.786 7
-14.403 -14.614 -4.77 6
-13.921 -14.017 -4.77 7
-13.448 -13.446 -4.763 7
-12.997 -12.899 -4.75 10
-12.58 -12.4 -4.748 10
-12.2 -11.939 -4.754 9
-11.836 -11.506 -4.761 9
-11.491 -11.093 -4.767 9
-11.15 -10.693 -4.769 11
-10.832 -10.318 -4.775 36
-10.52 -9.955 -4.778 16
-9.314 -8.758 -4.092 4
-9.348 -8.73 -4.326 6
-9.291 -8.62 -4.494 7
-9.427 -11.19 1.027 255
-9.395 -11.032 0.856 7
-9.554 -11.102 0.64 19
-9.493 -10.916 0.48 255
-9.504 -10.82 0.302 255
-9.509 -10.717 0.128 255
-9.514 -10.62 -0.045 255
-9.513 -10.52 -0.216 255
-9.514 -10.421 -0.386 255
-20.46 -22.211 -4.648 3
-19.685 -21.169 -4.705 24
-19.054 -20.321 -4.801 24
-18.594 -19.658 -4.942 9
-17.771 -18.634 -4.91 6
-16.995 -17.671 -4.868 33
-16.297 -16.812 -4.84 7
-15.629 -15.994 -4.801 8
-15.041 -15.277 -4.784 7
-14.494 -14.613 -4.77 7
-14.005 -14.013 -4.768 7
-13.526 -13.437 -4.758 7
-13.073 -12.893 -4.747 9
-12.657 -12.397 -4.746 32
-12.275 -11.938 -4.753 8
-11.902 -11.498 -4.755 8
-11.553 -11.084 -4.761 9
-11.21 -10.686 -4.764 10
-10.895 -10.314 -4.772 36
-9.319 -8.766 -3.848 2
-9.325 -8.714 -4.057 5
-9.379 -8.707 -4.306 6
-9.325 -8.6 -4.476 6
-9.43 -11.126 1.038 255
-9.408 -10.98 0.866 6
-9.562 -11.044 0.653 5
-9.506 -10.864 0.492 255
-9.507 -10.757 0.318 255
-9.511 -10.653 0.146 255
-9.516 -10.557 -0.027 255
-9.516 -10.458 -0.197 255
-9.519 -10.362 -0.367 255
-20.47 -22.083 -4.604 4
-19.829 -21.189 -4.712 25
-19.174 -20.321 -4.801 27
-18.719 -19.664 -4.945 9
-17.89 -18.64 -4.912 7
-17.106 -17.674 -4.869 29
-16.408 -16.82 -4.843 6
-15.73 -15.996 -4.802 7
-15.135 -15.275 -4.783 7
-14.583 -14.61 -4.768 7
-14.084 -14.004 -4.762 6
-13.606 -13.433 -4.755 7
-13.148 -12.886 -4.743 9
-12.728 -12.389 -4.742 30
-12.342 -11.929 -4.747 9
-11.971 -11.493 -4.752 9
-11.615 -11.075 -4.755 9
-11.271 -10.678 -4.758 10
-10.952 -10.305 -4.765 34
-9.317 -8.71 -3.805 3
-9.348 -8.683 -4.032 5
-9.423 -8.695 -4.296 5
-9.389 -8.607 -4.482 4
-9.432 -11.062 1.049 255
-9.429 -10.938 0.874 7
-9.485 -10.888 0.686 5
-9.506 -10.798 0.507 255
-9.509 -10.693 0.334 255
-9.514 -10.59 0.162 255
-9.516 -10.492 -0.008 255
-9.515 -10.392 -0.177 255
-9.518 -10.297 -0.346 255
-19.897 -21.33 -4.345 229
-19.979 -21.216 -4.722 25
-19.296 -20.321 -4.801 27
-18.843 -19.671 -4.948 10
-18.009 -18.646 -4.915 6
-17.209 -17.668 -4.866 17
-16.514 -16.822 -4.844 6
-15.831 -15.997 -4.802 8
-15.226 -15.27 -4.78 8
-14.672 -14.606 -4.766 6
-14.174 -14.004 -4.763 7
-13.688 -13.429 -4.753 7
-13.224 -12.879 -4.739 9
-12.8 -12.381 -4.737 10
-12.415 -11.925 -4.744 9
-12.039 -11.487 -4.748 10
-11.682 -11.071 -4.752 9
-11.332 -10.669 -4.752 10
-9.344 -8.738 -3.584 1
-9.327 -8.667 -3.771 5
-9.373 -8.655 -4.008 5
-9.467 -8.682 -4.285 6
-9.442 -8.605 -4.481 7
-9.435 -10.999 1.061 255
-9.462 -10.91 0.879 7
-9.442 -10.774 0.71 2
-9.505 -10.731 0.522 255
-9.511 -10.63 0.35 255
-9.518 -10.53 0.178 255
-9.518 -10.428 0.01 255
-9.517 -10.33 -0.158 255
-9.52 -10.235 -0.325 255
-19.903 -21.204 -4.301 235
-20.127 -21.238 -4.73 24
-19.417 -20.321 -4.8 28
-18.974 -19.683 -4.952 11
-18.126 -18.649 -4.916 6
-17.309 -17.66 -4.863 16
-16.615 -16.818 -4.843 6
-15.937 -16.003 -4.805 8
-15.325 -15.273 -4.782 7
-14.761 -14.603 -4.764 7
-14.259 -13.999 -4.76 7
-13.771 -13.426 -4.751 8
-13.305 -12.877 -4.738 9
-12.879 -12.381 -4.736 9
-12.483 -11.915 -4.738 8
-12.108 -11.482 -4.744 17
-11.75 -11.066 -4.748 9
-11.401 -10.668 -4.751 10
-9.327 -8.669 -3.533 3
-9.339 -8.625 -3.739 5
-9.407 -8.632 -3.99 5
-9.49 -8.652 -4.26 5
-9.478 -8.587 -4.464 10
-9.437 -10.936 1.072 255
-9.492 -10.879 0.885 10
-9.418 -10.681 0.73 3
-9.512 -10.674 0.536 255
-9.51 -10.564 0.366 255
-9.517 -10.464 0.196 255
-9.522 -10.369 0.027 255
-9.524 -10.273 -0.141 255
-9.524 -10.175 -0.306 255
-19.949 -21.119 -4.272 12
-20.213 -21.197 -4.715 31
-19.541 -20.322 -4.801 29
-19.096 -19.686 -4.954 11
-18.251 -18.659 -4.92 7
-17.405 -17.645 -4.856 20
-16.727 -16.825 -4.845 6
-16.033 -15.998 -4.803 8
-15.416 -15.266 -4.779 6
-14.848 -14.596 -4.761 6
-14.349 -13.999 -4.76 6
-13.852 -13.419 -4.748 7
-13.379 -12.868 -4.732 9
-12.956 -12.377 -4.734 9
-12.556 -11.91 -4.735 8
-12.172 -11.47 -4.737 38
-11.815 -11.059 -4.743 9
-9.519 -8.853 -3.432 255
-9.329 -8.618 -3.494 5
-9.366 -8.598 -3.718 5
-9.45 -8.62 -3.98 4
-9.635 -8.731 -4.326 6
-9.54 -8.591 -4.468 5
-9.441 -10.875 1.082 255
0.0 -0.0 3.0 0
-9.401 -10.597 0.748 3
-9.508 -10.605 0.552 255
-9.517 -10.507 0.38 255
-9.521 -10.404 0.212 255
-9.52 -10.303 0.046 255
-9.519 -10.205 -0.12 255
-9.525 -10.113 -0.286 255
-21.141 -22.243 -4.659 3
-20.313 -21.167 -4.704 26
-19.668 -20.325 -4.802 29
-19.224 -19.693 -4.957 14
-18.373 -18.666 -4.923 7
-17.516 -17.646 -4.857 17
-16.839 -16.83 -4.848 6
-16.14 -16.003 -4.805 7
-15.512 -15.266 -4.778 7
-14.929 -14.584 -4.754 7
-14.431 -13.991 -4.755 7
-13.932 -13.413 -4.744 7
-13.457 -12.862 -4.728 9
-13.026 -12.365 -4.727 9
-12.629 -11.905 -4.731 10
-12.241 -11.464 -4.733 34
-11.877 -11.049 -4.736 9
-9.41 -8.698 -3.319 6
-9.34 -8.576 -3.463 5
-9.394 -8.571 -3.696 5
-9.512 -8.624 -3.984 2
-9.676 -8.716 -4.314 5
-9.594 -8.588 -4.466 5
-9.439 -10.809 1.094 255
0.0 -0.0 3.0 0
-9.396 -10.528 0.762 3
-9.512 -10.545 0.566 255
-9.512 -10.438 0.397 255
-9.522 -10.341 0.229 255
-9.521 -10.24 0.064 255
-9.528 -10.15 -0.103 255
-9.553 -10.079 -0.275 53
-21.871 -22.868 -4.874 12
-20.531 -21.261 -4.738 29
-19.795 -20.329 -4.803 29
-19.361 -19.709 -4.963 15
-18.499 -18.676 -4.927 7
-17.642 -17.661 -4.863 13
-16.945 -16.831 -4.848 6
-16.255 -16.016 -4.812 7
-15.604 -15.259 -4.775 6
-15.018 -14.579 -4.752 6
-14.516 -13.985 -4.752 6
-14.015 -13.408 -4.741 7
-13.541 -12.862 -4.728 10
-13.1 -12.359 -4.723 9
-12.694 -11.893 -4.723 9
-12.31 -11.458 -4.728 9
-11.945 -11.044 -4.733 9
-9.327 -8.568 -3.225 12
-9.362 -8.544 -3.439 6
-9.434 -8.557 -3.685 5
-10.276 -9.262 -4.5 16
-9.967 -8.925 -4.489 25
-9.648 -8.585 -4.463 4
-9.44 -10.745 1.105 255
-9.404 -10.585 0.942 3
-9.397 -10.465 0.776 4
-9.513 -10.481 0.58 255
-9.518 -10.381 0.412 255
-9.523 -10.278 0.246 255
-9.525 -10.181 0.081 255
-9.529 -10.089 -0.085 255
-9.604 -10.071 -0.272 5
-22.13 -22.993 -4.917 14
-20.79 -21.395 -4.787 27
-19.925 -20.335 -4.806 29
-19.487 -19.713 -4.964 15
-18.616 -18.677 -4.928 7
-17.762 -17.669 -4.867 9
-17.058 -16.836 -4.851 6
-16.36 -16.017 -4.812 7
-15.703 -15.26 -4.775 6
-15.105 -14.571 -4.748 7
-14.603 -13.981 -4.75 6
-14.098 -13.404 -4.739 9
-13.618 -12.853 -4.723 9
-13.175 -12.353 -4.719 12
-12.77 -11.89 -4.721 10
-12.384 -11.456 -4.727 10
-9.348 -8.589 -3.014 2
-9.34 -8.528 -3.196 6
-9.389 -8.516 -3.417 5
-9.483 -8.548 -3.678 3
-10.264 -9.195 -4.446 23
-9.999 -8.899 -4.467 15
-9.697 -8.577 -4.456 8
-9.444 -10.685 1.116 255
-9.434 -10.554 0.948 16
-9.403 -10.408 0.788 4
-9.516 -10.421 0.594 255
-9.513 -10.313 0.429 255
-9.526 -10.219 0.262 255
-9.527 -10.121 0.098 255
-9.559 -10.058 -0.075 43
-24.654 -25.691 -5.348 2
-22.256 -22.981 -4.913 12
-20.885 -21.359 -4.774 28
-20.055 -20.339 -4.807 29
-19.627 -19.73 -4.971 16
-18.74 -18.682 -4.93 6
-17.885 -17.68 -4.872 7
-17.16 -16.83 -4.848 7
-16.47 -16.025 -4.816 8
-15.806 -15.263 -4.777 6
-15.195 -14.566 -4.745 6
-14.691 -13.978 -4.748 7
-14.179 -13.396 -4.734 7
-13.697 -12.848 -4.72 9
-13.255 -12.35 -4.717 23
-12.846 -11.887 -4.719 8
-12.451 -11.446 -4.721 8
-9.335 -8.525 -2.969 4
-9.359 -8.493 -3.171 6
-9.429 -8.501 -3.406 5
-9.597 -8.599 -3.718 0
-10.431 -9.289 -4.522 14
-10.03 -8.875 -4.447 11
-9.738 -8.563 -4.444 10
-9.441 -10.619 1.128 255
-9.455 -10.515 0.956 255
-9.405 -10.348 0.8 4
-9.53 -10.373 0.605 255
-9.522 -10.258 0.442 255
-9.528 -10.159 0.278 255
-9.527 -10.059 0.115 255
-9.596 -10.035 -0.068 4
-24.83 -25.713 -5.355 3
-22.009 -22.584 -4.776 8
-21.092 -21.436 -4.802 24
-20.178 -20.336 -4.806 30
-19.75 -19.729 -4.971 16
-18.861 -18.684 -4.931 7
-18.006 -17.688 -4.875 6
-17.267 -16.828 -4.847 6
-16.57 -16.02 -4.814 7
-15.911 -15.269 -4.78 7
-15.295 -14.57 -4.747 6
-14.774 -13.968 -4.743 8
-14.265 -13.394 -4.733 7
-13.773 -12.839 -4.715 9
-13.327 -12.34 -4.711 30
-12.914 -11.875 -4.712 8
-9.364 -8.556 -2.771 1
-9.342 -8.479 -2.937 5
-9.385 -8.465 -3.15 6
-9.475 -8.49 -3.398 4
-10.253 -9.131 -4.134 17
-10.361 -9.171 -4.427 11
-10.083 -8.868 -4.441 11
-9.797 -8.564 -4.445 15
-9.444 -10.559 1.138 255
-9.46 -10.458 0.967 255
-9.418 -10.301 0.81 4
-9.548 -10.331 0.615 22
-9.519 -10.193 0.459 255
-9.528 -10.097 0.294 255
-9.56 -10.031 0.124 46
-20.032 -20.819 -3.365 3
-25.016 -25.746 -5.365 3
-22.633 -23.08 -4.947 12
-21.231 -21.442 -4.804 26
-20.303 -20.334 -4.805 30
-19.888 -19.742 -4.976 17
-18.984 -18.689 -4.933 7
-18.124 -17.692 -4.877 6
-17.363 -16.817 -4.842 6
-16.675 -16.02 -4.814 7
-16.006 -15.263 -4.777 7
-15.388 -14.566 -4.745 6
-14.856 -13.959 -4.737 7
-14.346 -13.386 -4.728 7
-9.332 -8.644 -2.194 6
-13.402 -12.332 -4.706 34
-12.984 -11.867 -4.707 8
-9.342 -8.484 -2.722 3
-9.358 -8.442 -2.911 5
-9.417 -8.442 -3.133 6
-9.539 -8.496 -3.402 2
-10.266 -9.088 -4.1 17
-10.534 -9.268 -4.505 24
-10.238 -8.952 -4.511 20
-9.854 -8.563 -4.444 42
-9.441 -10.494 1.15 255
-9.46 -10.395 0.979 255
-9.428 -10.25 0.821 4
-9.543 -10.262 0.631 11
-9.526 -10.139 0.472 255
-9.53 -10.037 0.31 255
-9.6 -10.011 0.129 4
-26.983 -27.869 -5.521 5
-25.212 -25.786 -5.378 2
-22.818 -23.124 -4.962 15
-21.275 -21.352 -4.772 25
-20.423 -20.327 -4.803 30
-20.02 -19.749 -4.979 15
-19.108 -18.693 -4.935 7
-18.231 -17.685 -4.874 5
-17.468 -16.812 -4.84 6
-16.783 -16.023 -4.815 8
-16.125 -15.281 -4.786 7
-15.478 -14.56 -4.742 7
-14.942 -13.951 -4.733 6
-14.432 -13.382 -4.726 7
-9.368 -8.625 -2.182 29
-13.479 -12.327 -4.703 34
-9.383 -8.523 -2.535 0
-9.344 -8.433 -2.688 5
-9.379 -8.409 -2.888 5
-9.459 -8.428 -3.124 5
-10.235 -9.061 -3.828 3
-10.266 -9.033 -4.057 18
-10.449 -9.139 -4.401 12
-10.283 -8.938 -4.5 24
-9.895 -8.549 -4.431 37
-9.441 -10.43 1.161 255
-9.451 -10.325 0.993 255
-9.441 -10.202 0.832 4
-9.558 -10.217 0.641 1
-9.531 -10.083 0.486 255
-9.559 -10.006 0.319 75
-20.036 -20.767 -2.955 12
-27.198 -27.918 -5.535 5
-25.4 -25.818 -5.389 3
-22.784 -22.947 -4.901 10
-21.376 -21.32 -4.76 24
-20.557 -20.332 -4.805 29
-20.15 -19.753 -4.981 12
-19.232 -18.697 -4.936 6
-18.358 -17.696 -4.879 6
-17.579 -16.812 -4.84 6
-16.885 -16.019 -4.813 8
-16.242 -15.295 -4.793 7
-15.573 -14.558 -4.741 7
-15.03 -13.945 -4.73 7
-14.522 -13.381 -4.725 7
-9.4 -8.599 -2.167 255
-13.549 -12.314 -4.694 33
-9.358 -8.447 -2.485 2
-9.359 -8.394 -2.662 5
-9.41 -8.385 -2.871 5
-9.518 -8.429 -3.124 3
-10.253 -9.022 -3.798 6
-10.292 -9.002 -4.033 18
-10.399 -9.041 -4.321 21
-10.331 -8.925 -4.489 27
-9.939 -8.536 -4.42 36
-9.44 -10.368 1.172 255
-9.453 -10.265 1.005 255
-9.458 -10.159 0.841 4
-9.495 -10.088 0.671 2
-9.53 -10.019 0.502 255
-9.596 -9.984 0.325 5
-29.443 -30.329 -5.697 2
-27.422 -27.975 -5.553 5
-25.596 -25.856 -5.401 2
-23.17 -23.19 -4.985 14
-21.534 -21.345 -4.769 24
-20.691 -20.336 -4.806 29
-20.286 -19.762 -4.984 16
-19.362 -18.705 -4.94 6
-18.477 -17.699 -4.88 5
-17.692 -16.815 -4.841 6
-16.991 -16.018 -4.813 8
-16.354 -15.303 -4.797 7
-15.655 -14.543 -4.733 31
-15.118 -13.94 -4.727 7
-9.328 -8.542 -1.932 1
-9.384 -8.532 -2.127 255
-13.627 -12.308 -4.691 21
-9.35 -8.389 -2.448 4
-9.376 -8.358 -2.638 6
-9.446 -8.366 -2.858 5
-12.059 -10.614 -4.712 8
-10.298 -9.006 -3.787 7
-10.162 -8.835 -3.903 13
-10.225 -8.837 -4.156 27
-10.371 -8.906 -4.473 18
-9.977 -8.518 -4.405 20
-9.438 -10.305 1.183 255
-9.454 -10.204 1.016 255
-9.487 -10.129 0.847 3
-9.45 -9.98 0.696 3
-9.558 -9.989 0.509 43
-20.034 -20.715 -2.551 31
-28.576 -29.256 -5.389 19
-27.63 -28.013 -5.564 5
-25.809 -25.91 -5.419 3
-23.34 -23.215 -4.994 15
-21.453 -21.132 -4.691 29
-20.837 -20.352 -4.812 28
-20.427 -19.775 -4.99 16
-19.49 -18.71 -4.942 7
-18.598 -17.704 -4.882 8
-17.8 -16.811 -4.839 6
-17.091 -16.012 -4.81 8
-16.463 -15.309 -4.8 7
-15.748 -14.538 -4.73 31
-15.207 -13.934 -4.724 7
-9.37 -8.527 -1.923 10
-9.382 -8.478 -2.094 255
-9.32 -8.367 -2.228 4
-9.365 -8.349 -2.422 5
-9.401 -8.33 -2.618 6
-9.491 -8.355 -2.85 4
-12.118 -10.602 -4.703 11
-10.326 -8.977 -3.765 24
-10.322 -8.92 -3.969 27
-10.261 -8.815 -4.139 26
-10.402 -8.881 -4.452 20
-9.996 -8.485 -4.376 19
-9.44 -10.246 1.193 255
-9.455 -10.146 1.028 255
-9.529 -10.113 0.85 2
-9.429 -9.898 0.715 3
-9.603 -9.975 0.513 3
-20.11 -20.668 -2.538 0
-28.571 -29.071 -5.336 22
-27.861 -28.073 -5.583 5
-26.009 -25.95 -5.432 3
-23.532 -23.261 -5.01 14
-21.498 -21.044 -4.66 25
-20.966 -20.35 -4.811 26
-20.563 -19.782 -4.992 15
-19.614 -18.712 -4.943 6
-18.704 -17.692 -4.877 33
-17.922 -16.82 -4.843 6
-17.18 -15.995 -4.801 8
-16.564 -15.307 -4.799 7
-15.844 -14.535 -4.728 31
-15.295 -13.928 -4.72 7
-9.395 -8.496 -1.905 255
-9.357 -8.403 -2.049 255
-9.29 -8.288 -2.179 11
-9.382 -8.313 -2.399 5
-9.438 -8.31 -2.605 5
-9.569 -8.371 -2.862 1
-12.179 -10.59 -4.694 26
-10.385 -8.973 -3.762 29
-10.21 -8.771 -3.853 24
-10.346 -8.836 -4.155 36
-10.452 -8.871 -4.444 40
-10.008 -8.445 -4.341 17
-9.441 -10.187 1.204 255
-9.453 -10.083 1.04 255
-9.415 -9.933 0.889 2
-9.403 -9.81 0.735 5
-28.876 -29.811 -4.433 5
-28.637 -29.253 -4.838 43
-28.605 -28.928 -5.295 40
-28.086 -28.127 -5.599 4
-26.202 -25.98 -5.442 3
-23.697 -23.279 -5.016 14
-21.91 -21.314 -4.758 28
-21.12 -20.372 -4.82 25
-20.7 -19.789 -4.995 16
-19.742 -18.716 -4.944 6
-18.817 -17.689 -4.876 37
-18.036 -16.821 -4.844 7
-17.275 -15.983 -4.795 8
-16.66 -15.299 -4.795 7
-15.94 -14.531 -4.726 28
-15.381 -13.919 -4.715 7
-9.384 -8.434 -1.869 255
-9.346 -8.341 -2.012 255
-9.296 -8.242 -2.15 255
-9.401 -8.279 -2.377 5
-9.485 -8.301 -2.599 4
-12.623 -10.976 -4.685 10
-12.243 -10.582 -4.688 33
-10.429 -8.958 -3.75 25
-10.401 -8.881 -3.939 24
-10.361 -8.796 -4.123 27
-10.497 -8.857 -4.432 42
-10.062 -8.441 -4.338 16
-9.441 -10.127 1.214 255
-9.454 -10.024 1.051 255
-9.421 -9.879 0.9 13
-9.419 -9.769 0.745 5
-28.892 -29.648 -4.392 2
-28.657 -29.096 -4.796 44
-28.689 -28.835 -5.268 20
-28.316 -28.181 -5.616 4
-26.42 -26.035 -5.459 4
-23.863 -23.296 -5.021 11
-22.061 -21.328 -4.763 32
-21.272 -20.39 -4.827 24
-20.842 -19.8 -5.0 16
-19.881 -18.73 -4.95 6
-18.948 -17.7 -4.88 29
-18.15 -16.821 -4.844 6
-17.373 -15.973 -4.79 8
-16.753 -15.287 -4.789 6
-16.042 -14.533 -4.728 31
-15.475 -13.916 -4.714 7
-9.367 -8.366 -1.83 255
-9.329 -8.274 -1.971 255
-9.284 -8.18 -2.112 255
-9.434 -8.257 -2.362 5
-9.543 -8.301 -2.599 2
-12.694 -10.97 -4.681 19
-12.31 -10.575 -4.683 39
-10.496 -8.961 -3.752 21
-10.377 -8.808 -3.882 29
-10.424 -8.797 -4.124 22
-10.523 -8.826 -4.406 37
-10.116 -8.436 -4.334 15
-9.442 -10.068 1.225 255
-9.457 -9.967 1.063 255
-9.473 -9.875 0.901 255
-9.422 -9.712 0.758 4
-28.874 -29.45 -4.343 28
-28.686 -28.947 -4.756 41
-28.731 -28.701 -5.23 50
-28.548 -28.238 -5.633 5
-26.618 -26.069 -5.47 3
-24.054 -23.337 -5.035 11
-22.18 -21.309 -4.756 29
-21.435 -20.419 -4.838 23
-20.987 -19.814 -5.005 16
-20.01 -18.733 -4.952 6
-19.062 -17.695 -4.878 25
-18.256 -16.814 -4.84 7
-17.482 -15.972 -4.79 7
-16.851 -15.281 -4.786 7
-16.149 -14.539 -4.73 30
-15.567 -13.912 -4.711 7
-9.353 -8.301 -1.793 255
-9.315 -8.209 -1.933 255
-9.269 -8.117 -2.072 255
-9.476 -8.243 -2.353 4
-13.151 -11.369 -4.668 34
-12.751 -10.953 -4.669 33
-12.377 -10.569 -4.678 40
-10.56 -8.961 -3.752 13
-10.463 -8.827 -3.897 32
-10.49 -8.8 -4.126 30
-10.581 -8.823 -4.403 43
-10.175 -8.437 -4.334 16
-9.442 -10.009 1.235 255
-9.457 -9.908 1.074 255
-9.473 -9.816 0.914 255
-9.43 -9.662 0.769 5
-28.922 -29.32 -4.31 9
-28.741 -28.825 -4.724 2
-28.772 -28.566 -5.191 51
-28.784 -28.296 -5.651 4
-26.832 -26.116 -5.485 3
-24.225 -23.358 -5.043 9
-22.531 -21.511 -4.829 30
-21.565 -20.415 -4.836 23
-21.124 -19.819 -5.007 16
-20.141 -18.738 -4.954 6
-19.185 -17.697 -4.879 22
-18.376 -16.818 -4.843 6
-17.588 -15.968 -4.788 6
-16.947 -15.272 -4.782 7
-16.246 -14.535 -4.728 30
-15.662 -13.909 -4.71 7
-9.332 -8.231 -1.752 255
-9.294 -8.141 -1.891 255
-9.285 -8.08 -2.049 77
-9.531 -8.239 -2.351 3
-13.218 -11.357 -4.66 39
-12.819 -10.944 -4.663 14
-12.445 -10.561 -4.673 41
-10.638 -8.973 -3.762 11
-10.491 -8.798 -3.874 27
-10.827 -9.029 -4.311 27
-10.629 -8.81 -4.393 39
-10.23 -8.432 -4.33 16
-9.441 -9.95 1.246 255
-9.459 -9.853 1.085 255
-9.475 -9.759 0.926 255
-9.432 -9.606 0.782 5
-29.163 -29.386 -4.327 6
-29.898 -29.803 -4.986 3
-28.824 -28.443 -5.156 53
-29.021 -28.353 -5.668 5
-27.051 -26.166 -5.502 3
-24.415 -23.394 -5.055 8
-22.827 -21.659 -4.883 27
-21.718 -20.431 -4.843 23
-21.267 -19.828 -5.011 16
-20.269 -18.739 -4.954 6
-19.302 -17.694 -4.878 15
-18.491 -16.817 -4.842 6
-17.698 -15.967 -4.788 7
-17.043 -15.263 -4.777 6
-16.345 -14.532 -4.727 34
-9.387 -8.285 -1.592 0
-9.336 -8.184 -1.725 255
-9.312 -8.106 -1.87 81
-9.379 -8.112 -2.069 9
-9.603 -8.251 -2.358 0
-13.293 -11.351 -4.657 37
-12.896 -10.943 -4.662 10
-12.512 -10.555 -4.668 43
-10.663 -8.94 -3.737 23
-10.546 -8.792 -3.869 28
-10.754 -8.915 -4.219 30
-10.67 -8.793 -4.378 21
-10.278 -8.423 -4.322 13
-9.446 -9.897 1.255 255
-9.459 -9.793 1.096 255
-9.475 -9.7 0.938 255
-9.445 -9.562 0.792 5
-29.179 -29.225 -4.287 9
0.0 -0.0 3.0 0
-28.879 -28.322 -5.121 58
-27.127 -26.341 -5.053 3
-27.252 -26.198 -5.512 3
-24.581 -23.408 -5.06 6
-22.964 -21.653 -4.881 28
-21.865 -20.441 -4.847 22
-21.408 -19.834 -5.013 17
-20.41 -18.751 -4.96 6
-19.436 -17.705 -4.883 8
-18.617 -16.826 -4.846 6
-17.807 -15.966 -4.787 8
-17.128 -15.242 -4.766 6
-16.445 -14.529 -4.725 32
-9.377 -8.225 -1.559 3
-9.377 -8.169 -1.716 6
-9.401 -8.132 -1.886 7
-9.498 -8.164 -2.102 4
-13.804 -11.788 -4.655 32
-13.369 -11.346 -4.653 35
-12.959 -10.93 -4.653 10
-12.576 -10.544 -4.661 41
-10.749 -8.958 -3.751 17
-10.601 -8.785 -3.863 21
-10.786 -8.888 -4.197 30
-10.745 -8.802 -4.386 36
-10.33 -8.415 -4.315 13
-9.462 -9.854 1.262 111
-9.458 -9.734 1.108 255
-9.477 -9.645 0.95 255
-9.455 -9.515 0.803 5
-29.712 -29.578 -4.375 6
0.0 -0.0 3.0 0
-29.002 -28.269 -5.106 46
-27.232 -26.28 -5.035 7
-27.484 -26.257 -5.531 3
-24.794 -23.464 -5.079 5
-23.056 -21.604 -4.863 33
-21.988 -20.428 -4.842 24
-21.546 -19.837 -5.015 18
-20.542 -18.754 -4.961 6
-19.565 -17.712 -4.886 6
-18.729 -16.821 -4.844 7
-17.917 -15.963 -4.786 7
-17.213 -15.222 -4.756 6
-16.542 -14.524 -4.723 20
-9.373 -8.169 -1.528 5
-9.395 -8.133 -1.696 6
-9.453 -8.127 -1.883 5
-9.573 -8.178 -2.11 1
-13.878 -11.778 -4.649 20
-13.439 -11.336 -4.646 36
-13.033 -10.925 -4.65 10
-12.641 -10.535 -4.654 41
-10.839 -8.978 -3.766 24
-10.869 -8.954 -3.995 3
-10.885 -8.917 -4.221 18
-10.804 -8.798 -4.383 29
-10.387 -8.412 -4.313 14
-9.5 -9.836 1.266 12
-9.46 -9.679 1.119 255
-9.487 -9.597 0.96 255
-9.476 -9.478 0.812 4
-9.511 -9.411 0.654 0
-28.954 -28.34 -4.594 56
-29.174 -28.263 -5.104 41
0.0 -0.0 3.0 0
-27.688 -26.289 -5.542 4
-25.004 -23.517 -5.097 5
-23.252 -21.654 -4.881 31
-22.153 -20.453 -4.851 23
-21.698 -19.852 -5.021 18
-20.674 -18.757 -4.962 6
-19.706 -17.727 -4.893 5
-18.847 -16.821 -4.844 7
-18.032 -15.966 -4.787 8
-17.315 -15.217 -4.753 6
-9.386 -8.19 -1.355 2
-9.379 -8.124 -1.503 6
-9.419 -8.103 -1.678 5
-9.502 -8.119 -1.878 5
-14.423 -12.245 -4.651 14
-13.961 -11.775 -4.647 11
-13.514 -11.33 -4.642 30
-13.099 -10.914 -4.642 12
-12.708 -10.527 -4.648 41
-10.861 -8.943 -3.739 30
0.0 -0.0 3.0 0
-11.231 -9.146 -4.406 20
-10.837 -8.774 -4.362 28
-10.433 -8.401 -4.302 13
-9.51 -9.788 1.274 3
-9.467 -9.629 1.128 255
-9.477 -9.53 0.974 255
-9.494 -9.439 0.821 4
-9.473 -9.316 0.677 2
-29.085 -28.295 -4.582 35
-29.352 -28.261 -5.104 39
-26.95 -25.689 -4.854 1
-27.855 -26.285 -5.541 3
-24.336 -22.747 -4.832 3
-23.387 -21.643 -4.878 33
-22.292 -20.454 -4.851 24
-21.834 -19.852 -5.021 17
-20.809 -18.761 -4.964 6
-19.847 -17.742 -4.899 5
-18.966 -16.821 -4.844 7
-18.145 -15.965 -4.787 8
-17.414 -15.208 -4.749 5
-9.375 -8.129 -1.322 4
-9.397 -8.088 -1.483 6
-9.456 -8.084 -1.668 5
-9.56 -8.117 -1.877 2
-14.496 -12.23 -4.642 9
-14.032 -11.763 -4.639 9
-13.587 -11.321 -4.636 29
-13.173 -10.909 -4.639 25
-12.778 -10.521 -4.644 38
-11.04 -9.036 -3.809 19
-10.94 -8.905 -3.957 6
-11.311 -9.156 -4.414 26
-10.901 -8.774 -4.362 29
-10.482 -8.391 -4.295 13
-9.514 -9.736 1.283 0
-9.47 -9.576 1.139 255
-9.478 -9.475 0.986 255
-9.517 -9.406 0.828 3
-9.454 -9.242 0.696 3
0.0 -0.0 3.0 0
-29.501 -28.232 -5.095 2
-26.982 -25.562 -4.815 2
-28.1 -26.352 -5.562 3
-25.369 -23.566 -5.114 6
-23.51 -21.622 -4.87 29
-22.432 -20.453 -4.851 26
-21.966 -19.848 -5.019 13
-20.945 -18.766 -4.966 6
-19.968 -17.738 -4.898 5
-19.087 -16.822 -4.844 7
-18.253 -15.959 -4.784 8
-9.401 -8.159 -1.157 1
-9.384 -8.086 -1.299 5
-9.423 -8.06 -1.468 6
-9.491 -8.064 -1.656 5
-15.096 -12.739 -4.654 7
-14.577 -12.224 -4.638 9
-14.11 -11.755 -4.634 8
-13.66 -11.313 -4.63 25
-13.236 -10.894 -4.628 33
-12.843 -10.51 -4.636 19
-11.054 -8.993 -3.777 22
-10.923 -8.838 -3.905 11
-11.293 -9.087 -4.359 22
-10.948 -8.761 -4.351 38
-10.539 -8.388 -4.292 15
0.0 -0.0 3.0 0
-9.474 -9.523 1.149 255
-9.479 -9.419 0.998 255
-9.549 -9.38 0.834 2
-9.449 -9.181 0.711 5
-29.487 -28.338 -4.593 3
-27.302 -25.968 -4.446 1
-27.01 -25.431 -4.775 11
-28.36 -26.432 -5.588 4
-25.558 -23.594 -5.124 4
-23.773 -21.729 -4.909 32
-22.581 -20.461 -4.854 27
-22.105 -19.849 -5.019 12
-21.075 -18.764 -4.965 7
-20.098 -17.742 -4.899 5
-19.203 -16.818 -4.843 6
-18.363 -15.954 -4.781 7
-9.387 -8.095 -1.125 4
-9.395 -8.045 -1.278 5
-9.449 -8.032 -1.452 6
-9.546 -8.06 -1.653 3
-15.179 -12.73 -4.649 9
-14.665 -12.221 -4.636 9
-14.187 -11.747 -4.629 9
-13.73 -11.302 -4.623 16
-13.305 -10.884 -4.621 33
-12.913 -10.504 -4.632 12
-11.113 -8.987 -3.772 18
-10.987 -8.837 -3.904 16
-11.177 -8.941 -4.24 33
-11.01 -8.758 -4.349 34
-10.59 -8.379 -4.284 14
0.0 -0.0 3.0 0
-9.472 -9.465 1.16 255
-9.482 -9.366 1.009 255
-9.457 -9.234 0.868 6
-9.449 -9.126 0.725 4
-29.681 -28.353 -4.597 5
0.0 -0.0 3.0 0
-27.034 -25.298 -4.734 5
-28.543 -26.439 -5.59 1
-25.742 -23.616 -5.132 3
-23.937 -21.742 -4.914 32
-22.733 -20.47 -4.858 26
-22.238 -19.844 -5.017 12
-21.228 -18.782 -4.972 6
-20.231 -17.748 -4.902 5
-19.324 -16.818 -4.843 6
-9.413 -8.127 -0.964 0
-9.389 -8.047 -1.1 5
-9.421 -8.016 -1.262 6
-9.489 -8.015 -1.443 6
-9.609 -8.063 -1.655 0
-15.263 -12.72 -4.643 9
-14.746 -12.213 -4.632 9
-14.267 -11.741 -4.625 9
-13.806 -11.294 -4.618 11
-13.374 -10.875 -4.615 36
-12.981 -10.496 -4.626 11
-11.094 -8.918 -3.72 28
-11.071 -8.852 -3.916 35
-11.429 -9.089 -4.36 22
-11.06 -8.747 -4.339 30
-10.636 -8.367 -4.274 13
0.0 -0.0 3.0 0
-9.472 -9.409 1.171 255
-9.488 -9.317 1.02 255
-9.462 -9.185 0.88 35
-9.446 -9.068 0.739 5
-29.879 -28.368 -4.601 14
0.0 -0.0 3.0 0
-27.029 -25.138 -4.686 2
-27.48 -25.297 -5.219 2
-25.963 -23.672 -5.151 5
-24.107 -21.76 -4.92 30
-22.882 -20.476 -4.86 27
-22.369 -19.835 -5.014 11
-21.355 -18.777 -4.97 7
-20.358 -17.748 -4.902 6
-19.449 -16.821 -4.844 6
-9.398 -8.063 -0.933 3
-9.4 -8.006 -1.079 5
-9.444 -7.985 -1.246 6
-9.532 -8.002 -1.435 5
-15.914 -13.27 -4.662 8
-15.352 -12.715 -4.64 8
-14.825 -12.203 -4.625 9
-14.344 -11.732 -4.619 34
-13.882 -11.287 -4.614 9
-13.446 -10.866 -4.608 34
-13.048 -10.486 -4.619 11
-11.269 -9.004 -3.785 21
-11.184 -8.889 -3.945 11
-11.225 -8.874 -4.186 22
-11.124 -8.746 -4.338 26
-10.688 -8.359 -4.266 12
0.0 -0.0 3.0 0
-9.472 -9.353 1.182 255
-9.488 -9.261 1.032 255
-9.496 -9.162 0.885 255
-9.449 -9.016 0.752 5
-30.094 -28.398 -4.609 13
0.0 -0.0 3.0 0
-27.11 -25.059 -4.661 1
0.0 -0.0 3.0 0
-26.159 -23.703 -5.162 5
-24.249 -21.752 -4.917 26
-23.029 -20.479 -4.861 26
-22.497 -19.824 -5.009 11
-21.498 -18.783 -4.973 6
-20.497 -17.757 -4.906 5
-9.427 -8.102 -0.778 0
-9.397 -8.012 -0.908 5
-9.417 -7.97 -1.061 6
-9.475 -7.962 -1.233 5
-9.592 -8.003 -1.436 1
-16.013 -13.27 -4.662 8
-15.435 -12.706 -4.634 10
-14.907 -12.194 -4.62 9
-14.416 -11.718 -4.61 36
-13.958 -11.28 -4.608 9
-13.517 -10.858 -4.603 33
-13.113 -10.475 -4.61 11
-11.297 -8.972 -3.761 3
-11.793 -9.317 -4.279 15
-11.419 -8.974 -4.267 42
-11.194 -8.749 -4.342 22
-10.737 -8.349 -4.258 14
0.0 -0.0 3.0 0
-9.478 -9.304 1.191 255
-9.485 -9.203 1.044 255
-9.502 -9.113 0.896 255
-9.451 -8.964 0.765 5
0.0 -0.0 3.0 0
0.0 -0.0 3.0 0
0.0 -0.0 3.0 0
-27.311 -24.832 -5.069 1
-26.344 -23.723 -5.168 4
-24.449 -21.795 -4.933 29
-23.193 -20.496 -4.868 28
-22.628 -19.814 -5.005 11
-21.652 -18.799 -4.98 6
-20.625 -17.756 -4.905 5
-9.403 -8.031 -0.745 2
-9.404 -7.968 -0.886 5
-9.445 -7.944 -1.048 6
-9.521 -7.95 -1.227 4
-16.722 -13.863 -4.685 7
-16.11 -13.268 -4.661 8
-15.519 -12.695 -4.628 7
-14.995 -12.19 -4.617 8
-14.499 -11.714 -4.607 10
-14.028 -11.267 -4.6 10
-13.589 -10.849 -4.597 29
-13.183 -10.467 -4.605 11
-11.788 -9.307 -4.013 8
-11.262 -8.845 -3.91 1
-11.289 -8.82 -4.142 17
-11.261 -8.75 -4.342 16
-10.791 -8.343 -4.252 14
0.0 -0.0 3.0 0
-9.474 -9.246 1.203 255
-9.493 -9.157 1.054 255
-9.504 -9.06 0.908 255
-9.462 -8.92 0.776 5
0.0 -0.0 3.0 0
0.0 -0.0 3.0 0
0.0 -0.0 3.0 0
-27.351 -24.715 -5.03 255
-26.553 -23.762 -5.182 4
-24.532 -21.734 -4.91 31
-23.358 -20.513 -4.874 26
-22.756 -19.801 -5.0 11
-21.795 -18.805 -4.982 6
-20.762 -17.761 -4.908 3
-9.398 -7.976 -0.719 4
-9.423 -7.934 -0.869 6
-9.476 -7.92 -1.035 5
-9.578 -7.948 -1.226 2
-16.815 -13.853 -4.679 6
-16.204 -13.262 -4.657 11
-15.606 -12.687 -4.623 9
-15.077 -12.181 -4.612 8
-14.583 -11.708 -4.604 9
-14.104 -11.259 -4.594 14
-13.661 -10.841 -4.591 26
-13.257 -10.462 -4.601 11
-11.39 -8.938 -3.735 12
-12.105 -9.451 -4.384 19
-11.608 -9.016 -4.301 36
-11.308 -8.736 -4.33 31
-10.837 -8.33 -4.241 17
0.0 -0.0 3.0 0
-9.477 -9.194 1.213 255
-9.495 -9.104 1.065 255
-9.509 -9.011 0.92 255
-9.472 -8.876 0.787 5
-9.511 -8.813 0.639 2
0.0 -0.0 3.0 0
0.0 -0.0 3.0 0
-27.434 -24.637 -5.005 45
-26.744 -23.785 -5.19 3
-24.809 -21.842 -4.95 31
-23.505 -20.513 -4.874 29
-22.893 -19.796 -4.998 11
-21.941 -18.812 -4.985 6
-9.417 -8.005 -0.564 2
-9.403 -7.93 -0.698 5
-9.442 -7.9 -0.853 6
-9.518 -7.905 -1.028 5
-17.543 -14.466 -4.692 6
-16.914 -13.848 -4.676 5
-16.299 -13.257 -4.654 8
-15.698 -12.683 -4.62 9
-15.159 -12.172 -4.606 9
-14.66 -11.698 -4.597 9
-14.183 -11.253 -4.59 21
-13.736 -10.833 -4.586 20
-13.322 -10.451 -4.593 11
-11.443 -8.927 -3.727 13
-11.312 -8.778 -3.858 22
-11.711 -9.042 -4.322 40
-11.35 -8.717 -4.315 47
-10.897 -8.327 -4.239 14
0.0 -0.0 3.0 0
-9.481 -9.145 1.222 255
-9.497 -9.052 1.076 255
-9.511 -8.958 0.932 255
-9.482 -8.832 0.798 5
-9.507 -8.756 0.654 5
0.0 -0.0 3.0 0
-27.439 -24.745 -4.565 2
-27.587 -24.622 -5.0 3
-26.945 -23.815 -5.2 4
-25.025 -21.894 -4.969 28
-23.641 -20.503 -4.87 30
-23.03 -19.79 -4.996 11
-22.093 -18.823 -4.99 6
-9.404 -7.944 -0.537 4
-9.421 -7.896 -0.682 5
-9.476 -7.878 -0.842 6
-9.57 -7.898 -1.024 3
-17.641 -14.456 -4.686 6
-17.01 -13.839 -4.671 3
-16.393 -13.25 -4.65 9
-15.785 -12.674 -4.615 11
-15.238 -12.161 -4.599 7
-14.738 -11.688 -4.591 9
-14.257 -11.243 -4.583 21
-13.808 -10.825 -4.58 11
-13.395 -10.445 -4.589 12
-11.56 -8.964 -3.755 9
-11.548 -8.908 -3.96 10
-11.588 -8.895 -4.203 33
-11.409 -8.711 -4.309 30
-10.954 -8.323 -4.235 14
0.0 -0.0 3.0 0
-9.494 -9.103 1.231 183
-9.504 -9.005 1.086 255
-9.515 -8.909 0.943 255
-9.501 -8.796 0.807 5
-9.506 -8.701 0.669 3
-9.517 -8.619 0.528 4
0.0 -0.0 3.0 0
-27.828 -24.682 -5.02 1
-27.158 -23.854 -5.214 2
-25.22 -21.929 -4.981 24
-23.821 -20.53 -4.881 26
-23.158 -19.776 -4.99 10
-9.433 -7.987 -0.39 1
-9.407 -7.897 -0.516 5
-9.44 -7.861 -0.666 6
-9.512 -7.859 -0.833 5
-9.636 -7.902 -1.026 0
-17.748 -14.453 -4.685 5
-17.109 -13.834 -4.668 6
-16.488 -13.244 -4.647 8
-15.872 -12.665 -4.61 7
-15.332 -12.159 -4.598 8
-14.819 -11.68 -4.585 9
-14.336 -11.236 -4.579 30
-13.877 -10.813 -4.571 10
-13.454 -10.427 -4.576 18
-11.662 -8.989 -3.774 6
-11.484 -8.806 -3.88 13
-11.808 -9.01 -4.296 30
-11.468 -8.705 -4.304 25
-11.006 -8.314 -4.227 12
0.0 -0.0 3.0 0
-9.513 -9.067 1.238 25
-9.505 -8.953 1.097 255
-9.519 -8.86 0.955 255
-9.523 -8.763 0.815 4
-9.486 -8.631 0.687 3
-9.533 -8.581 0.539 6
-9.521 -8.481 0.407 4
0.0 -0.0 3.0 0
-27.357 -23.88 -5.222 1
-25.252 -21.819 -4.941 31
-23.981 -20.539 -4.884 29
-23.302 -19.774 -4.989 8
-9.415 -7.922 -0.363 4
-9.423 -7.86 -0.5 5
-9.467 -7.835 -0.654 5
-9.557 -7.846 -0.827 4
-18.624 -15.178 -4.734 6
-17.855 -14.449 -4.683 5
-17.212 -13.829 -4.665 7
-16.576 -13.232 -4.639 9
-15.964 -12.659 -4.607 7
-15.411 -12.147 -4.59 7
-14.903 -11.674 -4.581 9
-14.409 -11.224 -4.571 19
-13.949 -10.802 -4.564 11
-13.528 -10.422 -4.572 28
-11.65 -8.926 -3.726 8
-11.546 -8.801 -3.876 13
-11.936 -9.055 -4.332 42
-11.524 -8.696 -4.297 31
-11.061 -8.307 -4.221 14
0.0 -0.0 3.0 0
-9.526 -9.026 1.246 7
-9.51 -8.904 1.107 255
-9.532 -8.819 0.964 117
-9.561 -8.746 0.819 5
-9.478 -8.572 0.703 4
-9.569 -8.561 0.545 5
-9.534 -8.441 0.419 6
-9.518 -8.338 0.291 4
-9.508 -8.249 0.16 0
-25.445 -21.849 -4.952 17
-24.103 -20.514 -4.874 29
-9.437 -7.958 -0.215 0
-9.41 -7.867 -0.339 5
-9.441 -7.825 -0.484 6
-9.506 -7.818 -0.646 5
-9.623 -7.851 -0.829 1
-18.734 -15.172 -4.731 7
-17.951 -14.436 -4.676 6
-17.308 -13.82 -4.66 6
-16.671 -13.225 -4.635 9
-16.06 -12.656 -4.605 8
-15.497 -12.139 -4.585 7
-14.983 -11.665 -4.575 9
-14.486 -11.215 -4.564 10
-14.021 -10.793 -4.557 12
-13.602 -10.415 -4.567 33
-11.744 -8.944 -3.74 2
-11.778 -8.925 -3.973 1
0.0 -0.0 3.0 0
-11.562 -8.675 -4.279 32
-11.121 -8.304 -4.219 12
-70.273 -67.036 -8.82 60
-9.533 -8.979 1.255 1
-9.508 -8.849 1.119 255
-9.579 -8.809 0.966 6
-9.606 -8.733 0.823 0
-9.467 -8.509 0.72 4
-9.634 -8.566 0.544 0
-9.567 -8.417 0.427 5
-9.533 -8.299 0.303 6
-9.521 -8.208 0.174 4
-9.512 -8.116 0.046 0
-24.258 -20.516 -4.875 30
-9.422 -7.896 -0.19 3
-9.425 -7.83 -0.324 5
-9.468 -7.799 -0.472 5
-9.548 -7.802 -0.638 4
-19.672 -15.948 -4.778 8
-18.855 -15.174 -4.732 6
-18.064 -14.435 -4.675 6
-17.408 -13.812 -4.656 7
-16.76 -13.212 -4.628 8
-16.147 -12.646 -4.598 9
-15.585 -12.132 -4.581 7
-15.064 -11.656 -4.569 9
-14.571 -11.211 -4.562 9
-14.096 -10.784 -4.551 20
-13.67 -10.404 -4.559 33
-11.868 -8.984 -3.77 4
-11.597 -8.737 -3.826 13
-12.1 -9.071 -4.346 20
-11.555 -8.619 -4.232 18
-11.172 -8.295 -4.21 12
0.0 -0.0 3.0 0
-9.557 -8.95 1.26 0
-9.523 -8.811 1.127 84
-9.603 -8.778 0.973 0
-44.589 -40.294 -7.046 4
-9.471 -8.461 0.733 4
0.0 -0.0 3.0 0
-9.617 -8.41 0.429 0
-9.566 -8.277 0.311 5
-9.536 -8.17 0.187 6
-9.512 -8.065 0.064 4
-9.459 -7.951 -0.052 0
-9.416 -7.841 -0.168 4
-9.44 -7.794 -0.308 6
-9.5 -7.776 -0.462 5
-9.611 -7.804 -0.639 2
-19.811 -15.959 -4.784 8
-18.968 -15.169 -4.729 7
-18.169 -14.427 -4.671 13
-17.505 -13.802 -4.651 7
-16.861 -13.209 -4.626 7
-16.24 -12.639 -4.594 7
-15.665 -12.119 -4.573 7
-15.139 -11.642 -4.56 9
-14.648 -11.202 -4.556 10
-14.165 -10.771 -4.542 12
-13.743 -10.397 -4.554 29
-11.796 -8.877 -3.689 4
-11.668 -8.737 -3.826 2
-11.854 -8.834 -4.154 48
-11.565 -8.576 -4.196 12
-11.23 -8.289 -4.206 14
0.0 -0.0 3.0 0
0.0 -0.0 3.0 0
-9.564 -8.796 1.13 12
-50.419 -45.813 -7.577 26
-44.993 -40.414 -7.076 4
-9.468 -8.407 0.747 5
-32.509 -28.553 -5.188 1
0.0 -0.0 3.0 0
-9.622 -8.274 0.312 0
-9.571 -8.149 0.194 4
-9.529 -8.031 0.077 6
-9.432 -7.878 -0.024 2
-9.427 -7.801 -0.152 5
-9.466 -7.766 -0.296 6
-9.542 -7.761 -0.456 4
-20.865 -16.836 -4.851 5
-19.929 -15.954 -4.781 8
-19.072 -15.156 -4.723 6
-18.285 -14.43 -4.672 12
-17.608 -13.797 -4.648 7
-16.953 -13.198 -4.62 8
-16.334 -12.633 -4.591 7
-15.753 -12.113 -4.569 8
-15.229 -11.639 -4.558 9
-14.724 -11.192 -4.549 10
-14.249 -10.77 -4.541 10
-13.811 -10.386 -4.546 33
-11.847 -8.861 -3.678 9
-11.741 -8.74 -3.829 0
-12.136 -8.992 -4.282 29
-11.615 -8.563 -4.185 12
-11.287 -8.283 -4.201 13
0.0 -0.0 3.0 0
0.0 -0.0 3.0 0
-9.602 -8.78 1.134 1
0.0 -0.0 3.0 0
-45.451 -40.58 -7.118 4
-9.473 -8.361 0.76 5
-32.742 -28.581 -5.196 22
0.0 -0.0 3.0 0
0.0 -0.0 3.0 0
-9.619 -8.138 0.198 0
-9.553 -8.0 0.088 5
-9.426 -7.823 -0.003 4
-9.442 -7.764 -0.137 6
-9.498 -7.744 -0.287 5
-9.596 -7.756 -0.453 2
-20.989 -16.829 -4.848 6
-20.051 -15.95 -4.779 8
-19.189 -15.153 -4.721 6
-18.399 -14.428 -4.672 14
-17.711 -13.79 -4.644 8
-17.045 -13.187 -4.613 7
-16.424 -12.624 -4.585 7
-15.842 -12.105 -4.564 7
-15.31 -11.629 -4.552 9
-14.801 -11.181 -4.542 9
-14.324 -10.761 -4.535 11
-13.882 -10.376 -4.539 31
-11.954 -8.888 -3.697 0
-12.325 -9.12 -4.125 44
-12.275 -9.041 -4.322 21
-11.668 -8.552 -4.176 12
-11.336 -8.271 -4.19 13
0.0 -0.0 3.0 0
0.0 -0.0 3.0 0
-9.682 -8.8 1.13 0
0.0 -0.0 3.0 0
-45.904 -40.737 -7.157 3
-9.482 -8.317 0.772 5
-9.458 -8.205 0.647 1
0.0 -0.0 3.0 0
0.0 -0.0 3.0 0
-29.705 -24.977 -5.6 4
-9.439 -7.854 0.141 2
-9.425 -7.773 0.016 5
-9.465 -7.734 -0.125 6
-9.531 -7.721 -0.277 5
-9.664 -7.761 -0.456 0
-21.131 -16.836 -4.851 5
-20.173 -15.946 -4.777 7
-19.317 -15.158 -4.723 6
-18.492 -14.41 -4.662 24
-17.811 -13.781 -4.639 7
-17.149 -13.185 -4.612 8
-16.523 -12.622 -4.584 7
-15.931 -12.097 -4.559 7
-15.395 -11.621 -4.547 9
-14.887 -11.176 -4.539 9
-14.397 -10.749 -4.527 11
-13.956 -10.368 -4.533 29
-13.164 -9.729 -4.331 10
-11.988 -8.818 -3.89 82
-12.329 -9.028 -4.311 21
-11.726 -8.545 -4.17 12
-11.388 -8.261 -4.181 13
0.0 -0.0 3.0 0
0.0 -0.0 3.0 0
0.0 -0.0 3.0 0
0.0 -0.0 3.0 0
-46.389 -40.918 -7.202 4
-9.49 -8.274 0.783 5
-9.46 -8.156 0.661 5
0.0 -0.0 3.0 0
0.0 -0.0 3.0 0
-29.946 -25.023 -5.616 3
-9.432 -7.8 0.161 4
-9.439 -7.736 0.03 5
-9.491 -7.706 -0.113 5
-9.581 -7.713 -0.274 3
-22.316 -17.809 -4.929 5
-21.274 -16.843 -4.854 5
-20.304 -15.948 -4.778 8
-19.433 -15.153 -4.721 7
-18.595 -14.398 -4.655 27
-17.911 -13.772 -4.634 8
-17.245 -13.175 -4.607 8
-16.611 -12.609 -4.576 7
-16.016 -12.087 -4.553 7
-15.482 -11.615 -4.543 9
-14.963 -11.166 -4.531 10
-14.469 -10.737 -4.518 13
-14.036 -10.365 -4.531 28
-12.459 -9.153 -3.897 17
-12.435 -9.093 -4.104 41
-12.364 -9.0 -4.288 33
-11.779 -8.533 -4.16 17
-11.443 -8.254 -4.175 13
-74.116 -68.271 -9.038 30
-70.698 -64.284 -9.496 8
0.0 -0.0 3.0 0
0.0 -0.0 3.0 0
-46.836 -41.064 -7.238 7
-9.501 -8.233 0.794 5
-9.42 -8.073 0.685 4
0.0 -0.0 3.0 0
0.0 -0.0 3.0 0
-9.455 -7.851 0.297 1
-9.427 -7.747 0.18 4
-9.459 -7.704 0.043 6
-9.526 -7.686 -0.105 5
-9.65 -7.719 -0.277 1
-22.459 -17.81 -4.93 5
-21.401 -16.837 -4.851 5
-20.429 -15.944 -4.776 8
-19.55 -15.148 -4.718 7
-18.712 -14.398 -4.656 27
-18.014 -13.764 -4.629 7
-17.34 -13.165 -4.601 9
-16.701 -12.599 -4.57 7
-16.102 -12.077 -4.547 7
-15.56 -11.601 -4.534 9
-15.043 -11.156 -4.525 10
-14.539 -10.724 -4.509 14
-12.475 -9.156 -3.653 11
-12.481 -9.114 -3.868 44
-12.498 -9.085 -4.098 29
-12.409 -8.98 -4.272 29
-11.835 -8.524 -4.152 15
-11.489 -8.238 -4.162 14
0.0 -0.0 3.0 0
0.0 -0.0 3.0 0
0.0 -0.0 3.0 0
0.0 -0.0 3.0 0
-47.237 -41.165 -7.264 5
-9.5 -8.182 0.808 3
-9.473 -8.068 0.687 4
0.0 -0.0 3.0 0
0.0 -0.0 3.0 0
-9.442 -7.792 0.317 3
-9.444 -7.713 0.193 5
-9.487 -7.678 0.053 5
-9.564 -7.668 -0.098 4
-23.784 -18.905 -5.025 7
-22.605 -17.812 -4.931 5
-21.541 -16.84 -4.853 5
-20.557 -15.943 -4.776 7
-19.673 -15.146 -4.717 6
-18.817 -14.388 -4.65 22
-18.118 -13.756 -4.625 8
-17.436 -13.154 -4.595 9
-16.792 -12.589 -4.564 7
-16.197 -12.073 -4.544 7
-15.642 -11.59 -4.527 9
-15.123 -11.147 -4.519 10
-14.632 -10.727 -4.511 10
-12.47 -9.097 -3.61 33
-12.5 -9.074 -3.837 26
-12.801 -9.25 -4.227 37
-12.455 -8.96 -4.255 31
-11.893 -8.517 -4.146 15
-11.54 -8.228 -4.153 14
0.0 -0.0 3.0 0
0.0 -0.0 3.0 0
0.0 -0.0 3.0 0
0.0 -0.0 3.0 0
-47.8 -41.404 -7.323 3
-9.427 -8.07 0.838 5
-9.504 -8.046 0.693 4
0.0 -0.0 3.0 0
-9.462 -7.838 0.453 0
-9.428 -7.731 0.338 4
-9.457 -7.675 0.206 6
-9.519 -7.655 0.061 5
-9.629 -7.672 -0.1 2
