# .PCD v0.7 - Point Cloud Data file format
VERSION 0.7
FIELDS x y z intensity
SIZE 4 4 4 4
TYPE F F F F
COUNT 1 1 1 1
WIDTH 1995
HEIGHT 1
VIEWPOINT 0 0 0 1 0 0 0
POINTS 1995
DATA ascii
-13.194 -6.867 1.288 12
-12.903 -6.591 1.234 7
-12.919 -6.479 1.142 26
-13.777 -6.792 0.923 18
-14.208 -6.89 0.761 12
-13.831 -6.607 0.725 20
-13.669 -6.435 0.658 26
-17.955 -8.344 -0.203 25
-44.031 -20.212 -5.166 19
-41.991 -19.071 -5.095 21
-18.576 -8.353 -0.719 1
-18.62 -8.304 -0.872 5
-18.617 -8.24 -1.019 44
-29.223 -12.858 -3.551 8
-18.283 -8.006 -1.257 34
-29.307 -12.78 -4.084 55
-27.709 -12.053 -3.959 6
-23.616 -10.252 -3.16 255
-19.81 -8.595 -2.371 0
-19.196 -8.327 -2.408 4
-19.159 -8.32 -2.612 4
-19.244 -8.369 -2.86 2
-19.599 -8.545 -3.208 4
-19.544 -8.543 -3.438 12
-18.757 -8.228 -3.429 16
-17.995 -7.925 -3.418 13
-17.28 -7.64 -3.411 14
-16.657 -7.399 -3.432 16
-16.16 -9.078 1.399 1
-15.643 -8.597 1.329 16
-15.854 -8.533 1.186 19
-12.648 -6.667 1.461 8
-13.193 -6.819 1.3 2
-13.691 -6.944 1.139 15
-12.549 -6.248 1.208 26
-13.624 -6.668 0.961 26
-14.201 -6.835 0.779 25
-13.835 -6.558 0.742 20
-13.754 -6.425 0.661 28
-17.968 -8.285 -0.18 30
-44.39 -20.216 -5.168 18
-42.329 -19.072 -5.096 21
-40.483 -18.06 -5.041 7
-18.67 -8.26 -0.852 33
-18.664 -8.195 -0.997 0
-18.273 -7.976 -1.064 11
-18.326 -7.962 -1.234 34
-29.51 -12.769 -4.078 57
-23.703 -10.231 -2.907 0
-23.677 -10.201 -3.129 255
-19.93 -8.582 -2.363 1
-19.194 -8.265 -2.367 4
-19.146 -8.255 -2.568 16
-19.384 -8.37 -2.861 2
-19.707 -8.533 -3.199 7
-19.637 -8.527 -3.425 13
-18.856 -8.218 -3.421 14
-18.075 -7.91 -3.405 12
-17.362 -7.63 -3.402 14
-16.735 -7.388 -3.422 15
-16.108 -8.993 1.414 20
-15.758 -8.605 1.327 1
-13.295 -7.109 1.489 0
-13.978 -7.319 1.31 1
-13.475 -6.917 1.275 13
-12.503 -6.296 1.313 12
-12.589 -6.223 1.216 10
-13.316 -6.469 1.022 23
-14.194 -6.781 0.797 24
-13.863 -6.522 0.754 27
0.0 -0.0 3.0 0
-17.942 -8.208 -0.151 27
-44.799 -20.243 -5.179 19
-42.649 -19.065 -5.093 27
-18.737 -8.292 -0.692 11
-18.684 -8.2 -0.824 20
-35.502 -15.465 -4.543 6
-18.276 -7.914 -1.032 43
-18.397 -7.93 -1.216 6
-29.713 -12.757 -4.071 57
-23.635 -10.123 -2.845 17
-23.757 -10.157 -3.103 24
-20.053 -8.571 -2.356 2
-19.184 -8.2 -2.325 5
-19.154 -8.198 -2.53 4
-19.534 -8.376 -2.865 1
-19.826 -8.525 -3.194 6
-19.748 -8.517 -3.418 13
-18.945 -8.202 -3.408 15
-18.162 -7.897 -3.395 13
-17.438 -7.615 -3.39 15
-16.809 -7.376 -3.412 16
-15.749 -8.738 1.459 18
-15.75 -8.546 1.339 9
-15.79 -8.387 1.217 15
-15.333 -7.974 1.159 21
-13.969 -7.121 1.225 8
-12.536 -6.269 1.32 14
-12.711 -6.238 1.211 12
-13.565 -6.541 1.0 28
-14.212 -6.738 0.811 22
-13.866 -6.473 0.771 23
-14.453 -6.648 0.58 16
-17.979 -8.161 -0.133 11
-45.281 -20.299 -5.201 17
-42.952 -19.047 -5.085 27
-18.816 -8.261 -0.678 38
-38.237 -16.648 -4.763 22
-18.263 -7.892 -0.849 30
-18.332 -7.876 -1.013 29
-31.691 -13.552 -4.206 5
-29.905 -12.74 -4.062 53
-23.718 -10.081 -2.82 2
-24.793 -10.52 -3.321 24
-20.184 -8.562 -2.35 2
-19.21 -8.15 -2.293 3
-19.268 -8.188 -2.523 1
-19.681 -8.379 -2.867 1
-19.955 -8.521 -3.191 5
-19.849 -8.502 -3.407 13
-19.03 -8.185 -3.395 15
-18.242 -7.881 -3.382 13
-17.523 -7.605 -3.381 16
-16.883 -7.364 -3.402 15
-15.811 -8.717 1.463 16
-16.289 -8.782 1.293 18
-14.001 -7.388 1.43 6
-13.094 -6.763 1.439 3
-14.079 -7.127 1.223 6
-12.918 -6.413 1.282 48
-12.841 -6.256 1.206 9
-13.643 -6.53 1.004 14
-14.334 -6.744 0.809 25
-14.066 -6.516 0.756 15
-14.446 -6.593 0.6 0
-16.558 -7.457 0.138 1
-19.991 -8.89 -0.592 3
-18.864 -8.299 -0.523 10
-18.92 -8.24 -0.669 9
-18.167 -7.846 -0.659 4
-18.265 -7.83 -0.819 39
-33.858 -14.43 -4.352 16
-31.911 -13.539 -4.199 5
-30.109 -12.725 -4.054 42
-28.461 -12.002 -3.929 6
-24.611 -10.362 -3.226 163
-20.311 -8.551 -2.343 2
-19.324 -8.139 -2.285 2
-19.422 -8.193 -2.526 1
-19.806 -8.373 -2.863 2
-20.081 -8.515 -3.187 6
-19.953 -8.489 -3.397 14
-19.115 -8.167 -3.381 15
-18.337 -7.872 -3.374 13
-17.613 -7.595 -3.373 14
-16.961 -7.353 -3.392 17
-15.733 -8.621 1.48 21
-16.285 -8.723 1.304 22
-16.236 -8.51 1.191 17
-13.814 -7.087 1.364 2
-12.647 -6.358 1.415 5
-12.57 -6.196 1.34 20
-12.885 -6.231 1.213 19
-14.25 -6.77 0.93 6
-14.215 -6.638 0.843 15
-14.217 -6.535 0.75 35
-14.425 -6.531 0.623 3
-16.597 -7.415 0.154 1
-18.761 -8.276 -0.344 4
-18.871 -8.235 -0.495 34
-41.744 -18.033 -5.029 8
-18.161 -7.781 -0.628 35
-18.328 -7.794 -0.801 16
-34.075 -14.405 -4.34 5
-32.118 -13.518 -4.187 4
-30.331 -12.717 -4.049 33
-28.633 -11.98 -3.917 7
-24.565 -10.264 -3.167 149
-20.435 -8.538 -2.335 4
-19.436 -8.125 -2.276 2
-19.544 -8.184 -2.52 1
-19.939 -8.368 -2.859 2
-20.21 -8.51 -3.183 7
-20.05 -8.473 -3.385 13
-19.214 -8.155 -3.372 14
-18.434 -7.862 -3.367 13
-17.702 -7.587 -3.366 14
-17.038 -7.342 -3.383 16
-15.287 -8.323 1.532 18
-16.218 -8.631 1.322 17
-13.266 -6.908 1.532 2
-13.306 -6.78 1.435 10
-13.153 -6.566 1.363 4
-12.581 -6.157 1.35 24
-12.886 -6.186 1.226 12
-13.181 -6.215 1.1 0
-14.25 -6.603 0.854 12
-14.533 -6.629 0.717 18
-14.533 -6.528 0.624 2
-16.611 -7.362 0.174 13
-18.108 -7.925 -0.202 17
-19.026 -8.235 -0.496 28
-18.075 -7.745 -0.448 15
-18.203 -7.734 -0.607 28
-36.534 -15.408 -4.515 34
-34.31 -14.388 -4.331 16
-32.357 -13.509 -4.183 4
-30.549 -12.707 -4.044 18
-28.838 -11.971 -3.911 7
-24.515 -10.163 -3.107 214
-20.551 -8.521 -2.324 3
-19.543 -8.109 -2.266 3
-19.684 -8.183 -2.52 2
-20.083 -8.369 -2.86 2
-20.357 -8.513 -3.185 5
-20.14 -8.453 -3.37 13
-19.309 -8.142 -3.361 16
-18.525 -7.851 -3.357 13
-17.784 -7.575 -3.356 15
-17.105 -7.326 -3.369 15
-15.271 -8.263 1.543 21
-16.231 -8.582 1.332 21
-15.569 -8.053 1.288 10
-12.719 -6.437 1.514 43
-12.891 -6.39 1.407 19
-12.707 -6.175 1.346 21
-12.902 -6.148 1.237 10
-14.001 -6.552 0.997 3
-14.779 -6.796 0.792 1
-14.58 -6.599 0.728 24
-14.586 -6.501 0.634 5
-16.639 -7.316 0.192 25
-18.175 -7.889 -0.188 18
-18.024 -7.738 -0.285 0
-18.068 -7.679 -0.419 35
-18.258 -7.695 -0.588 4
-36.808 -15.398 -4.51 27
-34.527 -14.362 -4.318 4
-32.582 -13.494 -4.175 5
-30.735 -12.683 -4.03 28
-29.011 -11.948 -3.898 7
-24.476 -10.068 -3.05 255
-20.679 -8.508 -2.317 3
-19.662 -8.096 -2.258 3
-19.827 -8.182 -2.519 2
-20.223 -8.367 -2.859 2
-20.515 -8.519 -3.19 4
-20.226 -8.432 -3.354 13
-19.412 -8.131 -3.352 15
-18.612 -7.837 -3.346 13
-17.866 -7.562 -3.345 14
-17.186 -7.317 -3.36 15
-15.384 -8.272 1.541 20
-15.175 -7.972 1.45 2
-15.567 -7.999 1.3 11
-13.231 -6.65 1.465 11
-12.917 -6.358 1.415 8
-13.09 -6.315 1.308 9
-12.91 -6.107 1.249 6
-16.393 -7.614 0.672 7
-16.012 -7.307 0.626 25
-14.579 -6.546 0.746 19
-14.517 -6.419 0.664 9
-16.66 -7.266 0.211 24
-18.847 -8.116 -0.279 26
-17.996 -7.663 -0.253 32
-18.146 -7.648 -0.405 5
-39.77 -16.624 -4.752 18
-37.087 -15.387 -4.505 26
-34.799 -14.356 -4.315 4
-32.807 -13.476 -4.166 5
-30.914 -12.654 -4.014 49
-29.208 -11.934 -3.89 7
-24.432 -9.972 -2.992 218
-20.803 -8.494 -2.307 3
-19.762 -8.076 -2.245 3
-19.96 -8.176 -2.515 3
-20.378 -8.37 -2.861 2
-20.674 -8.524 -3.193 4
-20.323 -8.414 -3.34 13
-19.511 -8.118 -3.343 13
-18.692 -7.82 -3.333 12
-17.952 -7.551 -3.336 14
-17.253 -7.3 -3.346 16
-15.396 -8.226 1.55 15
-15.158 -7.912 1.462 24
-15.565 -7.943 1.312 21
-13.379 -6.678 1.458 4
-13.171 -6.437 1.395 8
-12.894 -6.175 1.345 11
-12.943 -6.076 1.258 5
-16.417 -7.567 0.687 7
-16.108 -7.293 0.63 21
-17.463 -7.78 0.321 9
-14.574 -6.393 0.673 21
-16.713 -7.231 0.224 28
-17.893 -7.642 -0.087 9
-18.025 -7.613 -0.231 32
-18.328 -7.662 -0.411 28
-40.071 -16.612 -4.746 23
-37.363 -15.374 -4.498 26
-35.052 -14.343 -4.308 4
-33.051 -13.466 -4.16 10
-31.075 -12.618 -3.994 60
-29.392 -11.914 -3.878 7
-24.54 -9.937 -2.971 7
-24.33 -9.857 -3.159 28
-19.881 -8.064 -2.237 3
-20.097 -8.172 -2.512 2
-20.529 -8.371 -2.862 1
-20.839 -8.533 -3.199 4
-20.42 -8.396 -3.327 13
-19.603 -8.103 -3.33 13
-18.765 -7.799 -3.316 19
-18.038 -7.539 -3.326 14
-17.327 -7.288 -3.335 15
-15.379 -8.166 1.56 24
-15.201 -7.883 1.468 21
-15.814 -8.017 1.296 17
-13.309 -6.597 1.477 7
-12.908 -6.264 1.438 16
-13.777 -6.55 1.245 18
-13.148 -6.127 1.243 6
-16.292 -7.453 0.721 22
-16.167 -7.264 0.64 25
-14.716 -6.504 0.76 9
-16.37 -7.123 0.408 18
-16.762 -7.193 0.239 21
-17.904 -7.584 -0.064 33
-18.08 -7.573 -0.215 55
-18.358 -7.611 -0.389 29
-40.38 -16.601 -4.741 22
-37.653 -15.365 -4.494 26
-35.325 -14.335 -4.304 4
-33.247 -13.436 -4.144 4
-31.268 -12.593 -3.981 35
-29.594 -11.9 -3.87 7
-24.401 -9.803 -2.89 18
-21.213 -8.528 -2.329 9
-20.01 -8.055 -2.231 3
-20.248 -8.172 -2.512 2
-20.684 -8.373 -2.863 1
-21.051 -8.558 -3.218 4
-20.517 -8.378 -3.314 18
-19.695 -8.086 -3.318 14
-18.859 -7.788 -3.307 15
-18.123 -7.528 -3.317 15
-17.405 -7.275 -3.324 16
-15.418 -8.135 1.566 21
-15.208 -7.836 1.477 20
-16.061 -8.088 1.281 19
-15.68 -7.719 1.218 20
-12.883 -6.208 1.452 12
-13.88 -6.551 1.245 7
-13.196 -6.104 1.25 22
-16.333 -7.415 0.733 28
-16.219 -7.23 0.651 13
-16.689 -7.318 0.48 14
-16.397 -7.078 0.424 19
-16.851 -7.172 0.247 27
-17.911 -7.525 -0.04 15
-18.048 -7.497 -0.182 21
-43.768 -17.994 -5.011 13
-40.696 -16.592 -4.737 21
-37.932 -15.35 -4.487 24
-35.597 -14.325 -4.299 6
-33.473 -13.415 -4.133 3
-31.487 -12.578 -3.972 14
-29.785 -11.88 -3.859 7
-24.312 -9.69 -2.823 38
-21.178 -8.448 -2.279 5
-20.122 -8.039 -2.22 3
-20.399 -8.172 -2.512 2
-21.13 -8.492 -2.946 4
-21.243 -8.575 -3.23 2
-20.614 -8.36 -3.3 14
-19.791 -8.071 -3.306 14
-18.942 -7.772 -3.293 14
-18.209 -7.516 -3.306 15
-17.482 -7.263 -3.314 16
-15.627 -8.194 1.555 17
-15.159 -7.759 1.492 27
-16.425 -8.216 1.254 2
-12.849 -6.282 1.55 0
-13.174 -6.303 1.429 9
-13.237 -6.202 1.338 19
-13.214 -6.067 1.26 2
-16.432 -7.402 0.737 12
-16.18 -7.157 0.675 3
-16.665 -7.249 0.504 28
-16.435 -7.037 0.439 28
-16.598 -7.007 0.31 15
-16.503 -6.875 0.222 2
-18.062 -7.44 -0.158 18
-44.125 -17.99 -5.009 13
-41.002 -16.575 -4.729 18
-38.223 -15.339 -4.481 24
-35.808 -14.29 -4.281 15
-33.725 -13.404 -4.127 4
-24.201 -9.588 -2.315 0
-24.271 -9.603 -2.544 51
-24.248 -9.588 -2.761 31
-21.186 -8.385 -2.24 4
-20.244 -8.025 -2.211 3
-20.533 -8.163 -2.506 2
-21.124 -8.428 -2.901 4
-21.409 -8.581 -3.234 3
-20.722 -8.345 -3.289 14
-19.893 -8.059 -3.296 14
-19.022 -7.753 -3.279 13
-18.288 -7.501 -3.294 15
-17.563 -7.252 -3.304 17
-15.67 -8.164 1.56 22
-15.585 -7.925 1.459 16
-14.197 -7.054 1.501 0
-13.35 -6.482 1.504 10
-13.152 -6.248 1.442 0
-12.866 -5.984 1.397 21
-13.207 -6.018 1.274 8
-16.339 -7.304 0.767 25
-16.584 -7.277 0.635 0
-16.674 -7.195 0.523 14
-16.567 -7.035 0.439 22
-16.636 -6.965 0.326 23
-18.955 -7.831 -0.164 18
-18.522 -7.566 -0.212 30
-18.403 -7.44 -0.312 0
-41.289 -16.552 -4.718 13
-38.503 -15.321 -4.472 25
-36.081 -14.279 -4.275 4
-33.98 -13.394 -4.122 6
-24.067 -9.457 -2.242 3
-24.203 -9.498 -2.484 44
-24.181 -9.484 -2.699 30
-21.281 -8.357 -2.222 2
-20.371 -8.013 -2.204 3
-20.713 -8.174 -2.513 1
-21.269 -8.423 -2.898 2
-21.582 -8.589 -3.24 4
-20.83 -8.331 -3.278 17
-19.996 -8.046 -3.286 14
-19.102 -7.736 -3.264 13
-18.37 -7.487 -3.283 15
-17.651 -7.244 -3.297 15
-15.727 -8.142 1.564 20
-15.485 -7.823 1.479 15
-16.946 -8.363 1.222 20
-13.552 -6.534 1.492 1
-13.782 -6.5 1.379 2
-12.967 -5.987 1.396 20
-13.222 -5.979 1.285 3
-16.315 -7.236 0.788 27
-16.672 -7.259 0.641 2
-17.644 -7.553 0.399 41
-16.579 -6.982 0.459 29
-16.633 -6.906 0.349 25
-19.011 -7.788 -0.147 23
-18.563 -7.518 -0.191 26
-18.417 -7.382 -0.287 1
-41.592 -16.531 -4.709 10
-38.806 -15.31 -4.467 25
-36.362 -14.269 -4.27 4
-34.217 -13.374 -4.111 7
-24.009 -9.356 -2.186 5
-24.138 -9.395 -2.424 35
-24.116 -9.383 -2.638 31
-21.394 -8.335 -2.208 3
-20.493 -7.999 -2.195 3
-21.122 -8.272 -2.58 4
-21.424 -8.423 -2.898 2
-21.752 -8.595 -3.244 7
-20.941 -8.318 -3.268 14
-20.092 -8.03 -3.274 14
-19.203 -7.726 -3.256 12
-18.452 -7.473 -3.271 15
-17.735 -7.235 -3.289 16
-16.21 -8.339 1.53 20
-15.371 -7.715 1.5 23
-15.674 -7.683 1.367 13
-15.738 -7.535 1.26 1
-16.676 -7.808 1.053 12
-12.873 -5.899 1.419 26
-13.251 -5.947 1.295 0
-16.268 -7.16 0.811 27
-17.609 -7.606 0.529 67
-17.749 -7.536 0.405 17
-16.638 -6.95 0.47 24
-16.345 -6.73 0.417 34
-18.114 -7.359 0.027 27
-18.874 -7.58 -0.217 23
-45.321 -18.011 -5.019 10
-41.932 -16.524 -4.705 6
-39.097 -15.294 -4.459 26
-36.632 -14.252 -4.262 4
-34.455 -13.354 -4.101 6
-24.027 -9.285 -2.147 4
-24.065 -9.29 -2.364 46
-24.058 -9.286 -2.579 49
-21.504 -8.311 -2.194 2
-20.619 -7.987 -2.187 3
-21.125 -8.212 -2.539 3
-21.587 -8.424 -2.899 2
-21.905 -8.593 -3.243 18
-21.06 -8.306 -3.259 14
-20.194 -8.017 -3.263 14
-19.304 -7.716 -3.248 13
-18.531 -7.457 -3.258 15
-17.812 -7.221 -3.277 15
-15.411 -7.878 1.611 24
-15.392 -7.676 1.508 24
-15.71 -7.648 1.374 19
-15.695 -7.462 1.277 23
-16.709 -7.767 1.063 23
-12.876 -5.857 1.431 17
-15.933 -7.096 0.965 28
-16.235 -7.09 0.832 14
-17.662 -7.568 0.541 20
-17.21 -7.248 0.504 54
-16.675 -6.908 0.486 30
-16.25 -6.634 0.453 27
-18.135 -7.305 0.049 28
-18.962 -7.55 -0.205 10
-45.732 -18.019 -5.023 9
-42.323 -16.536 -4.711 4
-39.408 -15.284 -4.454 23
-36.883 -14.228 -4.25 4
-34.7 -13.336 -4.091 6
-24.562 -9.413 -2.217 15
-23.999 -9.189 -2.305 49
-24.12 -9.234 -2.548 56
-21.617 -8.289 -2.18 2
-20.818 -8.001 -2.196 2
-21.274 -8.207 -2.535 1
-21.765 -8.431 -2.904 2
-22.043 -8.585 -3.237 17
-21.171 -8.293 -3.249 14
-20.29 -8.0 -3.25 15
-19.413 -7.709 -3.242 13
-18.613 -7.443 -3.245 15
-17.897 -7.211 -3.269 15
-15.475 -7.861 1.614 20
-15.438 -7.647 1.514 26
-15.709 -7.596 1.385 19
-15.734 -7.428 1.285 28
-16.707 -7.71 1.078 12
-12.871 -5.811 1.443 22
-13.763 -6.083 1.256 2
-16.268 -7.049 0.845 27
-19.066 -8.104 0.367 26
-17.083 -7.136 0.543 34
-16.687 -6.856 0.505 20
-16.301 -6.6 0.467 24
-18.706 -7.471 -0.019 32
-18.26 -7.208 -0.06 12
-46.154 -18.028 -5.027 7
-42.652 -16.52 -4.703 14
-39.704 -15.266 -4.446 26
-37.157 -14.211 -4.241 4
-34.908 -13.302 -4.073 17
-24.617 -9.354 -2.185 21
-23.94 -9.09 -2.248 59
-24.211 -9.193 -2.524 55
-21.741 -8.27 -2.167 2
-21.123 -8.055 -2.231 4
-21.441 -8.207 -2.536 1
-21.943 -8.437 -2.907 1
-22.159 -8.568 -3.225 19
-21.286 -8.279 -3.239 14
-20.393 -7.986 -3.239 14
-19.51 -7.696 -3.232 12
-18.702 -7.431 -3.235 15
-17.978 -7.2 -3.259 16
-15.62 -7.884 1.61 16
-15.598 -7.676 1.508 21
-15.892 -7.633 1.378 41
-16.033 -7.516 1.265 23
-13.524 -6.197 1.455 2
-12.914 -5.788 1.449 35
-15.903 -6.975 1.0 24
-16.184 -6.957 0.873 25
-17.048 -7.188 0.664 0
-17.11 -7.088 0.559 17
-16.676 -6.795 0.527 26
-16.389 -6.58 0.474 19
-18.628 -7.376 0.02 25
-18.258 -7.145 -0.033 16
-46.61 -18.049 -5.036 8
-42.956 -16.493 -4.691 18
-40.018 -15.253 -4.44 25
-37.421 -14.189 -4.23 4
-35.157 -13.282 -4.062 15
-24.709 -9.31 -2.161 16
-23.998 -9.036 -2.217 40
-24.06 -9.061 -2.445 56
-21.851 -8.245 -2.152 2
-21.148 -8.001 -2.196 2
-21.604 -8.207 -2.536 1
-22.139 -8.449 -2.916 1
-22.276 -8.551 -3.213 15
-21.401 -8.265 -3.228 16
-20.481 -7.966 -3.224 14
-19.615 -7.687 -3.225 13
-18.784 -7.417 -3.223 15
-18.055 -7.186 -3.247 16
-15.765 -7.907 1.606 10
-15.604 -7.628 1.517 24
-15.916 -7.591 1.386 23
-15.877 -7.391 1.294 14
-13.538 -6.158 1.465 0
-12.895 -5.736 1.463 9
-15.982 -6.955 1.006 24
-16.235 -6.923 0.883 26
-16.887 -7.063 0.705 2
-17.103 -7.027 0.58 18
-16.698 -6.746 0.545 22
-16.69 -6.643 0.45 1
-18.579 -7.293 0.053 30
-18.264 -7.085 -0.008 13
-47.015 -18.046 -5.035 8
-43.286 -16.475 -4.682 17
-40.322 -15.235 -4.43 26
-37.688 -14.166 -4.218 4
-35.425 -13.268 -4.055 5
-24.848 -9.283 -2.146 8
-24.092 -8.995 -2.193 58
-24.125 -9.011 -2.414 3
-21.982 -8.227 -2.141 2
-21.315 -8.001 -2.196 1
-21.778 -8.21 -2.537 1
-22.321 -8.455 -2.92 2
-22.392 -8.533 -3.2 15
-21.512 -8.25 -3.217 15
-20.594 -7.956 -3.216 15
-19.706 -7.672 -3.213 14
-18.866 -7.402 -3.211 15
-18.139 -7.176 -3.238 16
-15.79 -7.869 1.613 2
-15.628 -7.59 1.525 20
-15.887 -7.526 1.4 20
-15.967 -7.38 1.296 13
-13.346 -6.026 1.498 3
-19.507 -8.611 0.693 3
-16.105 -6.956 1.006 20
-16.267 -6.883 0.896 29
-16.854 -6.992 0.728 21
-17.1 -6.967 0.601 2
-17.209 -6.894 0.491 18
-18.127 -7.153 0.254 28
-18.608 -7.241 0.074 23
-18.259 -7.022 0.019 5
-19.102 -7.267 -0.236 5
-43.66 -16.471 -4.681 20
-40.641 -15.221 -4.424 26
-37.988 -14.155 -4.212 4
-35.689 -13.251 -4.046 4
-24.962 -9.246 -2.125 8
-24.186 -8.955 -2.17 56
-24.282 -8.994 -2.404 0
-22.103 -8.206 -2.128 2
-21.471 -7.995 -2.192 2
-21.957 -8.213 -2.54 2
-22.503 -8.46 -2.924 2
-22.519 -8.52 -3.19 15
-21.602 -8.226 -3.199 17
-20.701 -7.943 -3.205 14
-19.803 -7.659 -3.202 13
-18.951 -7.388 -3.199 15
-18.223 -7.165 -3.228 14
-15.681 -7.765 1.631 14
-15.724 -7.586 1.525 24
-15.695 -7.384 1.43 27
-16.49 -7.568 1.253 13
-16.214 -7.268 1.188 16
-16.214 -7.104 1.097 11
-16.185 -6.935 1.011 22
-16.321 -6.85 0.906 27
-17.038 -7.011 0.722 34
-17.813 -7.198 0.521 16
-17.14 -6.808 0.522 23
-18.486 -7.233 0.224 32
-18.691 -7.21 0.087 31
-18.305 -6.977 0.038 0
-19.115 -7.209 -0.21 30
-18.906 -7.069 -0.296 0
-40.949 -15.201 -4.414 27
-38.245 -14.125 -4.197 4
-35.924 -13.222 -4.03 4
-25.101 -9.218 -2.11 9
-24.262 -8.907 -2.142 7
-24.409 -8.967 -2.388 0
-22.249 -8.193 -2.12 2
-21.645 -7.996 -2.193 1
-22.131 -8.214 -2.54 1
-22.689 -8.465 -2.928 1
-22.64 -8.502 -3.177 15
-21.699 -8.205 -3.183 17
-20.814 -7.931 -3.197 15
-19.908 -7.649 -3.194 14
-19.044 -7.376 -3.19 16
-18.308 -7.154 -3.219 14
-15.694 -7.722 1.638 22
-15.733 -7.54 1.534 25
-15.87 -7.415 1.424 18
-16.671 -7.597 1.246 16
-16.173 -7.195 1.206 22
-16.333 -7.102 1.097 14
-16.246 -6.907 1.019 31
-16.291 -6.783 0.926 10
-17.736 -7.238 0.648 10
-17.884 -7.166 0.533 25
-17.169 -6.761 0.539 29
-18.61 -7.217 0.229 25
-18.748 -7.169 0.103 22
-20.574 -7.773 -0.3 0
-19.184 -7.171 -0.193 8
-18.905 -7.006 -0.267 22
-41.261 -15.181 -4.404 27
-38.557 -14.114 -4.192 4
-36.192 -13.205 -4.021 4
-25.208 -9.177 -2.087 11
-24.375 -8.872 -2.122 3
-24.466 -8.912 -2.355 0
-22.377 -8.172 -2.107 2
-21.834 -8.002 -2.196 1
-22.313 -8.218 -2.543 1
-23.477 -8.694 -3.087 6
-22.753 -8.482 -3.162 16
-21.796 -8.183 -3.166 17
-20.924 -7.919 -3.187 15
-20.016 -7.64 -3.187 14
-19.133 -7.364 -3.179 15
-18.395 -7.144 -3.21 15
-15.711 -7.68 1.646 22
-15.814 -7.529 1.537 17
-16.118 -7.48 1.41 19
-16.627 -7.522 1.263 19
-15.928 -7.034 1.246 15
-16.252 -7.013 1.121 26
-16.329 -6.889 1.025 27
-16.242 -6.709 0.949 27
-17.74 -7.181 0.667 4
-17.937 -7.127 0.546 4
-17.649 -6.891 0.492 19
-18.612 -7.156 0.253 15
-18.75 -7.107 0.129 28
-19.545 -7.318 -0.106 14
-19.253 -7.132 -0.175 0
-18.94 -6.956 -0.244 18
-41.584 -15.163 -4.395 28
-38.851 -14.096 -4.182 4
-36.434 -13.176 -4.006 4
-25.114 -9.063 -2.024 5
-24.454 -8.825 -2.095 8
-24.557 -8.87 -2.33 0
-22.52 -8.157 -2.097 2
-21.995 -7.996 -2.192 1
-22.507 -8.225 -2.548 1
-23.784 -8.741 -3.121 38
-22.88 -8.467 -3.152 20
-21.893 -8.161 -3.15 17
-21.023 -7.901 -3.173 15
-20.107 -7.623 -3.173 13
-19.215 -7.348 -3.166 18
-18.487 -7.135 -3.202 14
-15.767 -7.658 1.65 23
-15.906 -7.522 1.538 20
-16.207 -7.469 1.412 24
-17.058 -7.662 1.231 20
-13.735 -6.021 1.499 4
-16.13 -6.907 1.149 20
-16.449 -6.884 1.026 22
-16.244 -6.655 0.965 18
-19.83 -7.96 0.414 3
-17.849 -7.032 0.579 9
-17.764 -6.876 0.497 32
-18.446 -7.029 0.302 28
-18.744 -7.041 0.155 4
-19.596 -7.271 -0.087 28
-49.46 -18.157 -5.084 6
-45.177 -16.443 -4.668 7
-41.912 -15.144 -4.386 27
-39.126 -14.069 -4.168 4
-36.699 -13.154 -3.994 4
-25.105 -8.98 -1.978 6
-24.555 -8.785 -2.072 8
-24.687 -8.842 -2.313 1
-22.666 -8.143 -2.088 2
-22.151 -7.988 -2.188 4
-22.7 -8.23 -2.551 1
-23.895 -8.714 -3.102 42
-22.993 -8.446 -3.137 16
-22.004 -8.144 -3.137 18
-21.119 -7.883 -3.159 15
-20.215 -7.614 -3.165 13
-19.307 -7.336 -3.156 15
-18.574 -7.125 -3.194 14
-17.575 -8.482 1.504 4
-16.099 -7.563 1.53 5
-15.633 -7.155 1.479 20
-16.527 -7.371 1.298 17
-17.683 -7.695 1.081 48
-16.476 -7.002 1.124 24
-16.998 -7.058 0.976 16
-16.305 -6.626 0.974 25
-19.648 -7.821 0.459 13
-17.926 -7.002 0.589 0
-17.797 -6.829 0.514 22
-18.451 -6.969 0.325 26
-19.443 -7.239 0.075 9
-19.382 -7.128 -0.026 18
-49.965 -18.175 -5.092 5
-45.516 -16.416 -4.655 11
-42.243 -15.126 -4.378 27
-39.428 -14.049 -4.158 4
-36.961 -13.129 -3.981 4
-25.07 -8.889 -1.927 4
-24.645 -8.741 -2.047 59
-24.696 -8.77 -2.27 66
-22.776 -8.114 -2.07 0
-22.352 -7.995 -2.192 2
-23.991 -8.63 -2.821 8
-24.049 -8.704 -3.095 35
-23.12 -8.43 -3.125 16
-22.119 -8.128 -3.125 18
-21.21 -7.863 -3.143 15
-20.309 -7.598 -3.153 13
-19.393 -7.322 -3.144 15
-18.662 -7.115 -3.185 13
-15.605 -7.483 1.681 28
-15.83 -7.387 1.564 3
-15.664 -7.119 1.487 21
-16.438 -7.279 1.319 17
0.0 -0.0 3.0 0
-15.936 -6.72 1.199 15
-16.762 -6.905 1.02 14
-16.454 -6.632 0.972 18
-16.392 -6.47 0.898 0
-18.038 -6.986 0.595 11
-17.938 -6.823 0.517 18
-18.518 -6.933 0.339 14
-18.315 -6.758 0.27 19
-17.804 -6.488 0.246 1
-50.455 -18.186 -5.097 6
-45.956 -16.423 -4.658 6
-42.567 -15.103 -4.366 27
-39.726 -14.028 -4.148 4
-37.219 -13.103 -3.967 4
-25.068 -8.81 -1.883 8
-24.739 -8.698 -2.022 58
-24.76 -8.718 -2.238 1
-25.526 -9.018 -2.635 11
-22.56 -8.004 -2.198 3
-23.657 -8.442 -2.694 1
-24.178 -8.683 -3.08 40
-23.248 -8.414 -3.113 15
-22.234 -8.112 -3.113 18
-21.309 -7.845 -3.129 15
-20.4 -7.581 -3.139 14
-19.489 -7.311 -3.134 15
-18.757 -7.107 -3.178 14
-16.038 -7.641 1.653 17
-15.835 -7.34 1.573 22
-15.77 -7.118 1.487 19
-16.469 -7.24 1.328 13
-18.916 -8.109 0.978 23
-16.12 -6.746 1.192 29
-16.672 -6.814 1.046 28
-16.463 -6.582 0.988 26
-16.494 -6.456 0.902 2
-18.041 -6.927 0.615 36
-18.317 -6.906 0.486 28
-18.612 -6.906 0.349 4
-18.155 -6.638 0.318 34
-17.852 -6.446 0.264 21
-50.971 -18.204 -5.105 4
-46.404 -16.431 -4.662 5
-42.903 -15.083 -4.356 26
-40.032 -14.006 -4.137 4
-37.477 -13.075 -3.952 4
-35.166 -12.248 -3.789 8
-24.836 -8.655 -1.997 42
-26.499 -9.25 -2.558 1
-25.598 -8.967 -2.603 7
-22.706 -7.99 -2.189 0
-23.558 -8.34 -2.625 4
-24.259 -8.646 -3.054 40
-23.368 -8.395 -3.099 16
-22.331 -8.088 -3.095 18
-21.394 -7.821 -3.11 15
-20.501 -7.568 -3.128 14
-19.578 -7.297 -3.123 17
-18.841 -7.095 -3.167 14
-16.234 -7.685 1.645 23
-15.84 -7.293 1.582 24
-15.709 -7.041 1.503 16
-16.365 -7.143 1.351 23
-18.862 -8.026 0.999 24
-15.993 -6.64 1.221 26
-15.903 -6.448 1.151 3
-16.491 -6.539 1.001 20
-16.421 -6.373 0.929 15
-18.646 -7.097 0.556 2
-18.488 -6.909 0.485 24
-18.452 -6.785 0.395 11
-18.04 -6.535 0.36 25
-17.672 -6.323 0.316 20
-51.511 -18.226 -5.115 5
-46.834 -16.43 -4.661 4
-43.25 -15.064 -4.347 27
-40.342 -13.985 -4.126 4
-37.753 -13.051 -3.939 4
-35.417 -12.225 -3.777 8
-24.815 -8.572 -1.949 1
-27.414 -9.487 -2.7 14
-25.607 -8.895 -2.558 4
-25.626 -8.944 -2.808 29
-24.272 -8.524 -2.75 3
-24.333 -8.605 -3.025 21
-23.503 -8.38 -3.089 16
-22.449 -8.073 -3.083 18
-21.493 -7.803 -3.096 17
-20.591 -7.55 -3.114 13
-19.674 -7.286 -3.114 16
-18.918 -7.08 -3.154 18
-16.145 -7.593 1.661 22
-16.512 -7.551 1.532 31
-16.096 -7.164 1.477 23
-15.442 -6.691 1.455 1
-18.261 -7.712 1.077 31
-15.968 -6.579 1.237 23
-17.181 -6.909 1.019 21
-16.666 -6.553 0.997 22
-16.452 -6.331 0.943 24
-18.553 -7.0 0.59 18
-18.439 -6.83 0.514 18
0.0 -0.0 3.0 0
-18.121 -6.505 0.372 21
-17.481 -6.197 0.37 19
-52.066 -18.251 -5.126 6
-47.279 -16.431 -4.662 4
-43.601 -15.045 -4.338 26
-40.641 -13.958 -4.112 4
-38.019 -13.023 -3.924 4
-35.658 -12.198 -3.761 7
-26.002 -8.902 -2.14 28
-26.983 -9.257 -2.562 24
-25.557 -8.802 -2.5 5
-25.723 -8.904 -2.782 28
-24.021 -8.369 -2.645 1
-24.308 -8.529 -2.972 3
-23.623 -8.36 -3.074 17
-22.56 -8.054 -3.069 18
-21.588 -7.783 -3.08 15
-20.689 -7.535 -3.102 13
-19.762 -7.272 -3.102 15
-19.016 -7.073 -3.148 14
-16.508 -7.714 1.64 25
-16.354 -7.428 1.556 21
-16.246 -7.181 1.474 23
-15.431 -6.638 1.468 22
-18.085 -7.58 1.11 20
-15.932 -6.512 1.255 18
-17.634 -7.035 0.983 9
-16.853 -6.572 0.991 27
-16.505 -6.298 0.954 25
-18.389 -6.878 0.632 15
-18.379 -6.747 0.544 33
0.0 -0.0 3.0 0
-18.173 -6.463 0.389 25
-17.535 -6.158 0.386 23
-52.619 -18.272 -5.135 7
-47.717 -16.428 -4.66 4
-43.975 -15.032 -4.332 23
-40.959 -13.937 -4.101 4
-38.278 -12.991 -3.907 4
-35.902 -12.169 -3.746 8
-26.093 -8.853 -2.111 29
-27.019 -9.188 -2.521 27
-25.621 -8.75 -2.467 4
-25.832 -8.867 -2.758 30
-24.386 -8.428 -2.685 13
-24.561 -8.552 -2.988 12
-23.754 -8.343 -3.062 17
-22.683 -8.04 -3.058 18
-21.701 -7.769 -3.07 16
-20.771 -7.515 -3.086 14
-19.862 -7.261 -3.093 16
-19.1 -7.06 -3.137 14
-16.589 -7.702 1.642 22
-16.413 -7.406 1.56 21
-16.215 -7.117 1.487 25
-15.457 -6.6 1.476 20
-15.838 -6.588 1.358 0
-16.124 -6.54 1.248 12
-17.307 -6.848 1.036 16
-16.75 -6.477 1.02 7
-16.558 -6.263 0.965 21
-17.078 -6.331 0.82 0
-18.356 -6.678 0.57 9
-18.298 -6.547 0.487 14
-18.116 -6.383 0.421 19
-17.616 -6.128 0.399 19
-17.909 -6.16 0.257 29
-48.152 -16.42 -4.657 4
-44.312 -15.004 -4.318 20
-41.262 -13.909 -4.087 3
-38.559 -12.965 -3.894 4
-36.146 -12.14 -3.729 7
-26.183 -8.805 -2.084 30
-26.571 -8.957 -2.382 25
-25.733 -8.713 -2.444 3
-25.93 -8.826 -2.732 33
-24.323 -8.338 -2.624 7
-24.617 -8.504 -2.954 34
-23.867 -8.32 -3.045 16
-22.794 -8.02 -3.044 18
-21.811 -7.754 -3.058 16
-20.865 -7.498 -3.072 13
-19.958 -7.25 -3.083 15
-19.188 -7.048 -3.127 13
-16.594 -7.655 1.65 28
-16.643 -7.459 1.55 20
-16.617 -7.242 1.461 11
-15.552 -6.592 1.478 8
-15.812 -6.527 1.373 23
-16.291 -6.555 1.244 12
-17.435 -6.842 1.038 12
-16.633 -6.378 1.05 24
-16.704 -6.264 0.965 26
-17.176 -6.311 0.827 6
-18.158 -6.545 0.618 11
-18.013 -6.385 0.549 21
-18.1 -6.317 0.448 11
-17.64 -6.079 0.42 20
-17.847 -6.081 0.293 27
-48.636 -16.428 -4.66 4
-44.709 -14.995 -4.314 6
-41.588 -13.887 -4.076 4
-38.844 -12.939 -3.88 4
-36.395 -12.111 -3.713 8
-26.281 -8.758 -2.057 31
-26.565 -8.876 -2.333 19
-25.864 -8.682 -2.425 3
-26.038 -8.789 -2.708 33
-24.063 -8.182 -2.519 25
-24.66 -8.452 -2.918 3
-24.009 -8.306 -3.035 16
-22.905 -8.001 -3.029 19
-21.917 -7.737 -3.045 15
-20.955 -7.48 -3.057 14
-20.054 -7.238 -3.073 15
-19.275 -7.037 -3.117 14
-16.729 -7.668 1.648 21
-17.114 -7.618 1.519 17
-16.476 -7.13 1.484 17
-16.888 -7.107 1.359 11
-15.864 -6.499 1.38 22
-16.277 -6.498 1.259 24
-16.165 -6.293 1.196 26
-16.648 -6.33 1.065 10
-16.534 -6.146 1.003 2
-17.141 -6.243 0.85 17
-17.319 -6.186 0.748 2
-18.113 -6.361 0.558 14
-18.32 -6.335 0.441 5
-17.56 -5.993 0.456 25
-17.853 -6.024 0.318 28
-49.154 -16.444 -4.668 4
-45.113 -14.986 -4.309 6
-41.895 -13.856 -4.06 4
-39.129 -12.912 -3.865 4
-36.658 -12.086 -3.7 7
-26.361 -8.705 -2.026 31
-26.566 -8.797 -2.286 3
-26.017 -8.658 -2.41 3
-26.184 -8.765 -2.692 36
-24.076 -8.12 -2.477 43
-24.974 -8.492 -2.946 27
-24.14 -8.288 -3.021 17
-23.016 -7.981 -3.014 19
-22.012 -7.717 -3.029 15
-21.045 -7.462 -3.042 13
-20.15 -7.225 -3.063 15
-19.356 -7.023 -3.105 13
-16.93 -7.709 1.641 18
-17.025 -7.528 1.537 24
-16.465 -7.075 1.496 26
-16.235 -6.782 1.434 8
-15.878 -6.456 1.39 31
-16.336 -6.471 1.266 18
-16.232 -6.266 1.203 25
-16.671 -6.285 1.078 28
-16.426 -6.054 1.033 14
-17.074 -6.162 0.878 25
-17.23 -6.098 0.78 30
-18.085 -6.292 0.585 13
-17.819 -6.103 0.534 8
-17.554 -5.934 0.481 19
-17.919 -5.989 0.334 21
-49.553 -16.417 -4.655 9
-45.481 -14.963 -4.298 5
-42.217 -13.829 -4.046 4
-39.395 -12.877 -3.847 4
-36.918 -12.058 -3.684 7
-26.608 -8.707 -2.027 45
-26.844 -8.81 -2.294 37
-26.599 -8.774 -2.483 27
-26.288 -8.725 -2.666 38
-24.163 -8.083 -2.452 20
-24.77 -8.357 -2.851 3
-24.275 -8.271 -3.009 16
-23.135 -7.963 -3.001 21
-22.118 -7.699 -3.015 15
-21.15 -7.448 -3.031 14
-20.246 -7.212 -3.052 16
-19.439 -7.009 -3.093 14
-16.942 -7.664 1.649 22
-17.022 -7.475 1.547 26
-16.44 -7.014 1.509 23
-16.242 -6.735 1.445 19
-16.066 -6.482 1.384 25
-16.703 -6.563 1.241 14
-16.235 -6.217 1.217 28
-16.675 -6.233 1.094 23
-16.37 -5.98 1.057 31
-17.131 -6.127 0.89 2
-18.082 -6.341 0.692 13
-18.563 -6.398 0.544 4
-17.892 -6.07 0.548 13
-17.728 -5.935 0.481 16
-17.838 -5.904 0.371 20
-50.016 -16.409 -4.652 9
-45.902 -14.954 -4.294 5
-42.54 -13.801 -4.032 4
-39.711 -12.856 -3.836 4
-37.166 -12.026 -3.666 7
-26.785 -8.684 -2.013 45
-26.998 -8.781 -2.276 25
-26.581 -8.692 -2.431 11
-26.426 -8.696 -2.647 40
-24.792 -8.225 -2.548 19
-25.505 -8.536 -2.977 33
-24.417 -8.256 -2.998 17
-23.257 -7.946 -2.988 17
-22.239 -7.687 -3.005 15
-21.244 -7.431 -3.017 15
-20.338 -7.198 -3.04 16
-19.52 -6.995 -3.08 14
-16.881 -7.587 1.662 22
-16.457 -7.178 1.605 22
-15.996 -6.777 1.56 22
-16.74 -6.89 1.409 19
-16.048 -6.424 1.398 22
-16.432 -6.405 1.284 19
-16.562 -6.289 1.197 24
-16.761 -6.212 1.101 9
-16.359 -5.923 1.076 24
-18.484 -6.552 0.744 8
-18.17 -6.312 0.702 18
0.0 -0.0 3.0 0
-17.848 -5.997 0.577 16
-17.989 -5.963 0.469 13
-17.843 -5.847 0.397 25
-50.521 -16.412 -4.653 9
-46.289 -14.933 -4.283 5
-42.867 -13.771 -4.017 4
-40.008 -12.827 -3.82 4
-37.419 -11.993 -3.648 7
-26.916 -8.645 -1.991 37
-27.01 -8.706 -2.231 16
-27.048 -8.767 -2.478 49
-26.494 -8.644 -2.613 36
-25.118 -8.264 -2.574 27
-25.53 -8.477 -2.935 35
-24.552 -8.238 -2.985 18
-23.379 -7.93 -2.975 16
-22.345 -7.669 -2.991 16
-21.348 -7.417 -3.006 15
-20.438 -7.187 -3.03 17
-19.607 -6.983 -3.07 14
-16.831 -7.516 1.675 21
-16.387 -7.099 1.62 20
-16.22 -6.823 1.55 25
-16.216 -6.625 1.47 1
-16.203 -6.437 1.395 14
-16.555 -6.401 1.285 19
-16.95 -6.383 1.17 20
-16.765 -6.16 1.117 9
-16.418 -5.892 1.086 26
-17.953 -6.305 0.829 5
-18.498 -6.367 0.683 27
0.0 -0.0 3.0 0
-17.94 -5.969 0.588 18
-18.039 -5.922 0.486 23
-17.836 -5.788 0.423 19
-51.014 -16.409 -4.652 9
-46.71 -14.92 -4.277 5
-43.19 -13.74 -4.001 5
-40.32 -12.803 -3.808 4
-37.671 -11.959 -3.629 7
-26.781 -8.522 -1.92 36
-27.003 -8.624 -2.182 35
-26.876 -8.634 -2.395 46
-26.613 -8.609 -2.591 36
-25.131 -8.201 -2.531 19
-25.607 -8.434 -2.906 42
-24.698 -8.223 -2.975 18
-23.501 -7.912 -2.962 15
-22.447 -7.649 -2.976 15
-21.438 -7.397 -2.99 16
-20.533 -7.174 -3.02 16
-19.698 -6.972 -3.06 14
-16.835 -7.469 1.683 17
-16.585 -7.136 1.613 19
-16.491 -6.888 1.536 17
-16.105 -6.531 1.492 23
-16.395 -6.463 1.389 20
-16.491 -6.325 1.305 14
-16.972 -6.338 1.183 20
-17.408 -6.341 1.061 7
-16.571 -5.894 1.085 24
-17.452 -6.073 0.909 16
-18.673 -6.366 0.683 22
0.0 -0.0 3.0 0
-17.926 -5.906 0.614 11
-18.086 -5.878 0.505 19
-17.849 -5.734 0.447 12
-51.509 -16.403 -4.649 7
-47.101 -14.896 -4.265 5
-43.532 -13.711 -3.986 4
-40.613 -12.77 -3.79 3
-37.931 -11.926 -3.611 7
-26.8 -8.448 -1.878 46
-26.879 -8.505 -2.111 23
-26.577 -8.462 -2.288 48
-26.8 -8.595 -2.581 41
-25.197 -8.153 -2.499 19
-25.654 -8.382 -2.869 29
-24.844 -8.208 -2.964 18
-23.631 -7.897 -2.951 15
-22.557 -7.632 -2.963 15
-21.546 -7.384 -2.979 14
-20.629 -7.161 -3.008 15
-19.781 -6.958 -3.048 14
-17.214 -7.587 1.662 25
-16.629 -7.106 1.619 22
-16.591 -6.88 1.538 19
-16.159 -6.504 1.498 20
-16.416 -6.421 1.399 23
-16.692 -6.351 1.298 20
-16.711 -6.188 1.226 14
-17.434 -6.296 1.075 7
-16.649 -5.868 1.093 28
-17.253 -5.948 0.952 29
-18.682 -6.31 0.703 15
-88.268 -29.275 -8.237 9
-17.953 -5.857 0.634 5
-18.256 -5.875 0.506 2
-57.937 -18.427 -5.204 10
-52.057 -16.411 -4.653 5
-47.55 -14.887 -4.261 5
-43.893 -13.689 -3.975 7
-40.956 -12.752 -3.78 4
-38.199 -11.894 -3.593 8
-26.912 -8.403 -1.851 48
-26.897 -8.433 -2.067 8
-26.617 -8.399 -2.248 56
-26.881 -8.546 -2.55 67
-25.392 -8.148 -2.496 24
-25.619 -8.304 -2.814 33
-24.983 -8.19 -2.95 18
-23.745 -7.877 -2.935 15
-22.659 -7.612 -2.947 14
-21.654 -7.371 -2.969 15
-20.732 -7.15 -2.999 16
-19.861 -6.942 -3.035 20
-17.08 -7.479 1.681 18
-17.172 -7.289 1.583 26
-16.177 -6.661 1.584 20
-16.195 -6.47 1.506 18
-16.657 -6.465 1.388 4
-16.691 -6.299 1.312 28
-17.297 -6.352 1.179 58
-17.378 -6.22 1.098 16
-16.634 -5.81 1.112 18
-16.323 -5.576 1.08 20
-18.672 -6.245 0.727 5
0.0 -0.0 3.0 0
-17.957 -5.8 0.657 10
0.0 -0.0 3.0 0
-58.435 -18.397 -5.191 8
-52.582 -16.409 -4.652 4
-47.972 -14.868 -4.251 5
-44.236 -13.657 -3.958 9
-41.273 -12.723 -3.765 4
-38.452 -11.857 -3.572 7
-26.994 -8.349 -1.82 24
-26.863 -8.344 -2.014 36
-26.71 -8.353 -2.219 46
-26.929 -8.487 -2.512 37
-25.472 -8.105 -2.467 26
-25.927 -8.335 -2.836 37
-25.118 -8.17 -2.936 19
-23.879 -7.862 -2.924 16
-22.787 -7.6 -2.938 15
-21.766 -7.359 -2.959 15
-20.839 -7.139 -2.991 15
-19.974 -6.939 -3.032 14
-17.321 -7.535 1.671 34
-17.146 -7.228 1.595 23
-16.172 -6.612 1.595 14
-16.506 -6.545 1.489 29
-16.303 -6.278 1.435 11
-16.661 -6.237 1.329 27
-17.398 -6.335 1.183 15
-16.88 -5.99 1.169 5
-16.715 -5.786 1.12 22
-16.405 -5.552 1.088 21
-18.892 -6.259 0.722 3
-19.008 -6.182 0.627 9
0.0 -0.0 3.0 0
0.0 -0.0 3.0 0
-59.229 -18.458 -5.218 3
-53.139 -16.414 -4.654 5
-48.425 -14.855 -4.245 5
-44.586 -13.626 -3.943 4
-41.586 -12.692 -3.749 4
-38.735 -11.828 -3.556 7
-36.304 -11.12 -3.42 10
-26.827 -8.256 -1.96 44
-26.836 -8.316 -2.196 65
-27.037 -8.446 -2.485 35
-25.582 -8.072 -2.444 21
-26.342 -8.401 -2.882 38
-25.26 -8.153 -2.923 19
-24.008 -7.845 -2.912 14
-22.896 -7.583 -2.924 14
-21.877 -7.345 -2.948 15
-20.945 -7.129 -2.982 16
-20.083 -6.933 -3.027 14
-17.123 -7.401 1.695 5
-17.315 -7.25 1.591 19
-16.489 -6.692 1.578 12
-16.308 -6.419 1.518 25
-16.216 -6.195 1.455 18
-16.727 -6.21 1.336 25
-16.57 -5.982 1.285 1
-16.766 -5.896 1.197 26
-16.951 -5.814 1.111 17
-16.415 -5.502 1.106 27
-21.129 -6.933 0.477 28
-19.02 -6.124 0.649 18
-77.753 -24.614 -6.945 6
0.0 -0.0 3.0 0
-18.059 -5.57 0.52 6
-53.828 -16.456 -4.673 11
-48.833 -14.827 -4.232 15
-44.986 -13.609 -3.934 4
-41.91 -12.663 -3.733 3
-39.003 -11.792 -3.537 6
-36.528 -11.081 -3.398 9
-26.988 -8.227 -1.943 47
-26.907 -8.262 -2.163 45
-27.156 -8.409 -2.461 28
-25.707 -8.042 -2.424 24
-26.482 -8.377 -2.865 26
-25.391 -8.131 -2.908 18
-24.167 -7.838 -2.906 15
-23.02 -7.569 -2.914 16
-21.967 -7.326 -2.932 15
-21.03 -7.112 -2.967 16
-20.163 -6.917 -3.013 10
-17.13 -7.356 1.703 23
-15.863 -6.596 1.718 7
-17.682 -7.126 1.485 22
-16.258 -6.35 1.534 19
-16.311 -6.183 1.458 20
-16.711 -6.153 1.351 17
-16.471 -5.895 1.31 26
-16.746 -5.837 1.215 27
-17.056 -5.795 1.117 25
-16.455 -5.463 1.119 23
-18.993 -6.171 0.754 10
-18.984 -6.052 0.677 13
0.0 -0.0 3.0 0
-20.993 -6.486 0.247 19
-18.047 -5.509 0.547 24
-54.287 -16.424 -4.659 18
-49.268 -14.804 -4.22 13
-45.363 -13.582 -3.921 4
-42.238 -12.633 -3.717 2
-39.279 -11.757 -3.517 7
-36.774 -11.047 -3.378 9
-27.077 -8.177 -1.913 25
-27.048 -8.229 -2.142 6
-27.268 -8.369 -2.435 28
-25.854 -8.019 -2.409 13
-26.193 -8.217 -2.753 24
-25.522 -8.109 -2.892 17
-24.304 -7.823 -2.895 15
-23.137 -7.553 -2.901 15
-22.071 -7.31 -2.919 16
-21.126 -7.097 -2.955 15
-20.242 -6.902 -2.999 10
-17.24 -7.355 1.703 21
-15.839 -6.541 1.729 12
-16.483 -6.594 1.598 0
-16.257 -6.302 1.545 32
-16.366 -6.155 1.465 29
-16.672 -6.088 1.369 21
-16.507 -5.858 1.32 18
-16.756 -5.789 1.23 20
-17.176 -5.782 1.121 20
-16.464 -5.415 1.136 19
-19.013 -6.116 0.774 11
-19.019 -6.002 0.696 9
0.0 -0.0 3.0 0
-20.897 -6.39 0.288 34
-18.047 -5.451 0.573 19
-54.876 -16.429 -4.661 17
-49.74 -14.791 -4.214 13
-45.775 -13.564 -3.911 5
-42.612 -12.615 -3.708 2
-39.582 -11.729 -3.502 7
-37.006 -11.009 -3.356 9
-27.241 -8.148 -1.896 20
-27.182 -8.194 -2.12 5
-27.379 -8.328 -2.408 37
-25.881 -7.959 -2.368 13
-26.015 -8.094 -2.668 31
-25.702 -8.102 -2.886 19
-24.437 -7.807 -2.883 16
-23.257 -7.538 -2.889 16
-22.186 -7.298 -2.91 15
-21.221 -7.083 -2.943 16
-20.333 -6.889 -2.989 11
-17.408 -7.378 1.699 33
-15.874 -6.511 1.734 0
-16.481 -6.546 1.609 18
-16.165 -6.22 1.564 20
-16.431 -6.13 1.472 20
-16.581 -6.005 1.391 26
-16.577 -5.832 1.328 17
-16.773 -5.743 1.244 15
-17.28 -5.764 1.127 16
-16.523 -5.382 1.147 29
-16.361 -5.212 1.103 0
-18.993 -5.933 0.722 1
-20.817 -6.39 0.418 10
-20.885 -6.319 0.318 15
-18.077 -5.403 0.594 10
-55.491 -16.438 -4.665 17
-50.248 -14.785 -4.211 15
-46.149 -13.533 -3.895 5
-42.941 -12.582 -3.69 4
-39.854 -11.691 -3.481 7
-37.264 -10.976 -3.337 8
-27.398 -8.116 -1.877 18
-27.263 -8.143 -2.088 9
-27.494 -8.289 -2.383 37
-25.998 -7.926 -2.346 24
-26.045 -8.037 -2.627 26
-25.848 -8.084 -2.873 19
-24.544 -7.783 -2.865 19
-23.367 -7.519 -2.875 12
-22.291 -7.282 -2.897 15
-21.328 -7.072 -2.934 15
-20.427 -6.878 -2.979 16
-17.297 -7.283 1.716 17
-17.268 -7.034 1.633 20
-16.034 -6.323 1.656 21
-16.182 -6.179 1.573 24
-16.242 -6.012 1.501 21
-16.703 -5.999 1.393 24
-16.481 -5.749 1.352 20
-16.764 -5.688 1.261 23
-17.422 -5.758 1.129 15
-17.043 -5.498 1.107 28
-19.055 -6.01 0.813 22
-20.235 -6.258 0.598 14
-20.458 -6.215 0.489 20
-20.777 -6.221 0.359 31
0.0 -0.0 3.0 0
-56.088 -16.439 -4.665 16
-50.718 -14.765 -4.201 17
-46.561 -13.51 -3.884 5
-43.259 -12.544 -3.67 4
-40.172 -11.665 -3.466 7
-37.499 -10.936 -3.314 9
-27.604 -8.098 -1.866 12
-28.412 -8.407 -2.253 1
-27.616 -8.251 -2.358 37
-26.156 -7.905 -2.332 21
-26.166 -8.007 -2.607 25
-25.979 -8.06 -2.856 23
-24.674 -7.764 -2.851 20
-23.476 -7.5 -2.859 16
-22.406 -7.27 -2.887 15
-21.438 -7.063 -2.926 16
-20.525 -6.869 -2.971 14
-17.304 -7.239 1.724 11
-17.352 -7.019 1.636 2
-16.05 -6.284 1.664 27
-16.097 -6.1 1.592 25
-16.176 -5.94 1.519 26
-16.667 -5.937 1.409 16
-16.757 -5.794 1.339 19
-16.762 -5.636 1.277 25
-16.997 -5.564 1.192 26
-17.125 -5.471 1.116 25
-19.15 -5.979 0.824 16
-20.21 -6.185 0.626 33
-20.326 -6.111 0.531 19
-20.847 -6.175 0.379 16
-63.515 -18.582 -5.273 3
-56.739 -16.45 -4.671 16
-51.215 -14.75 -4.194 15
-46.997 -13.492 -3.874 4
-43.622 -12.517 -3.656 5
-40.46 -11.628 -3.446 7
-37.799 -10.914 -3.301 14
-27.821 -8.083 -1.857 10
-28.396 -8.323 -2.201 5
-27.738 -8.212 -2.333 36
-26.261 -7.869 -2.308 22
-26.301 -7.981 -2.589 24
-26.117 -8.039 -2.841 25
-24.799 -7.745 -2.836 20
-23.604 -7.487 -2.849 15
-22.513 -7.254 -2.875 15
-21.537 -7.049 -2.915 15
-20.608 -6.853 -2.957 15
-17.336 -7.204 1.73 24
-17.303 -6.951 1.649 2
-16.46 -6.398 1.64 17
-16.188 -6.088 1.594 29
-16.264 -5.925 1.523 20
-17.003 -6.006 1.391 17
-16.702 -5.724 1.359 23
-16.771 -5.587 1.292 13
-17.003 -5.513 1.209 15
-17.241 -5.454 1.122 27
-17.129 -5.295 1.073 0
-20.142 -6.101 0.658 31
-20.522 -6.104 0.534 25
-20.475 -6.001 0.453 17
-64.264 -18.598 -5.28 5
-57.296 -16.432 -4.662 14
-51.743 -14.741 -4.19 13
-47.406 -13.464 -3.86 5
-43.944 -12.477 -3.634 9
-40.782 -11.6 -3.43 6
-38.019 -10.867 -3.274 11
-35.623 -10.249 -3.158 6
-28.481 -8.27 -2.168 4
-27.864 -8.175 -2.309 35
-26.356 -7.829 -2.281 26
-26.399 -7.945 -2.563 20
-26.248 -8.015 -2.824 23
-24.925 -7.725 -2.821 20
-23.713 -7.467 -2.834 15
-22.629 -7.242 -2.864 14
-21.65 -7.04 -2.907 15
-20.695 -6.84 -2.946 15
-17.932 -7.403 1.695 18
-18.313 -7.307 1.58 22
-16.484 -6.36 1.648 0
-16.137 -6.022 1.61 20
-16.197 -5.853 1.541 24
-16.907 -5.922 1.413 14
-16.636 -5.651 1.379 23
-16.746 -5.529 1.31 25
-16.895 -5.426 1.237 9
-17.224 -5.395 1.142 25
-17.036 -5.212 1.103 18
-18.917 -5.671 0.823 23
0.0 -0.0 3.0 0
-20.66 -5.989 0.458 19
0.0 -0.0 3.0 0
-57.921 -16.43 -4.662 11
-52.237 -14.72 -4.18 13
-47.842 -13.442 -3.849 6
-44.212 -12.42 -3.604 7
-41.092 -11.567 -3.412 7
-37.889 -10.72 -3.189 14
-35.821 -10.205 -3.132 7
0.0 -0.0 3.0 0
-27.99 -8.137 -2.284 35
-26.472 -7.794 -2.257 24
-26.429 -7.887 -2.522 26
-26.372 -7.989 -2.804 26
-25.077 -7.713 -2.812 17
-23.841 -7.453 -2.823 16
-22.74 -7.227 -2.852 15
-21.757 -7.028 -2.897 13
-20.785 -6.827 -2.934 16
-17.026 -6.984 1.769 7
-18.29 -7.248 1.591 27
-17.807 -6.821 1.55 22
-16.1 -5.962 1.623 26
-16.205 -5.809 1.552 17
-16.852 -5.853 1.432 21
-16.335 -5.501 1.423 26
-16.744 -5.476 1.326 18
-16.813 -5.348 1.262 21
-17.199 -5.333 1.164 14
-16.965 -5.137 1.13 28
-18.863 -5.595 0.852 33
-19.703 -5.737 0.682 31
-20.703 -5.937 0.48 9
0.0 -0.0 3.0 0
-58.753 -16.483 -4.686 3
-52.754 -14.703 -4.171 4
-48.232 -13.404 -3.83 19
-44.61 -12.398 -3.592 4
-41.415 -11.536 -3.394 7
-37.793 -10.584 -3.111 14
-36.069 -10.174 -3.113 7
-28.063 -7.994 -1.995 1
-28.124 -8.1 -2.26 35
-26.645 -7.776 -2.245 26
-26.568 -7.862 -2.505 21
-26.484 -7.959 -2.782 21
-25.209 -7.695 -2.799 16
-23.961 -7.436 -2.81 15
-22.862 -7.216 -2.844 14
-21.855 -7.014 -2.886 13
-20.875 -6.814 -2.924 15
-17.002 -6.929 1.778 23
-18.404 -7.243 1.592 18
-17.858 -6.791 1.557 23
-16.082 -5.91 1.636 27
-16.15 -5.743 1.568 22
-16.962 -5.841 1.435 20
-16.475 -5.499 1.423 18
-16.692 -5.409 1.346 20
-16.874 -5.316 1.273 19
-17.2 -5.28 1.182 7
-17.004 -5.096 1.145 21
-18.954 -5.563 0.865 22
-19.753 -5.689 0.702 22
-20.765 -5.889 0.5 19
0.0 -0.0 3.0 0
-59.388 -16.476 -4.683 3
-53.394 -14.717 -4.178 5
-48.642 -13.369 -3.812 20
-44.959 -12.36 -3.572 4
-41.741 -11.503 -3.376 6
-37.94 -10.516 -3.071 10
-36.321 -10.143 -3.094 8
-28.041 -7.911 -1.943 18
-28.253 -8.062 -2.236 35
-26.826 -7.76 -2.234 26
-27.034 -7.932 -2.554 11
-26.611 -7.932 -2.763 25
-25.339 -7.675 -2.784 15
-24.085 -7.42 -2.797 17
-22.985 -7.205 -2.834 14
-21.962 -7.002 -2.876 11
-20.972 -6.804 -2.914 16
-16.974 -6.872 1.788 17
-18.31 -7.156 1.609 25
-17.901 -6.757 1.564 16
-16.18 -5.901 1.638 25
-16.248 -5.731 1.571 15
-16.941 -5.784 1.45 9
-16.438 -5.437 1.441 23
-16.893 -5.423 1.342 19
-16.852 -5.257 1.292 18
-16.805 -5.108 1.241 8
-17.154 -5.088 1.148 21
-19.052 -5.531 0.877 18
-19.975 -5.689 0.701 19
-20.387 -5.718 0.573 1
0.0 -0.0 3.0 0
-60.084 -16.482 -4.686 4
-53.946 -14.702 -4.171 4
-49.087 -13.342 -3.798 19
-45.308 -12.32 -3.551 5
-42.06 -11.468 -3.357 6
-38.061 -10.44 -3.028 20
-36.588 -10.115 -3.078 31
-34.359 -9.6 -2.999 6
-28.352 -8.016 -2.206 1
-26.92 -7.718 -2.206 27
-27.018 -7.861 -2.504 11
-26.727 -7.903 -2.742 35
-25.483 -7.66 -2.772 16
-24.231 -7.411 -2.79 12
-23.107 -7.193 -2.825 15
-22.079 -6.994 -2.869 16
-21.081 -6.797 -2.908 14
-16.997 -6.837 1.794 16
-17.699 -6.869 1.665 53
-17.645 -6.613 1.594 18
-16.293 -5.897 1.639 26
-16.779 -5.87 1.536 25
-16.84 -5.701 1.472 25
-16.764 -5.496 1.424 18
0.0 -0.0 3.0 0
-16.781 -5.184 1.316 10
-16.844 -5.068 1.255 5
-17.285 -5.073 1.154 13
-19.066 -5.476 0.898 20
-19.699 -5.549 0.758 18
-20.395 -5.656 0.599 10
0.0 -0.0 3.0 0
-60.796 -16.488 -4.689 4
-54.542 -14.697 -4.168 5
-49.528 -13.312 -3.783 19
-45.688 -12.287 -3.533 4
-42.436 -11.446 -3.345 6
-38.356 -10.411 -3.011 16
-36.733 -10.053 -3.041 33
-34.563 -9.563 -2.975 6
-32.541 -9.115 -2.919 5
-27.029 -7.68 -2.18 28
-26.942 -7.772 -2.442 23
-26.858 -7.877 -2.723 31
-25.634 -7.646 -2.762 12
-24.377 -7.402 -2.783 16
-23.229 -7.182 -2.816 14
-22.189 -6.983 -2.859 15
-21.167 -6.783 -2.896 15
-18.44 -7.368 1.701 19
-17.555 -6.767 1.685 25
-17.568 -6.536 1.611 17
-16.465 -5.912 1.635 24
-16.783 -5.824 1.548 16
-16.878 -5.665 1.482 18
-16.139 -5.243 1.497 20
-16.287 -5.132 1.431 18
-16.865 -5.159 1.324 4
-16.799 -5.002 1.278 7
-17.61 -5.114 1.139 0
-19.141 -5.438 0.913 15
-19.583 -5.456 0.796 28
-21.79 -5.975 0.464 1
-69.545 -18.819 -5.379 10
-61.49 -16.487 -4.688 3
-55.172 -14.698 -4.169 8
-49.984 -13.283 -3.768 18
-46.068 -12.252 -3.515 5
-42.762 -11.41 -3.325 6
-38.518 -10.345 -2.973 23
-36.993 -10.021 -3.021 11
-34.79 -9.531 -2.956 7
-32.765 -9.091 -2.904 4
-27.338 -7.698 -2.192 29
-27.153 -7.766 -2.438 7
-26.981 -7.85 -2.703 42
-25.79 -7.633 -2.752 14
-24.516 -7.39 -2.773 15
-23.359 -7.172 -2.808 14
-22.298 -6.971 -2.85 15
-21.265 -6.772 -2.886 15
-18.483 -7.338 1.706 19
-17.538 -6.713 1.695 19
-17.581 -6.493 1.62 12
-17.521 -6.243 1.559 25
-16.738 -5.762 1.563 24
-16.916 -5.63 1.492 10
-16.036 -5.163 1.52 19
-16.264 -5.076 1.448 23
-18.009 -5.454 1.228 14
-16.608 -4.895 1.315 13
-19.505 -5.604 0.96 15
-19.274 -5.416 0.921 24
-19.632 -5.408 0.815 19
-21.791 -5.907 0.493 16
-70.285 -18.801 -5.371 13
0.0 -0.0 3.0 0
-55.791 -14.691 -4.165 8
-50.46 -13.257 -3.755 17
-46.451 -12.216 -3.495 4
-43.124 -11.381 -3.308 7
-38.592 -10.255 -2.921 16
-37.329 -10.008 -3.014 11
-35.005 -9.496 -2.934 7
-32.959 -9.059 -2.883 5
-27.394 -7.645 -2.156 27
-27.231 -7.722 -2.407 28
-27.111 -7.823 -2.684 35
-25.953 -7.623 -2.744 16
-24.651 -7.376 -2.763 13
-23.496 -7.164 -2.801 20
-22.393 -6.955 -2.836 16
-21.354 -6.758 -2.875 15
-18.496 -7.295 1.714 12
-17.434 -6.627 1.712 22
-17.51 -6.42 1.635 13
-17.582 -6.217 1.565 19
-16.682 -5.694 1.58 23
-16.572 -5.467 1.535 8
-15.903 -5.073 1.545 20
-16.298 -5.038 1.46 23
-18.159 -5.445 1.231 13
-16.608 -4.844 1.332 25
-19.611 -5.574 0.971 17
0.0 -0.0 3.0 0
-19.592 -5.336 0.844 20
-19.767 -5.297 0.752 0
0.0 -0.0 3.0 0
0.0 -0.0 3.0 0
-56.368 -14.671 -4.156 8
-50.94 -13.23 -3.741 19
-46.832 -12.177 -3.475 5
-43.481 -11.348 -3.29 7
-38.696 -10.173 -2.874 9
-37.565 -9.968 -2.989 10
-35.22 -9.46 -2.911 7
-33.172 -9.031 -2.865 5
-27.563 -7.622 -2.141 22
-27.683 -7.782 -2.449 14
-27.276 -7.806 -2.671 39
-26.1 -7.607 -2.732 14
-24.778 -7.36 -2.75 13
-23.615 -7.151 -2.791 13
-22.507 -6.945 -2.828 16
-21.452 -6.747 -2.865 15
-34.572 -13.546 0.611 8
-17.443 -6.584 1.72 1
-17.496 -6.367 1.647 12
-17.767 -6.233 1.561 18
-16.678 -5.646 1.592 23
-16.519 -5.402 1.553 15
-15.94 -5.039 1.555 22
-16.61 -5.085 1.445 23
-20.959 -6.222 0.978 18
-16.646 -4.805 1.346 13
-19.663 -5.529 0.988 27
-19.689 -5.411 0.923 2
-19.687 -5.3 0.859 21
-19.755 -5.232 0.779 6
0.0 -0.0 3.0 0
-63.797 -16.514 -4.701 7
-56.93 -14.644 -4.142 6
-51.444 -13.206 -3.729 20
-47.281 -12.154 -3.462 5
-43.839 -11.315 -3.272 7
-38.888 -10.114 -2.839 3
-37.775 -9.919 -2.96 12
-35.435 -9.422 -2.888 8
-31.207 -8.415 -2.465 24
-27.77 -7.61 -2.133 13
-27.337 -7.619 -2.335 29
-27.41 -7.781 -2.653 35
-26.256 -7.593 -2.722 14
-24.917 -7.347 -2.74 11
-23.741 -7.139 -2.781 13
-22.601 -6.929 -2.814 8
-21.545 -6.735 -2.855 15
-34.755 -13.53 0.614 13
-19.039 -7.137 1.613 6
-17.493 -6.32 1.657 15
-17.659 -6.147 1.581 0
-16.742 -5.622 1.598 18
-16.484 -5.345 1.568 9
-15.92 -4.987 1.57 22
-16.582 -5.028 1.463 25
-20.966 -6.162 0.998 22
-16.645 -4.754 1.363 7
-19.715 -5.483 1.004 11
-20.559 -5.586 0.856 14
-93.842 -24.977 -7.091 11
-19.526 -5.111 0.831 1
0.0 -0.0 3.0 0
-64.435 -16.481 -4.685 4
-57.636 -14.65 -4.145 3
-51.855 -13.155 -3.703 11
-47.631 -12.103 -3.435 10
-44.174 -11.273 -3.249 6
-39.874 -10.258 -2.922 12
-37.878 -9.842 -2.914 21
-35.665 -9.388 -2.867 8
-31.25 -8.346 -2.42 16
-27.913 -7.58 -2.112 16
-27.339 -7.553 -2.289 39
-27.574 -7.763 -2.64 39
-26.411 -7.579 -2.711 14
-25.052 -7.333 -2.729 13
-23.87 -7.129 -2.773 14
-22.729 -6.923 -2.809 14
-21.642 -6.723 -2.845 16
-35.847 -13.864 0.555 29
-38.264 -14.246 0.231 28
-15.995 -5.736 1.781 0
-18.315 -6.327 1.539 42
-16.783 -5.59 1.606 20
-16.521 -5.31 1.577 0
-16.688 -5.179 1.515 19
-16.536 -4.965 1.482 18
-20.659 -6.01 1.047 24
-18.549 -5.243 1.195 2
-121.606 -33.449 -9.174 26
-20.589 -5.531 0.877 26
-20.672 -5.438 0.803 25
0.0 -0.0 3.0 0
0.0 -0.0 3.0 0
-65.166 -16.468 -4.679 3
-58.291 -14.639 -4.14 4
-52.474 -13.155 -3.703 4
-38.547 -9.681 -2.147 6
-38.671 -9.757 -2.409 3
-37.971 -9.661 -2.578 5
-37.965 -9.761 -2.865 15
-35.873 -9.348 -2.841 7
-33.772 -8.932 -2.801 4
-28.105 -7.562 -2.1 9
-27.553 -7.546 -2.284 25
-27.629 -7.715 -2.605 40
-26.547 -7.559 -2.696 17
-25.183 -7.317 -2.717 13
-23.974 -7.11 -2.758 13
-22.835 -6.91 -2.798 15
-21.735 -6.711 -2.834 15
-35.889 -13.79 0.568 48
-38.455 -14.218 0.236 29
-15.949 -5.678 1.793 4
-17.475 -5.989 1.617 22
-17.555 -5.798 1.554 21
-17.584 -5.602 1.499 22
-16.729 -5.144 1.525 4
-16.634 -4.946 1.488 13
-19.578 -5.638 1.168 2
-19.885 -5.56 1.086 19
-121.727 -33.112 -9.052 63
-20.641 -5.482 0.896 17
-20.702 -5.381 0.826 20
0.0 -0.0 3.0 0
0.0 -0.0 3.0 0
0.0 -0.0 3.0 0
-58.932 -14.622 -4.131 4
-38.592 -9.559 -1.871 4
-38.63 -9.589 -2.098 255
-44.871 -11.192 -3.204 6
-40.593 -10.214 -2.897 11
-38.063 -9.683 -2.818 12
-36.111 -9.315 -2.82 8
-33.989 -8.903 -2.782 5
-28.137 -7.501 -2.059 2
-27.562 -7.483 -2.24 28
-27.744 -7.683 -2.582 31
-26.688 -7.54 -2.681 14
-25.325 -7.304 -2.707 18
-24.088 -7.095 -2.745 14
-22.926 -6.892 -2.783 15
-21.836 -6.701 -2.825 16
-35.86 -13.69 0.586 51
-17.459 -6.411 1.754 8
-17.527 -6.194 1.683 24
-17.391 -5.914 1.635 22
-17.627 -5.774 1.56 25
-18.211 -5.751 1.459 20
-17.59 -5.359 1.463 18
-16.568 -4.879 1.508 1
-19.817 -5.648 1.165 6
-19.883 -5.499 1.107 18
-121.8 -32.762 -8.924 60
-20.701 -5.434 0.914 19
-20.773 -5.337 0.844 1
0.0 -0.0 3.0 0
0.0 -0.0 3.0 0
0.0 -0.0 3.0 0
-59.623 -14.612 -4.127 4
-38.614 -9.45 -1.815 25
-38.606 -9.47 -2.035 255
-45.229 -11.152 -3.182 6
-38.641 -9.615 -2.551 4
-38.399 -9.663 -2.806 26
-36.345 -9.279 -2.798 8
-34.186 -8.867 -2.759 4
-30.719 -8.113 -2.472 2
-27.783 -7.477 -2.236 24
-27.847 -7.648 -2.557 38
-26.846 -7.525 -2.671 14
-25.456 -7.289 -2.695 21
-24.21 -7.081 -2.734 10
-23.028 -6.878 -2.771 15
-21.94 -6.692 -2.817 15
-35.121 -13.32 0.651 11
-17.488 -6.377 1.76 16
-17.486 -6.134 1.696 28
-17.41 -5.874 1.644 23
-17.698 -5.749 1.567 22
-18.387 -5.755 1.458 19
-17.57 -5.303 1.479 25
-17.711 -5.165 1.421 14
-19.642 -5.54 1.2 12
-20.065 -5.49 1.11 16
-121.904 -32.421 -8.8 67
-20.699 -5.371 0.938 25
-97.805 -24.825 -7.03 30
0.0 -0.0 3.0 0
0.0 -0.0 3.0 0
