# .PCD v0.7 - Point Cloud Data file format
VERSION 0.7
FIELDS x y z intensity
SIZE 4 4 4 4
TYPE F F F F
COUNT 1 1 1 1
WIDTH 2251
HEIGHT 1
VIEWPOINT 0 0 0 1 0 0 0
POINTS 2251
DATA ascii
-1.875 -0.766 2.463 14
-1.87 -0.767 2.443 16
-1.856 -0.764 2.424 255
-1.838 -0.76 2.406 81
-1.792 -0.745 2.397 15
-1.77 -0.739 2.38 16
-1.751 -0.735 2.361 16
-2.105 -1.144 2.798 98
-2.142 -1.138 2.779 42
-2.236 -1.162 2.753 3
-3.163 -1.608 2.629 1
-3.15 -1.567 2.609 7
-3.05 -1.486 2.602 0
-4.387 -2.098 2.398 0
-2.758 -1.294 2.604 2
-2.674 -1.233 2.599 1
-2.622 -1.189 2.591 1
-3.783 -1.689 2.385 0
-2.091 -0.921 2.647 2
-2.068 -0.899 2.637 5
-2.055 -0.882 2.626 8
-2.038 -0.866 2.614 10
-2.035 -0.857 2.6 10
-2.031 -0.849 2.586 8
-2.052 -0.852 2.566 8
-2.054 -0.849 2.549 9
-2.034 -0.837 2.536 10
-1.999 -0.82 2.527 10
-1.959 -0.803 2.517 10
-1.923 -0.788 2.508 10
-1.908 -0.783 2.492 11
-1.893 -0.777 2.476 27
-1.876 -0.773 2.459 10
-1.856 -0.767 2.443 31
-1.85 -0.767 2.422 255
-1.843 -0.767 2.401 205
-1.779 -0.744 2.398 18
-1.767 -0.743 2.376 25
-1.748 -0.739 2.357 10
-2.101 -1.15 2.797 68
-2.146 -1.148 2.777 40
-2.25 -1.177 2.75 2
-3.159 -1.617 2.627 3
-3.131 -1.569 2.609 1
0.0 -0.0 3.0 0
-4.377 -2.108 2.395 0
-2.722 -1.286 2.607 2
-2.634 -1.224 2.602 1
-2.59 -1.184 2.592 1
-2.125 -0.956 2.652 1
-2.088 -0.926 2.644 2
-2.065 -0.904 2.635 5
-2.049 -0.887 2.624 8
-2.039 -0.874 2.611 10
-2.032 -0.863 2.598 9
-2.035 -0.857 2.582 8
-2.049 -0.857 2.563 9
-2.048 -0.852 2.547 9
-2.02 -0.838 2.536 10
-1.989 -0.822 2.525 10
-1.949 -0.805 2.516 10
-1.913 -0.79 2.506 10
-1.898 -0.784 2.491 12
-1.89 -0.781 2.473 20
-1.863 -0.773 2.459 9
-1.853 -0.771 2.44 106
-1.847 -0.771 2.419 76
-1.829 -0.767 2.401 41
-1.776 -0.748 2.394 18
-1.761 -0.746 2.374 21
-1.753 -0.746 2.351 6
-2.095 -1.153 2.797 75
-2.143 -1.154 2.776 24
-2.265 -1.193 2.747 2
-3.158 -1.628 2.624 4
-3.13 -1.579 2.606 1
-4.159 -2.056 2.449 0
-4.332 -2.101 2.397 0
-2.707 -1.289 2.606 2
-2.627 -1.23 2.6 1
-2.553 -1.175 2.595 3
-2.107 -0.956 2.652 1
-2.074 -0.928 2.644 4
-2.058 -0.909 2.633 7
-2.042 -0.891 2.622 9
-2.032 -0.878 2.609 10
-2.029 -0.868 2.595 9
-2.04 -0.866 2.578 6
-2.05 -0.865 2.559 10
-2.045 -0.858 2.544 9
-2.003 -0.838 2.536 11
-1.975 -0.823 2.525 9
-1.929 -0.803 2.517 10
-1.907 -0.793 2.504 10
-1.899 -0.79 2.487 18
-1.869 -0.779 2.475 13
-1.857 -0.776 2.457 20
-1.851 -0.775 2.437 240
-1.837 -0.772 2.418 23
-1.788 -0.755 2.41 29
-1.766 -0.749 2.394 17
-1.751 -0.746 2.374 15
-1.747 -0.748 2.35 4
-2.095 -1.161 2.795 97
-2.14 -1.159 2.775 15
-2.272 -1.204 2.744 0
-3.153 -1.636 2.622 7
0.0 -0.0 3.0 0
-4.135 -2.059 2.448 0
-4.322 -2.112 2.394 0
-2.674 -1.283 2.608 2
-2.602 -1.227 2.601 1
-2.532 -1.175 2.595 2
-2.086 -0.954 2.653 2
-2.064 -0.931 2.643 5
-2.048 -0.912 2.632 8
-2.039 -0.897 2.619 9
-2.033 -0.885 2.606 10
-2.03 -0.875 2.592 8
-2.055 -0.88 2.571 8
-2.05 -0.872 2.555 10
-2.027 -0.858 2.544 9
-1.993 -0.84 2.534 11
-1.958 -0.823 2.525 10
-1.918 -0.805 2.516 10
-1.904 -0.798 2.501 12
-1.896 -0.795 2.484 27
-1.881 -0.789 2.468 9
-1.854 -0.78 2.454 41
-1.848 -0.779 2.434 205
-1.827 -0.774 2.417 27
-1.785 -0.758 2.408 22
-1.764 -0.753 2.391 29
-1.749 -0.75 2.371 9
-1.741 -0.749 2.349 2
-2.096 -1.168 2.794 83
-2.147 -1.171 2.772 10
-3.178 -1.695 2.64 3
-3.148 -1.645 2.62 1
-3.938 -2.015 2.498 0
-4.114 -2.064 2.447 0
-4.29 -2.112 2.394 0
-2.652 -1.282 2.608 2
-2.565 -1.22 2.604 1
-2.309 -1.08 2.628 2
-2.076 -0.957 2.652 3
-2.057 -0.934 2.641 7
-2.049 -0.919 2.629 9
-2.036 -0.903 2.617 9
-2.033 -0.892 2.603 10
-2.03 -0.883 2.588 7
-2.059 -0.889 2.567 8
-2.047 -0.878 2.553 10
-2.021 -0.862 2.542 9
-1.975 -0.839 2.535 10
-1.937 -0.82 2.527 10
-1.912 -0.808 2.514 10
-1.901 -0.803 2.498 15
-1.893 -0.8 2.481 13
-1.867 -0.789 2.467 12
-1.847 -0.783 2.452 143
-1.838 -0.781 2.433 34
-1.807 -0.77 2.42 12
-1.772 -0.758 2.408 19
-1.758 -0.755 2.389 19
-1.75 -0.755 2.367 6
-1.728 -0.749 2.349 1
-2.096 -1.176 2.793 50
-2.14 -1.174 2.772 8
-3.163 -1.699 2.639 4
-3.157 -1.66 2.617 1
-3.939 -2.03 2.494 0
-4.08 -2.061 2.448 0
-4.262 -2.114 2.394 0
-2.623 -1.278 2.609 2
-2.537 -1.214 2.605 1
-2.273 -1.071 2.631 2
-2.076 -0.964 2.649 4
-2.054 -0.941 2.639 7
-2.038 -0.922 2.628 9
-2.037 -0.911 2.614 9
-2.03 -0.899 2.6 9
-2.045 -0.897 2.582 8
-2.052 -0.893 2.564 9
-2.033 -0.879 2.552 10
-2.003 -0.861 2.542 9
-1.962 -0.84 2.535 10
-1.934 -0.825 2.524 10
-1.906 -0.812 2.512 11
-1.895 -0.806 2.496 26
-1.887 -0.803 2.479 10
-1.861 -0.792 2.466 23
-1.845 -0.787 2.449 240
-1.832 -0.783 2.431 20
-1.78 -0.764 2.425 19
-1.769 -0.761 2.405 23
-1.752 -0.756 2.387 14
-1.74 -0.755 2.366 4
-1.701 -0.741 2.355 1
-2.096 -1.183 2.791 29
-2.154 -1.19 2.769 7
-3.158 -1.707 2.637 6
0.0 -0.0 3.0 0
-3.915 -2.032 2.493 0
-4.066 -2.069 2.446 0
-4.234 -2.115 2.393 0
-2.598 -1.274 2.61 2
-2.508 -1.21 2.607 0
-2.273 -1.079 2.628 3
-2.066 -0.967 2.648 5
-2.055 -0.948 2.636 8
-2.035 -0.928 2.625 9
-2.03 -0.914 2.612 9
-2.034 -0.908 2.596 8
-2.049 -0.905 2.578 8
-2.045 -0.898 2.562 9
-2.023 -0.881 2.551 9
-1.989 -0.862 2.542 9
-1.948 -0.841 2.534 11
-1.917 -0.825 2.524 10
-1.899 -0.815 2.51 12
-1.895 -0.813 2.492 25
-1.88 -0.807 2.476 9
-1.851 -0.794 2.464 64
-1.838 -0.79 2.447 116
-1.811 -0.78 2.433 20
-1.777 -0.767 2.422 19
-1.756 -0.761 2.405 30
-1.752 -0.762 2.383 8
-1.731 -0.756 2.366 2
-1.688 -0.74 2.357 1
-2.103 -1.195 2.789 21
-2.182 -1.214 2.764 10
-3.16 -1.719 2.635 1
0.0 -0.0 3.0 0
-3.888 -2.032 2.493 0
-4.057 -2.079 2.443 0
0.0 -0.0 3.0 0
-2.58 -1.275 2.61 3
-2.208 -1.074 2.651 1
-2.238 -1.071 2.631 3
-2.059 -0.971 2.646 7
-2.048 -0.953 2.634 9
-2.036 -0.936 2.622 9
-2.034 -0.923 2.608 9
-2.035 -0.915 2.593 7
-2.053 -0.914 2.574 9
-2.046 -0.905 2.559 9
-2.013 -0.884 2.55 9
-1.972 -0.862 2.542 10
-1.93 -0.839 2.535 11
-1.91 -0.828 2.522 10
-1.9 -0.822 2.506 20
-1.875 -0.81 2.494 13
-1.867 -0.806 2.476 17
-1.848 -0.799 2.461 167
-1.828 -0.791 2.446 21
-1.802 -0.781 2.433 13
-1.771 -0.77 2.42 17
-1.75 -0.763 2.404 18
-1.746 -0.764 2.381 6
-1.721 -0.756 2.366 1
-1.682 -0.742 2.355 1
-2.103 -1.202 2.788 14
-2.175 -1.217 2.763 4
-3.186 -1.746 2.629 1
-3.717 -1.995 2.539 1
-3.882 -2.043 2.491 0
-4.019 -2.074 2.444 0
-2.672 -1.354 2.612 0
-2.551 -1.27 2.612 3
-2.151 -1.054 2.658 2
-2.095 -1.01 2.652 4
-2.052 -0.975 2.645 8
-2.038 -0.955 2.633 9
-2.029 -0.939 2.621 9
-2.034 -0.932 2.605 8
-2.053 -0.931 2.586 8
-2.047 -0.919 2.571 9
-2.032 -0.906 2.558 9
-1.995 -0.883 2.55 10
-1.958 -0.862 2.542 10
-1.92 -0.842 2.533 11
-1.904 -0.832 2.52 11
-1.893 -0.825 2.504 29
-1.879 -0.817 2.489 10
-1.86 -0.81 2.474 29
-1.845 -0.803 2.458 216
-1.822 -0.794 2.444 21
-1.778 -0.776 2.436 19
-1.768 -0.774 2.417 17
-1.751 -0.769 2.399 13
-1.743 -0.768 2.378 3
-1.704 -0.754 2.368 1
-1.679 -0.745 2.352 0
-2.135 -1.228 2.783 18
-2.169 -1.221 2.763 2
0.0 -0.0 3.0 0
0.0 -0.0 3.0 0
-3.851 -2.04 2.491 0
-4.002 -2.079 2.443 0
-2.59 -1.322 2.621 0
-2.522 -1.265 2.613 2
-2.123 -1.048 2.66 2
-2.06 -1.0 2.656 6
-2.049 -0.981 2.643 8
-2.038 -0.963 2.63 9
-2.026 -0.946 2.618 9
-2.038 -0.94 2.601 7
-2.05 -0.936 2.583 9
-2.043 -0.925 2.569 9
-2.018 -0.907 2.558 9
-1.981 -0.884 2.55 10
-1.944 -0.862 2.541 10
-1.914 -0.846 2.531 11
-1.901 -0.837 2.517 13
-1.894 -0.832 2.5 18
-1.869 -0.82 2.488 11
-1.854 -0.812 2.472 101
-1.842 -0.808 2.455 57
-1.805 -0.793 2.445 15
-1.775 -0.78 2.433 19
-1.765 -0.778 2.414 22
-1.744 -0.771 2.398 8
-1.73 -0.767 2.379 1
-1.702 -0.757 2.365 1
-1.673 -0.747 2.351 1
-2.104 -1.218 2.785 13
-2.179 -1.235 2.76 4
0.0 -0.0 3.0 0
-3.657 -1.989 2.541 0
-3.849 -2.053 2.488 1
-3.981 -2.083 2.442 0
-2.571 -1.322 2.621 0
-2.278 -1.151 2.648 2
-2.095 -1.041 2.662 3
-2.053 -1.005 2.654 8
-2.042 -0.985 2.641 9
-2.031 -0.967 2.629 9
-2.033 -0.956 2.614 8
-2.042 -0.949 2.597 7
-2.05 -0.944 2.58 9
-2.04 -0.931 2.566 9
-2.011 -0.91 2.556 9
-1.96 -0.881 2.551 10
-1.927 -0.861 2.542 10
-1.904 -0.847 2.53 12
-1.901 -0.843 2.513 23
-1.88 -0.832 2.5 13
-1.855 -0.819 2.488 23
-1.851 -0.817 2.469 190
-1.829 -0.808 2.455 18
-1.781 -0.788 2.449 16
-1.772 -0.785 2.43 17
-1.755 -0.778 2.413 16
-1.742 -0.775 2.395 5
-1.714 -0.765 2.381 1
-1.675 -0.75 2.371 1
-1.66 -0.746 2.352 1
-2.104 -1.225 2.784 3
-2.182 -1.245 2.758 5
0.0 -0.0 3.0 0
-3.613 -1.978 2.543 0
-3.815 -2.048 2.489 0
-3.964 -2.089 2.44 0
-2.546 -1.318 2.622 1
-2.211 -1.124 2.656 2
-2.071 -1.037 2.663 5
-2.046 -1.009 2.652 8
-2.032 -0.988 2.641 9
-2.035 -0.976 2.625 9
-2.03 -0.962 2.611 8
-2.057 -0.964 2.591 8
-2.047 -0.95 2.577 9
-2.023 -0.93 2.566 9
-1.99 -0.908 2.557 9
-1.961 -0.888 2.547 10
-1.92 -0.865 2.54 10
-1.897 -0.851 2.528 13
-1.895 -0.847 2.511 26
-1.874 -0.835 2.498 10
-1.859 -0.828 2.483 48
-1.848 -0.822 2.466 165
-1.812 -0.806 2.457 19
-1.775 -0.79 2.447 20
-1.766 -0.787 2.428 20
-1.76 -0.786 2.408 10
-1.742 -0.78 2.391 3
-1.701 -0.764 2.382 1
-1.669 -0.752 2.369 1
-1.637 -0.74 2.357 0
-2.124 -1.245 2.781 3
0.0 -0.0 3.0 0
0.0 -0.0 3.0 0
-3.663 -2.019 2.534 0
-3.795 -2.051 2.489 0
-3.905 -2.072 2.445 0
-2.303 -1.201 2.656 0
-2.186 -1.121 2.657 3
-2.064 -1.041 2.662 8
-2.043 -1.015 2.651 8
-2.032 -0.995 2.638 9
-2.032 -0.982 2.623 9
-2.03 -0.97 2.608 7
-2.05 -0.968 2.589 8
-2.051 -0.959 2.573 9
-2.009 -0.931 2.566 10
-1.976 -0.908 2.557 10
-1.936 -0.885 2.549 10
-1.91 -0.867 2.539 11
-1.898 -0.857 2.525 17
-1.884 -0.848 2.51 13
-1.867 -0.838 2.496 14
-1.853 -0.831 2.481 140
-1.838 -0.823 2.465 29
-1.805 -0.809 2.455 12
-1.769 -0.793 2.445 20
-1.763 -0.791 2.425 21
-1.753 -0.788 2.406 6
-1.715 -0.773 2.396 1
-1.691 -0.764 2.381 1
-1.666 -0.755 2.366 0
-1.638 -0.745 2.353 1
-2.149 -1.267 2.777 5
0.0 -0.0 3.0 0
-3.424 -1.938 2.588 0
-3.615 -2.006 2.537 0
-3.771 -2.053 2.488 0
-3.885 -2.076 2.444 0
-2.183 -1.146 2.671 2
-2.108 -1.088 2.667 4
-2.053 -1.044 2.661 7
-2.04 -1.02 2.649 9
-2.029 -1.002 2.635 9
-2.032 -0.99 2.62 8
-2.048 -0.986 2.602 7
-2.05 -0.976 2.586 9
-2.03 -0.956 2.574 10
-2.002 -0.934 2.564 9
-1.962 -0.909 2.556 10
-1.923 -0.885 2.549 10
-1.904 -0.871 2.537 13
-1.891 -0.861 2.523 30
-1.899 -0.861 2.503 10
-1.857 -0.841 2.495 17
-1.843 -0.832 2.48 184
-1.828 -0.825 2.464 19
-1.781 -0.804 2.458 18
-1.762 -0.795 2.443 14
-1.757 -0.794 2.423 15
-1.747 -0.791 2.404 3
-1.706 -0.774 2.396 1
-1.678 -0.763 2.382 0
-1.674 -0.764 2.359 0
-1.635 -0.748 2.35 0
-3.146 -1.866 2.671 3
0.0 -0.0 3.0 0
0.0 -0.0 3.0 0
-3.623 -2.024 2.533 0
-3.786 -2.075 2.483 0
-3.879 -2.087 2.441 0
-2.145 -1.134 2.675 2
-2.07 -1.077 2.671 5
-2.053 -1.051 2.659 8
-2.037 -1.027 2.646 9
-2.029 -1.009 2.633 8
-2.036 -0.999 2.617 7
-2.052 -0.996 2.598 8
-2.05 -0.983 2.583 9
-2.016 -0.957 2.574 9
-1.981 -0.933 2.565 9
-1.945 -0.908 2.557 10
-1.92 -0.89 2.547 10
-1.901 -0.876 2.534 15
-1.891 -0.868 2.519 23
-1.91 -0.874 2.496 5
-1.847 -0.842 2.494 36
-1.843 -0.839 2.476 96
-1.822 -0.828 2.462 13
-1.771 -0.805 2.457 18
-1.756 -0.798 2.441 18
-1.75 -0.796 2.422 9
-1.741 -0.793 2.403 2
-1.686 -0.77 2.399 1
-1.675 -0.766 2.379 0
-1.647 -0.756 2.366 1
-1.632 -0.751 2.347 1
-3.123 -1.864 2.671 1
0.0 -0.0 3.0 0
0.0 -0.0 3.0 0
-3.582 -2.014 2.535 0
-3.727 -2.056 2.487 0
-2.114 -1.146 2.693 1
-2.134 -1.137 2.674 2
-2.056 -1.077 2.671 6
-2.043 -1.054 2.658 8
-2.04 -1.036 2.643 9
-2.033 -1.018 2.629 8
-2.036 -1.006 2.614 5
-2.049 -1.001 2.595 8
-2.04 -0.986 2.582 9
-2.009 -0.962 2.572 9
-1.971 -0.934 2.564 10
-1.938 -0.912 2.555 10
-1.909 -0.893 2.545 11
-1.894 -0.88 2.532 22
-1.874 -0.867 2.519 13
-1.907 -0.879 2.493 6
-1.851 -0.85 2.489 44
-1.833 -0.841 2.475 25
-1.815 -0.831 2.46 7
-1.762 -0.806 2.456 15
-1.756 -0.804 2.437 16
-1.754 -0.804 2.416 5
-1.71 -0.784 2.409 1
-1.676 -0.77 2.399 0
-1.652 -0.76 2.384 0
-1.641 -0.758 2.364 0
-1.603 -0.742 2.355 1
0.0 -0.0 3.0 0
0.0 -0.0 3.0 0
0.0 -0.0 3.0 0
0.0 -0.0 3.0 0
-3.732 -2.073 2.483 0
-2.079 -1.135 2.696 1
-2.082 -1.117 2.68 4
-2.056 -1.085 2.668 7
-2.043 -1.061 2.655 10
-2.033 -1.04 2.642 8
-2.026 -1.023 2.628 7
-2.05 -1.021 2.608 7
-2.049 -1.009 2.593 9
-2.03 -0.989 2.58 9
-1.992 -0.96 2.573 10
-1.953 -0.933 2.565 10
-1.921 -0.911 2.556 11
-1.903 -0.896 2.543 13
-1.894 -0.887 2.529 30
-1.882 -0.876 2.514 9
-1.886 -0.875 2.495 4
-1.844 -0.853 2.487 28
-1.837 -0.848 2.47 26
-1.798 -0.829 2.462 4
-1.762 -0.812 2.453 22
-1.743 -0.803 2.438 12
-1.741 -0.803 2.417 3
-1.718 -0.793 2.403 1
-1.673 -0.774 2.395 0
-1.646 -0.763 2.382 0
-1.618 -0.752 2.369 0
-1.579 -0.736 2.36 0
0.0 -0.0 3.0 0
0.0 -0.0 3.0 0
0.0 -0.0 3.0 0
0.0 -0.0 3.0 0
-3.712 -2.076 2.482 0
-2.079 -1.142 2.694 2
-2.065 -1.115 2.68 5
-2.042 -1.085 2.668 8
-2.033 -1.064 2.654 9
-2.03 -1.046 2.64 8
-2.037 -1.036 2.623 7
-2.05 -1.029 2.605 8
-2.042 -1.013 2.591 9
-2.019 -0.99 2.58 9
-1.974 -0.959 2.573 10
-1.943 -0.935 2.564 9
-1.918 -0.917 2.553 10
-1.892 -0.898 2.542 15
-1.888 -0.89 2.527 17
-1.886 -0.885 2.509 8
-1.936 -0.905 2.478 1
-1.834 -0.855 2.486 9
-1.817 -0.845 2.472 11
-1.778 -0.826 2.464 4
-1.749 -0.811 2.453 27
-1.747 -0.811 2.432 7
-1.738 -0.807 2.414 1
-1.701 -0.79 2.405 0
-1.664 -0.774 2.395 0
-1.646 -0.768 2.378 0
-1.625 -0.76 2.362 0
-1.58 -0.74 2.357 0
0.0 -0.0 3.0 0
0.0 -0.0 3.0 0
0.0 -0.0 3.0 0
0.0 -0.0 3.0 0
-2.104 -1.184 2.705 1
-2.069 -1.144 2.693 3
-2.054 -1.117 2.68 6
-2.039 -1.09 2.667 8
-2.04 -1.075 2.651 8
-2.03 -1.054 2.637 8
-2.041 -1.046 2.619 6
-2.051 -1.037 2.602 8
-2.042 -1.021 2.588 9
-2.009 -0.993 2.578 9
-1.967 -0.964 2.571 10
-1.922 -0.933 2.565 10
-1.908 -0.918 2.552 12
-1.893 -0.905 2.539 27
-1.884 -0.895 2.524 10
-1.868 -0.883 2.51 8
-1.936 -0.912 2.474 1
-1.817 -0.854 2.487 4
-1.803 -0.845 2.472 7
-1.764 -0.825 2.464 3
-1.749 -0.817 2.449 23
-1.748 -0.817 2.428 4
-1.715 -0.801 2.418 1
-1.677 -0.785 2.408 0
-1.661 -0.778 2.392 0
-1.647 -0.773 2.374 0
-1.595 -0.75 2.37 0
-1.571 -0.74 2.356 0
0.0 -0.0 3.0 0
0.0 -0.0 3.0 0
-3.322 -1.954 2.585 0
0.0 -0.0 3.0 0
-2.09 -1.185 2.705 2
-2.065 -1.15 2.692 4
-2.054 -1.125 2.677 7
-2.035 -1.097 2.665 8
-2.029 -1.077 2.65 9
-2.027 -1.059 2.635 7
-2.048 -1.057 2.615 7
-2.051 -1.045 2.599 8
-2.025 -1.02 2.588 9
-1.988 -0.99 2.58 9
-1.953 -0.964 2.571 10
-1.919 -0.938 2.563 10
-1.904 -0.924 2.549 13
-1.893 -0.912 2.535 25
-1.881 -0.901 2.521 6
-1.848 -0.881 2.512 12
-1.944 -0.922 2.468 1
-1.811 -0.856 2.486 2
-1.786 -0.843 2.473 5
-1.747 -0.823 2.465 3
-1.732 -0.815 2.45 16
-1.734 -0.815 2.429 3
-1.708 -0.804 2.416 1
-1.681 -0.792 2.403 0
-1.648 -0.777 2.393 0
-1.62 -0.765 2.38 0
-1.589 -0.752 2.369 0
-1.565 -0.742 2.355 1
0.0 -0.0 3.0 0
0.0 -0.0 3.0 0
0.0 -0.0 3.0 0
-3.532 -2.052 2.526 0
-2.072 -1.183 2.705 2
-2.058 -1.154 2.691 7
-2.047 -1.129 2.676 8
-2.035 -1.104 2.662 8
-2.023 -1.081 2.649 8
-2.034 -1.072 2.631 6
-2.051 -1.066 2.612 8
-2.047 -1.05 2.597 8
-2.011 -1.02 2.588 9
-1.974 -0.99 2.58 9
-1.936 -0.963 2.571 10
-1.912 -0.942 2.561 10
-1.901 -0.929 2.547 19
-1.883 -0.914 2.534 11
-1.878 -0.906 2.518 7
-1.855 -0.89 2.507 14
-1.94 -0.927 2.465 0
-1.783 -0.85 2.49 1
-1.78 -0.846 2.471 4
-1.744 -0.827 2.463 3
-1.723 -0.816 2.45 14
-1.724 -0.817 2.428 1
-1.705 -0.807 2.413 0
-1.668 -0.79 2.404 0
-1.631 -0.774 2.395 0
-1.614 -0.767 2.379 0
-1.57 -0.747 2.373 0
-1.552 -0.74 2.357 0
0.0 -0.0 3.0 0
0.0 -0.0 3.0 0
0.0 -0.0 3.0 0
-2.102 -1.229 2.716 1
-2.065 -1.187 2.704 3
-2.055 -1.159 2.689 7
-2.04 -1.133 2.675 8
-2.035 -1.112 2.66 8
-2.033 -1.095 2.644 7
-2.051 -1.088 2.625 7
-2.044 -1.071 2.61 8
-2.037 -1.053 2.596 8
-2.0 -1.022 2.587 9
-1.963 -0.992 2.579 9
-1.922 -0.963 2.571 10
-1.905 -0.945 2.559 12
-1.901 -0.936 2.543 28
-1.883 -0.921 2.531 9
-1.864 -0.906 2.518 6
-1.852 -0.895 2.504 19
-29.62 -14.258 -5.232 5
-1.749 -0.839 2.496 1
-1.763 -0.843 2.473 4
-1.727 -0.825 2.464 3
-1.713 -0.817 2.449 14
-1.715 -0.818 2.427 0
-1.685 -0.803 2.416 0
-1.659 -0.792 2.403 0
-1.615 -0.771 2.398 0
-1.601 -0.766 2.38 0
-1.564 -0.749 2.372 0
-1.543 -0.74 2.357 0
0.0 -0.0 3.0 0
0.0 -0.0 3.0 0
0.0 -0.0 3.0 0
-2.085 -1.227 2.717 2
-2.062 -1.192 2.703 5
-2.044 -1.162 2.689 8
-2.044 -1.142 2.673 8
-2.032 -1.117 2.658 8
-2.029 -1.1 2.643 7
-2.048 -1.094 2.623 7
-2.051 -1.082 2.606 8
-2.026 -1.055 2.595 8
-1.983 -1.021 2.587 9
-1.946 -0.991 2.579 9
-1.912 -0.964 2.571 11
-1.898 -0.949 2.558 12
-1.895 -0.94 2.542 18
-1.883 -0.927 2.528 5
-1.854 -0.908 2.517 13
-1.845 -0.899 2.502 24
-1.79 -0.868 2.499 0
-1.742 -0.842 2.494 1
-1.749 -0.843 2.473 3
-1.711 -0.823 2.466 3
-1.699 -0.816 2.45 12
-1.694 -0.814 2.43 0
-1.665 -0.799 2.42 0
-1.652 -0.793 2.402 0
-1.608 -0.773 2.396 0
-1.578 -0.759 2.385 0
-1.551 -0.747 2.373 0
-1.527 -0.737 2.36 0
0.0 -0.0 3.0 0
0.0 -0.0 3.0 0
0.0 -0.0 3.0 0
-2.075 -1.229 2.716 2
-2.058 -1.197 2.701 6
-2.037 -1.166 2.688 8
-2.037 -1.146 2.671 8
-2.032 -1.126 2.656 7
-2.036 -1.111 2.639 6
-2.051 -1.104 2.62 8
-2.047 -1.088 2.604 8
-2.009 -1.054 2.596 8
-1.965 -1.019 2.588 9
-1.929 -0.989 2.58 9
-1.909 -0.97 2.568 11
-1.895 -0.954 2.555 22
-1.881 -0.94 2.542 10
-1.877 -0.931 2.526 6
-1.851 -0.913 2.515 15
-1.838 -0.902 2.5 24
-1.766 -0.862 2.502 0
-1.729 -0.841 2.495 0
-1.736 -0.842 2.474 4
-1.704 -0.825 2.464 3
-1.686 -0.815 2.45 10
-1.674 -0.809 2.434 0
-1.666 -0.804 2.416 0
-1.636 -0.791 2.404 0
-1.623 -0.785 2.387 0
-1.589 -0.769 2.377 0
-1.551 -0.752 2.369 0
-1.524 -0.74 2.357 0
0.0 -0.0 3.0 0
0.0 -0.0 3.0 0
-2.1 -1.275 2.729 1
-2.064 -1.231 2.716 3
-2.051 -1.202 2.7 7
-2.037 -1.174 2.686 9
-2.033 -1.152 2.67 8
-2.032 -1.133 2.654 7
-2.054 -1.129 2.633 7
-2.044 -1.108 2.618 8
-2.03 -1.086 2.605 8
-1.995 -1.054 2.595 8
-1.952 -1.019 2.588 9
-1.918 -0.991 2.579 10
-1.905 -0.975 2.566 13
-1.888 -0.958 2.553 25
-1.884 -0.949 2.537 6
-1.856 -0.928 2.527 10
-1.851 -0.919 2.511 17
-1.828 -0.904 2.499 13
-29.177 -14.353 -5.287 4
-1.705 -0.836 2.498 0
-1.726 -0.844 2.473 4
-1.691 -0.825 2.464 3
-1.673 -0.815 2.45 9
-1.664 -0.81 2.433 0
-1.656 -0.806 2.415 0
-1.64 -0.798 2.399 0
-1.582 -0.77 2.399 0
-1.566 -0.763 2.382 0
-1.545 -0.754 2.368 0
-1.511 -0.738 2.358 0
0.0 -0.0 3.0 0
0.0 -0.0 3.0 0
-2.083 -1.272 2.73 2
-2.064 -1.239 2.714 5
-2.051 -1.209 2.699 8
-2.037 -1.181 2.684 9
-2.029 -1.158 2.668 8
-2.031 -1.141 2.651 7
-2.053 -1.137 2.631 7
-2.047 -1.118 2.615 9
-2.016 -1.086 2.605 8
-1.981 -1.054 2.595 8
-1.941 -1.022 2.587 9
-1.915 -0.997 2.577 10
-1.895 -0.977 2.565 14
-1.885 -0.963 2.551 12
-1.881 -0.954 2.535 6
-1.853 -0.933 2.525 13
-1.848 -0.924 2.509 19
-1.829 -0.91 2.496 8
-29.018 -14.378 -5.301 3
-1.705 -0.842 2.494 0
-1.709 -0.841 2.474 5
-1.681 -0.825 2.464 3
-1.67 -0.819 2.448 8
-1.665 -0.816 2.429 0
-1.636 -0.801 2.418 0
-1.62 -0.793 2.402 0
-1.583 -0.775 2.394 0
-1.573 -0.771 2.376 0
-1.536 -0.754 2.368 0
-1.525 -0.75 2.348 0
0.0 -0.0 3.0 0
0.0 -0.0 3.0 0
-2.079 -1.279 2.728 2
-2.057 -1.243 2.713 6
-2.04 -1.211 2.698 9
-2.034 -1.188 2.682 9
-2.036 -1.17 2.665 7
-2.038 -1.153 2.647 6
-2.05 -1.143 2.629 8
-2.03 -1.115 2.616 9
-1.999 -1.085 2.605 8
-1.967 -1.054 2.595 9
-1.927 -1.022 2.587 10
-1.905 -0.998 2.576 12
-1.892 -0.983 2.562 25
-1.882 -0.969 2.548 9
-1.867 -0.954 2.535 5
-1.853 -0.94 2.521 13
-1.838 -0.926 2.508 17
-1.832 -0.919 2.491 5
-28.87 -14.407 -5.318 2
-1.685 -0.838 2.497 0
-1.696 -0.841 2.475 6
-1.668 -0.825 2.464 3
-1.653 -0.816 2.45 7
-1.676 -0.827 2.421 0
-1.623 -0.8 2.419 0
-1.607 -0.792 2.403 0
-1.574 -0.776 2.394 0
-1.564 -0.771 2.376 0
-1.52 -0.75 2.371 0
-1.512 -0.747 2.35 0
0.0 -0.0 3.0 0
-2.094 -1.32 2.743 1
-2.079 -1.286 2.727 3
-2.046 -1.244 2.713 7
-2.033 -1.215 2.697 9
-2.033 -1.195 2.68 9
-2.032 -1.175 2.663 7
-2.052 -1.169 2.643 7
-2.046 -1.149 2.627 8
-2.023 -1.12 2.614 8
-1.992 -1.089 2.604 8
-1.953 -1.054 2.595 9
-1.917 -1.024 2.586 10
-1.894 -1.0 2.575 12
-1.892 -0.99 2.559 17
-1.885 -0.978 2.544 5
-1.861 -0.958 2.533 13
-1.85 -0.945 2.519 13
-1.827 -0.928 2.507 11
-1.826 -0.922 2.489 3
-28.704 -14.427 -5.33 1
-1.658 -0.831 2.501 0
-1.679 -0.838 2.477 7
-1.651 -0.822 2.466 3
-1.64 -0.815 2.45 4
-1.649 -0.819 2.427 0
-1.637 -0.812 2.41 0
-1.597 -0.792 2.403 0
-1.557 -0.773 2.396 0
-1.537 -0.763 2.382 0
-1.524 -0.757 2.365 1
-1.496 -0.744 2.353 0
0.0 -0.0 3.0 0
-2.083 -1.321 2.743 2
-2.065 -1.286 2.727 4
-2.049 -1.254 2.71 8
-2.036 -1.225 2.695 9
-2.026 -1.198 2.679 8
-2.032 -1.184 2.661 6
-2.051 -1.176 2.64 7
-2.046 -1.157 2.624 8
-2.009 -1.12 2.614 9
-1.971 -1.085 2.605 8
-1.936 -1.053 2.596 9
-1.906 -1.025 2.586 10
-1.898 -1.009 2.572 18
-1.881 -0.992 2.558 9
-1.875 -0.98 2.543 7
-1.861 -0.965 2.529 13
-1.846 -0.95 2.516 17
-1.835 -0.938 2.501 4
-1.819 -0.926 2.487 1
-1.689 -0.855 2.507 0
-1.662 -0.838 2.496 0
-1.665 -0.837 2.477 8
-1.655 -0.829 2.461 4
-1.623 -0.813 2.452 4
-1.625 -0.812 2.431 0
-1.63 -0.815 2.408 0
-1.581 -0.789 2.405 0
-1.541 -0.769 2.399 0
-1.535 -0.766 2.379 0
-1.501 -0.75 2.371 0
-1.487 -0.744 2.353 0
0.0 -0.0 3.0 0
-2.073 -1.322 2.743 2
-2.058 -1.289 2.726 5
-2.042 -1.258 2.71 8
-2.036 -1.233 2.693 9
-2.029 -1.209 2.676 8
-2.039 -1.195 2.657 6
-2.048 -1.183 2.638 8
-2.035 -1.159 2.623 9
-1.995 -1.121 2.614 8
-1.957 -1.085 2.605 8
-1.925 -1.055 2.595 9
-1.903 -1.031 2.583 12
-1.894 -1.015 2.569 22
-1.881 -0.999 2.555 7
-1.861 -0.98 2.543 11
-1.854 -0.968 2.528 11
-1.836 -0.952 2.515 12
-1.831 -0.943 2.499 3
-1.809 -0.926 2.487 0
0.0 -0.0 3.0 0
-1.652 -0.839 2.496 0
-1.652 -0.836 2.477 9
-1.638 -0.827 2.463 4
-1.607 -0.809 2.454 3
-1.619 -0.815 2.43 0
-1.607 -0.808 2.413 0
-1.578 -0.793 2.402 0
-1.535 -0.771 2.398 0
-1.525 -0.766 2.379 0
-1.505 -0.757 2.365 0
-1.478 -0.744 2.353 0
-2.086 -1.364 2.76 1
-2.075 -1.333 2.741 3
-2.051 -1.293 2.725 6
-2.035 -1.262 2.709 8
-2.032 -1.238 2.691 9
-2.029 -1.216 2.674 8
-2.052 -1.211 2.653 7
-2.04 -1.186 2.637 8
-2.018 -1.157 2.624 8
-1.977 -1.118 2.615 9
-1.939 -1.083 2.606 8
-1.922 -1.06 2.593 9
-1.893 -1.033 2.583 12
-1.884 -1.017 2.568 12
-1.878 -1.005 2.553 5
-1.858 -0.984 2.541 13
-1.85 -0.973 2.525 13
-1.833 -0.957 2.513 6
-1.824 -0.946 2.497 2
-1.795 -0.926 2.487 0
0.0 -0.0 3.0 0
-1.628 -0.833 2.5 0
-1.635 -0.834 2.479 9
-1.632 -0.83 2.461 4
-1.597 -0.81 2.454 3
-1.613 -0.817 2.428 1
-1.608 -0.813 2.409 0
-1.568 -0.793 2.402 0
-1.535 -0.776 2.394 0
-1.509 -0.763 2.382 0
-1.489 -0.753 2.368 0
-1.475 -0.747 2.351 0
-2.076 -1.366 2.759 2
-2.062 -1.332 2.741 5
-2.044 -1.297 2.724 6
-2.031 -1.267 2.707 8
-2.029 -1.244 2.69 9
-2.025 -1.222 2.673 7
-2.048 -1.217 2.651 7
-2.04 -1.195 2.635 8
-2.004 -1.157 2.624 9
-1.96 -1.116 2.616 9
-1.929 -1.085 2.605 9
-1.908 -1.06 2.593 10
-1.893 -1.04 2.58 23
-1.884 -1.024 2.565 9
-1.871 -1.008 2.551 5
-1.854 -0.99 2.539 11
-1.833 -0.971 2.526 15
-1.836 -0.965 2.508 3
-1.825 -0.953 2.493 1
-1.785 -0.927 2.486 0
-1.662 -0.86 2.504 0
-1.625 -0.837 2.497 0
-1.626 -0.834 2.479 10
-1.622 -0.83 2.461 4
-1.591 -0.812 2.452 4
-1.586 -0.808 2.434 1
-1.578 -0.803 2.416 0
-1.569 -0.799 2.398 0
-1.529 -0.778 2.392 0
-1.506 -0.766 2.38 0
-1.489 -0.758 2.364 0
-1.446 -0.736 2.36 0
-2.085 -1.38 2.757 3
-2.058 -1.338 2.74 5
-2.043 -1.305 2.723 8
-2.038 -1.279 2.705 8
-2.022 -1.248 2.689 8
-2.045 -1.243 2.667 8
-2.048 -1.225 2.649 8
-2.026 -1.194 2.635 8
-1.993 -1.158 2.624 9
-1.95 -1.118 2.615 8
-1.919 -1.087 2.604 9
-1.901 -1.064 2.592 11
-1.893 -1.048 2.577 17
-1.88 -1.03 2.563 5
-1.857 -1.007 2.552 13
-1.847 -0.993 2.537 10
-1.83 -0.977 2.524 10
-1.829 -0.969 2.506 3
-1.804 -0.949 2.495 0
-1.781 -0.932 2.483 0
-1.625 -0.846 2.511 0
-1.636 -0.848 2.49 0
-1.623 -0.838 2.476 13
-1.605 -0.827 2.463 4
-1.574 -0.809 2.454 4
-1.576 -0.809 2.434 2
-1.568 -0.804 2.416 0
-1.545 -0.792 2.403 0
-1.509 -0.773 2.396 0
-1.49 -0.763 2.383 0
-1.473 -0.754 2.367 0
-1.446 -0.741 2.356 0
-2.068 -1.377 2.757 4
-2.051 -1.341 2.739 6
-2.036 -1.308 2.722 8
-2.034 -1.285 2.703 8
-2.031 -1.262 2.685 8
-2.052 -1.254 2.664 8
-2.047 -1.233 2.646 8
-2.009 -1.192 2.636 9
-1.976 -1.157 2.624 9
-1.932 -1.116 2.616 9
-1.912 -1.091 2.603 10
-1.897 -1.069 2.589 14
-1.879 -1.047 2.577 9
-1.877 -1.035 2.561 5
-1.857 -1.015 2.548 12
-1.844 -0.999 2.534 13
-1.833 -0.985 2.52 3
-1.805 -0.963 2.509 1
-1.821 -0.965 2.487 0
-1.758 -0.926 2.487 0
-1.598 -0.838 2.516 0
-1.609 -0.84 2.495 0
-1.609 -0.837 2.477 15
-1.599 -0.83 2.461 4
-1.571 -0.813 2.452 3
-1.556 -0.804 2.437 4
-1.562 -0.806 2.415 0
-1.539 -0.794 2.402 0
-1.513 -0.78 2.391 0
-1.491 -0.768 2.378 0
-1.464 -0.754 2.367 0
-1.434 -0.739 2.358 0
-2.061 -1.38 2.757 5
-2.043 -1.345 2.739 6
-2.032 -1.314 2.721 8
-2.027 -1.289 2.703 8
-2.027 -1.268 2.684 8
-2.048 -1.261 2.662 9
-2.04 -1.237 2.645 8
-1.998 -1.193 2.635 9
-1.959 -1.155 2.625 9
-1.918 -1.115 2.616 9
-1.905 -1.094 2.602 11
-1.897 -1.077 2.587 21
-1.882 -1.057 2.573 7
-1.86 -1.033 2.561 12
-1.854 -1.02 2.546 11
-1.84 -1.004 2.532 12
-1.833 -0.992 2.516 3
-1.809 -0.972 2.505 0
-1.804 -0.963 2.488 0
-1.758 -0.933 2.483 0
-1.629 -0.86 2.504 0
-1.613 -0.848 2.491 0
-1.606 -0.841 2.474 16
-1.579 -0.825 2.464 4
-1.558 -0.812 2.452 4
-1.543 -0.803 2.438 5
-1.555 -0.808 2.413 0
-1.526 -0.791 2.404 0
-1.494 -0.775 2.395 0
-1.471 -0.763 2.382 0
-1.451 -0.752 2.369 0
-1.425 -0.738 2.359 0
-2.047 -1.38 2.757 6
-2.036 -1.348 2.738 7
-2.035 -1.324 2.719 8
-2.03 -1.298 2.7 8
-2.05 -1.291 2.678 8
-2.04 -1.264 2.661 9
-2.023 -1.234 2.646 8
-1.981 -1.191 2.636 9
-1.948 -1.156 2.624 8
-1.918 -1.123 2.613 9
-1.897 -1.097 2.601 11
-1.887 -1.078 2.586 12
-1.872 -1.058 2.573 4
-1.856 -1.038 2.559 13
-1.847 -1.024 2.544 12
-1.834 -1.007 2.53 5
-1.82 -0.992 2.516 2
-1.798 -0.973 2.504 0
0.0 -0.0 3.0 0
0.0 -0.0 3.0 0
-1.606 -0.854 2.507 0
-1.579 -0.836 2.498 0
-1.596 -0.842 2.474 16
-1.579 -0.831 2.461 4
-1.545 -0.81 2.454 4
-1.53 -0.801 2.439 6
-1.552 -0.812 2.41 0
-1.51 -0.788 2.406 0
-1.488 -0.776 2.394 0
-1.482 -0.772 2.375 0
-1.439 -0.75 2.371 0
-1.419 -0.739 2.357 0
-2.046 -1.387 2.755 7
-2.039 -1.358 2.736 7
-2.028 -1.327 2.718 8
-2.029 -1.307 2.698 7
-2.046 -1.296 2.677 8
-2.04 -1.273 2.659 9
-2.015 -1.239 2.645 8
-1.97 -1.194 2.635 9
-1.934 -1.155 2.625 9
-1.904 -1.123 2.613 9
-1.897 -1.104 2.598 18
-1.88 -1.081 2.585 9
-1.871 -1.065 2.57 5
-1.853 -1.043 2.557 11
-1.836 -1.025 2.544 16
-1.833 -1.014 2.527 3
-1.826 -1.003 2.511 0
-1.785 -0.972 2.504 0
-1.77 -0.958 2.49 0
-1.731 -0.932 2.483 0
-1.602 -0.858 2.505 0
-1.576 -0.84 2.495 0
-1.587 -0.843 2.474 16
-1.566 -0.829 2.462 4
-1.532 -0.809 2.455 4
-1.514 -0.798 2.442 7
-1.539 -0.809 2.412 0
-1.507 -0.792 2.403 0
-1.481 -0.778 2.393 0
-1.465 -0.769 2.377 0
-1.439 -0.755 2.367 0
-1.406 -0.737 2.359 0
-2.046 -1.394 2.754 7
-2.028 -1.359 2.736 7
-2.027 -1.336 2.716 7
-2.032 -1.316 2.696 6
-2.046 -1.305 2.675 9
-2.036 -1.278 2.658 9
-1.995 -1.234 2.646 9
-1.956 -1.192 2.636 8
-1.92 -1.155 2.625 9
-1.901 -1.128 2.611 11
-1.894 -1.11 2.596 16
-1.879 -1.089 2.582 4
-1.854 -1.063 2.57 13
-1.852 -1.051 2.554 10
-1.833 -1.03 2.541 10
-1.823 -1.016 2.526 2
-1.809 -1.0 2.512 0
-1.771 -0.972 2.505 0
0.0 -0.0 3.0 0
-1.707 -0.925 2.487 0
-1.582 -0.853 2.507 0
-27.1 -14.548 -5.741 14
-1.577 -0.843 2.473 15
-1.56 -0.831 2.46 4
-1.529 -0.812 2.452 4
-1.508 -0.8 2.44 8
-1.536 -0.813 2.409 0
-1.484 -0.785 2.409 1
-1.462 -0.772 2.397 0
-1.44 -0.76 2.385 0
-1.436 -0.757 2.364 0
-1.4 -0.739 2.358 0
-2.038 -1.398 2.753 7
-2.031 -1.369 2.734 7
-2.027 -1.343 2.714 6
-2.051 -1.337 2.691 8
-2.045 -1.312 2.673 9
-2.015 -1.273 2.659 9
-1.981 -1.233 2.646 9
-1.939 -1.19 2.636 9
-1.913 -1.158 2.624 9
-1.894 -1.132 2.61 11
-1.88 -1.11 2.596 12
-1.879 -1.096 2.579 4
-1.854 -1.071 2.567 12
-1.842 -1.053 2.553 14
-1.829 -1.036 2.539 3
-1.813 -1.017 2.526 1
-1.809 -1.007 2.509 0
-1.747 -0.965 2.508 0
-1.726 -0.948 2.496 0
-1.7 -0.928 2.485 0
-1.583 -0.86 2.504 0
-26.956 -14.57 -5.754 13
-1.56 -0.839 2.475 14
-1.547 -0.83 2.461 4
-1.523 -0.815 2.451 4
-1.498 -0.8 2.44 9
-1.527 -0.813 2.409 0
-1.488 -0.792 2.403 0
-1.466 -0.779 2.391 0
-1.437 -0.763 2.382 0
-1.414 -0.751 2.37 0
-1.394 -0.74 2.357 0
-2.028 -1.399 2.753 7
-2.03 -1.378 2.732 7
-2.033 -1.356 2.712 6
-2.047 -1.344 2.69 8
-2.038 -1.316 2.672 9
-2.001 -1.273 2.659 9
-1.964 -1.23 2.647 9
-1.929 -1.191 2.636 9
-1.906 -1.162 2.623 10
-1.893 -1.139 2.608 20
-1.883 -1.119 2.593 7
-1.862 -1.094 2.58 11
-1.85 -1.075 2.566 9
-1.838 -1.058 2.551 13
-1.833 -1.045 2.535 3
-1.813 -1.024 2.522 0
0.0 -0.0 3.0 0
0.0 -0.0 3.0 0
0.0 -0.0 3.0 0
0.0 -0.0 3.0 0
-1.576 -0.862 2.502 0
-26.826 -14.598 -5.772 13
-1.554 -0.842 2.474 12
-1.533 -0.828 2.462 4
-1.509 -0.813 2.452 4
-1.495 -0.803 2.438 11
-1.51 -0.81 2.412 0
-1.485 -0.795 2.401 0
-1.456 -0.778 2.392 0
-1.427 -0.762 2.383 0
-1.405 -0.75 2.371 0
-1.375 -0.734 2.362 0
-2.034 -1.412 2.751 8
-2.03 -1.385 2.731 6
-2.038 -1.368 2.709 5
-2.043 -1.349 2.689 8
-2.027 -1.318 2.671 10
-1.991 -1.274 2.659 10
-1.95 -1.23 2.647 9
-1.915 -1.191 2.636 9
-1.896 -1.163 2.622 10
-1.893 -1.147 2.605 12
-1.876 -1.123 2.591 4
-1.855 -1.097 2.579 14
-1.84 -1.077 2.565 11
-1.835 -1.063 2.549 5
-1.815 -1.042 2.536 2
-1.799 -1.023 2.523 0
0.0 -0.0 3.0 0
-1.737 -0.973 2.504 0
0.0 -0.0 3.0 0
-1.737 -0.962 2.467 0
-1.563 -0.86 2.503 0
-26.693 -14.625 -5.788 11
-1.541 -0.841 2.475 10
-1.53 -0.832 2.46 4
-1.503 -0.815 2.45 4
-1.495 -0.809 2.434 13
-1.504 -0.812 2.41 0
-1.472 -0.793 2.402 0
-1.447 -0.779 2.392 0
-1.421 -0.763 2.382 0
-1.395 -0.749 2.371 0
-1.359 -0.729 2.366 1
-2.023 -1.413 2.751 8
-2.032 -1.396 2.729 6
-2.054 -1.387 2.705 6
-2.046 -1.36 2.686 8
-2.007 -1.312 2.673 9
-1.97 -1.269 2.66 9
-1.936 -1.229 2.648 9
-1.911 -1.196 2.634 9
-1.892 -1.169 2.62 12
-1.882 -1.148 2.605 9
-1.865 -1.124 2.591 5
-1.855 -1.104 2.576 10
-1.843 -1.086 2.561 15
-1.835 -1.07 2.546 3
-1.805 -1.044 2.535 0
0.0 -0.0 3.0 0
0.0 -0.0 3.0 0
0.0 -0.0 3.0 0
0.0 -0.0 3.0 0
-1.667 -0.929 2.485 0
-1.55 -0.859 2.504 0
-26.586 -14.666 -5.812 11
-1.531 -0.841 2.475 10
-1.524 -0.834 2.458 4
-1.494 -0.815 2.45 4
-1.479 -0.805 2.436 12
-1.491 -0.81 2.411 0
-1.466 -0.795 2.401 1
-1.434 -0.776 2.394 0
-1.399 -0.757 2.387 0
-1.383 -0.747 2.373 1
-1.344 -0.725 2.37 3
-2.029 -1.425 2.749 8
-2.028 -1.401 2.728 5
-2.05 -1.393 2.704 8
-2.038 -1.363 2.685 9
-1.996 -1.314 2.672 10
-1.956 -1.269 2.66 10
-1.922 -1.229 2.648 9
-1.904 -1.2 2.633 11
-1.898 -1.18 2.616 16
-1.885 -1.158 2.601 5
-1.855 -1.125 2.59 15
-1.854 -1.112 2.573 8
-1.829 -1.085 2.561 10
-1.821 -1.07 2.546 3
-1.785 -1.038 2.538 0
-1.761 -1.016 2.526 0
0.0 -0.0 3.0 0
0.0 -0.0 3.0 0
-1.705 -0.963 2.488 0
-1.66 -0.931 2.484 0
-1.554 -0.867 2.499 0
-26.352 -14.636 -5.794 10
-1.525 -0.843 2.473 8
-1.511 -0.832 2.459 4
-1.481 -0.813 2.451 4
-1.473 -0.807 2.435 12
-1.485 -0.812 2.41 0
-1.457 -0.795 2.401 0
-1.415 -0.771 2.398 0
-1.393 -0.758 2.386 0
-1.37 -0.745 2.375 1
-1.325 -0.719 2.375 7
-2.028 -1.433 2.747 7
-2.04 -1.418 2.724 6
-2.052 -1.403 2.702 9
-2.027 -1.364 2.685 9
-1.985 -1.316 2.672 9
-1.942 -1.267 2.66 9
-1.915 -1.232 2.647 9
-1.9 -1.205 2.631 11
-1.888 -1.182 2.616 10
-1.882 -1.163 2.6 4
-1.855 -1.133 2.588 13
-1.851 -1.117 2.571 12
-1.829 -1.093 2.559 3
-1.817 -1.075 2.544 1
-1.791 -1.05 2.532 0
-1.771 -1.029 2.52 0
0.0 -0.0 3.0 0
0.0 -0.0 3.0 0
0.0 -0.0 3.0 0
-1.633 -0.923 2.489 0
-1.534 -0.862 2.503 0
-1.501 -0.839 2.496 0
-1.515 -0.844 2.473 7
-1.501 -0.833 2.459 4
-1.478 -0.817 2.449 4
-1.467 -0.808 2.434 11
-1.459 -0.803 2.417 0
-1.444 -0.792 2.403 0
-1.402 -0.768 2.4 0
-1.393 -0.762 2.383 0
-1.354 -0.74 2.379 2
-1.329 -0.726 2.369 3
-2.024 -1.438 2.746 7
-2.049 -1.433 2.721 7
-2.045 -1.406 2.701 8
-2.01 -1.361 2.686 9
-1.968 -1.312 2.673 10
-1.922 -1.262 2.662 10
-1.908 -1.236 2.646 9
-1.899 -1.213 2.629 15
-1.884 -1.188 2.614 7
-1.858 -1.156 2.602 10
-1.854 -1.14 2.585 8
-1.843 -1.121 2.57 12
-1.825 -1.098 2.556 3
-1.803 -1.074 2.544 0
-1.777 -1.049 2.533 0
0.0 -0.0 3.0 0
-1.734 -1.006 2.509 0
-1.703 -0.981 2.5 0
0.0 -0.0 3.0 0
-1.67 -0.95 2.474 0
-1.537 -0.869 2.498 0
-1.518 -0.855 2.486 0
-1.512 -0.847 2.471 4
-1.495 -0.834 2.458 4
-1.461 -0.813 2.452 4
-1.45 -0.805 2.437 10
-1.453 -0.804 2.416 0
-1.428 -0.789 2.406 0
-1.399 -0.772 2.397 0
-1.371 -0.755 2.389 0
-1.339 -0.736 2.382 5
-1.319 -0.725 2.37 5
-2.026 -1.449 2.744 6
-2.048 -1.441 2.72 7
-2.034 -1.408 2.701 9
-1.996 -1.36 2.686 9
-1.961 -1.315 2.672 9
-1.915 -1.266 2.661 10
-1.897 -1.236 2.645 11
-1.889 -1.215 2.629 12
-1.883 -1.195 2.612 3
-1.854 -1.161 2.6 14
-1.844 -1.142 2.584 10
-1.833 -1.122 2.569 5
-1.828 -1.107 2.553 2
0.0 -0.0 3.0 0
0.0 -0.0 3.0 0
-1.734 -1.021 2.524 0
0.0 -0.0 3.0 0
0.0 -0.0 3.0 0
0.0 -0.0 3.0 0
0.0 -0.0 3.0 0
-1.521 -0.866 2.5 0
-1.488 -0.843 2.493 0
-1.495 -0.843 2.473 3
-1.485 -0.835 2.458 4
-1.455 -0.815 2.45 4
-1.444 -0.807 2.435 8
-1.446 -0.806 2.415 0
-1.421 -0.79 2.404 0
-1.383 -0.768 2.4 0
-1.371 -0.759 2.385 1
-1.323 -0.732 2.386 4
-1.31 -0.724 2.37 9
-2.038 -1.466 2.741 6
-2.051 -1.451 2.718 8
-2.027 -1.412 2.7 9
-1.976 -1.354 2.687 9
-1.94 -1.31 2.673 10
-1.907 -1.269 2.66 10
-1.893 -1.242 2.644 11
-1.882 -1.217 2.628 9
-1.876 -1.199 2.611 4
-1.85 -1.167 2.598 10
-1.843 -1.15 2.582 14
-1.839 -1.134 2.565 3
-1.811 -1.105 2.554 0
-1.799 -1.087 2.539 0
-1.753 -1.049 2.533 0
0.0 -0.0 3.0 0
0.0 -0.0 3.0 0
0.0 -0.0 3.0 0
0.0 -0.0 3.0 0
-1.616 -0.932 2.483 0
-1.508 -0.864 2.501 0
-1.472 -0.84 2.495 0
-1.486 -0.844 2.473 2
-1.479 -0.836 2.457 4
-1.445 -0.815 2.45 5
-1.435 -0.806 2.435 7
-1.44 -0.807 2.414 0
-1.412 -0.79 2.405 0
-1.384 -0.773 2.396 0
-1.339 -0.747 2.395 3
-1.32 -0.735 2.384 4
-1.304 -0.725 2.369 6
-2.053 -1.486 2.738 7
-2.037 -1.45 2.718 8
-2.006 -1.406 2.701 9
-1.962 -1.354 2.688 9
-1.923 -1.307 2.674 10
-1.903 -1.275 2.658 11
-1.899 -1.254 2.64 17
-1.878 -1.223 2.626 7
-1.856 -1.194 2.612 13
-1.856 -1.178 2.594 8
-1.839 -1.154 2.58 10
-1.826 -1.133 2.565 2
-1.817 -1.116 2.549 0
0.0 -0.0 3.0 0
0.0 -0.0 3.0 0
0.0 -0.0 3.0 0
0.0 -0.0 3.0 0
0.0 -0.0 3.0 0
0.0 -0.0 3.0 0
-1.616 -0.938 2.48 0
-1.491 -0.86 2.503 0
-1.479 -0.849 2.49 0
-1.466 -0.838 2.477 1
-1.469 -0.837 2.456 4
-1.439 -0.816 2.449 4
-1.419 -0.803 2.438 6
-1.431 -0.807 2.414 0
-1.409 -0.793 2.403 0
-1.358 -0.763 2.404 1
-1.33 -0.746 2.396 5
-1.321 -0.74 2.379 5
-1.292 -0.722 2.372 6
-2.046 -1.489 2.737 8
-2.036 -1.459 2.716 9
-1.989 -1.402 2.702 9
-1.955 -1.357 2.687 9
-1.916 -1.31 2.673 10
-1.896 -1.277 2.658 13
-1.889 -1.255 2.64 11
-1.881 -1.232 2.623 3
-1.855 -1.201 2.61 12
-1.842 -1.178 2.594 11
-1.829 -1.156 2.579 3
-1.818 -1.136 2.564 1
-1.807 -1.118 2.548 0
0.0 -0.0 3.0 0
-1.716 -1.041 2.536 0
0.0 -0.0 3.0 0
-1.656 -0.988 2.518 0
0.0 -0.0 3.0 0
0.0 -0.0 3.0 0
0.0 -0.0 3.0 0
-1.485 -0.863 2.502 0
-1.443 -0.834 2.499 0
-1.46 -0.84 2.475 1
-1.46 -0.837 2.457 4
-1.426 -0.814 2.451 5
-1.409 -0.802 2.438 5
-1.414 -0.803 2.417 0
-1.393 -0.789 2.405 0
-1.339 -0.757 2.409 2
-1.321 -0.745 2.396 3
-1.308 -0.737 2.382 8
-1.296 -0.729 2.366 5
-2.045 -1.497 2.736 8
-2.022 -1.457 2.717 9
-1.975 -1.401 2.702 9
-1.941 -1.356 2.687 9
-1.909 -1.313 2.673 10
-1.892 -1.283 2.656 13
-1.891 -1.265 2.637 9
-1.86 -1.227 2.625 11
-1.858 -1.211 2.607 8
-1.835 -1.181 2.593 13
-1.835 -1.167 2.575 3
-1.815 -1.141 2.562 0
-1.777 -1.106 2.553 0
0.0 -0.0 3.0 0
0.0 -0.0 3.0 0
0.0 -0.0 3.0 0
0.0 -0.0 3.0 0
0.0 -0.0 3.0 0
0.0 -0.0 3.0 0
0.0 -0.0 3.0 0
-1.475 -0.863 2.502 0
-1.443 -0.84 2.495 0
-1.434 -0.83 2.481 0
-1.447 -0.835 2.458 4
-1.423 -0.818 2.448 5
-1.4 -0.802 2.438 4
-1.412 -0.807 2.414 0
-1.384 -0.788 2.406 0
-1.333 -0.758 2.408 3
-1.321 -0.75 2.393 4
-1.299 -0.736 2.382 6
-1.293 -0.731 2.364 5
-2.047 -1.508 2.734 9
-2.005 -1.453 2.718 8
-1.965 -1.402 2.702 9
-1.92 -1.35 2.688 9
-1.898 -1.314 2.672 11
-1.892 -1.29 2.654 17
-1.891 -1.273 2.635 6
-1.863 -1.238 2.622 14
-1.847 -1.211 2.606 11
-1.835 -1.188 2.591 7
-1.828 -1.171 2.574 2
0.0 -0.0 3.0 0
0.0 -0.0 3.0 0
-1.741 -1.08 2.542 0
0.0 -0.0 3.0 0
0.0 -0.0 3.0 0
0.0 -0.0 3.0 0
0.0 -0.0 3.0 0
-1.621 -0.966 2.487 0
0.0 -0.0 3.0 0
-1.472 -0.867 2.499 0
-1.443 -0.845 2.492 0
-1.427 -0.832 2.48 0
-1.44 -0.836 2.457 5
-1.404 -0.812 2.452 5
-1.393 -0.803 2.437 5
-1.399 -0.804 2.416 1
-1.365 -0.783 2.41 1
-1.321 -0.756 2.41 3
-1.309 -0.748 2.395 7
-1.3 -0.74 2.379 4
-1.281 -0.728 2.367 4
-2.033 -1.507 2.734 9
-1.987 -1.45 2.718 7
-1.951 -1.4 2.702 9
-1.913 -1.353 2.688 9
-1.894 -1.319 2.671 11
-1.888 -1.296 2.653 11
-1.88 -1.274 2.635 6
-1.852 -1.238 2.621 11
-1.84 -1.215 2.605 16
-1.828 -1.192 2.59 2
-1.831 -1.18 2.57 0
-1.781 -1.135 2.564 0
-1.763 -1.112 2.551 0
0.0 -0.0 3.0 0
-1.689 -1.046 2.534 0
0.0 -0.0 3.0 0
-1.633 -0.994 2.515 0
-1.599 -0.966 2.508 0
-1.595 -0.957 2.491 0
-1.573 -0.938 2.48 0
-1.472 -0.873 2.496 1
-1.433 -0.845 2.492 0
-1.431 -0.84 2.475 0
-1.434 -0.838 2.456 5
-1.404 -0.818 2.449 5
-1.384 -0.803 2.438 5
-1.393 -0.806 2.414 1
-1.345 -0.776 2.415 3
-1.311 -0.755 2.41 3
-1.3 -0.746 2.396 6
-1.291 -0.74 2.379 5
-1.275 -0.729 2.366 2
-2.009 -1.498 2.736 8
-1.977 -1.451 2.718 9
-1.937 -1.399 2.703 9
-1.906 -1.357 2.687 9
-1.89 -1.325 2.67 14
-1.887 -1.305 2.65 9
-1.866 -1.272 2.635 14
-1.852 -1.246 2.619 8
-1.836 -1.221 2.603 11
-1.824 -1.197 2.588 2
-1.807 -1.172 2.573 0
0.0 -0.0 3.0 0
-1.752 -1.113 2.55 0
0.0 -0.0 3.0 0
-1.679 -1.046 2.534 0
0.0 -0.0 3.0 0
0.0 -0.0 3.0 0
0.0 -0.0 3.0 0
0.0 -0.0 3.0 0
0.0 -0.0 3.0 0
-1.459 -0.87 2.498 1
-1.427 -0.847 2.491 0
-1.398 -0.826 2.484 0
-1.421 -0.836 2.457 6
-1.391 -0.816 2.45 5
-1.374 -0.803 2.438 5
-1.373 -0.8 2.419 2
-1.333 -0.774 2.416 5
-1.309 -0.758 2.408 5
-1.297 -0.749 2.393 5
-1.285 -0.741 2.378 4
-1.266 -0.729 2.367 2
-1.999 -1.499 2.736 9
-1.953 -1.442 2.72 9
-1.927 -1.4 2.702 9
-1.902 -1.362 2.686 11
-1.889 -1.333 2.668 15
-1.886 -1.312 2.648 3
-1.862 -1.278 2.634 16
-1.841 -1.246 2.619 15
-1.832 -1.225 2.602 3
-1.813 -1.198 2.587 1
-1.8 -1.176 2.572 0
0.0 -0.0 3.0 0
-1.739 -1.112 2.551 0
0.0 -0.0 3.0 0
0.0 -0.0 3.0 0
0.0 -0.0 3.0 0
0.0 -0.0 3.0 0
0.0 -0.0 3.0 0
0.0 -0.0 3.0 0
-1.547 -0.935 2.482 0
-1.443 -0.867 2.5 1
-1.414 -0.845 2.492 0
-1.408 -0.838 2.477 0
-1.405 -0.832 2.46 7
-1.392 -0.82 2.447 6
-1.365 -0.802 2.438 5
-1.351 -0.791 2.425 4
-1.32 -0.771 2.419 3
-1.303 -0.759 2.407 7
-1.297 -0.754 2.389 5
-1.272 -0.738 2.38 3
-1.238 -0.717 2.377 3
-1.985 -1.497 2.736 8
-1.946 -1.444 2.719 9
-1.916 -1.401 2.702 9
-1.894 -1.365 2.685 11
-1.888 -1.341 2.666 10
-1.879 -1.315 2.648 4
-1.861 -1.285 2.631 17
-1.84 -1.254 2.617 15
-1.832 -1.233 2.599 2
-1.829 -1.216 2.581 0
0.0 -0.0 3.0 0
0.0 -0.0 3.0 0
0.0 -0.0 3.0 0
-1.707 -1.088 2.538 0
0.0 -0.0 3.0 0
0.0 -0.0 3.0 0
0.0 -0.0 3.0 0
-1.612 -0.994 2.494 0
0.0 -0.0 3.0 0
-1.52 -0.925 2.487 0
-1.44 -0.871 2.497 1
-25.004 -15.042 -6.038 10
-1.399 -0.837 2.477 0
-1.395 -0.832 2.46 7
-1.379 -0.818 2.448 6
-1.359 -0.804 2.437 5
-1.338 -0.789 2.427 5
-1.324 -0.779 2.413 4
-1.293 -0.758 2.408 5
-1.285 -0.751 2.392 5
-1.266 -0.739 2.38 2
-1.219 -0.71 2.383 6
-1.971 -1.495 2.736 8
-1.929 -1.441 2.72 9
-1.909 -1.404 2.702 9
-1.893 -1.372 2.683 16
-1.9 -1.358 2.661 8
-1.858 -1.309 2.649 5
-1.854 -1.289 2.63 31
-1.836 -1.26 2.615 9
-1.824 -1.236 2.598 2
-1.841 -1.233 2.576 0
-1.874 -1.241 2.548 0
0.0 -0.0 3.0 0
-1.715 -1.111 2.551 0
0.0 -0.0 3.0 0
0.0 -0.0 3.0 0
0.0 -0.0 3.0 0
0.0 -0.0 3.0 0
-1.569 -0.974 2.504 0
0.0 -0.0 3.0 0
-1.55 -0.949 2.474 0
-1.437 -0.874 2.495 1
-1.375 -0.833 2.499 0
-1.383 -0.833 2.48 0
-1.386 -0.832 2.46 8
-1.373 -0.82 2.447 6
-1.349 -0.803 2.437 5
-1.329 -0.788 2.427 3
-1.311 -0.776 2.416 7
-1.294 -0.764 2.403 4
-1.276 -0.751 2.392 4
-1.26 -0.74 2.379 2
-1.226 -0.718 2.376 1
-1.951 -1.489 2.737 8
-1.922 -1.444 2.719 9
-1.901 -1.407 2.701 11
-1.893 -1.381 2.681 12
-1.912 -1.375 2.657 3
-1.848 -1.31 2.649 7
-1.85 -1.294 2.629 57
-1.845 -1.274 2.61 2
-1.824 -1.244 2.596 0
-1.824 -1.229 2.577 0
0.0 -0.0 3.0 0
-1.752 -1.154 2.557 0
0.0 -0.0 3.0 0
0.0 -0.0 3.0 0
0.0 -0.0 3.0 0
-1.602 -1.017 2.526 0
-1.573 -0.99 2.517 0
-1.562 -0.976 2.503 0
0.0 -0.0 3.0 0
0.0 -0.0 3.0 0
-1.43 -0.876 2.494 1
-24.733 -15.075 -6.058 6
-1.38 -0.837 2.477 0
-1.376 -0.831 2.461 9
-1.36 -0.818 2.448 6
-1.34 -0.803 2.438 5
-1.326 -0.791 2.425 6
-1.309 -0.779 2.413 6
-1.288 -0.764 2.403 6
-1.263 -0.748 2.395 2
-1.217 -0.718 2.397 10
-1.211 -0.713 2.38 1
-1.94 -1.49 2.737 8
-1.908 -1.443 2.72 9
-1.897 -1.413 2.7 11
-1.882 -1.381 2.681 7
-1.908 -1.38 2.656 3
-1.841 -1.313 2.648 4
-1.836 -1.293 2.629 30
-1.819 -1.264 2.614 2
-1.846 -1.267 2.588 0
-1.846 -1.252 2.569 0
0.0 -0.0 3.0 0
0.0 -0.0 3.0 0
0.0 -0.0 3.0 0
-1.689 -1.098 2.534 0
0.0 -0.0 3.0 0
-1.589 -1.015 2.527 0
-1.589 -1.007 2.509 0
-1.565 -0.985 2.498 0
0.0 -0.0 3.0 0
-1.497 -0.929 2.485 0
-1.427 -0.88 2.492 1
-24.519 -15.043 -6.039 4
-1.367 -0.834 2.479 0
-1.37 -0.832 2.46 10
-1.351 -0.817 2.449 6
-1.334 -0.804 2.437 6
-1.314 -0.789 2.427 6
-1.299 -0.778 2.414 5
-1.279 -0.763 2.404 4
-1.264 -0.752 2.391 2
-1.22 -0.725 2.391 1
-1.199 -0.71 2.383 9
-1.926 -1.488 2.738 8
-1.907 -1.45 2.718 10
-1.896 -1.42 2.698 14
-1.878 -1.387 2.68 5
-1.939 -1.411 2.648 2
-1.84 -1.321 2.646 3
-1.832 -1.298 2.628 11
-1.808 -1.265 2.613 1
-1.825 -1.261 2.59 0
-1.858 -1.269 2.563 0
0.0 -0.0 3.0 0
0.0 -0.0 3.0 0
0.0 -0.0 3.0 0
0.0 -0.0 3.0 0
0.0 -0.0 3.0 0
-1.566 -1.007 2.53 0
0.0 -0.0 3.0 0
-1.536 -0.972 2.505 0
-1.496 -0.941 2.5 0
-1.481 -0.925 2.487 0
-1.414 -0.878 2.493 0
-24.315 -15.015 -6.022 6
-1.374 -0.844 2.473 0
-1.361 -0.832 2.46 12
-1.344 -0.818 2.448 6
-1.328 -0.805 2.436 6
-1.311 -0.792 2.425 8
-1.296 -0.781 2.411 5
-1.269 -0.762 2.405 3
-1.239 -0.741 2.4 3
-1.224 -0.731 2.386 1
-1.212 -0.722 2.372 3
-1.916 -1.489 2.738 9
-1.906 -1.457 2.717 10
-1.892 -1.426 2.697 9
-1.874 -1.392 2.679 4
-1.951 -1.429 2.644 2
-1.832 -1.323 2.645 4
-1.834 -1.308 2.625 3
-1.811 -1.274 2.61 0
0.0 -0.0 3.0 0
-1.857 -1.276 2.561 0
-1.831 -1.245 2.547 0
0.0 -0.0 3.0 0
0.0 -0.0 3.0 0
0.0 -0.0 3.0 0
0.0 -0.0 3.0 0
0.0 -0.0 3.0 0
-1.536 -0.986 2.519 0
-1.523 -0.97 2.506 0
-1.541 -0.975 2.481 0
-1.494 -0.939 2.479 0
-1.424 -0.89 2.486 0
-24.177 -15.027 -6.029 7
-1.351 -0.836 2.478 0
-1.351 -0.832 2.46 15
-1.341 -0.822 2.446 6
-1.315 -0.803 2.438 6
-1.308 -0.795 2.422 8
-1.29 -0.782 2.41 5
-1.257 -0.76 2.406 2
-1.217 -0.733 2.406 3
-1.208 -0.727 2.39 3
-1.212 -0.727 2.368 14
-1.908 -1.49 2.737 8
-1.898 -1.461 2.716 11
-1.881 -1.426 2.697 8
-1.869 -1.398 2.677 8
-1.93 -1.422 2.645 1
-1.822 -1.324 2.645 4
-1.827 -1.311 2.624 2
-1.8 -1.275 2.61 0
-1.82 -1.274 2.586 0
-1.986 -1.373 2.527 0
0.0 -0.0 3.0 0
0.0 -0.0 3.0 0
0.0 -0.0 3.0 0
0.0 -0.0 3.0 0
0.0 -0.0 3.0 0
-1.578 -1.029 2.52 0
-1.526 -0.986 2.519 0
0.0 -0.0 3.0 0
0.0 -0.0 3.0 0
-1.474 -0.933 2.483 0
-1.427 -0.898 2.482 0
-1.367 -0.855 2.486 0
-1.335 -0.831 2.481 0
-1.348 -0.835 2.458 17
-1.326 -0.817 2.449 6
-1.309 -0.804 2.437 6
-1.302 -0.796 2.421 6
-1.284 -0.783 2.41 4
-1.248 -0.759 2.407 2
-1.218 -0.738 2.402 1
-1.203 -0.727 2.39 4
-1.206 -0.728 2.367 29
-1.898 -1.491 2.737 10
-1.891 -1.464 2.715 15
-1.877 -1.431 2.696 4
-1.856 -1.396 2.678 13
-1.91 -1.417 2.647 1
-1.811 -1.325 2.645 2
-1.813 -1.309 2.625 1
-1.793 -1.278 2.609 0
0.0 -0.0 3.0 0
-2.016 -1.403 2.517 0
-1.823 -1.255 2.543 0
0.0 -0.0 3.0 0
0.0 -0.0 3.0 0
0.0 -0.0 3.0 0
-1.594 -1.055 2.53 0
0.0 -0.0 3.0 0
0.0 -0.0 3.0 0
0.0 -0.0 3.0 0
0.0 -0.0 3.0 0
-1.461 -0.931 2.484 0
-1.418 -0.898 2.482 0
-1.351 -0.851 2.489 0
-1.322 -0.828 2.482 0
-1.342 -0.837 2.457 19
-1.323 -0.821 2.446 7
-1.3 -0.803 2.437 6
-1.299 -0.799 2.419 6
-1.266 -0.777 2.415 2
-1.217 -0.744 2.419 6
-1.215 -0.741 2.4 1
-1.222 -0.743 2.376 5
-1.21 -0.734 2.362 56
-1.897 -1.499 2.736 10
-1.893 -1.474 2.714 9
-1.876 -1.439 2.694 3
-1.848 -1.398 2.677 12
-1.893 -1.412 2.648 1
-1.794 -1.321 2.646 1
0.0 -0.0 3.0 0
-1.798 -1.29 2.606 0
-1.79 -1.269 2.588 0
-2.121 -1.486 2.488 0
0.0 -0.0 3.0 0
0.0 -0.0 3.0 0
0.0 -0.0 3.0 0
0.0 -0.0 3.0 0
-1.603 -1.068 2.524 0
-1.539 -1.016 2.526 0
-1.542 -1.01 2.507 0
-1.532 -0.996 2.492 0
0.0 -0.0 3.0 0
-1.455 -0.933 2.483 0
-1.401 -0.893 2.484 0
-1.319 -0.836 2.498 0
-1.319 -0.832 2.48 0
-1.332 -0.836 2.457 20
-1.31 -0.818 2.448 6
-1.3 -0.808 2.434 5
-1.283 -0.795 2.422 4
-1.259 -0.778 2.414 2
-1.207 -0.743 2.419 1
-1.196 -0.734 2.406 5
-1.21 -0.74 2.379 17
-1.204 -0.734 2.362 89
-1.895 -1.507 2.734 10
-1.879 -1.472 2.714 6
-1.862 -1.437 2.694 11
-1.85 -1.409 2.675 8
-1.803 -1.354 2.662 0
-1.778 -1.316 2.647 1
0.0 -0.0 3.0 0
-1.791 -1.293 2.605 0
-1.766 -1.26 2.591 0
-2.136 -1.506 2.482 1
0.0 -0.0 3.0 0
0.0 -0.0 3.0 0
0.0 -0.0 3.0 0
0.0 -0.0 3.0 0
0.0 -0.0 3.0 0
0.0 -0.0 3.0 0
-1.509 -0.995 2.515 0
0.0 -0.0 3.0 0
0.0 -0.0 3.0 0
-1.448 -0.935 2.482 0
-1.408 -0.904 2.478 0
-1.357 -0.866 2.479 0
-1.326 -0.841 2.474 0
-1.326 -0.837 2.456 19
-1.304 -0.82 2.447 6
-1.29 -0.808 2.434 4
-1.277 -0.796 2.421 3
-1.225 -0.761 2.426 6
-1.205 -0.746 2.417 1
-1.212 -0.748 2.394 5
-1.21 -0.745 2.375 29
-1.198 -0.735 2.361 80
-1.891 -1.512 2.733 13
-1.875 -1.477 2.713 3
-1.855 -1.441 2.694 13
-1.843 -1.411 2.674 11
-1.755 -1.326 2.669 0
-1.745 -1.301 2.651 2
0.0 -0.0 3.0 0
-1.79 -1.301 2.602 0
0.0 -0.0 3.0 0
-2.121 -1.506 2.482 1
0.0 -0.0 3.0 0
0.0 -0.0 3.0 0
0.0 -0.0 3.0 0
0.0 -0.0 3.0 0
0.0 -0.0 3.0 0
0.0 -0.0 3.0 0
-1.496 -0.994 2.515 0
-1.467 -0.967 2.507 0
-1.437 -0.94 2.5 0
-1.426 -0.926 2.486 0
-1.385 -0.895 2.483 0
-1.319 -0.847 2.491 0
-1.297 -0.829 2.482 0
-1.32 -0.839 2.455 18
-1.301 -0.823 2.445 5
-1.287 -0.811 2.432 5
-1.264 -0.793 2.424 2
-1.229 -0.768 2.422 1
-1.196 -0.745 2.418 5
-1.21 -0.75 2.392 12
-1.204 -0.745 2.375 42
-1.198 -0.74 2.357 36
-1.887 -1.517 2.732 7
-1.861 -1.475 2.713 6
-1.85 -1.446 2.693 10
-1.839 -1.417 2.673 13
-1.751 -1.33 2.668 0
-1.731 -1.298 2.652 3
0.0 -0.0 3.0 0
0.0 -0.0 3.0 0
0.0 -0.0 3.0 0
-2.145 -1.532 2.472 1
-1.714 -1.211 2.559 0
0.0 -0.0 3.0 0
0.0 -0.0 3.0 0
0.0 -0.0 3.0 0
0.0 -0.0 3.0 0
-1.515 -1.021 2.524 0
-1.515 -1.012 2.506 0
-1.479 -0.981 2.5 0
0.0 -0.0 3.0 0
-1.406 -0.919 2.49 0
-1.389 -0.902 2.479 0
-1.303 -0.842 2.494 0
-1.291 -0.829 2.482 0
-1.304 -0.834 2.458 15
-1.298 -0.826 2.443 4
-1.275 -0.808 2.434 3
-1.239 -0.782 2.432 4
-1.21 -0.761 2.427 1
-1.202 -0.753 2.412 3
-1.207 -0.753 2.39 21
-1.201 -0.748 2.373 45
-1.19 -0.738 2.359 18
-1.873 -1.515 2.733 5
-1.857 -1.481 2.712 15
-1.846 -1.451 2.692 9
-1.831 -1.419 2.672 6
-1.709 -1.307 2.674 0
-1.721 -1.299 2.652 5
0.0 -0.0 3.0 0
-1.778 -1.308 2.6 0
-1.719 -1.25 2.594 0
-2.127 -1.529 2.473 1
0.0 -0.0 3.0 0
0.0 -0.0 3.0 0
0.0 -0.0 3.0 0
0.0 -0.0 3.0 0
0.0 -0.0 3.0 0
-1.499 -1.016 2.526 0
0.0 -0.0 3.0 0
-1.447 -0.966 2.508 0
-1.43 -0.948 2.496 0
0.0 -0.0 3.0 0
-1.385 -0.906 2.477 0
-1.303 -0.848 2.491 0
-1.301 -0.841 2.474 0
-1.301 -0.837 2.456 12
-1.285 -0.823 2.445 4
-1.263 -0.805 2.436 2
-1.23 -0.781 2.433 2
-1.204 -0.762 2.426 2
-1.209 -0.762 2.405 8
-1.204 -0.756 2.388 26
-1.199 -0.751 2.37 33
-1.193 -0.744 2.353 14
-1.875 -1.526 2.731 3
-1.852 -1.486 2.711 15
-1.845 -1.459 2.69 12
-1.821 -1.42 2.672 1
-1.696 -1.305 2.675 0
-1.711 -1.299 2.652 8
0.0 -0.0 3.0 0
-1.796 -1.331 2.593 0
0.0 -0.0 3.0 0
-2.132 -1.543 2.469 1
0.0 -0.0 3.0 0
0.0 -0.0 3.0 0
-1.601 -1.123 2.546 0
0.0 -0.0 3.0 0
-1.524 -1.049 2.533 0
-1.489 -1.016 2.526 0
-1.457 -0.986 2.519 0
-1.45 -0.974 2.504 0
-1.411 -0.941 2.5 0
-1.4 -0.927 2.486 0
-1.382 -0.91 2.475 0
-1.291 -0.845 2.492 0
-1.282 -0.834 2.479 0
-1.295 -0.839 2.455 10
-1.279 -0.824 2.444 3
-1.253 -0.804 2.437 3
-1.218 -0.778 2.435 1
-1.207 -0.768 2.421 4
-1.206 -0.765 2.402 18
-1.198 -0.757 2.387 33
-1.193 -0.751 2.37 16
-1.19 -0.747 2.351 12
-1.858 -1.521 2.732 7
-1.851 -1.494 2.71 10
-1.834 -1.459 2.69 11
-1.804 -1.416 2.673 1
-1.695 -1.312 2.673 0
-1.704 -1.302 2.651 11
0.0 -0.0 3.0 0
-1.836 -1.369 2.582 0
0.0 -0.0 3.0 0
-2.123 -1.546 2.468 2
0.0 -0.0 3.0 0
0.0 -0.0 3.0 0
0.0 -0.0 3.0 0
0.0 -0.0 3.0 0
-1.523 -1.056 2.53 0
-1.479 -1.016 2.526 0
-1.447 -0.986 2.519 0
-1.437 -0.972 2.505 0
-1.414 -0.949 2.495 0
-1.387 -0.925 2.488 0
-1.369 -0.907 2.476 0
-1.281 -0.844 2.493 0
-1.266 -0.829 2.482 0
-1.285 -0.838 2.456 9
-1.27 -0.824 2.444 2
-1.228 -0.793 2.445 5
-1.215 -0.781 2.432 1
-1.214 -0.777 2.414 3
-1.203 -0.768 2.4 20
-1.195 -0.76 2.385 26
-1.19 -0.754 2.368 15
-1.184 -0.748 2.35 11
-1.856 -1.528 2.731 14
-1.846 -1.499 2.709 12
-1.83 -1.464 2.689 3
-1.79 -1.413 2.674 1
-1.681 -1.309 2.674 0
-1.69 -1.299 2.652 14
0.0 -0.0 3.0 0
-1.797 -1.348 2.588 0
0.0 -0.0 3.0 0
-2.112 -1.548 2.467 1
0.0 -0.0 3.0 0
0.0 -0.0 3.0 0
0.0 -0.0 3.0 0
0.0 -0.0 3.0 0
-1.52 -1.06 2.528 0
-1.457 -1.007 2.53 0
-1.463 -1.003 2.511 0
-1.421 -0.967 2.507 0
-1.391 -0.94 2.5 0
-1.368 -0.918 2.491 0
-1.372 -0.915 2.472 0
-1.291 -0.856 2.486 0
-1.27 -0.837 2.477 0
-1.279 -0.839 2.455 8
-1.257 -0.82 2.447 2
-1.213 -0.788 2.448 1
-1.209 -0.782 2.432 5
-1.214 -0.782 2.411 14
-1.2 -0.77 2.398 23
-1.192 -0.762 2.383 17
-1.184 -0.755 2.367 11
-1.181 -0.75 2.348 4
-1.858 -1.539 2.729 13
-1.836 -1.5 2.709 14
-1.831 -1.475 2.687 1
-1.733 -1.377 2.682 0
