# .PCD v0.7 - Point Cloud Data file format
VERSION 0.7
FIELDS x y z intensity
SIZE 4 4 4 4
TYPE F F F F
COUNT 1 1 1 1
WIDTH 2034
HEIGHT 1
VIEWPOINT 0 0 0 1 0 0 0
POINTS 2034
DATA ascii
0.0 -0.0 3.0 0
-6.858 -23.519 -3.302 14
-6.714 -22.857 -3.554 67
-6.772 -22.887 -3.997 3
-6.825 -22.881 -4.435 5
-6.524 -21.712 -4.476 7
-6.259 -20.649 -4.516 29
-6.018 -19.724 -4.571 8
-5.809 -18.885 -4.63 6
-5.598 -18.065 -4.668 7
-5.41 -17.32 -4.711 7
-5.237 -16.64 -4.759 8
-5.07 -15.98 -4.794 9
-4.923 -15.397 -4.845 8
-4.769 -14.804 -4.872 7
-4.633 -14.262 -4.906 8
-4.516 -13.794 -4.964 8
-4.393 -13.306 -4.995 8
-4.27 -12.833 -5.019 8
-4.164 -12.407 -5.057 9
-4.056 -11.986 -5.085 10
-3.957 -11.59 -5.115 10
-3.859 -11.21 -5.145 10
-3.766 -10.842 -5.17 10
-3.676 -10.491 -5.197 12
-3.585 -10.144 -5.214 13
-3.502 -9.816 -5.237 32
-3.417 -9.491 -5.251 14
-11.295 -39.802 -4.018 5
-8.518 -29.773 -2.787 1
-7.641 -26.511 -2.635 10
-7.94 -27.327 -3.309 11
0.0 -0.0 3.0 0
-6.958 -23.58 -3.318 14
-6.797 -22.866 -3.557 64
-6.869 -22.94 -4.013 2
-6.908 -22.886 -4.436 4
-6.606 -21.725 -4.481 7
-6.334 -20.652 -4.517 22
-6.093 -19.736 -4.576 9
-5.879 -18.889 -4.632 6
-5.665 -18.067 -4.669 6
-5.477 -17.326 -4.714 8
-5.301 -16.645 -4.762 8
-5.132 -15.982 -4.795 29
-4.98 -15.393 -4.843 8
-4.825 -14.802 -4.87 9
-4.688 -14.262 -4.906 8
-4.569 -13.792 -4.963 8
-4.447 -13.31 -4.998 8
-4.322 -12.835 -5.02 8
-4.213 -12.405 -5.056 9
-4.103 -11.982 -5.082 9
-4.002 -11.586 -5.113 10
-3.904 -11.207 -5.143 9
-3.811 -10.842 -5.17 11
-3.717 -10.485 -5.192 11
-3.628 -10.144 -5.215 12
-3.542 -9.811 -5.232 38
-3.459 -9.495 -5.254 14
-11.435 -39.828 -4.023 5
-8.632 -29.823 -2.797 1
-7.732 -26.515 -2.636 13
-7.867 -26.763 -3.179 4
0.0 -0.0 3.0 0
-7.061 -23.652 -3.337 13
-6.88 -22.88 -3.561 62
-6.954 -22.956 -4.018 1
-6.994 -22.902 -4.441 4
-6.686 -21.735 -4.484 8
-6.417 -20.681 -4.527 10
-6.165 -19.735 -4.575 9
-5.95 -18.894 -4.633 6
-5.732 -18.068 -4.669 7
-5.541 -17.324 -4.713 7
-5.363 -16.644 -4.761 7
-5.191 -15.979 -4.793 42
-5.04 -15.397 -4.845 8
-4.883 -14.804 -4.872 8
-4.745 -14.267 -4.908 9
-4.623 -13.793 -4.963 8
-4.496 -13.302 -4.992 8
-4.371 -12.83 -5.017 8
-4.264 -12.407 -5.057 8
-4.152 -11.984 -5.084 9
-4.051 -11.589 -5.115 10
-3.948 -11.204 -5.14 10
-3.855 -10.838 -5.167 12
-3.762 -10.489 -5.195 12
-3.672 -10.148 -5.218 14
-3.584 -9.812 -5.233 40
-3.498 -9.49 -5.25 14
-11.587 -39.896 -4.035 5
-8.75 -29.884 -2.809 1
-7.822 -26.518 -2.637 11
-7.849 -26.396 -3.094 13
0.0 -0.0 3.0 0
-7.165 -23.727 -3.358 9
-6.968 -22.903 -3.567 61
-7.065 -23.053 -4.048 1
-7.078 -22.911 -4.444 4
-6.769 -21.752 -4.49 15
-6.495 -20.69 -4.531 9
-6.239 -19.742 -4.578 9
-6.021 -18.897 -4.635 8
-5.799 -18.069 -4.67 7
-5.605 -17.322 -4.712 7
-5.427 -16.646 -4.762 7
-5.252 -15.981 -4.794 41
-5.099 -15.396 -4.845 8
-4.939 -14.802 -4.87 8
-4.801 -14.267 -4.908 9
-4.676 -13.79 -4.962 8
-4.549 -13.303 -4.993 7
-4.423 -12.831 -5.018 8
-4.311 -12.399 -5.052 9
-4.198 -11.977 -5.079 9
-4.095 -11.582 -5.11 10
-3.995 -11.206 -5.141 7
-3.898 -10.835 -5.165 9
-3.805 -10.485 -5.192 11
-3.713 -10.142 -5.213 13
-3.625 -9.809 -5.231 40
-3.54 -9.494 -5.253 16
-11.729 -39.929 -4.041 5
-8.871 -29.956 -2.823 2
-7.921 -26.547 -2.643 1
0.0 -0.0 3.0 0
0.0 -0.0 3.0 0
-7.276 -23.82 -3.383 7
-7.054 -22.923 -3.573 60
-7.097 -22.893 -3.999 2
-7.164 -22.926 -4.449 5
-6.843 -21.739 -4.485 26
-6.574 -20.704 -4.536 8
-6.312 -19.745 -4.58 8
-6.09 -18.897 -4.635 6
-5.868 -18.073 -4.672 6
-5.67 -17.323 -4.713 8
-5.49 -16.648 -4.763 8
-5.314 -15.983 -4.796 39
-5.157 -15.395 -4.844 8
-4.997 -14.804 -4.872 8
-4.856 -14.267 -4.908 8
-4.731 -13.791 -4.962 8
-4.603 -13.306 -4.995 7
-4.473 -12.83 -5.017 8
-4.362 -12.404 -5.055 9
-4.247 -11.978 -5.079 9
-4.145 -11.587 -5.114 10
-4.04 -11.202 -5.139 7
-3.943 -10.835 -5.165 9
-3.848 -10.483 -5.19 12
-3.754 -10.139 -5.21 12
-3.667 -9.809 -5.231 39
-3.582 -9.494 -5.253 15
-11.879 -39.985 -4.05 6
-8.997 -30.039 -2.839 1
0.0 -0.0 3.0 0
0.0 -0.0 3.0 0
0.0 -0.0 3.0 0
-7.387 -23.909 -3.407 3
-7.142 -22.946 -3.58 61
-7.242 -23.098 -4.062 4
-7.249 -22.934 -4.452 5
-6.923 -21.744 -4.487 30
-6.65 -20.706 -4.536 9
-6.387 -19.752 -4.582 9
-6.161 -18.901 -4.637 6
-5.939 -18.084 -4.676 7
-5.735 -17.325 -4.713 7
-5.55 -16.639 -4.759 8
-5.374 -15.982 -4.795 46
-5.217 -15.398 -4.846 8
-5.055 -14.804 -4.872 8
-4.911 -14.264 -4.906 8
-4.783 -13.785 -4.959 8
-4.653 -13.298 -4.99 8
-4.523 -12.824 -5.013 8
-4.411 -12.399 -5.052 9
-4.296 -11.98 -5.081 10
-4.189 -11.579 -5.108 10
-4.086 -11.202 -5.138 8
-3.989 -10.837 -5.166 12
-3.892 -10.483 -5.19 13
-3.797 -10.139 -5.211 13
-3.708 -9.807 -5.229 38
-3.62 -9.489 -5.249 16
-12.028 -40.036 -4.059 4
-10.425 -34.419 -3.69 8
0.0 -0.0 3.0 0
-8.623 -28.03 -3.471 9
0.0 -0.0 3.0 0
-8.217 -26.3 -4.047 1
-7.229 -22.969 -3.586 61
0.0 -0.0 3.0 0
-7.332 -22.938 -4.453 5
-7.002 -21.745 -4.487 17
-6.728 -20.714 -4.539 9
-6.461 -19.758 -4.584 5
-6.23 -18.897 -4.635 6
-6.004 -18.078 -4.674 7
-5.801 -17.326 -4.714 7
-5.616 -16.648 -4.763 8
-5.434 -15.977 -4.792 43
-5.275 -15.393 -4.843 8
-5.109 -14.797 -4.867 8
-4.965 -14.26 -4.905 9
-4.837 -13.785 -4.959 8
-4.705 -13.294 -4.988 8
-4.573 -12.822 -5.012 8
-4.46 -12.397 -5.051 10
-4.343 -11.976 -5.078 9
-4.235 -11.576 -5.105 10
-4.132 -11.2 -5.137 9
-4.032 -10.83 -5.161 10
-3.936 -10.482 -5.19 12
-3.839 -10.136 -5.208 13
-3.749 -9.804 -5.227 41
-3.661 -9.487 -5.247 16
-12.18 -40.098 -4.07 5
-10.533 -34.396 -3.686 27
0.0 -0.0 3.0 0
-8.703 -27.978 -3.459 1
0.0 -0.0 3.0 0
-8.662 -27.417 -4.346 1
-7.312 -22.973 -3.587 2
0.0 -0.0 3.0 0
-7.419 -22.953 -4.458 5
-7.089 -21.771 -4.496 8
-6.807 -20.724 -4.543 9
-6.537 -19.767 -4.588 9
-6.304 -18.91 -4.64 6
-6.074 -18.084 -4.676 7
-5.867 -17.329 -4.715 7
-5.679 -16.649 -4.763 8
-5.495 -15.979 -4.793 40
-5.336 -15.399 -4.846 8
-5.169 -14.803 -4.871 8
-5.022 -14.264 -4.907 8
-4.892 -13.785 -4.959 8
-4.758 -13.296 -4.989 8
-4.626 -12.826 -5.015 8
-4.511 -12.398 -5.052 9
-4.393 -11.977 -5.078 10
-4.283 -11.574 -5.104 10
-4.18 -11.202 -5.139 10
-4.078 -10.833 -5.163 12
-3.979 -10.479 -5.187 12
-3.882 -10.136 -5.208 11
-3.791 -9.804 -5.227 36
-3.701 -9.484 -5.244 15
-12.323 -40.126 -4.075 4
-10.652 -34.401 -3.687 22
0.0 -0.0 3.0 0
0.0 -0.0 3.0 0
0.0 -0.0 3.0 0
-8.411 -26.331 -4.055 0
-7.457 -23.172 -3.644 0
0.0 -0.0 3.0 0
-7.499 -22.945 -4.455 5
-7.175 -21.793 -4.504 7
-6.886 -20.735 -4.547 10
-6.609 -19.766 -4.588 9
-6.373 -18.907 -4.639 6
-6.141 -18.084 -4.676 7
-5.933 -17.33 -4.716 7
-5.743 -16.65 -4.764 7
-5.557 -15.981 -4.794 44
-5.395 -15.398 -4.846 8
-5.226 -14.802 -4.87 7
-5.078 -14.263 -4.906 8
-4.945 -13.781 -4.957 8
-4.81 -13.292 -4.987 8
-4.676 -12.82 -5.011 8
-4.559 -12.393 -5.048 9
-4.44 -11.972 -5.075 8
-4.33 -11.572 -5.103 9
-4.223 -11.195 -5.134 10
-4.122 -10.829 -5.16 11
-4.023 -10.478 -5.186 11
-3.926 -10.136 -5.208 11
-3.831 -9.798 -5.222 37
-3.74 -9.478 -5.239 16
-12.466 -40.153 -4.08 5
-10.803 -34.512 -3.708 24
-8.511 -26.987 -2.736 0
0.0 -0.0 3.0 0
0.0 -0.0 3.0 0
-8.501 -26.324 -4.053 0
0.0 -0.0 3.0 0
-7.94 -24.226 -4.407 5
-7.588 -22.966 -4.462 5
-7.256 -21.797 -4.505 7
-6.965 -20.744 -4.55 10
-6.686 -19.779 -4.592 9
-6.444 -18.909 -4.64 6
-6.209 -18.084 -4.676 7
-5.996 -17.323 -4.713 5
-5.807 -16.651 -4.764 7
-5.619 -15.981 -4.795 40
-5.456 -15.4 -4.847 8
-5.284 -14.801 -4.87 8
-5.134 -14.262 -4.906 8
-5.001 -13.784 -4.958 8
-4.863 -13.292 -4.987 8
-4.726 -12.817 -5.009 8
-4.608 -12.39 -5.046 9
-4.488 -11.97 -5.074 10
-4.378 -11.574 -5.104 10
-4.271 -11.197 -5.135 9
-4.167 -10.828 -5.159 12
-4.066 -10.474 -5.183 11
-3.966 -10.129 -5.202 12
-3.874 -9.801 -5.224 39
-3.782 -9.481 -5.242 14
-12.615 -40.199 -4.088 5
-10.952 -34.614 -3.728 9
0.0 -0.0 3.0 0
0.0 -0.0 3.0 0
0.0 -0.0 3.0 0
-8.595 -26.328 -4.055 1
-8.434 -25.645 -4.354 7
-8.03 -24.235 -4.409 5
-7.679 -22.99 -4.47 5
-7.339 -21.809 -4.509 7
-7.041 -20.745 -4.551 9
-6.761 -19.784 -4.595 9
-6.515 -18.912 -4.641 6
-6.279 -18.091 -4.679 7
-6.064 -17.33 -4.716 7
-5.871 -16.652 -4.765 7
-5.681 -15.983 -4.796 42
-5.516 -15.402 -4.847 8
-5.341 -14.799 -4.869 8
-5.191 -14.265 -4.907 8
-5.055 -13.784 -4.958 8
-4.916 -13.292 -4.987 8
-4.777 -12.815 -5.008 8
-4.66 -12.394 -5.049 9
-4.538 -11.971 -5.074 10
-4.425 -11.572 -5.103 9
-4.317 -11.195 -5.134 11
-4.214 -10.83 -5.161 11
-4.11 -10.473 -5.183 13
-4.011 -10.132 -5.205 13
-3.914 -9.795 -5.219 41
-3.821 -9.476 -5.237 14
-12.778 -40.285 -4.103 5
-11.035 -34.507 -3.707 33
0.0 -0.0 3.0 0
-8.791 -27.062 -3.248 1
0.0 -0.0 3.0 0
-8.702 -26.373 -4.067 0
-8.527 -25.649 -4.355 6
-8.118 -24.24 -4.411 6
-7.763 -22.993 -4.471 4
-7.422 -21.818 -4.513 7
-7.124 -20.763 -4.557 8
-6.835 -19.785 -4.595 8
-6.588 -18.917 -4.643 6
-6.347 -18.09 -4.679 7
-6.131 -17.334 -4.717 7
-5.934 -16.652 -4.765 8
-5.741 -15.977 -4.792 40
-5.573 -15.393 -4.843 8
-5.399 -14.799 -4.869 9
-5.245 -14.257 -4.903 8
-5.11 -13.784 -4.958 8
-4.968 -13.289 -4.985 8
-4.829 -12.815 -5.008 8
-4.709 -12.388 -5.045 8
-4.587 -11.972 -5.075 10
-4.472 -11.571 -5.102 10
-4.362 -11.191 -5.131 9
-4.258 -10.825 -5.157 9
-4.154 -10.472 -5.182 13
-4.053 -10.128 -5.201 12
-3.957 -9.797 -5.221 38
-3.865 -9.481 -5.242 17
-12.934 -40.348 -4.115 5
-11.147 -34.489 -3.704 34
-9.606 -29.496 -3.27 8
0.0 -0.0 3.0 0
0.0 -0.0 3.0 0
-8.795 -26.372 -4.066 0
-8.625 -25.671 -4.361 7
-8.211 -24.256 -4.416 6
-7.852 -23.009 -4.476 4
-7.505 -21.829 -4.516 8
-7.202 -20.767 -4.559 10
-6.911 -19.794 -4.598 9
-6.662 -18.927 -4.647 6
-6.419 -18.1 -4.683 7
-6.198 -17.337 -4.719 7
-6.0 -16.655 -4.766 7
-5.804 -15.981 -4.795 42
-5.636 -15.401 -4.847 8
-5.459 -14.803 -4.871 8
-5.302 -14.26 -4.904 9
-5.163 -13.779 -4.955 8
-5.022 -13.289 -4.985 7
-4.881 -12.815 -5.008 8
-4.759 -12.389 -5.045 9
-4.634 -11.967 -5.072 9
-4.52 -11.569 -5.1 10
-4.407 -11.186 -5.127 10
-4.303 -10.824 -5.157 11
-4.2 -10.474 -5.184 13
-4.095 -10.125 -5.199 13
-3.997 -9.792 -5.216 37
-3.899 -9.464 -5.227 22
-13.089 -40.404 -4.124 5
-11.268 -34.5 -3.706 34
0.0 -0.0 3.0 0
0.0 -0.0 3.0 0
0.0 -0.0 3.0 0
-8.891 -26.383 -4.069 0
-8.724 -25.693 -4.367 7
-8.303 -24.271 -4.421 5
-7.94 -23.022 -4.48 5
-7.588 -21.839 -4.52 8
-7.281 -20.775 -4.561 9
-6.989 -19.805 -4.603 8
-6.734 -18.931 -4.649 6
-6.487 -18.098 -4.682 6
-6.264 -17.337 -4.719 7
-6.064 -16.656 -4.767 7
-5.866 -15.981 -4.795 41
-5.695 -15.398 -4.846 8
-5.514 -14.795 -4.867 8
-5.357 -14.255 -4.901 9
-5.218 -13.778 -4.955 8
-5.074 -13.285 -4.983 8
-4.932 -12.812 -5.006 8
-4.808 -12.383 -5.042 9
-4.684 -11.967 -5.072 9
-4.567 -11.567 -5.099 10
-4.454 -11.188 -5.128 11
-4.348 -10.823 -5.156 11
-4.243 -10.47 -5.18 10
-4.139 -10.127 -5.201 10
-4.041 -9.794 -5.218 39
-3.94 -9.464 -5.227 23
-13.256 -40.496 -4.141 5
-11.39 -34.511 -3.708 20
-9.948 -29.915 -3.359 2
-8.858 -26.419 -3.099 5
0.0 -0.0 3.0 0
-8.97 -26.337 -4.057 1
-8.821 -25.707 -4.371 6
-8.396 -24.287 -4.425 6
-8.028 -23.035 -4.485 5
-7.67 -21.846 -4.522 7
-7.359 -20.778 -4.563 8
-7.062 -19.803 -4.601 9
-6.806 -18.933 -4.649 6
-6.555 -18.097 -4.682 7
-6.332 -17.342 -4.721 7
-6.128 -16.655 -4.766 7
-5.928 -15.982 -4.795 34
-5.754 -15.395 -4.844 8
-5.574 -14.8 -4.869 8
-5.414 -14.256 -4.902 9
-5.273 -13.778 -4.955 8
-5.128 -13.287 -4.984 7
-4.984 -12.811 -5.005 8
-4.857 -12.38 -5.04 9
-4.731 -11.961 -5.068 9
-4.614 -11.564 -5.097 9
-4.502 -11.188 -5.129 10
-4.392 -10.818 -5.152 11
-4.287 -10.469 -5.179 11
-4.181 -10.123 -5.197 11
-4.081 -9.787 -5.213 40
-3.983 -9.466 -5.229 21
-13.4 -40.516 -4.144 5
-11.512 -34.521 -3.71 8
-11.084 -32.988 -4.012 19
-8.951 -26.422 -3.1 1
0.0 -0.0 3.0 0
0.0 -0.0 3.0 0
-8.917 -25.721 -4.375 7
-8.487 -24.298 -4.429 6
-8.113 -23.04 -4.486 5
-7.754 -21.855 -4.525 7
-7.442 -20.796 -4.569 9
-7.138 -19.81 -4.604 9
-6.88 -18.941 -4.653 6
-6.627 -18.106 -4.685 7
-6.4 -17.345 -4.722 7
-6.192 -16.655 -4.766 7
-5.99 -15.982 -4.795 41
-5.817 -15.403 -4.848 8
-5.631 -14.798 -4.868 8
-5.473 -14.262 -4.905 8
-5.326 -13.773 -4.952 8
-5.179 -13.28 -4.98 8
-5.035 -12.808 -5.003 8
-4.91 -12.383 -5.041 9
-4.781 -11.962 -5.068 9
-4.663 -11.565 -5.098 10
-4.547 -11.184 -5.125 10
-4.437 -10.817 -5.151 10
-4.331 -10.468 -5.179 12
-4.224 -10.122 -5.196 13
-4.122 -9.783 -5.209 40
-4.02 -9.457 -5.221 20
-13.554 -40.566 -4.153 5
-11.648 -34.576 -3.721 11
-11.195 -32.977 -4.009 31
0.0 -0.0 3.0 0
0.0 -0.0 3.0 0
-9.159 -26.346 -4.059 2
-9.014 -25.734 -4.379 6
-8.579 -24.309 -4.432 6
-8.203 -23.055 -4.491 5
-7.836 -21.861 -4.527 8
-7.523 -20.806 -4.573 10
-7.218 -19.824 -4.61 10
-6.95 -18.935 -4.65 6
-6.695 -18.104 -4.685 6
-6.467 -17.348 -4.724 5
-6.257 -16.658 -4.768 7
-6.054 -15.986 -4.797 42
-5.877 -15.401 -4.847 7
-5.69 -14.799 -4.869 8
-5.526 -14.253 -4.901 9
-5.383 -13.775 -4.953 8
-5.235 -13.286 -4.983 8
-5.086 -12.804 -5.001 8
-4.961 -12.383 -5.042 8
-4.828 -11.956 -5.064 9
-4.712 -11.565 -5.098 10
-4.594 -11.184 -5.126 10
-4.484 -10.817 -5.151 11
-4.374 -10.463 -5.175 11
-4.268 -10.121 -5.196 11
-4.165 -9.786 -5.211 37
-4.063 -9.459 -5.223 20
-13.721 -40.652 -4.168 5
-12.611 -37.056 -4.203 6
-11.321 -33.01 -4.017 30
0.0 -0.0 3.0 0
0.0 -0.0 3.0 0
-9.247 -26.329 -4.055 3
-9.111 -25.748 -4.383 7
-8.671 -24.319 -4.435 6
-8.291 -23.067 -4.495 5
-7.921 -21.873 -4.532 8
-7.601 -20.809 -4.574 10
-7.292 -19.824 -4.61 16
-7.025 -18.946 -4.655 5
-6.769 -18.12 -4.691 7
-6.534 -17.349 -4.724 5
-6.323 -16.661 -4.769 6
-6.116 -15.986 -4.797 42
-5.936 -15.397 -4.845 8
-5.749 -14.8 -4.869 7
-5.585 -14.258 -4.903 5
-5.438 -13.774 -4.952 8
-5.286 -13.278 -4.978 8
-5.136 -12.8 -4.998 7
-5.01 -12.38 -5.04 9
-4.878 -11.956 -5.064 9
-4.756 -11.556 -5.092 10
-4.642 -11.185 -5.127 10
-4.53 -10.819 -5.153 10
-4.418 -10.462 -5.174 11
-4.31 -10.116 -5.192 12
-4.206 -9.782 -5.208 39
-4.104 -9.459 -5.222 20
-13.865 -40.667 -4.171 3
-11.828 -34.406 -3.688 2
-11.445 -33.04 -4.023 31
-9.472 -27.119 -3.261 0
0.0 -0.0 3.0 0
-9.351 -26.356 -4.062 2
-9.211 -25.767 -4.389 6
-8.764 -24.333 -4.439 6
-8.38 -23.078 -4.498 5
-8.008 -21.889 -4.537 7
-7.682 -20.817 -4.577 8
-7.364 -19.817 -4.607 32
-7.098 -18.95 -4.656 6
-6.839 -18.121 -4.692 6
-6.603 -17.355 -4.727 5
-6.387 -16.66 -4.769 8
-6.179 -15.985 -4.796 40
-5.998 -15.401 -4.847 8
-5.806 -14.794 -4.866 8
-5.64 -14.252 -4.9 9
-5.495 -13.778 -4.955 7
-5.34 -13.277 -4.977 8
-5.189 -12.799 -4.998 8
-5.061 -12.379 -5.039 9
-4.928 -11.956 -5.064 10
-4.806 -11.559 -5.094 9
-4.687 -11.179 -5.122 11
-4.573 -10.81 -5.146 12
-4.464 -10.463 -5.174 11
-4.353 -10.115 -5.191 12
-4.253 -9.789 -5.214 33
-4.143 -9.452 -5.217 24
-14.009 -40.682 -4.173 2
-11.901 -34.274 -3.662 1
-11.568 -33.061 -4.027 28
0.0 -0.0 3.0 0
0.0 -0.0 3.0 0
-9.447 -26.361 -4.063 2
-9.307 -25.775 -4.391 6
-8.856 -24.343 -4.442 6
-8.472 -23.1 -4.506 5
-8.093 -21.901 -4.541 7
-7.763 -20.827 -4.58 11
-7.441 -19.824 -4.61 34
-7.173 -18.958 -4.659 6
-6.91 -18.125 -4.694 7
-6.668 -17.349 -4.724 5
-6.45 -16.655 -4.766 7
-6.241 -15.985 -4.796 43
-6.058 -15.397 -4.845 7
-5.866 -14.797 -4.868 7
-5.698 -14.253 -4.901 9
-5.549 -13.773 -4.952 8
-5.395 -13.279 -4.979 8
-5.241 -12.799 -4.998 8
-5.111 -12.375 -5.037 9
-4.976 -11.952 -5.062 9
-4.853 -11.554 -5.09 10
-4.733 -11.177 -5.121 10
-4.621 -10.814 -5.149 11
-4.507 -10.458 -5.171 13
-4.398 -10.117 -5.192 13
-4.291 -9.779 -5.206 25
-4.186 -9.454 -5.218 21
-14.171 -40.748 -4.185 4
-13.04 -37.186 -4.228 6
-11.686 -33.071 -4.029 29
0.0 -0.0 3.0 0
0.0 -0.0 3.0 0
-9.542 -26.362 -4.064 7
-9.412 -25.806 -4.4 7
-8.951 -24.36 -4.448 6
-8.559 -23.104 -4.507 5
-8.177 -21.909 -4.544 7
-7.843 -20.833 -4.583 10
-7.512 -19.816 -4.607 22
-7.245 -18.958 -4.659 5
-6.976 -18.116 -4.69 8
-6.734 -17.348 -4.724 6
-6.516 -16.657 -4.767 7
-6.305 -15.988 -4.798 43
-6.116 -15.39 -4.842 8
-5.924 -14.795 -4.866 8
-5.754 -14.251 -4.899 9
-5.604 -13.771 -4.951 7
-5.448 -13.277 -4.978 8
-5.293 -12.797 -4.997 8
-5.16 -12.368 -5.032 8
-5.026 -11.952 -5.062 9
-4.901 -11.554 -5.09 9
-4.779 -11.171 -5.116 10
-4.665 -10.809 -5.145 11
-4.55 -10.453 -5.167 11
-4.44 -10.112 -5.188 12
-4.335 -9.781 -5.207 17
-4.227 -9.453 -5.218 22
-14.366 -40.903 -4.212 5
-13.189 -37.244 -4.239 6
-11.809 -33.091 -4.034 28
-11.417 -31.73 -4.325 3
0.0 -0.0 3.0 0
-9.638 -26.367 -4.065 2
-9.509 -25.818 -4.403 7
-9.045 -24.373 -4.452 6
-8.652 -23.124 -4.514 5
-8.261 -21.913 -4.545 7
-7.927 -20.848 -4.588 13
-7.596 -19.84 -4.616 11
-7.32 -18.964 -4.662 5
-7.048 -18.123 -4.693 6
-6.804 -17.352 -4.726 5
-6.581 -16.659 -4.768 7
-6.366 -15.983 -4.796 41
-6.18 -15.396 -4.845 8
-5.985 -14.798 -4.868 7
-5.813 -14.255 -4.902 8
-5.659 -13.769 -4.95 8
-5.502 -13.275 -4.977 8
-5.347 -12.799 -4.998 8
-5.211 -12.368 -5.032 9
-5.075 -11.949 -5.059 9
-4.95 -11.554 -5.09 10
-4.828 -11.175 -5.119 10
-4.712 -10.81 -5.146 11
-4.597 -10.457 -5.17 12
-4.482 -10.107 -5.184 12
-4.376 -9.777 -5.204 13
-4.266 -9.446 -5.212 23
-14.528 -40.964 -4.223 5
-13.346 -37.319 -4.254 6
-11.932 -33.11 -4.038 28
-11.522 -31.71 -4.321 6
0.0 -0.0 3.0 0
-9.741 -26.388 -4.071 5
-9.606 -25.826 -4.405 6
-9.142 -24.393 -4.458 6
-8.74 -23.131 -4.516 5
-8.349 -21.932 -4.552 7
-8.006 -20.849 -4.589 25
-7.675 -19.848 -4.619 9
-7.394 -18.967 -4.663 6
-7.122 -18.134 -4.697 8
-6.874 -17.36 -4.729 7
-6.646 -16.657 -4.767 7
-6.429 -15.982 -4.795 44
-6.239 -15.393 -4.843 8
-6.044 -14.797 -4.868 7
-5.87 -14.252 -4.9 9
-5.715 -13.77 -4.95 7
-5.556 -13.274 -4.976 7
-5.399 -12.798 -4.997 9
-5.261 -12.363 -5.029 9
-5.126 -11.951 -5.061 9
-4.996 -11.547 -5.085 10
-4.873 -11.169 -5.115 11
-4.757 -10.807 -5.144 11
-4.64 -10.452 -5.166 11
-4.528 -10.112 -5.188 10
-4.418 -9.775 -5.203 13
-4.308 -9.446 -5.211 20
-14.676 -40.984 -4.227 4
-13.493 -37.368 -4.264 6
-12.06 -33.142 -4.044 28
-11.65 -31.753 -4.331 7
0.0 -0.0 3.0 0
-9.83 -26.37 -4.066 4
-9.707 -25.844 -4.411 6
-9.235 -24.401 -4.46 6
-8.832 -23.148 -4.521 4
-8.434 -21.939 -4.554 7
-8.084 -20.848 -4.588 26
-7.755 -19.862 -4.624 9
-7.468 -18.97 -4.664 6
-7.193 -18.134 -4.697 6
-6.941 -17.358 -4.728 5
-6.712 -16.659 -4.768 8
-6.49 -15.977 -4.793 44
-6.303 -15.399 -4.846 8
-6.104 -14.797 -4.868 7
-5.928 -14.252 -4.9 9
-5.772 -13.77 -4.95 8
-5.608 -13.268 -4.972 8
-5.449 -12.79 -4.992 8
-5.313 -12.366 -5.03 9
-5.174 -11.944 -5.057 9
-5.044 -11.544 -5.083 8
-4.922 -11.172 -5.117 10
-4.803 -10.804 -5.142 10
-4.686 -10.453 -5.167 11
-4.57 -10.107 -5.184 13
-4.46 -9.771 -5.199 13
-4.351 -9.447 -5.212 22
-14.865 -41.114 -4.25 4
-13.645 -37.428 -4.275 6
-12.193 -33.186 -4.054 23
-11.785 -31.814 -4.345 7
-9.879 -26.463 -3.598 1
-9.955 -26.449 -4.087 5
-9.808 -25.861 -4.416 7
-9.329 -24.413 -4.464 6
-8.918 -23.15 -4.522 5
-8.521 -21.952 -4.559 8
-8.164 -20.852 -4.589 18
-7.833 -19.866 -4.626 7
-7.543 -18.976 -4.667 6
-7.264 -18.137 -4.699 7
-7.01 -17.361 -4.73 4
-6.777 -16.656 -4.767 7
-6.554 -15.979 -4.793 45
-6.366 -15.401 -4.847 8
-6.163 -14.797 -4.868 6
-5.984 -14.249 -4.899 9
-5.827 -13.768 -4.949 8
-5.663 -13.269 -4.973 8
-5.501 -12.788 -4.991 7
-5.363 -12.361 -5.027 9
-5.224 -11.943 -5.056 9
-5.094 -11.546 -5.085 9
-4.968 -11.168 -5.114 10
-4.85 -10.805 -5.142 11
-4.729 -10.447 -5.162 11
-4.613 -10.104 -5.182 12
-4.503 -9.772 -5.199 13
-4.391 -9.443 -5.208 19
-15.049 -41.229 -4.27 5
-13.791 -37.468 -4.283 6
-12.324 -33.224 -4.062 23
-11.914 -31.854 -4.354 7
-9.979 -26.478 -3.602 14
0.0 -0.0 3.0 0
-9.912 -25.887 -4.423 6
-9.424 -24.425 -4.467 6
-9.008 -23.16 -4.525 4
-8.606 -21.959 -4.561 8
-8.254 -20.88 -4.6 11
-7.911 -19.871 -4.628 8
-7.618 -18.982 -4.669 6
-7.336 -18.14 -4.7 8
-7.077 -17.359 -4.729 5
-6.84 -16.651 -4.764 8
-6.617 -15.977 -4.793 44
-6.423 -15.39 -4.842 8
-6.223 -14.797 -4.867 7
-6.043 -14.252 -4.9 8
-5.884 -13.768 -4.949 8
-5.719 -13.27 -4.974 8
-5.557 -12.793 -4.994 8
-5.414 -12.359 -5.026 8
-5.271 -11.936 -5.051 9
-5.139 -11.537 -5.078 8
-5.015 -11.166 -5.112 10
-4.895 -10.802 -5.14 11
-4.775 -10.448 -5.163 11
-4.657 -10.102 -5.18 10
-4.543 -9.764 -5.193 14
-4.432 -9.441 -5.207 20
-15.211 -41.28 -4.279 5
-13.943 -37.526 -4.294 6
-12.446 -33.238 -4.065 21
-12.043 -31.896 -4.364 8
0.0 -0.0 3.0 0
0.0 -0.0 3.0 0
-10.009 -25.893 -4.425 6
-9.521 -24.444 -4.473 6
-9.097 -23.165 -4.527 4
-8.696 -21.976 -4.567 13
-8.341 -20.898 -4.606 10
-7.989 -19.876 -4.63 8
-7.689 -18.977 -4.667 6
-7.406 -18.14 -4.7 5
-7.146 -17.362 -4.73 7
-6.907 -16.655 -4.766 8
-6.68 -15.975 -4.792 39
-6.487 -15.396 -4.845 8
-6.279 -14.789 -4.863 6
-6.1 -14.249 -4.898 8
-5.939 -13.765 -4.947 8
-5.773 -13.268 -4.972 8
-5.608 -12.788 -4.991 8
-5.466 -12.358 -5.025 9
-5.323 -11.938 -5.052 9
-5.19 -11.539 -5.08 9
-5.063 -11.165 -5.112 10
-4.941 -10.799 -5.137 11
-4.818 -10.442 -5.158 10
-4.7 -10.1 -5.179 12
-4.587 -9.765 -5.194 18
-4.471 -9.434 -5.201 17
-15.375 -41.335 -4.289 6
-14.1 -37.591 -4.307 6
-12.589 -33.303 -4.079 30
-12.173 -31.936 -4.373 7
0.0 -0.0 3.0 0
-10.694 -27.615 -4.4 5
-10.107 -25.899 -4.426 6
-9.617 -24.458 -4.478 6
-9.195 -23.194 -4.536 5
-8.777 -21.971 -4.565 20
-8.424 -20.909 -4.61 10
-8.07 -19.887 -4.634 9
-7.766 -18.986 -4.671 6
-7.478 -18.142 -4.701 7
-7.213 -17.359 -4.729 6
-6.972 -16.652 -4.765 8
-6.743 -15.973 -4.791 41
-6.548 -15.394 -4.844 9
-6.34 -14.791 -4.865 6
-6.158 -14.249 -4.898 9
-5.993 -13.759 -4.944 7
-5.828 -13.268 -4.972 8
-5.66 -12.785 -4.989 8
-5.518 -12.359 -5.026 9
-5.374 -11.94 -5.054 9
-5.239 -11.539 -5.079 10
-5.108 -11.158 -5.107 10
-4.988 -10.798 -5.137 11
-4.867 -10.448 -5.163 9
-4.744 -10.098 -5.177 11
-4.628 -9.761 -5.19 23
-4.514 -9.435 -5.202 21
-15.53 -41.367 -4.294 5
-14.252 -37.645 -4.317 6
-12.715 -33.324 -4.083 34
-12.291 -31.947 -4.376 7
-11.472 -29.588 -4.377 6
-10.808 -27.648 -4.408 5
-10.21 -25.919 -4.432 6
-9.715 -24.476 -4.483 6
-9.287 -23.206 -4.54 5
-8.859 -21.971 -4.565 29
-8.508 -20.919 -4.614 10
-8.149 -19.896 -4.637 9
-7.84 -18.987 -4.671 6
-7.55 -18.145 -4.702 6
-7.284 -17.365 -4.731 7
-7.04 -16.656 -4.767 8
-6.808 -15.978 -4.793 43
-6.606 -15.385 -4.839 8
-6.4 -14.791 -4.864 7
-6.215 -14.244 -4.896 8
-6.05 -13.759 -4.944 8
-5.882 -13.266 -4.971 8
-5.712 -12.78 -4.986 8
-5.567 -12.351 -5.021 9
-5.422 -11.932 -5.048 9
-5.288 -11.537 -5.078 10
-5.158 -11.161 -5.109 10
-5.032 -10.793 -5.133 10
-4.91 -10.443 -5.159 10
-4.788 -10.095 -5.175 12
-4.671 -9.758 -5.188 25
-4.555 -9.431 -5.198 18
-15.698 -41.427 -4.305 5
-14.409 -37.709 -4.33 5
-12.846 -33.356 -4.09 32
-12.414 -31.969 -4.381 8
-11.589 -29.615 -4.384 6
-10.915 -27.663 -4.412 5
-10.313 -25.939 -4.438 6
-9.81 -24.486 -4.486 5
-9.378 -23.218 -4.544 5
-8.944 -21.976 -4.567 19
-8.588 -20.919 -4.614 10
-8.226 -19.896 -4.637 9
-7.918 -18.995 -4.675 6
-7.621 -18.147 -4.703 6
-7.354 -17.368 -4.733 6
-7.105 -16.652 -4.765 7
-6.873 -15.979 -4.793 42
-6.671 -15.39 -4.842 9
-6.458 -14.785 -4.861 6
-6.272 -14.24 -4.893 5
-6.107 -13.758 -4.943 8
-5.936 -13.262 -4.969 8
-5.767 -12.784 -4.988 7
-5.621 -12.356 -5.024 9
-5.472 -11.931 -5.047 8
-5.335 -11.533 -5.075 10
-5.206 -11.16 -5.108 10
-5.079 -10.792 -5.133 11
-4.955 -10.439 -5.156 11
-4.831 -10.092 -5.172 11
-4.715 -9.759 -5.189 34
-4.599 -9.435 -5.201 21
-15.868 -41.494 -4.317 3
-14.564 -37.765 -4.341 4
-12.962 -33.35 -4.089 31
-12.54 -31.997 -4.387 8
-11.706 -29.638 -4.39 6
-11.023 -27.681 -4.417 5
-10.418 -25.962 -4.444 6
-9.906 -24.496 -4.489 5
-9.472 -23.232 -4.549 4
-9.039 -22.002 -4.576 8
-8.676 -20.939 -4.621 10
-8.304 -19.9 -4.639 8
-7.995 -19.004 -4.678 6
-7.696 -18.156 -4.707 6
-7.424 -17.37 -4.734 5
-7.173 -16.656 -4.767 7
-6.935 -15.973 -4.79 44
-6.732 -15.388 -4.84 8
-6.518 -14.784 -4.861 7
-6.333 -14.246 -4.897 9
-6.165 -13.761 -4.945 7
-5.99 -13.259 -4.967 8
-5.818 -12.778 -4.985 7
-5.673 -12.353 -5.022 9
-5.521 -11.926 -5.044 9
-5.382 -11.526 -5.07 10
-5.249 -11.15 -5.101 9
-5.123 -10.786 -5.128 11
-4.999 -10.436 -5.153 10
-4.876 -10.093 -5.173 11
-4.755 -9.751 -5.182 39
-4.641 -9.433 -5.2 21
-16.033 -41.543 -4.325 5
-14.718 -37.817 -4.351 6
-13.104 -33.406 -4.101 32
-12.67 -32.033 -4.395 7
-11.833 -29.686 -4.402 6
-11.141 -27.72 -4.427 5
-10.524 -25.984 -4.451 6
-10.006 -24.517 -4.495 6
-9.561 -23.236 -4.55 4
-9.129 -22.018 -4.581 8
-8.761 -20.948 -4.624 11
-8.387 -19.913 -4.644 8
-8.069 -19.004 -4.678 6
-7.767 -18.154 -4.706 6
-7.491 -17.366 -4.732 5
-7.239 -16.656 -4.767 8
-7.002 -15.98 -4.794 44
-6.795 -15.389 -4.841 8
-6.576 -14.779 -4.858 7
-6.39 -14.241 -4.894 8
-6.223 -13.764 -4.946 5
-6.045 -13.259 -4.967 8
-5.871 -12.775 -4.983 8
-5.721 -12.344 -5.017 9
-5.572 -11.927 -5.045 9
-5.431 -11.524 -5.069 11
-5.297 -11.149 -5.1 10
-5.171 -10.788 -5.129 10
-5.044 -10.433 -5.151 12
-4.918 -10.087 -5.168 12
-4.8 -9.754 -5.184 38
-4.68 -9.425 -5.193 18
-16.211 -41.627 -4.34 5
-14.87 -37.864 -4.36 6
-13.248 -33.469 -4.114 31
-12.805 -32.082 -4.407 8
-11.948 -29.702 -4.405 6
-11.245 -27.726 -4.429 5
-10.622 -25.989 -4.452 6
-10.101 -24.526 -4.498 6
-9.654 -23.25 -4.554 5
-9.218 -22.029 -4.585 7
-8.846 -20.961 -4.629 10
-8.466 -19.917 -4.645 9
-8.144 -19.005 -4.679 6
-7.839 -18.155 -4.706 7
-7.564 -17.375 -4.736 6
-7.307 -16.659 -4.768 8
-7.064 -15.973 -4.79 46
-6.857 -15.386 -4.84 8
-6.638 -14.781 -4.859 7
-6.448 -14.24 -4.894 8
-6.279 -13.759 -4.944 6
-6.1 -13.256 -4.965 8
-5.924 -12.772 -4.981 10
-5.777 -12.352 -5.021 9
-5.623 -11.925 -5.044 9
-5.48 -11.522 -5.068 10
-5.343 -11.141 -5.095 9
-5.219 -10.787 -5.129 11
-5.088 -10.429 -5.148 13
-4.964 -10.087 -5.168 11
-4.842 -9.748 -5.18 40
-4.72 -9.42 -5.188 16
-16.399 -41.734 -4.359 4
-15.028 -37.922 -4.371 5
-13.406 -33.564 -4.134 30
-12.939 -32.127 -4.417 9
-12.068 -29.731 -4.413 6
-11.366 -27.771 -4.441 5
-10.731 -26.018 -4.46 6
-10.2 -24.542 -4.503 6
-9.745 -23.257 -4.556 5
-9.305 -22.037 -4.588 7
-8.931 -20.97 -4.632 11
-8.544 -19.919 -4.646 15
-8.223 -19.015 -4.683 5
-7.912 -18.157 -4.707 6
-7.634 -17.377 -4.737 6
-7.375 -16.662 -4.769 8
-7.13 -15.976 -4.792 46
-6.921 -15.391 -4.842 8
-6.696 -14.775 -4.856 7
-6.502 -14.229 -4.887 9
-6.333 -13.753 -4.94 8
-6.155 -13.255 -4.965 8
-5.977 -12.769 -4.979 8
-5.824 -12.339 -5.013 9
-5.673 -11.923 -5.042 8
-5.529 -11.521 -5.067 10
-5.392 -11.144 -5.096 11
-5.264 -10.784 -5.126 12
-5.133 -10.426 -5.146 11
-5.006 -10.081 -5.163 10
-4.886 -9.749 -5.181 33
-4.764 -9.423 -5.191 21
-16.571 -41.795 -4.37 6
-15.184 -37.976 -4.382 5
-13.6 -33.746 -4.173 19
-13.074 -32.172 -4.427 11
-12.19 -29.763 -4.421 6
-11.483 -27.806 -4.451 5
-10.828 -26.018 -4.461 6
-10.295 -24.547 -4.505 5
-9.842 -23.277 -4.563 4
-9.397 -22.056 -4.594 7
-9.013 -20.971 -4.633 11
-8.628 -19.932 -4.651 7
-8.298 -19.015 -4.683 6
-7.987 -18.164 -4.71 6
-7.702 -17.375 -4.736 5
-7.441 -16.657 -4.767 8
-7.195 -15.976 -4.792 45
-6.981 -15.384 -4.839 8
-6.757 -14.777 -4.857 7
-6.562 -14.231 -4.888 8
-6.392 -13.754 -4.941 8
-6.208 -13.248 -4.96 8
-6.032 -12.773 -4.981 11
-5.878 -12.339 -5.013 8
-5.722 -11.918 -5.038 9
-5.577 -11.516 -5.064 9
-5.439 -11.139 -5.093 9
-5.311 -10.782 -5.125 10
-5.179 -10.426 -5.146 11
-5.051 -10.081 -5.163 12
-4.927 -9.743 -5.175 38
-4.803 -9.415 -5.185 17
-16.752 -41.877 -4.384 5
-15.347 -38.044 -4.395 6
-13.753 -33.822 -4.189 23
-13.208 -32.212 -4.437 11
-12.316 -29.803 -4.431 5
-11.591 -27.818 -4.454 5
-10.939 -26.05 -4.47 6
-10.395 -24.566 -4.511 6
-9.938 -23.294 -4.569 4
-9.481 -22.052 -4.593 7
-9.099 -20.982 -4.637 11
-8.708 -19.938 -4.654 8
-8.379 -19.029 -4.688 6
-8.059 -18.165 -4.711 6
-7.774 -17.381 -4.738 5
-7.509 -16.659 -4.768 8
-7.26 -15.975 -4.792 44
-7.042 -15.377 -4.835 9
-6.817 -14.774 -4.856 7
-6.62 -14.228 -4.887 7
-6.447 -13.749 -4.938 8
-6.267 -13.254 -4.964 8
-6.084 -12.766 -4.977 15
-5.929 -12.336 -5.011 9
-5.774 -11.918 -5.039 9
-5.625 -11.511 -5.06 9
-5.489 -11.141 -5.094 10
-5.357 -10.778 -5.122 11
-5.223 -10.419 -5.14 12
-5.093 -10.074 -5.158 10
-4.973 -9.746 -5.178 33
-4.848 -9.418 -5.187 17
-16.921 -41.93 -4.393 4
-15.502 -38.089 -4.404 6
-13.874 -33.821 -4.189 23
-13.348 -32.266 -4.449 12
-12.436 -29.827 -4.437 6
-11.707 -27.847 -4.462 5
-11.045 -26.07 -4.475 6
-10.493 -24.577 -4.514 6
-10.026 -23.293 -4.568 4
-9.575 -22.073 -4.6 7
-9.183 -20.987 -4.639 11
-8.79 -19.948 -4.657 9
-8.452 -19.025 -4.687 7
-8.137 -18.175 -4.715 6
-7.846 -17.385 -4.74 5
-7.577 -16.662 -4.769 7
-7.325 -15.975 -4.792 46
-7.105 -15.377 -4.835 8
-6.878 -14.772 -4.854 8
-6.68 -14.23 -4.888 8
-6.503 -13.745 -4.936 8
-6.319 -13.247 -4.959 8
-6.137 -12.762 -4.975 17
-5.984 -12.34 -5.014 9
-5.825 -11.915 -5.037 9
-5.676 -11.511 -5.06 9
-5.536 -11.136 -5.09 13
-5.404 -10.777 -5.121 11
-5.269 -10.418 -5.139 12
-5.138 -10.074 -5.158 12
-5.012 -9.738 -5.171 37
-4.887 -9.41 -5.18 17
-17.1 -42.004 -4.406 6
-15.664 -38.152 -4.416 5
-14.067 -33.989 -4.225 6
-13.481 -32.302 -4.458 11
-12.565 -29.872 -4.448 6
-11.819 -27.866 -4.467 5
-11.147 -26.08 -4.478 6
-10.596 -24.599 -4.521 5
-10.123 -23.308 -4.573 4
-9.663 -22.08 -4.603 7
-9.269 -20.998 -4.643 11
-8.872 -19.956 -4.66 9
-8.53 -19.031 -4.689 6
-8.208 -18.173 -4.714 6
-7.918 -17.389 -4.742 5
-7.647 -16.666 -4.772 7
-7.39 -15.974 -4.791 47
-7.17 -15.381 -4.837 8
-6.941 -14.775 -4.856 7
-6.736 -14.222 -4.883 5
-6.562 -13.746 -4.936 8
-6.377 -13.249 -4.961 8
-6.193 -12.765 -4.977 14
-6.036 -12.337 -5.012 9
-5.875 -11.913 -5.035 9
-5.725 -11.509 -5.059 8
-5.584 -11.134 -5.089 10
-5.452 -10.776 -5.12 10
-5.313 -10.415 -5.137 12
-5.182 -10.071 -5.155 10
-5.058 -9.74 -5.173 37
-4.929 -9.408 -5.178 18
-17.274 -42.062 -4.417 5
-15.827 -38.215 -4.428 5
-14.659 -35.113 -4.464 10
-13.622 -32.355 -4.47 10
-12.685 -29.896 -4.454 6
-11.938 -27.902 -4.476 5
-11.259 -26.111 -4.487 6
-10.694 -24.609 -4.524 6
-10.216 -23.317 -4.576 4
-9.753 -22.09 -4.606 8
-9.356 -21.009 -4.647 11
-8.956 -19.968 -4.665 9
-8.607 -19.034 -4.69 6
-8.284 -18.179 -4.717 10
-7.987 -17.387 -4.741 6
-7.711 -16.658 -4.768 8
-7.453 -15.97 -4.789 48
-7.233 -15.38 -4.836 8
-6.999 -14.769 -4.853 7
-6.796 -14.222 -4.883 8
-6.619 -13.745 -4.935 8
-6.43 -13.241 -4.956 8
-6.247 -12.764 -4.976 19
-6.089 -12.337 -5.012 8
-5.926 -11.91 -5.033 10
-5.771 -11.501 -5.053 9
-5.631 -11.129 -5.086 10
-5.498 -10.771 -5.116 13
-5.36 -10.413 -5.136 11
-5.226 -10.067 -5.152 12
-5.1 -9.734 -5.168 38
-4.971 -9.405 -5.175 17
-17.448 -42.12 -4.427 5
-15.994 -38.283 -4.441 4
0.0 -0.0 3.0 0
-13.754 -32.386 -4.477 9
-12.82 -29.951 -4.468 6
-12.052 -27.923 -4.482 5
-11.371 -26.141 -4.496 6
-10.796 -24.628 -4.529 5
-10.312 -23.332 -4.581 4
-9.841 -22.096 -4.608 8
-9.445 -21.023 -4.652 11
-9.04 -19.979 -4.669 9
-8.685 -19.04 -4.693 6
-8.358 -18.182 -4.718 8
-8.059 -17.391 -4.743 5
-7.781 -16.662 -4.77 8
-7.52 -15.972 -4.79 40
-7.298 -15.383 -4.838 8
-7.061 -14.769 -4.853 8
-6.856 -14.223 -4.884 7
-6.675 -13.74 -4.933 8
-6.489 -13.245 -4.959 8
-6.3 -12.76 -4.973 16
-6.141 -12.333 -5.009 8
-5.976 -11.907 -5.031 9
-5.822 -11.501 -5.053 8
-5.679 -11.127 -5.084 10
-5.543 -10.767 -5.113 12
-5.403 -10.406 -5.13 12
-5.271 -10.066 -5.151 12
-5.142 -9.731 -5.165 36
-5.012 -9.402 -5.173 17
-17.621 -42.174 -4.436 6
-16.163 -38.355 -4.455 5
-13.417 -31.586 -3.714 4
-13.882 -32.407 -4.482 8
-12.956 -30.009 -4.482 6
-12.167 -27.948 -4.489 5
-11.477 -26.157 -4.5 6
-10.897 -24.645 -4.535 6
-10.407 -23.344 -4.585 4
-9.936 -22.115 -4.615 8
-9.529 -21.026 -4.653 11
-9.122 -19.984 -4.671 15
-8.762 -19.042 -4.693 6
-8.431 -18.182 -4.718 6
-8.132 -17.394 -4.744 5
-7.848 -16.661 -4.769 8
-7.587 -15.974 -4.791 44
-7.36 -15.379 -4.836 8
-7.121 -14.766 -4.851 7
-6.916 -14.223 -4.884 8
-6.734 -13.741 -4.933 8
-6.543 -13.241 -4.956 8
-6.353 -12.756 -4.971 17
-6.193 -12.329 -5.007 8
-6.028 -11.907 -5.031 9
-5.873 -11.502 -5.054 9
-5.727 -11.125 -5.083 11
-5.591 -10.765 -5.112 12
-5.451 -10.407 -5.131 11
-5.315 -10.062 -5.148 11
-5.185 -9.727 -5.162 36
-5.051 -9.393 -5.166 17
-17.81 -42.263 -4.452 5
-16.326 -38.412 -4.467 5
0.0 -0.0 3.0 0
0.0 -0.0 3.0 0
-13.087 -30.053 -4.493 5
-12.285 -27.976 -4.496 5
-11.584 -26.175 -4.506 6
-11.004 -24.672 -4.543 5
-10.504 -23.358 -4.589 4
-10.023 -22.116 -4.615 8
-9.616 -21.036 -4.656 11
-9.196 -19.974 -4.667 30
-8.841 -19.047 -4.695 7
-8.509 -18.191 -4.722 6
-8.199 -17.388 -4.742 5
-7.92 -16.668 -4.772 8
-7.65 -15.969 -4.789 41
-7.422 -15.375 -4.834 5
-7.18 -14.759 -4.847 7
-6.972 -14.214 -4.879 8
-6.793 -13.742 -4.934 8
-6.599 -13.239 -4.955 8
-6.406 -12.752 -4.968 25
-6.243 -12.323 -5.002 8
-6.078 -11.901 -5.027 10
-5.923 -11.499 -5.052 8
-5.777 -11.125 -5.083 10
-5.637 -10.76 -5.108 11
-5.494 -10.4 -5.125 11
-5.357 -10.055 -5.142 12
-5.23 -9.727 -5.162 36
-5.098 -9.399 -5.17 16
-17.995 -42.341 -4.466 6
-16.503 -38.5 -4.484 5
0.0 -0.0 3.0 0
0.0 -0.0 3.0 0
-13.217 -30.092 -4.503 6
-12.405 -28.01 -4.505 4
-11.695 -26.201 -4.513 6
-11.106 -24.688 -4.548 6
-10.601 -23.373 -4.594 4
-10.112 -22.122 -4.617 8
-9.703 -21.046 -4.66 10
-9.276 -19.975 -4.668 31
-8.923 -19.058 -4.7 6
-8.582 -18.19 -4.721 6
-8.272 -17.391 -4.743 5
-7.986 -16.662 -4.769 8
-7.712 -15.96 -4.784 15
-7.489 -15.38 -4.837 8
-7.245 -14.765 -4.851 8
-7.033 -14.214 -4.879 9
-6.847 -13.732 -4.928 8
-6.652 -13.231 -4.95 8
-6.464 -12.756 -4.971 19
-6.296 -12.321 -5.002 8
-6.131 -11.903 -5.028 9
-5.972 -11.496 -5.05 6
-5.824 -11.119 -5.079 10
-5.684 -10.757 -5.106 12
-5.541 -10.398 -5.124 11
-5.404 -10.057 -5.144 11
-5.271 -9.72 -5.156 36
-4.77 -8.72 -4.58 1
-18.18 -42.418 -4.479 4
-16.674 -38.571 -4.497 4
0.0 -0.0 3.0 0
0.0 -0.0 3.0 0
-13.339 -30.113 -4.508 6
-12.53 -28.051 -4.516 5
-11.805 -26.222 -4.519 6
-11.206 -24.697 -4.551 5
-10.695 -23.379 -4.596 5
-10.205 -22.137 -4.622 7
-9.789 -21.052 -4.662 11
-9.356 -19.975 -4.668 18
-8.999 -19.056 -4.699 6
-8.66 -18.199 -4.725 6
-8.346 -17.397 -4.746 4
-8.057 -16.665 -4.771 7
-7.786 -15.974 -4.791 9
-7.553 -15.378 -4.836 8
-7.306 -14.76 -4.848 8
-7.093 -14.214 -4.879 9
-6.903 -13.726 -4.925 8
-6.71 -13.232 -4.95 8
-6.517 -12.751 -4.968 22
-6.35 -12.321 -5.001 9
-6.181 -11.896 -5.024 9
-6.024 -11.496 -5.049 6
-5.874 -11.12 -5.079 11
-5.731 -10.755 -5.105 11
-5.589 -10.4 -5.125 12
-5.446 -10.05 -5.138 12
-5.315 -9.719 -5.155 31
-4.72 -8.556 -4.437 3
-18.365 -42.491 -4.492 3
-16.829 -38.604 -4.504 4
0.0 -0.0 3.0 0
0.0 -0.0 3.0 0
-13.468 -30.147 -4.517 6
-12.651 -28.084 -4.525 4
-11.915 -26.244 -4.525 6
-11.308 -24.713 -4.555 5
-10.789 -23.385 -4.598 5
-10.295 -22.141 -4.624 7
-9.879 -21.064 -4.667 13
-9.447 -19.999 -4.677 9
-9.076 -19.057 -4.7 6
-8.73 -18.19 -4.721 6
-8.419 -17.4 -4.747 4
-8.127 -16.669 -4.773 8
-7.855 -15.979 -4.793 9
-7.617 -15.377 -4.835 8
-7.366 -14.756 -4.846 8
-7.157 -14.22 -4.882 8
-6.962 -13.726 -4.925 8
-6.764 -13.227 -4.947 8
-6.569 -12.743 -4.963 26
-6.402 -12.316 -4.998 9
-6.233 -11.895 -5.023 9
-6.075 -11.496 -5.049 7
-5.921 -11.114 -5.075 9
-5.777 -10.75 -5.1 12
-5.632 -10.392 -5.119 11
-5.495 -10.054 -5.141 11
-4.711 -8.542 -4.167 5
-4.711 -8.467 -4.36 5
-18.558 -42.581 -4.508 16
-17.005 -38.683 -4.519 5
0.0 -0.0 3.0 0
0.0 -0.0 3.0 0
-13.584 -30.154 -4.518 5
-12.763 -28.096 -4.528 5
-12.027 -26.268 -4.532 6
-11.413 -24.732 -4.561 5
-10.885 -23.395 -4.602 5
-10.385 -22.148 -4.626 7
-9.962 -21.062 -4.666 19
-9.534 -20.012 -4.682 9
-9.16 -19.071 -4.705 6
-8.807 -18.195 -4.723 6
-8.488 -17.395 -4.745 5
-8.198 -16.672 -4.774 7
-7.922 -15.98 -4.794 9
-7.679 -15.372 -4.833 8
-7.43 -14.759 -4.847 8
-7.213 -14.21 -4.877 8
-7.018 -13.721 -4.922 8
-6.822 -13.227 -4.948 8
-6.627 -12.748 -4.966 24
-6.455 -12.315 -4.997 9
-6.282 -11.889 -5.019 9
-6.121 -11.486 -5.043 9
-5.972 -11.115 -5.075 10
-5.825 -10.748 -5.099 11
-5.68 -10.393 -5.12 12
-4.756 -8.63 -3.988 4
-4.713 -8.474 -4.11 5
-4.741 -8.451 -4.346 5
-18.725 -42.609 -4.513 14
-17.174 -38.744 -4.531 5
0.0 -0.0 3.0 0
-13.763 -30.54 -4.051 2
-13.72 -30.202 -4.53 6
-12.888 -28.135 -4.539 5
-11.385 -24.658 -4.07 34
-11.516 -24.746 -4.566 5
-10.981 -23.405 -4.605 4
-10.483 -22.17 -4.634 7
-10.048 -21.067 -4.668 18
-9.617 -20.018 -4.684 7
-9.236 -19.067 -4.704 6
-8.884 -18.201 -4.726 6
-8.564 -17.404 -4.749 5
-8.267 -16.672 -4.774 8
-7.989 -15.98 -4.794 9
-7.743 -15.37 -4.831 8
-7.49 -14.754 -4.845 7
-7.273 -14.21 -4.876 7
-7.078 -13.721 -4.922 8
-6.875 -13.218 -4.942 8
-6.68 -12.743 -4.963 30
-6.508 -12.31 -4.994 9
-6.335 -11.888 -5.018 9
-6.174 -11.488 -5.044 9
-6.019 -11.109 -5.071 9
-5.872 -10.745 -5.097 10
-5.723 -10.385 -5.113 11
-4.715 -8.484 -3.87 5
-4.719 -8.415 -4.061 5
-4.783 -8.454 -4.349 5
-18.898 -42.651 -4.52 7
-17.343 -38.805 -4.543 5
0.0 -0.0 3.0 0
0.0 -0.0 3.0 0
-13.857 -30.253 -4.543 6
-13.012 -28.171 -4.548 5
-11.423 -24.536 -4.036 1
-11.62 -24.764 -4.571 5
-11.079 -23.417 -4.609 5
-10.573 -22.173 -4.635 7
-10.136 -21.075 -4.671 15
-9.701 -20.023 -4.686 7
-9.315 -19.071 -4.705 6
-8.965 -18.215 -4.732 6
-8.639 -17.41 -4.751 5
-8.338 -16.675 -4.776 8
-8.055 -15.977 -4.793 8
-7.807 -15.368 -4.83 8
-7.553 -14.753 -4.844 8
-7.334 -14.209 -4.876 8
-7.137 -13.72 -4.921 8
-6.933 -13.219 -4.943 8
-6.735 -12.741 -4.961 33
-6.563 -12.311 -4.995 8
-6.387 -11.887 -5.018 9
-6.224 -11.485 -5.042 8
-6.067 -11.105 -5.069 9
-5.92 -10.742 -5.095 11
-4.717 -8.489 -3.632 4
-4.712 -8.408 -3.808 5
-4.759 -8.416 -4.062 5
-4.761 -8.346 -4.255 6
-19.1 -42.753 -4.539 4
-17.519 -38.878 -4.557 5
0.0 -0.0 3.0 0
0.0 -0.0 3.0 0
-13.989 -30.29 -4.552 6
-13.129 -28.189 -4.553 5
0.0 -0.0 3.0 0
-11.727 -24.786 -4.578 5
-11.179 -23.433 -4.614 5
-10.671 -22.193 -4.642 7
-10.226 -21.086 -4.675 11
-9.786 -20.033 -4.69 9
-9.395 -19.074 -4.706 7
-9.037 -18.209 -4.729 6
-8.711 -17.408 -4.751 4
-8.409 -16.678 -4.777 7
-8.125 -15.983 -4.796 9
-7.873 -15.368 -4.83 8
-7.615 -14.751 -4.843 8
-7.393 -14.205 -4.874 8
-7.196 -13.719 -4.921 8
-6.991 -13.218 -4.942 8
-6.792 -12.741 -4.961 32
-6.615 -12.307 -4.992 9
-6.436 -11.879 -5.013 9
-6.272 -11.478 -5.037 8
-6.118 -11.105 -5.068 8
-4.76 -8.567 -3.456 2
-4.716 -8.417 -3.576 5
-4.733 -8.377 -3.783 4
-4.765 -8.357 -4.012 5
-4.799 -8.344 -4.253 17
0.0 -0.0 3.0 0
-17.691 -38.941 -4.569 6
0.0 -0.0 3.0 0
0.0 -0.0 3.0 0
-14.121 -30.325 -4.561 6
-13.248 -28.213 -4.56 5
0.0 -0.0 3.0 0
-11.822 -24.783 -4.577 5
-11.279 -23.448 -4.619 5
-10.765 -22.206 -4.646 17
-10.315 -21.094 -4.677 11
-9.872 -20.041 -4.693 9
-9.476 -19.081 -4.709 6
-9.116 -18.216 -4.732 6
-8.785 -17.413 -4.753 4
-8.479 -16.676 -4.776 7
-8.191 -15.981 -4.794 8
-7.935 -15.362 -4.828 8
-7.677 -14.749 -4.842 8
-7.454 -14.203 -4.873 8
-7.254 -13.716 -4.919 8
-7.043 -13.206 -4.935 8
-6.843 -12.733 -4.956 35
-6.667 -12.301 -4.988 8
-6.489 -11.877 -5.011 9
-6.323 -11.478 -5.037 9
-6.163 -11.096 -5.062 9
-4.805 -8.576 -3.462 7
-4.719 -8.354 -3.527 4
-4.774 -8.379 -3.786 4
-4.777 -8.309 -3.972 9
-4.832 -8.332 -4.243 6
0.0 -0.0 3.0 0
-17.861 -38.996 -4.58 5
0.0 -0.0 3.0 0
0.0 -0.0 3.0 0
-14.257 -30.368 -4.572 6
-13.373 -28.247 -4.569 4
-11.493 -24.083 -3.906 2
0.0 -0.0 3.0 0
-11.377 -23.459 -4.622 5
-10.844 -22.185 -4.639 24
-10.407 -21.107 -4.682 9
-9.959 -20.053 -4.698 7
-9.559 -19.09 -4.713 6
-9.19 -18.213 -4.731 6
-8.855 -17.407 -4.75 4
-8.548 -16.675 -4.776 7
-8.261 -15.984 -4.796 9
-8.001 -15.363 -4.828 8
-7.74 -14.747 -4.841 7
-7.513 -14.199 -4.87 7
-7.316 -13.718 -4.92 8
-7.102 -13.209 -4.937 8
-6.9 -12.733 -4.957 41
-6.719 -12.296 -4.985 8
-6.54 -11.873 -5.008 10
-6.372 -11.47 -5.031 9
-6.217 -11.101 -5.065 10
-4.844 -8.576 -3.462 7
-4.75 -8.339 -3.515 5
-4.753 -8.275 -3.701 5
-4.795 -8.273 -3.941 9
-4.871 -8.333 -4.243 6
0.0 -0.0 3.0 0
-18.031 -39.05 -4.591 6
0.0 -0.0 3.0 0
0.0 -0.0 3.0 0
-14.388 -30.4 -4.579 6
-13.509 -28.301 -4.583 2
-11.521 -23.948 -3.867 22
0.0 -0.0 3.0 0
-11.476 -23.47 -4.626 5
-10.94 -22.201 -4.645 20
-10.494 -21.111 -4.684 9
-10.042 -20.054 -4.698 8
-9.64 -19.096 -4.715 6
-9.271 -18.223 -4.735 6
-8.931 -17.412 -4.752 4
-8.621 -16.681 -4.778 8
-8.325 -15.976 -4.792 14
-8.067 -15.363 -4.828 9
-7.804 -14.748 -4.842 7
-7.572 -14.193 -4.868 7
-7.37 -13.708 -4.914 8
-7.159 -13.205 -4.935 8
-6.955 -12.73 -4.955 41
-6.775 -12.297 -4.986 8
-6.592 -11.871 -5.007 9
-6.425 -11.472 -5.033 8
-6.262 -11.092 -5.059 9
-4.884 -8.576 -3.462 8
-4.789 -8.339 -3.515 5
-4.788 -8.269 -3.696 5
-4.829 -8.265 -3.935 8
-4.906 -8.324 -4.236 5
0.0 -0.0 3.0 0
-18.207 -39.117 -4.604 5
0.0 -0.0 3.0 0
0.0 -0.0 3.0 0
-14.531 -30.455 -4.593 6
0.0 -0.0 3.0 0
-11.578 -23.872 -3.845 1
-11.518 -23.56 -4.203 0
-11.573 -23.477 -4.628 5
-11.038 -22.216 -4.65 8
-10.585 -21.121 -4.687 9
-10.126 -20.058 -4.7 8
-9.722 -19.101 -4.717 6
-9.347 -18.223 -4.735 6
-9.006 -17.415 -4.754 5
-8.689 -16.675 -4.776 6
-8.394 -15.978 -4.793 9
-8.131 -15.36 -4.826 8
-7.867 -14.745 -4.84 7
-7.637 -14.198 -4.87 8
-7.433 -13.713 -4.917 8
-7.215 -13.202 -4.933 8
-7.01 -12.727 -4.953 39
-6.83 -12.297 -4.986 9
-6.645 -11.869 -5.006 9
-6.473 -11.465 -5.028 8
-6.311 -11.087 -5.055 9
-4.92 -8.569 -3.457 8
-4.773 -8.245 -3.442 7
-4.822 -8.26 -3.689 5
-4.883 -8.29 -3.956 5
-4.944 -8.322 -4.234 5
0.0 -0.0 3.0 0
-18.392 -39.199 -4.619 5
0.0 -0.0 3.0 0
0.0 -0.0 3.0 0
-14.661 -30.482 -4.6 6
0.0 -0.0 3.0 0
-11.582 -23.687 -3.792 0
-11.564 -23.463 -4.173 1
-11.674 -23.491 -4.633 5
-11.131 -22.225 -4.653 7
-10.677 -21.134 -4.692 9
-10.212 -20.066 -4.702 9
-9.802 -19.103 -4.718 6
-9.424 -18.226 -4.736 6
-9.074 -17.406 -4.75 5
-8.763 -16.68 -4.778 6
-8.464 -15.981 -4.794 9
-8.198 -15.359 -4.826 8
-7.929 -14.743 -4.839 5
-7.696 -14.193 -4.867 9
-7.491 -13.708 -4.914 8
-7.272 -13.198 -4.93 8
-7.067 -12.727 -4.952 42
-6.883 -12.292 -4.982 8
-6.698 -11.867 -5.004 9
-6.525 -11.463 -5.026 8
-6.363 -11.089 -5.057 9
-4.959 -8.569 -3.457 8
-4.82 -8.259 -3.453 6
-4.856 -8.252 -3.683 5
-4.92 -8.287 -3.953 6
-4.988 -8.33 -4.241 5
0.0 -0.0 3.0 0
-18.58 -39.287 -4.637 5
0.0 -0.0 3.0 0
0.0 -0.0 3.0 0
-14.795 -30.515 -4.608 5
0.0 -0.0 3.0 0
-11.636 -23.607 -3.769 1
-11.622 -23.394 -4.152 7
-11.775 -23.505 -4.637 5
-11.225 -22.233 -4.656 8
-10.766 -21.14 -4.694 9
-10.295 -20.066 -4.703 8
-9.882 -19.104 -4.719 6
-9.505 -18.235 -4.74 6
-9.155 -17.42 -4.756 6
-8.829 -16.672 -4.774 6
-8.532 -15.979 -4.794 12
-8.264 -15.359 -4.826 8
-7.995 -14.746 -4.841 7
-7.757 -14.19 -4.866 9
-7.551 -13.707 -4.913 8
-7.329 -13.194 -4.928 9
-7.124 -12.727 -4.953 39
-6.939 -12.292 -4.983 9
-6.752 -11.868 -5.005 9
-6.576 -11.462 -5.026 9
-6.412 -11.086 -5.054 10
-4.994 -8.56 -3.45 8
-4.858 -8.259 -3.453 7
-4.895 -8.252 -3.682 5
-4.959 -8.287 -3.954 5
-5.026 -8.327 -4.239 5
0.0 -0.0 3.0 0
-18.76 -39.355 -4.65 5
0.0 -0.0 3.0 0
-14.793 -30.515 -4.045 2
-14.933 -30.556 -4.618 5
0.0 -0.0 3.0 0
-11.694 -23.538 -3.749 4
-11.697 -23.356 -4.141 6
-11.879 -23.524 -4.644 5
-11.319 -22.24 -4.658 7
-10.856 -21.145 -4.696 9
-10.385 -20.08 -4.708 7
-9.964 -19.109 -4.721 7
-9.583 -18.237 -4.741 6
-9.229 -17.42 -4.756 6
-8.904 -16.679 -4.777 8
-8.603 -15.984 -4.796 9
-8.327 -15.352 -4.822 8
-8.058 -14.743 -4.839 7
-7.82 -14.191 -4.866 9
-7.607 -13.699 -4.909 8
-7.385 -13.19 -4.925 9
-7.18 -12.723 -4.95 42
-6.993 -12.289 -4.981 8
-6.805 -11.865 -5.003 9
-6.628 -11.46 -5.024 10
-6.461 -11.081 -5.051 10
-5.03 -8.553 -3.445 8
-4.897 -8.258 -3.452 7
-4.932 -8.248 -3.679 5
-4.999 -8.286 -3.953 6
-5.07 -8.332 -4.243 5
0.0 -0.0 3.0 0
-18.936 -39.413 -4.661 7
0.0 -0.0 3.0 0
-14.937 -30.57 -4.058 2
-15.078 -30.608 -4.632 6
0.0 -0.0 3.0 0
-11.765 -23.492 -3.736 2
-11.786 -23.349 -4.139 4
-11.979 -23.534 -4.647 4
-11.417 -22.255 -4.663 7
-10.949 -21.157 -4.701 11
-10.47 -20.083 -4.709 7
-10.046 -19.113 -4.722 6
-9.663 -18.242 -4.743 6
-9.304 -17.423 -4.757 6
-8.976 -16.68 -4.778 7
-8.671 -15.983 -4.795 9
-8.396 -15.357 -4.825 8
-8.123 -14.743 -4.839 8
-7.88 -14.185 -4.863 9
-7.667 -13.697 -4.908 8
-7.444 -13.188 -4.924 8
-7.233 -12.716 -4.946 41
-7.047 -12.286 -4.979 8
-6.853 -11.854 -4.996 9
-6.678 -11.455 -5.021 9
-6.511 -11.08 -5.05 10
-5.061 -8.538 -3.434 8
-4.936 -8.258 -3.452 10
-4.971 -8.248 -3.679 4
-5.041 -8.291 -3.957 5
-5.114 -8.34 -4.249 6
0.0 -0.0 3.0 0
-19.121 -39.488 -4.676 5
0.0 -0.0 3.0 0
-15.17 -30.803 -4.111 3
-15.216 -30.647 -4.641 6
0.0 -0.0 3.0 0
-11.86 -23.495 -3.737 0
-11.871 -23.331 -4.133 3
-12.082 -23.55 -4.652 5
-11.513 -22.265 -4.666 8
-11.035 -21.156 -4.7 12
-10.556 -20.089 -4.711 8
-10.132 -19.124 -4.727 6
-9.741 -18.244 -4.744 6
-9.378 -17.422 -4.757 6
-9.048 -16.68 -4.778 8
-8.741 -15.984 -4.796 9
-8.463 -15.356 -4.824 8
-8.186 -14.739 -4.837 7
-7.941 -14.183 -4.862 8
-7.725 -13.692 -4.905 8
-7.5 -13.184 -4.921 9
-7.29 -12.715 -4.945 38
-7.101 -12.283 -4.976 7
-6.906 -11.851 -4.994 9
-6.73 -11.453 -5.019 9
-6.56 -11.075 -5.046 10
-5.094 -8.525 -3.424 8
-4.969 -8.25 -3.445 7
-5.01 -8.248 -3.679 4
-5.084 -8.296 -3.962 6
-5.159 -8.347 -4.256 5
0.0 -0.0 3.0 0
-19.307 -39.562 -4.69 5
0.0 -0.0 3.0 0
0.0 -0.0 3.0 0
-15.362 -30.7 -4.654 5
0.0 -0.0 3.0 0
-11.948 -23.485 -3.734 1
-11.959 -23.32 -4.13 3
-12.186 -23.565 -4.657 4
-11.61 -22.275 -4.67 8
-11.13 -21.17 -4.705 12
-10.641 -20.092 -4.713 7
-10.213 -19.124 -4.727 7
-9.823 -18.252 -4.747 6
-9.454 -17.425 -4.758 5
-9.122 -16.683 -4.78 6
-8.811 -15.985 -4.797 9
-8.527 -15.351 -4.822 8
-8.249 -14.735 -4.835 8
-8.002 -14.179 -4.86 9
-7.789 -13.695 -4.907 8
-7.559 -13.182 -4.921 8
-7.348 -12.715 -4.945 39
-7.153 -12.276 -4.972 8
-6.962 -11.855 -4.996 9
-6.781 -11.45 -5.017 6
-6.611 -11.073 -5.045 9
-5.119 -8.502 -3.406 8
-5.003 -8.241 -3.438 7
-5.052 -8.253 -3.683 4
-5.127 -8.301 -3.966 5
-5.208 -8.36 -4.267 5
0.0 -0.0 3.0 0
-19.495 -39.639 -4.705 5
0.0 -0.0 3.0 0
0.0 -0.0 3.0 0
-15.503 -30.741 -4.665 6
0.0 -0.0 3.0 0
-12.032 -23.467 -3.729 1
-12.05 -23.315 -4.128 3
-12.291 -23.583 -4.663 4
-11.706 -22.285 -4.673 8
-11.22 -21.174 -4.707 12
-10.73 -20.1 -4.716 8
-10.295 -19.128 -4.728 7
-9.901 -18.254 -4.748 6
-9.533 -17.434 -4.762 5
-9.194 -16.683 -4.78 6
-8.88 -15.983 -4.795 10
-8.596 -15.353 -4.823 8
-8.315 -14.738 -4.836 8
-8.067 -14.183 -4.862 9
-7.849 -13.693 -4.905 8
-7.616 -13.177 -4.918 8
-7.405 -12.713 -4.944 38
-7.209 -12.276 -4.972 8
-7.017 -11.854 -4.996 9
-6.833 -11.447 -5.015 9
-6.66 -11.068 -5.041 9
-5.152 -8.489 -3.397 8
-5.036 -8.231 -3.431 7
-5.095 -8.258 -3.687 4
-5.175 -8.314 -3.977 5
-5.263 -8.384 -4.288 3
0.0 -0.0 3.0 0
-19.68 -39.707 -4.718 5
0.0 -0.0 3.0 0
0.0 -0.0 3.0 0
-15.643 -30.778 -4.674 6
0.0 -0.0 3.0 0
-12.127 -23.468 -3.729 1
-12.14 -23.306 -4.125 3
-12.395 -23.598 -4.667 5
-11.803 -22.294 -4.676 8
-11.31 -21.178 -4.708 12
-10.821 -20.112 -4.72 8
-10.378 -19.131 -4.729 7
-9.977 -18.251 -4.747 6
-9.606 -17.428 -4.76 6
-9.266 -16.682 -4.779 6
-8.95 -15.983 -4.795 9
-8.664 -15.354 -4.823 8
-8.378 -14.733 -4.834 8
-8.129 -14.18 -4.86 8
-7.909 -13.69 -4.904 8
-7.676 -13.178 -4.918 9
-7.459 -12.706 -4.94 34
-7.264 -12.272 -4.97 9
-7.068 -11.848 -4.992 9
-6.885 -11.445 -5.014 9
-6.711 -11.066 -5.04 9
-5.191 -8.488 -3.396 8
-5.071 -8.224 -3.425 6
-5.141 -8.268 -3.696 5
-5.222 -8.324 -3.985 5
-5.319 -8.407 -4.308 7
0.0 -0.0 3.0 0
-19.885 -39.815 -4.739 5
0.0 -0.0 3.0 0
0.0 -0.0 3.0 0
-15.786 -30.822 -4.685 5
0.0 -0.0 3.0 0
-12.217 -23.46 -3.727 2
-12.243 -23.322 -4.13 3
-12.453 -23.524 -4.643 2
-11.904 -22.31 -4.682 7
-11.401 -21.181 -4.709 9
-10.904 -20.11 -4.72 8
-10.466 -19.143 -4.734 7
-10.059 -18.258 -4.75 6
-9.684 -17.434 -4.762 6
-9.342 -16.689 -4.782 6
-9.022 -15.986 -4.797 9
-8.731 -15.352 -4.822 8
-8.445 -14.735 -4.835 7
-8.192 -14.179 -4.86 9
-7.968 -13.684 -4.9 8
-7.733 -13.173 -4.915 8
-7.516 -12.704 -4.938 36
-7.32 -12.271 -4.969 8
-7.121 -11.845 -4.99 9
-6.935 -11.44 -5.01 8
-6.762 -11.064 -5.038 10
-5.225 -8.478 -3.389 8
-5.108 -8.221 -3.423 5
-5.182 -8.27 -3.697 4
-5.275 -8.345 -4.003 4
-5.789 -9.08 -4.893 10
0.0 -0.0 3.0 0
-20.08 -39.9 -4.756 5
0.0 -0.0 3.0 0
0.0 -0.0 3.0 0
-15.918 -30.841 -4.69 5
0.0 -0.0 3.0 0
-12.314 -23.464 -3.728 2
-12.333 -23.313 -4.128 2
-12.464 -23.364 -4.591 3
-12.004 -22.326 -4.687 7
-11.491 -21.185 -4.711 9
-10.996 -20.122 -4.724 8
-10.547 -19.142 -4.734 7
-10.142 -18.265 -4.753 6
-9.758 -17.432 -4.761 6
-9.414 -16.688 -4.782 8
-9.091 -15.984 -4.796 9
-8.798 -15.35 -4.821 8
-8.51 -14.734 -4.834 7
-8.254 -14.176 -4.858 8
-8.03 -13.684 -4.9 8
-7.79 -13.168 -4.912 8
-7.573 -12.702 -4.937 36
-7.374 -12.267 -4.966 9
-7.176 -11.844 -4.989 9
-6.989 -11.439 -5.01 9
-6.812 -11.062 -5.037 10
-5.265 -8.477 -3.388 8
-5.154 -8.231 -3.431 5
-5.235 -8.291 -3.714 4
-5.322 -8.355 -4.011 0
-5.828 -9.073 -4.887 9
0.0 -0.0 3.0 0
-20.296 -40.023 -4.78 5
0.0 -0.0 3.0 0
0.0 -0.0 3.0 0
-16.066 -30.89 -4.702 5
0.0 -0.0 3.0 0
-12.404 -23.455 -3.726 2
-12.448 -23.351 -4.139 3
-12.57 -23.382 -4.597 1
-12.1 -22.33 -4.689 8
-11.593 -21.208 -4.719 9
-11.09 -20.14 -4.731 12
-10.632 -19.148 -4.736 7
-10.222 -18.269 -4.755 6
-9.838 -17.439 -4.764 6
-9.489 -16.69 -4.783 6
-9.163 -15.986 -4.797 9
-8.866 -15.35 -4.821 8
-8.573 -14.729 -4.832 7
-8.314 -14.168 -4.853 8
-8.088 -13.678 -4.897 8
-7.851 -13.168 -4.912 8
