# .PCD v0.7 - Point Cloud Data file format
VERSION 0.7
FIELDS x y z intensity
SIZE 4 4 4 4
TYPE F F F F
COUNT 1 1 1 1
WIDTH 1984
HEIGHT 1
VIEWPOINT 0 0 0 1 0 0 0
POINTS 1984
DATA ascii
-34.455 -18.031 -5.028 5
-32.288 -16.759 -4.815 8
-30.36 -15.637 -4.627 40
-28.692 -14.683 -4.482 5
-27.219 -13.851 -4.365 6
-25.812 -13.067 -4.243 4
-24.581 -12.394 -4.156 6
-23.508 -11.81 -4.096 7
-21.944 -10.995 -3.871 21
-21.602 -10.799 -4.013 7
-18.373 -9.173 -3.187 33
-17.678 -8.816 -3.173 22
-17.663 -8.807 -3.398 17
-17.685 -8.817 -3.644 29
-16.976 -8.469 -3.616 13
-16.389 -8.183 -3.627 12
-15.802 -7.897 -3.626 21
-15.231 -7.623 -3.627 14
-12.232 -7.77 1.63 0
-12.355 -7.702 1.503 3
-12.074 -7.393 1.429 25
-12.12 -7.29 1.317 18
-12.381 -7.323 1.174 15
-13.456 -7.829 0.902 0
-13.649 -7.818 0.758 2
-13.221 -7.462 0.719 1
-13.131 -7.304 0.627 36
-13.374 -7.341 0.472 20
-13.276 -7.192 0.382 22
-13.267 -7.107 0.272 12
-37.861 -20.054 -5.102 24
-36.264 -19.018 -5.073 8
-34.719 -18.036 -5.03 5
-32.544 -16.769 -4.82 4
-30.571 -15.632 -4.624 41
-28.897 -14.681 -4.48 4
-27.396 -13.841 -4.36 6
-25.973 -13.055 -4.236 4
-24.733 -12.382 -4.149 6
-23.644 -11.794 -4.087 4
-22.622 -11.256 -4.033 6
-21.716 -10.782 -4.002 7
-18.431 -9.14 -3.165 36
-17.764 -8.8 -3.162 26
-17.609 -8.723 -3.337 23
-17.771 -8.802 -3.633 34
-17.058 -8.456 -3.606 13
-16.469 -8.173 -3.618 12
-15.878 -7.888 -3.619 16
-15.305 -7.615 -3.62 15
-12.274 -7.75 1.634 9
-12.34 -7.645 1.514 2
-12.115 -7.371 1.433 18
-13.192 -7.884 1.18 13
-12.444 -7.312 1.177 5
-12.683 -7.33 1.036 6
-13.473 -7.665 0.802 2
-66.199 -37.104 -8.344 22
-12.998 -7.18 0.667 11
-13.009 -7.091 0.559 15
-13.175 -7.086 0.421 38
-13.294 -7.07 0.286 12
-38.162 -20.067 -5.108 22
-36.499 -19.002 -5.066 10
-34.972 -18.036 -5.03 6
-32.773 -16.764 -4.817 4
-30.782 -15.625 -4.621 39
-29.073 -14.664 -4.471 4
-27.563 -13.824 -4.351 6
-26.155 -13.051 -4.234 6
-24.871 -12.362 -4.137 5
-22.034 -10.913 -3.557 0
-22.748 -11.24 -4.024 8
-18.5 -9.122 -2.924 13
-18.515 -9.119 -3.151 23
-17.847 -8.782 -3.149 21
-17.665 -8.692 -3.315 22
-17.864 -8.792 -3.625 29
-17.142 -8.444 -3.597 15
-16.539 -8.157 -3.605 11
-15.943 -7.872 -3.606 18
-15.376 -7.605 -3.611 15
-13.261 -8.321 1.533 27
-12.399 -7.634 1.516 0
-12.086 -7.307 1.447 9
-12.553 -7.454 1.279 25
-12.809 -7.477 1.136 11
-16.798 -9.642 0.416 26
-13.438 -7.593 0.823 9
-66.437 -36.981 -8.306 21
-13.205 -7.243 0.646 14
-13.126 -7.104 0.554 28
-12.902 -6.89 0.492 16
-41.023 -21.657 -5.313 19
-38.48 -20.087 -5.116 24
-36.741 -18.989 -5.06 9
-35.243 -18.042 -5.033 5
-33.009 -16.76 -4.815 4
-30.997 -15.618 -4.618 38
-29.296 -14.668 -4.474 4
-27.745 -13.815 -4.345 6
-26.298 -13.028 -4.222 6
-25.029 -12.352 -4.131 6
-23.908 -11.758 -4.065 4
-22.872 -11.222 -4.012 7
-18.456 -9.037 -2.869 34
-18.655 -9.126 -3.155 7
-17.972 -8.784 -3.151 22
-17.758 -8.681 -3.307 4
-17.944 -8.774 -3.612 22
-17.224 -8.43 -3.586 13
-16.619 -8.145 -3.596 12
-16.015 -7.86 -3.595 18
-15.447 -7.595 -3.602 15
-13.149 -8.201 1.554 21
-13.646 -8.349 1.377 12
-12.005 -7.212 1.467 6
-12.623 -7.447 1.281 32
-12.931 -7.499 1.13 10
-12.68 -7.229 1.063 2
-13.631 -7.649 0.807 13
-66.741 -36.892 -8.279 22
-13.037 -7.102 0.693 14
-13.598 -7.307 0.484 22
-12.949 -6.865 0.501 32
-41.363 -21.68 -5.322 20
-38.799 -20.106 -5.123 22
-36.984 -18.974 -5.054 10
-35.491 -18.035 -5.03 6
-33.245 -16.757 -4.814 5
-31.216 -15.613 -4.615 36
-29.48 -14.652 -4.466 4
-27.922 -13.801 -4.338 5
-26.456 -13.011 -4.212 6
-25.167 -12.331 -4.119 6
-24.034 -11.736 -4.052 4
-22.999 -11.205 -4.002 8
-18.475 -8.984 -2.834 38
-18.653 -9.062 -3.113 5
-18.22 -8.847 -3.194 6
-18.561 -9.014 -3.549 18
-18.027 -8.758 -3.599 31
-17.315 -8.421 -3.579 13
-16.696 -8.133 -3.586 12
-16.091 -7.849 -3.586 15
-15.511 -7.581 -3.59 15
-13.138 -8.144 1.564 24
-15.37 -9.346 1.183 24
-12.91 -7.706 1.362 55
-12.244 -7.176 1.343 31
-12.939 -7.454 1.142 2
-12.678 -7.18 1.076 9
-13.651 -7.608 0.818 11
-67.034 -36.797 -8.25 16
-12.956 -7.007 0.723 19
-14.078 -7.511 0.414 24
-12.885 -6.781 0.532 20
-41.739 -21.717 -5.336 18
-39.087 -20.106 -5.124 24
-37.241 -18.965 -5.05 10
-35.766 -18.041 -5.033 5
-33.471 -16.746 -4.809 28
-31.435 -15.607 -4.612 36
-29.661 -14.633 -4.456 4
-28.1 -13.788 -4.331 6
-26.621 -12.998 -4.205 7
-25.323 -12.317 -4.112 6
-24.163 -11.715 -4.039 4
-18.487 -8.944 -2.589 3
-18.521 -8.944 -2.808 29
-20.666 -9.972 -3.726 13
-18.245 -8.799 -3.161 19
0.0 -0.0 3.0 0
-18.086 -8.729 -3.578 17
-17.393 -8.406 -3.567 13
-16.772 -8.119 -3.574 12
-16.166 -7.838 -3.577 14
-15.582 -7.571 -3.581 15
-30.851 -19.01 -0.352 22
-13.452 -8.128 1.42 21
-12.566 -7.454 1.416 15
-12.203 -7.106 1.359 22
-12.655 -7.242 1.194 8
-12.755 -7.175 1.077 1
-13.886 -7.686 0.796 20
-13.681 -7.458 0.72 3
-12.717 -6.829 0.781 12
-13.959 -7.394 0.454 11
-13.05 -6.819 0.518 8
-42.067 -21.728 -5.341 20
-39.417 -20.127 -5.132 21
-37.487 -18.95 -5.044 9
-36.031 -18.041 -5.032 6
-33.743 -16.757 -4.814 14
-31.658 -15.601 -4.609 37
-29.856 -14.621 -4.45 4
-28.275 -13.772 -4.323 6
-26.79 -12.984 -4.197 7
-25.475 -12.302 -4.103 6
-24.292 -11.693 -4.026 4
-18.453 -8.864 -2.539 30
-18.591 -8.916 -2.79 6
-20.574 -9.86 -3.651 8
-18.17 -8.703 -3.094 21
-18.832 -9.025 -3.557 28
-18.141 -8.699 -3.555 13
-17.482 -8.395 -3.559 13
-16.859 -8.11 -3.567 12
-16.235 -7.823 -3.565 15
-15.65 -7.559 -3.571 20
-16.369 -10.025 1.232 17
-13.236 -7.948 1.455 24
-12.022 -7.085 1.494 29
-12.537 -7.252 1.326 22
-12.66 -7.197 1.206 13
-13.58 -7.587 0.967 3
-13.386 -7.358 0.89 1
-13.545 -7.331 0.759 3
-12.801 -6.826 0.782 7
-13.56 -7.131 0.545 6
-13.409 -6.955 0.469 0
-42.328 -21.703 -5.331 19
-39.731 -20.138 -5.136 24
-37.769 -18.951 -5.044 7
-36.297 -18.038 -5.031 5
-33.927 -16.723 -4.798 15
-31.888 -15.597 -4.607 35
-30.069 -14.616 -4.447 4
-28.464 -13.761 -4.317 6
-26.951 -12.967 -4.188 6
-25.62 -12.282 -4.091 6
-24.442 -11.681 -4.019 4
-18.468 -8.808 -2.504 37
-19.726 -9.393 -3.1 19
-19.742 -9.395 -3.337 14
-18.211 -8.664 -3.067 21
-19.05 -9.07 -3.59 28
-18.227 -8.684 -3.544 13
-17.57 -8.383 -3.55 13
-16.926 -8.092 -3.553 14
-16.304 -7.809 -3.552 19
-15.724 -7.55 -3.563 16
-16.315 -9.93 1.249 22
-13.207 -7.881 1.468 28
-12.753 -7.468 1.413 11
-12.331 -7.087 1.364 27
-12.805 -7.231 1.197 7
-12.733 -7.066 1.107 1
-14.042 -7.666 0.802 5
-13.156 -7.071 0.838 27
-13.62 -7.211 0.657 11
-13.88 -7.247 0.505 2
-50.878 -26.199 -6.536 3
-42.713 -21.739 -5.345 19
-40.059 -20.153 -5.143 22
-38.048 -18.949 -5.043 7
-36.556 -18.031 -5.028 6
-34.238 -16.75 -4.811 7
-32.114 -15.591 -4.604 33
-30.271 -14.605 -4.441 4
-28.646 -13.747 -4.31 5
-27.102 -12.944 -4.175 6
-25.776 -12.267 -4.082 6
-18.489 -8.772 -2.271 0
-18.506 -8.764 -2.476 33
-19.983 -9.449 -3.136 20
-20.169 -9.533 -3.43 6
-18.287 -8.642 -3.051 18
-19.117 -9.04 -3.568 22
-18.31 -8.666 -3.53 11
-17.655 -8.371 -3.54 13
-16.999 -8.076 -3.54 20
-16.389 -7.802 -3.546 14
-15.788 -7.535 -3.55 15
-15.487 -9.369 1.348 1
-12.681 -7.52 1.538 19
-12.036 -7.003 1.512 15
-12.448 -7.108 1.359 16
-12.633 -7.086 1.233 7
-13.939 -7.682 0.942 28
-14.152 -7.672 0.8 2
-13.325 -7.112 0.826 19
-13.58 -7.138 0.681 6
0.0 -0.0 3.0 0
0.0 -0.0 3.0 0
-43.077 -21.763 -5.354 17
-40.376 -20.162 -5.146 22
-38.384 -18.973 -5.053 7
-36.836 -18.034 -5.029 6
-34.458 -16.731 -4.802 20
-32.352 -15.589 -4.603 31
-30.499 -14.604 -4.441 4
-28.835 -13.735 -4.303 5
-27.303 -12.944 -4.175 4
-25.929 -12.25 -4.073 6
-18.436 -8.684 -2.218 26
-18.576 -8.735 -2.458 1
-19.884 -9.336 -3.063 18
-20.095 -9.432 -3.362 19
-18.377 -8.625 -3.039 23
-18.804 -8.833 -3.417 5
-18.396 -8.65 -3.518 16
-17.743 -8.359 -3.531 13
-17.093 -8.07 -3.535 14
-16.454 -7.786 -3.533 14
-15.855 -7.522 -3.539 15
-15.076 -9.065 1.402 19
-12.74 -7.508 1.541 25
-12.004 -6.94 1.525 5
-12.369 -7.016 1.38 25
-12.616 -7.029 1.248 6
-12.831 -7.023 1.118 2
-14.312 -7.705 0.791 21
-13.453 -7.129 0.82 22
-13.575 -7.084 0.698 16
-13.664 -7.031 0.579 11
-13.396 -6.798 0.526 23
-43.477 -21.802 -5.369 17
-40.701 -20.173 -5.15 23
-38.741 -19.006 -5.067 7
-37.106 -18.028 -5.027 6
-34.679 -16.711 -4.793 19
-32.558 -15.57 -4.594 15
-30.694 -14.588 -4.433 5
-29.043 -13.731 -4.301 5
-27.458 -12.921 -4.162 5
-26.081 -12.231 -4.062 6
-18.446 -8.625 -2.183 36
-23.758 -11.091 -3.931 4
-19.935 -9.294 -3.035 19
-19.24 -8.968 -3.049 1
-18.585 -8.664 -3.066 17
-18.898 -8.819 -3.407 15
-18.496 -8.64 -3.511 16
-17.835 -8.348 -3.522 13
-17.173 -8.057 -3.525 14
-16.537 -7.776 -3.525 15
-15.926 -7.511 -3.529 16
-15.481 -9.251 1.369 24
-12.665 -7.418 1.558 3
-11.989 -6.887 1.536 17
-12.143 -6.843 1.42 26
-12.623 -6.986 1.258 1
-12.873 -6.998 1.125 11
-13.525 -7.231 0.927 0
-13.994 -7.363 0.749 2
-14.384 -7.452 0.579 21
-13.929 -7.115 0.55 2
-13.446 -6.772 0.535 10
-44.005 -21.902 -5.407 14
-41.038 -20.188 -5.156 22
-39.096 -19.036 -5.08 9
-37.387 -18.028 -5.026 6
-34.896 -16.689 -4.782 13
-32.856 -15.594 -4.606 7
-30.901 -14.576 -4.427 4
-29.239 -13.72 -4.295 6
-27.634 -12.907 -4.155 6
-26.238 -12.214 -4.052 5
-18.498 -8.587 -2.159 27
-23.893 -11.073 -3.919 5
-20.0 -9.258 -3.012 19
-19.233 -8.903 -3.005 5
-18.616 -8.618 -3.035 15
-19.075 -8.841 -3.423 5
-18.596 -8.631 -3.504 13
-17.923 -8.336 -3.513 13
-17.243 -8.04 -3.511 13
-16.595 -7.756 -3.508 14
-15.997 -7.499 -3.519 16
-12.619 -7.495 1.678 2
-13.584 -7.906 1.463 19
-12.61 -7.197 1.47 31
-12.198 -6.829 1.423 15
-12.717 -6.991 1.257 8
-12.661 -6.835 1.168 5
0.0 -0.0 3.0 0
-13.03 -6.807 0.919 10
-14.461 -7.438 0.583 14
-13.49 -6.841 0.644 7
-13.483 -6.741 0.546 24
-44.459 -21.964 -5.431 14
-41.311 -20.169 -5.149 23
-39.426 -19.051 -5.087 12
-37.69 -18.036 -5.03 6
-35.138 -16.677 -4.777 9
-33.084 -15.584 -4.601 7
-31.112 -14.564 -4.421 4
-29.433 -13.707 -4.288 6
-27.793 -12.884 -4.142 5
-18.418 -8.51 -1.913 38
-18.563 -8.555 -2.14 1
-23.999 -11.043 -3.9 15
-20.12 -9.248 -3.006 20
-19.227 -8.838 -2.961 4
-18.815 -8.651 -3.058 5
-19.135 -8.809 -3.4 6
-18.693 -8.618 -3.494 16
-18.012 -8.323 -3.503 13
-17.326 -8.027 -3.501 14
-16.674 -7.745 -3.499 14
-16.064 -7.486 -3.508 15
-12.643 -7.463 1.684 15
-13.62 -7.876 1.469 18
-12.486 -7.08 1.495 21
-12.169 -6.767 1.438 27
-12.825 -7.002 1.254 24
-12.804 -6.865 1.16 1
-13.675 -7.209 0.933 25
-13.09 -6.79 0.924 10
-14.505 -7.407 0.593 13
-13.534 -6.812 0.654 10
-13.551 -6.724 0.553 18
-44.936 -22.032 -5.457 15
-41.609 -20.161 -5.146 22
-39.76 -19.067 -5.093 17
-37.993 -18.043 -5.033 6
-35.422 -16.683 -4.78 6
-33.313 -15.571 -4.595 6
-31.343 -14.561 -4.419 5
-29.644 -13.702 -4.285 6
-27.981 -12.874 -4.136 4
-18.42 -8.449 -1.878 40
-25.281 -11.565 -3.949 3
-24.053 -10.987 -3.866 31
-19.268 -8.793 -2.71 5
-19.213 -8.769 -2.915 4
-19.027 -8.688 -3.084 7
-19.128 -8.747 -3.355 5
-18.789 -8.605 -3.485 13
-18.096 -8.308 -3.491 14
-17.41 -8.016 -3.491 13
-16.746 -7.731 -3.487 13
-16.142 -7.478 -3.5 16
-17.138 -10.054 1.227 26
-13.628 -7.831 1.478 18
-12.444 -7.01 1.51 27
-13.581 -7.503 1.268 5
-13.38 -7.256 1.191 11
-12.562 -6.689 1.208 3
-13.778 -7.212 0.932 25
-13.119 -6.757 0.934 1
-14.388 -7.294 0.63 10
-13.729 -6.86 0.638 19
-13.569 -6.683 0.567 4
-45.381 -22.083 -5.477 15
-41.978 -20.186 -5.156 21
-40.067 -19.066 -5.093 17
-38.275 -18.037 -5.031 6
-35.725 -16.697 -4.786 16
-33.562 -15.568 -4.593 7
-31.547 -14.544 -4.411 4
-29.834 -13.685 -4.276 5
-18.452 -8.426 -1.671 0
-18.471 -8.409 -1.855 36
-25.428 -11.546 -3.938 4
-24.116 -10.937 -3.834 23
-19.247 -8.72 -2.663 4
-19.202 -8.703 -2.87 4
-18.981 -8.608 -3.027 12
-19.121 -8.685 -3.31 6
-18.924 -8.61 -3.488 15
-18.192 -8.299 -3.484 13
-17.494 -8.003 -3.481 15
-16.825 -7.72 -3.478 14
-16.206 -7.463 -3.487 15
-17.344 -10.113 1.217 21
-13.536 -7.729 1.498 16
-12.467 -6.979 1.517 0
-12.683 -6.96 1.393 5
-13.622 -7.337 1.171 7
-13.603 -7.193 1.073 11
-13.666 -7.103 0.963 13
-13.157 -6.727 0.943 0
-14.273 -7.182 0.666 32
-13.744 -6.816 0.653 15
-13.531 -6.614 0.593 10
-45.959 -22.195 -5.52 11
-42.295 -20.183 -5.154 21
-40.388 -19.072 -5.095 19
-38.583 -18.042 -5.033 5
-35.961 -16.678 -4.777 6
-33.784 -15.55 -4.584 7
-31.769 -14.534 -4.405 4
-30.025 -13.667 -4.267 6
-18.408 -8.342 -1.624 28
-18.533 -8.374 -1.835 13
-24.107 -10.865 -3.529 29
-24.357 -10.965 -3.852 5
-19.232 -8.651 -2.618 4
-19.191 -8.637 -2.826 4
-19.166 -8.632 -3.044 4
-19.117 -8.624 -3.266 8
-19.039 -8.605 -3.484 13
-18.277 -8.283 -3.472 14
-17.577 -7.991 -3.471 14
-16.893 -7.703 -3.464 14
-16.29 -7.456 -3.481 16
-15.41 -8.93 1.425 4
-13.423 -7.616 1.52 0
-12.296 -6.837 1.547 0
-13.586 -7.407 1.29 4
-13.09 -7.003 1.254 7
-12.715 -6.676 1.211 0
-14.291 -7.375 0.885 8
-14.316 -7.268 0.778 23
-14.278 -7.132 0.683 33
-13.759 -6.773 0.668 21
-13.574 -6.585 0.603 31
-17.782 -8.522 -0.271 1
-42.602 -20.173 -5.151 22
-40.688 -19.066 -5.093 21
-38.884 -18.042 -5.033 6
-36.254 -16.684 -4.78 4
-34.013 -15.535 -4.577 7
-18.44 -8.372 -1.266 13
-18.468 -8.342 -1.435 16
-18.402 -8.276 -1.588 41
-27.052 -12.131 -4.004 6
-24.131 -10.796 -3.487 255
-23.653 -10.57 -3.605 17
-19.228 -8.587 -2.577 4
-19.186 -8.573 -2.783 4
-19.162 -8.57 -3.001 4
-19.137 -8.574 -3.23 6
-19.156 -8.601 -3.481 16
-18.365 -8.269 -3.461 14
-17.664 -7.98 -3.462 12
-16.965 -7.689 -3.452 14
-16.361 -7.444 -3.471 16
-15.421 -8.881 1.434 21
-15.723 -8.865 1.277 21
-15.324 -8.466 1.2 20
-12.681 -6.867 1.415 6
-12.911 -6.86 1.29 9
-12.784 -6.667 1.214 18
-13.343 -6.837 1.039 1
-14.158 -7.135 0.819 39
-14.294 -7.088 0.697 20
-13.834 -6.759 0.673 19
-13.588 -6.543 0.619 18
-50.365 -23.954 -6.195 5
-18.032 -8.473 -0.423 17
-18.148 -8.438 -0.582 26
-18.228 -8.393 -0.737 11
-18.286 -8.35 -0.894 22
-18.369 -8.325 -1.06 22
-18.445 -8.309 -1.233 41
-18.483 -8.285 -1.405 39
-18.402 -8.214 -1.553 45
-27.213 -12.111 -3.992 6
-25.889 -11.495 -3.907 1
-23.641 -10.487 -3.553 64
-19.219 -8.522 -2.534 4
-19.175 -8.508 -2.739 8
-19.157 -8.508 -2.958 4
-19.227 -8.556 -3.216 2
-19.253 -8.587 -3.471 14
-18.457 -8.257 -3.451 14
-17.744 -7.965 -3.45 13
-17.04 -7.675 -3.44 14
-16.428 -7.429 -3.458 16
-15.483 -8.862 1.437 15
-15.584 -8.731 1.303 21
-15.917 -8.737 1.143 18
-12.621 -6.789 1.433 33
-12.949 -6.833 1.296 11
-13.199 -6.835 1.169 11
-13.841 -7.042 0.981 11
-14.046 -7.027 0.852 16
-14.405 -7.09 0.696 13
-13.76 -6.672 0.703 23
-13.599 -6.498 0.635 27
-17.902 -8.449 -0.243 12
-18.05 -8.416 -0.4 23
-18.166 -8.381 -0.557 34
-18.253 -8.339 -0.713 35
-18.308 -8.295 -0.868 45
-18.398 -8.273 -1.035 35
-18.488 -8.263 -1.21 28
-18.558 -8.254 -1.389 20
-18.456 -8.174 -1.531 17
-27.377 -12.092 -3.981 6
-23.582 -10.393 -3.245 2
-23.955 -10.549 -3.592 56
-19.211 -8.456 -2.491 4
-19.18 -8.45 -2.699 10
-19.145 -8.444 -2.913 9
-19.352 -8.553 -3.214 3
-19.34 -8.568 -3.456 13
-18.549 -8.245 -3.441 13
-17.825 -7.951 -3.438 13
-17.116 -7.662 -3.429 14
-16.506 -7.42 -3.451 15
-15.48 -8.805 1.448 21
-15.612 -8.691 1.311 24
-15.872 -8.656 1.16 13
-12.651 -6.759 1.439 3
-13.265 -6.952 1.267 12
-13.184 -6.78 1.183 20
-13.119 -6.626 1.1 29
-13.763 -6.835 0.91 15
-14.406 -7.039 0.713 24
-13.838 -6.66 0.707 22
-13.684 -6.489 0.638 28
-17.916 -8.39 -0.221 26
-43.644 -20.191 -5.158 19
-18.216 -8.339 -0.54 1
-18.403 -8.342 -0.714 2
-18.351 -8.249 -0.847 13
-18.599 -8.298 -1.047 6
-18.535 -8.22 -1.188 0
-18.283 -8.069 -1.29 29
-18.514 -8.137 -1.51 7
-27.531 -12.067 -3.967 6
-23.597 -10.322 -3.202 255
-19.687 -8.605 -2.377 0
-19.198 -8.389 -2.448 5
-19.164 -8.383 -2.654 4
-19.137 -8.381 -2.868 4
-19.488 -8.555 -3.215 3
-19.454 -8.561 -3.451 12
-18.648 -8.234 -3.433 14
-17.915 -7.941 -3.43 12
-17.195 -7.65 -3.419 14
-16.583 -7.41 -3.441 16
-15.451 -8.734 1.46 4
-15.668 -8.666 1.315 18
-12.572 -6.811 1.552 4
-12.825 -6.806 1.429 3
-13.18 -6.86 1.29 11
-12.897 -6.585 1.236 6
-12.898 -6.469 1.145 26
-13.766 -6.787 0.925 16
-14.208 -6.89 0.761 12
-13.838 -6.61 0.724 19
-13.684 -6.44 0.656 26
-17.958 -8.345 -0.204 24
-44.028 -20.21 -5.165 18
-41.988 -19.069 -5.094 21
-18.583 -8.356 -0.72 1
-18.616 -8.302 -0.871 6
-18.613 -8.238 -1.018 43
-32.903 -14.477 -4.376 4
-18.287 -8.008 -1.258 34
-29.303 -12.78 -4.084 56
-27.706 -12.051 -3.958 5
-23.648 -10.266 -3.169 255
-19.789 -8.585 -2.364 0
-19.193 -8.326 -2.407 4
-19.159 -8.32 -2.612 4
-19.251 -8.372 -2.862 2
-19.596 -8.543 -3.207 4
-19.547 -8.545 -3.439 13
-18.757 -8.228 -3.429 17
-17.995 -7.925 -3.418 13
-17.28 -7.64 -3.411 14
-16.657 -7.399 -3.432 16
-16.156 -9.076 1.4 2
-15.643 -8.597 1.329 17
-15.844 -8.527 1.188 23
-12.655 -6.67 1.46 7
-13.168 -6.806 1.303 1
-13.689 -6.941 1.14 13
-12.549 -6.248 1.208 27
-13.627 -6.669 0.961 26
-14.201 -6.835 0.779 26
-13.838 -6.559 0.741 20
-13.762 -6.426 0.661 29
-17.964 -8.283 -0.18 31
-44.386 -20.216 -5.168 19
-42.325 -19.071 -5.095 23
-40.494 -18.065 -5.043 7
-18.67 -8.26 -0.852 34
-18.657 -8.192 -0.995 0
-18.273 -7.976 -1.064 11
-18.329 -7.964 -1.234 34
-29.51 -12.769 -4.078 57
-23.624 -10.197 -2.888 35
-23.717 -10.218 -3.14 255
-19.93 -8.582 -2.363 1
-19.187 -8.262 -2.366 4
-19.153 -8.257 -2.57 16
-19.391 -8.373 -2.863 2
-19.707 -8.533 -3.199 7
-19.644 -8.529 -3.427 13
-18.856 -8.218 -3.421 15
-18.082 -7.913 -3.407 13
-17.362 -7.63 -3.402 15
-16.735 -7.388 -3.422 16
-16.101 -8.989 1.415 22
-16.488 -9.005 1.25 16
-13.295 -7.109 1.489 0
-13.978 -7.319 1.31 1
-13.478 -6.919 1.275 13
-12.504 -6.294 1.313 13
-12.578 -6.218 1.217 11
-13.309 -6.466 1.023 19
-14.194 -6.781 0.797 23
-13.867 -6.523 0.754 27
-14.304 -6.628 0.588 14
-17.942 -8.208 -0.151 27
-44.803 -20.244 -5.179 20
-42.649 -19.065 -5.093 28
-18.737 -8.292 -0.692 11
-18.688 -8.202 -0.825 19
-35.495 -15.462 -4.541 6
-18.279 -7.916 -1.033 42
-18.397 -7.93 -1.216 6
-29.709 -12.755 -4.07 57
-23.642 -10.127 -2.847 44
-23.778 -10.167 -3.109 20
-20.043 -8.566 -2.353 3
-19.177 -8.198 -2.324 5
-19.154 -8.198 -2.53 4
-19.53 -8.374 -2.864 1
-19.829 -8.527 -3.195 6
-19.745 -8.516 -3.417 13
-18.945 -8.202 -3.408 15
-18.162 -7.897 -3.395 13
-17.434 -7.613 -3.388 15
-16.806 -7.374 -3.41 16
-15.728 -8.726 1.461 20
-15.739 -8.54 1.34 10
-15.78 -8.381 1.218 19
-15.223 -7.917 1.172 14
-13.969 -7.121 1.225 9
-12.54 -6.268 1.32 15
-12.715 -6.24 1.211 12
-13.561 -6.539 1.001 29
-14.208 -6.737 0.811 22
-13.88 -6.479 0.769 22
-14.462 -6.649 0.58 15
-16.587 -7.53 0.11 14
-45.27 -20.294 -5.199 17
-42.955 -19.049 -5.086 27
-18.823 -8.264 -0.679 39
-18.677 -8.131 -0.792 0
-18.266 -7.893 -0.85 29
-18.329 -7.874 -1.012 29
-31.694 -13.554 -4.207 5
-29.909 -12.741 -4.062 54
-23.739 -10.089 -2.825 2
-24.789 -10.518 -3.32 18
-20.173 -8.557 -2.347 2
-19.21 -8.15 -2.293 4
-19.268 -8.188 -2.523 1
-19.67 -8.374 -2.864 2
-19.955 -8.521 -3.191 6
-19.845 -8.501 -3.406 13
-19.04 -8.19 -3.399 15
-18.242 -7.881 -3.382 13
-17.523 -7.605 -3.381 15
-16.887 -7.365 -3.403 16
-15.832 -8.729 1.461 13
-16.275 -8.774 1.294 17
-14.001 -7.388 1.43 4
-13.097 -6.766 1.438 2
-14.086 -7.131 1.222 6
-12.922 -6.413 1.282 48
-12.841 -6.256 1.206 10
-13.646 -6.531 1.003 14
-14.33 -6.743 0.809 21
-14.081 -6.523 0.754 15
-14.466 -6.599 0.598 0
-16.601 -7.476 0.13 16
-20.009 -8.899 -0.595 2
-18.868 -8.3 -0.523 10
-18.916 -8.239 -0.668 9
-18.167 -7.846 -0.659 4
-18.269 -7.831 -0.82 39
-33.854 -14.428 -4.352 16
-31.904 -13.535 -4.197 5
-30.109 -12.725 -4.054 44
-28.443 -11.995 -3.925 7
-24.611 -10.362 -3.226 162
-20.308 -8.549 -2.342 2
-19.324 -8.139 -2.285 3
-19.419 -8.192 -2.526 1
-19.806 -8.373 -2.863 2
-20.081 -8.515 -3.187 6
-19.95 -8.488 -3.396 13
-19.118 -8.168 -3.382 15
-18.337 -7.872 -3.374 13
-17.606 -7.593 -3.371 14
-16.961 -7.353 -3.392 17
-15.715 -8.611 1.482 23
-16.264 -8.712 1.307 20
-16.225 -8.504 1.192 17
-13.807 -7.084 1.365 3
-12.644 -6.356 1.415 6
-12.578 -6.197 1.339 20
-12.892 -6.235 1.212 19
-14.279 -6.784 0.926 4
-14.215 -6.638 0.843 16
-14.228 -6.54 0.748 38
-14.469 -6.549 0.616 2
-16.615 -7.423 0.15 22
-18.761 -8.276 -0.344 8
-18.871 -8.235 -0.495 33
-41.755 -18.038 -5.031 8
-18.158 -7.779 -0.627 36
-18.339 -7.798 -0.803 15
-34.068 -14.403 -4.339 6
-32.136 -13.525 -4.191 4
-30.334 -12.719 -4.05 33
-28.641 -11.984 -3.919 7
-24.565 -10.264 -3.167 152
-20.424 -8.533 -2.332 4
-19.425 -8.12 -2.273 2
-19.558 -8.191 -2.525 2
-19.946 -8.372 -2.862 2
-20.217 -8.514 -3.186 7
-20.047 -8.472 -3.384 14
-19.221 -8.158 -3.374 14
-18.441 -7.866 -3.37 13
-17.695 -7.584 -3.364 14
-17.042 -7.343 -3.383 16
-15.28 -8.32 1.533 21
-16.228 -8.637 1.321 17
-13.266 -6.908 1.532 2
-13.278 -6.766 1.438 10
-13.157 -6.568 1.362 6
-12.582 -6.155 1.351 24
-12.883 -6.185 1.226 13
-13.181 -6.215 1.1 0
-14.261 -6.608 0.853 13
-14.537 -6.631 0.717 18
-14.53 -6.525 0.625 1
-16.622 -7.367 0.172 31
-18.13 -7.934 -0.206 16
-19.029 -8.237 -0.496 29
-18.071 -7.743 -0.448 15
-18.203 -7.734 -0.607 28
-36.526 -15.406 -4.514 34
-34.31 -14.388 -4.331 16
-32.357 -13.509 -4.183 4
-30.545 -12.705 -4.043 19
-28.824 -11.966 -3.908 6
-24.508 -10.161 -3.105 213
-20.555 -8.522 -2.325 3
-19.547 -8.11 -2.266 3
-19.684 -8.183 -2.52 2
-20.083 -8.369 -2.86 2
-20.354 -8.511 -3.184 5
-20.137 -8.452 -3.369 12
-19.309 -8.142 -3.361 16
-18.528 -7.852 -3.359 13
-17.781 -7.573 -3.354 15
-17.105 -7.326 -3.369 15
-15.292 -8.274 1.541 19
-16.217 -8.575 1.333 21
-15.552 -8.044 1.29 11
-12.715 -6.435 1.514 43
-12.895 -6.392 1.406 18
-12.719 -6.177 1.345 20
-12.902 -6.148 1.237 10
-14.001 -6.552 0.997 3
-14.703 -6.761 0.803 0
-14.584 -6.6 0.727 25
-14.595 -6.502 0.633 5
-16.664 -7.327 0.188 24
-18.182 -7.892 -0.189 16
-18.031 -7.741 -0.286 0
-18.072 -7.68 -0.42 34
-18.262 -7.696 -0.589 4
-36.808 -15.398 -4.51 27
-34.527 -14.362 -4.318 5
-32.582 -13.494 -4.175 4
-30.735 -12.683 -4.03 27
-29.011 -11.948 -3.898 7
-24.472 -10.066 -3.049 255
-20.686 -8.511 -2.318 3
-19.655 -8.094 -2.256 3
-19.831 -8.184 -2.52 2
-20.23 -8.37 -2.861 2
-20.515 -8.519 -3.19 4
-20.219 -8.428 -3.351 13
-19.412 -8.131 -3.352 15
-18.615 -7.838 -3.347 13
-17.863 -7.56 -3.344 14
-17.176 -7.312 -3.356 16
-15.549 -8.361 1.526 22
-15.136 -7.953 1.454 13
-15.56 -7.994 1.301 10
-13.217 -6.643 1.466 11
-12.921 -6.36 1.414 8
-13.073 -6.304 1.311 9
-12.913 -6.108 1.249 5
-16.389 -7.612 0.673 9
-16.005 -7.303 0.627 26
-14.594 -6.553 0.744 18
-14.526 -6.42 0.663 9
-16.681 -7.276 0.207 30
-18.872 -8.126 -0.283 27
-17.996 -7.663 -0.253 32
-18.149 -7.65 -0.406 5
-39.781 -16.629 -4.754 18
-37.084 -15.386 -4.504 26
-34.799 -14.356 -4.315 4
-32.815 -13.48 -4.167 5
-30.91 -12.653 -4.013 49
-29.208 -11.934 -3.89 7
-24.428 -9.97 -2.99 218
-20.799 -8.492 -2.306 3
-19.777 -8.083 -2.249 3
-19.953 -8.174 -2.513 2
-20.367 -8.365 -2.858 2
-20.674 -8.524 -3.193 4
-20.316 -8.411 -3.338 13
-19.508 -8.117 -3.341 13
-18.688 -7.818 -3.331 12
-17.959 -7.554 -3.338 14
-17.253 -7.3 -3.346 16
-15.378 -8.217 1.551 17
-15.193 -7.931 1.458 20
-15.593 -7.958 1.309 16
-15.468 -7.722 1.217 4
-13.132 -6.418 1.4 9
-12.895 -6.173 1.346 10
-12.953 -6.081 1.256 3
-16.344 -7.533 0.697 3
-16.136 -7.306 0.626 26
-17.474 -7.785 0.319 7
-14.579 -6.392 0.674 22
-16.742 -7.243 0.22 17
-17.897 -7.643 -0.088 10
-18.029 -7.614 -0.232 32
-18.332 -7.663 -0.412 29
-40.064 -16.609 -4.745 24
-37.355 -15.371 -4.497 26
-35.063 -14.347 -4.31 4
-33.047 -13.464 -4.159 10
-31.082 -12.62 -3.995 58
-29.396 -11.916 -3.879 7
-24.572 -9.95 -2.979 7
-24.323 -9.854 -3.158 28
-19.888 -8.067 -2.239 3
-20.101 -8.173 -2.513 1
-20.532 -8.373 -2.863 2
-20.839 -8.533 -3.199 4
-20.424 -8.398 -3.328 13
-19.603 -8.103 -3.33 13
-18.761 -7.798 -3.314 20
-18.038 -7.539 -3.326 15
-17.327 -7.288 -3.335 16
-15.393 -8.174 1.559 24
-15.148 -7.856 1.473 22
-15.85 -8.035 1.292 16
-13.312 -6.599 1.476 7
-12.911 -6.265 1.438 16
-13.735 -6.527 1.251 22
-13.155 -6.131 1.242 6
-16.281 -7.448 0.723 27
-16.163 -7.262 0.64 6
-14.726 -6.509 0.759 8
-16.4 -7.133 0.404 13
-16.806 -7.211 0.232 24
-17.901 -7.583 -0.064 33
-18.077 -7.571 -0.214 53
-18.362 -7.612 -0.389 29
-40.376 -16.599 -4.74 22
-37.649 -15.363 -4.493 26
-35.321 -14.334 -4.303 4
-33.251 -13.437 -4.144 4
-31.268 -12.593 -3.981 35
-29.583 -11.895 -3.868 7
-24.397 -9.801 -2.889 17
-21.213 -8.528 -2.329 10
-20.0 -8.05 -2.228 3
-20.237 -8.167 -2.509 2
-20.691 -8.377 -2.865 1
-21.048 -8.557 -3.217 4
-20.51 -8.376 -3.311 17
-19.695 -8.086 -3.318 14
-18.866 -7.791 -3.309 14
-18.127 -7.529 -3.318 15
-17.405 -7.275 -3.324 16
-15.468 -8.162 1.561 20
-15.148 -7.805 1.483 29
-16.117 -8.117 1.275 18
-15.702 -7.73 1.215 18
-12.887 -6.21 1.452 13
-13.888 -6.552 1.244 7
-13.199 -6.106 1.249 21
-16.333 -7.415 0.733 27
-16.19 -7.217 0.655 9
-16.696 -7.321 0.479 27
-16.424 -7.086 0.421 21
-17.026 -7.247 0.218 51
-16.494 -6.929 0.2 2
-18.048 -7.497 -0.182 21
-43.768 -17.994 -5.011 13
-40.692 -16.59 -4.736 21
-37.925 -15.347 -4.485 23
-35.597 -14.325 -4.299 6
-33.488 -13.421 -4.136 4
-31.48 -12.575 -3.971 14
-29.781 -11.878 -3.858 7
-24.309 -9.688 -2.821 37
-21.189 -8.452 -2.281 5
-20.122 -8.039 -2.22 3
-20.385 -8.166 -2.508 2
-21.13 -8.492 -2.946 5
-21.235 -8.572 -3.228 3
-20.622 -8.363 -3.302 14
-19.794 -8.072 -3.307 14
-18.942 -7.772 -3.293 13
-18.202 -7.513 -3.304 15
-17.482 -7.263 -3.314 16
-15.585 -8.172 1.559 16
-15.223 -7.792 1.485 13
-16.418 -8.212 1.255 2
-12.838 -6.277 1.551 0
-13.159 -6.296 1.43 9
-13.227 -6.195 1.34 20
-13.207 -6.063 1.261 1
-16.403 -7.389 0.741 10
-16.553 -7.322 0.621 0
-16.705 -7.267 0.498 21
-16.48 -7.052 0.433 28
-16.634 -7.022 0.305 29
-17.871 -7.445 -0.008 16
-18.069 -7.443 -0.159 17
-44.136 -17.994 -5.012 13
-40.994 -16.573 -4.728 18
-38.223 -15.339 -4.481 23
-35.804 -14.29 -4.281 15
-33.703 -13.396 -4.123 4
-24.182 -9.581 -2.311 0
-24.267 -9.601 -2.543 50
-24.245 -9.586 -2.76 31
-21.183 -8.384 -2.239 4
-20.241 -8.024 -2.211 3
-20.533 -8.163 -2.506 2
-21.127 -8.429 -2.902 4
-21.412 -8.582 -3.235 3
-20.719 -8.344 -3.288 15
-19.897 -8.06 -3.298 14
-19.026 -7.755 -3.28 13
-18.288 -7.501 -3.294 15
-17.563 -7.252 -3.304 17
-15.691 -8.176 1.558 22
-15.631 -7.95 1.455 14
-14.233 -7.072 1.497 0
-13.354 -6.484 1.503 10
-13.12 -6.232 1.446 0
-12.856 -5.977 1.398 21
-13.244 -6.035 1.27 7
-16.296 -7.284 0.773 29
-16.631 -7.298 0.629 0
-17.707 -7.641 0.369 19
-16.579 -7.037 0.439 28
-16.639 -6.967 0.326 25
0.0 -0.0 3.0 0
-18.519 -7.564 -0.211 30
-18.403 -7.44 -0.312 1
-41.293 -16.553 -4.719 13
-38.514 -15.325 -4.475 24
-36.07 -14.275 -4.274 4
-33.991 -13.397 -4.124 6
-24.045 -9.448 -2.237 3
-24.207 -9.5 -2.485 45
-24.181 -9.484 -2.699 30
-21.285 -8.358 -2.223 3
-20.371 -8.013 -2.204 3
-20.706 -8.171 -2.511 2
-21.261 -8.42 -2.896 2
-21.582 -8.589 -3.24 4
-20.826 -8.33 -3.277 16
-19.993 -8.044 -3.285 14
-19.109 -7.739 -3.267 13
-18.366 -7.485 -3.281 15
-17.651 -7.244 -3.297 15
-15.709 -8.133 1.566 20
-15.368 -7.764 1.491 17
-15.817 -7.806 1.341 0
-13.562 -6.539 1.49 1
-13.779 -6.498 1.38 2
-12.964 -5.983 1.397 19
-13.226 -5.98 1.285 3
-16.3 -7.23 0.789 26
-16.658 -7.252 0.644 4
-17.644 -7.553 0.399 41
-16.598 -6.987 0.457 29
-16.611 -6.897 0.353 30
-19.018 -7.792 -0.148 23
-18.563 -7.518 -0.191 25
-18.403 -7.377 -0.284 1
-41.585 -16.528 -4.707 10
-38.806 -15.31 -4.467 26
-36.354 -14.266 -4.269 4
-34.213 -13.373 -4.111 7
-24.009 -9.356 -2.186 5
-24.134 -9.394 -2.423 34
-24.112 -9.382 -2.637 31
-21.405 -8.339 -2.211 2
-20.493 -7.999 -2.195 3
-21.129 -8.275 -2.582 5
-21.446 -8.432 -2.904 2
-21.752 -8.595 -3.244 7
-20.941 -8.318 -3.268 14
-20.092 -8.03 -3.274 14
-19.207 -7.727 -3.257 12
-18.448 -7.471 -3.269 15
-17.732 -7.233 -3.288 16
-15.408 -7.927 1.602 3
-15.375 -7.718 1.5 25
-15.646 -7.669 1.37 17
-15.735 -7.534 1.261 4
-16.676 -7.808 1.053 11
-12.874 -5.898 1.42 27
-13.244 -5.944 1.296 0
-16.264 -7.158 0.812 25
-17.616 -7.609 0.528 67
-17.767 -7.544 0.403 20
-16.65 -6.952 0.47 26
-16.253 -6.692 0.431 26
-18.106 -7.355 0.028 28
-18.878 -7.581 -0.218 23
-45.307 -18.005 -5.016 9
-41.921 -16.52 -4.703 6
-39.097 -15.294 -4.459 26
-36.621 -14.249 -4.26 4
-34.462 -13.357 -4.102 6
-24.02 -9.283 -2.145 4
-24.065 -9.29 -2.364 48
-24.054 -9.284 -2.578 49
-21.515 -8.316 -2.196 3
-20.616 -7.985 -2.185 3
-21.129 -8.213 -2.54 3
-21.602 -8.43 -2.903 2
-21.916 -8.597 -3.246 18
-21.052 -8.304 -3.257 15
-20.187 -8.014 -3.261 14
-19.308 -7.717 -3.249 13
-18.531 -7.457 -3.258 15
-17.819 -7.225 -3.28 15
-15.415 -7.88 1.61 24
-15.406 -7.682 1.507 23
-15.713 -7.65 1.374 20
-15.688 -7.459 1.278 22
-16.717 -7.771 1.063 24
-12.88 -5.856 1.431 17
-15.933 -7.096 0.965 28
-16.195 -7.072 0.838 14
-17.648 -7.562 0.543 19
-17.082 -7.194 0.523 17
-16.71 -6.919 0.482 31
-16.257 -6.637 0.452 27
-18.138 -7.306 0.048 28
-18.973 -7.554 -0.207 8
-45.717 -18.013 -5.02 8
-42.327 -16.536 -4.711 4
-39.408 -15.284 -4.454 23
-36.887 -14.23 -4.251 4
-34.689 -13.331 -4.088 6
-24.565 -9.414 -2.218 14
-23.992 -9.185 -2.303 47
-24.12 -9.234 -2.548 56
-21.624 -8.292 -2.181 2
-20.818 -8.001 -2.196 2
-21.274 -8.207 -2.535 1
-21.765 -8.431 -2.904 2
-22.043 -8.585 -3.237 17
-21.175 -8.293 -3.249 14
-20.29 -8.0 -3.25 14
-19.413 -7.709 -3.242 13
-18.609 -7.442 -3.244 15
-17.9 -7.213 -3.27 15
-15.443 -7.844 1.617 21
-15.448 -7.653 1.512 25
-15.709 -7.596 1.385 20
-15.731 -7.427 1.285 26
-16.685 -7.7 1.08 12
-12.865 -5.806 1.444 22
-13.756 -6.079 1.257 1
-16.213 -7.025 0.852 27
-16.795 -7.139 0.68 17
-17.094 -7.14 0.541 36
-16.651 -6.838 0.511 27
-16.279 -6.591 0.47 23
-18.706 -7.471 -0.019 31
-18.263 -7.209 -0.06 12
-46.161 -18.031 -5.028 8
-42.649 -16.518 -4.703 14
-39.711 -15.268 -4.447 25
-37.157 -14.211 -4.241 4
-34.908 -13.302 -4.073 18
-24.617 -9.354 -2.185 21
-23.94 -9.09 -2.248 60
-24.207 -9.192 -2.523 54
-21.741 -8.27 -2.167 2
-21.116 -8.052 -2.229 4
-21.419 -8.2 -2.531 1
-21.943 -8.437 -2.907 1
-22.156 -8.567 -3.224 19
-21.293 -8.282 -3.241 14
-20.393 -7.986 -3.239 14
-19.51 -7.696 -3.232 12
-18.702 -7.431 -3.235 15
-17.974 -7.199 -3.258 16
-15.613 -7.881 1.61 17
-15.598 -7.676 1.508 22
-15.931 -7.651 1.374 48
-16.04 -7.52 1.264 25
-13.542 -6.204 1.453 3
-12.915 -5.785 1.45 36
-15.874 -6.962 1.004 24
-16.188 -6.959 0.872 29
-16.854 -7.106 0.691 21
-17.058 -7.067 0.567 19
-16.707 -6.803 0.524 26
-16.518 -6.631 0.455 17
-18.639 -7.38 0.018 27
-18.269 -7.15 -0.035 15
-46.606 -18.047 -5.035 8
-42.96 -16.495 -4.692 19
-40.022 -15.254 -4.44 25
-37.432 -14.193 -4.232 4
-35.153 -13.28 -4.061 15
-24.705 -9.308 -2.16 16
-23.991 -9.033 -2.215 40
-24.06 -9.061 -2.445 56
-21.854 -8.247 -2.153 2
-21.155 -8.004 -2.198 2
-21.608 -8.208 -2.536 1
-22.143 -8.451 -2.917 1
-22.276 -8.551 -3.213 15
-21.404 -8.266 -3.229 16
-20.485 -7.968 -3.225 14
-19.619 -7.689 -3.226 13
-18.777 -7.414 -3.221 15
-18.058 -7.188 -3.248 15
-15.769 -7.908 1.606 10
-15.615 -7.634 1.516 24
-15.837 -7.554 1.394 15
-15.873 -7.389 1.294 17
-13.542 -6.159 1.464 0
-12.892 -5.732 1.464 10
-15.975 -6.952 1.006 25
-16.26 -6.935 0.88 27
-17.598 -7.36 0.608 14
-17.136 -7.041 0.576 17
-16.699 -6.743 0.546 20
-18.103 -7.205 0.234 31
-18.583 -7.294 0.053 30
-18.268 -7.087 -0.008 12
-47.007 -18.043 -5.033 8
-43.286 -16.475 -4.682 17
-40.326 -15.237 -4.431 26
-37.702 -14.172 -4.221 4
-35.428 -13.269 -4.055 5
-24.844 -9.282 -2.145 8
-24.089 -8.994 -2.193 58
-24.125 -9.011 -2.414 2
-21.99 -8.231 -2.143 2
-21.311 -7.999 -2.194 1
-21.782 -8.211 -2.539 1
-22.317 -8.454 -2.919 2
-22.392 -8.533 -3.2 15
-21.509 -8.249 -3.216 16
-20.594 -7.956 -3.216 15
-19.706 -7.672 -3.213 14
-18.862 -7.4 -3.209 15
-18.143 -7.178 -3.239 16
-15.79 -7.869 1.613 1
-15.628 -7.59 1.525 19
-15.898 -7.532 1.399 21
-15.977 -7.385 1.295 13
-13.346 -6.026 1.498 3
-16.904 -7.459 1.001 34
-16.083 -6.945 1.008 19
-16.263 -6.881 0.896 25
-17.518 -7.268 0.639 24
-17.103 -6.969 0.6 2
-17.229 -6.899 0.489 18
-18.131 -7.155 0.253 28
-18.615 -7.244 0.073 22
-18.288 -7.033 0.015 3
-19.109 -7.27 -0.237 3
-43.657 -16.47 -4.68 21
-40.634 -15.218 -4.422 27
-37.977 -14.15 -4.21 4
-35.7 -13.255 -4.048 4
-24.958 -9.244 -2.124 8
-24.183 -8.953 -2.169 56
-24.289 -8.997 -2.406 0
-22.11 -8.209 -2.129 2
-21.482 -8.0 -2.195 2
-21.953 -8.212 -2.539 2
-22.5 -8.459 -2.923 2
-22.519 -8.52 -3.19 15
-21.602 -8.226 -3.199 16
-20.704 -7.944 -3.206 14
-19.8 -7.657 -3.201 13
-18.948 -7.386 -3.198 15
-18.223 -7.165 -3.228 14
-15.664 -7.756 1.632 13
-15.742 -7.594 1.524 23
-15.695 -7.384 1.43 28
-16.479 -7.563 1.254 14
-16.181 -7.253 1.192 19
-16.204 -7.097 1.098 11
-16.188 -6.937 1.011 23
-16.328 -6.853 0.905 28
-17.662 -7.267 0.639 22
-17.813 -7.198 0.521 20
-17.115 -6.795 0.527 27
-18.49 -7.234 0.223 31
-18.695 -7.211 0.086 31
-18.297 -6.974 0.04 0
-19.123 -7.212 -0.211 32
-44.035 -16.466 -4.678 18
-40.953 -15.202 -4.414 28
-38.278 -14.137 -4.203 4
-35.927 -13.224 -4.031 4
-25.098 -9.216 -2.109 9
-24.262 -8.907 -2.142 7
-24.398 -8.963 -2.385 0
-22.253 -8.194 -2.12 2
-21.649 -7.998 -2.194 1
-22.12 -8.21 -2.538 1
-22.682 -8.463 -2.926 1
-22.636 -8.501 -3.176 15
-21.703 -8.206 -3.184 18
-20.818 -7.933 -3.198 15
-19.908 -7.649 -3.194 14
-19.044 -7.376 -3.19 16
-18.308 -7.154 -3.219 14
-15.691 -7.72 1.639 25
-15.74 -7.544 1.534 22
-15.917 -7.437 1.419 18
-16.664 -7.594 1.247 17
-16.18 -7.199 1.205 25
-16.338 -7.101 1.097 14
-16.26 -6.913 1.018 30
-16.287 -6.782 0.927 16
-17.743 -7.241 0.647 10
-17.881 -7.165 0.533 25
-17.181 -6.764 0.538 31
-18.606 -7.216 0.23 25
-18.748 -7.169 0.103 22
-20.578 -7.774 -0.3 1
-19.173 -7.166 -0.191 10
-18.916 -7.01 -0.269 20
-41.261 -15.181 -4.404 27
-38.557 -14.114 -4.192 4
-36.196 -13.206 -4.021 4
-25.193 -9.172 -2.084 10
-24.371 -8.87 -2.121 3
-24.47 -8.914 -2.356 0
-22.377 -8.172 -2.107 2
-21.827 -7.999 -2.195 1
-22.324 -8.221 -2.545 1
-23.462 -8.688 -3.084 5
-22.756 -8.484 -3.164 15
-21.792 -8.182 -3.166 18
-20.92 -7.917 -3.186 15
-20.009 -7.637 -3.184 14
-19.129 -7.362 -3.178 16
-18.388 -7.141 -3.208 15
-15.707 -7.679 1.646 24
-15.796 -7.52 1.538 14
-16.111 -7.476 1.411 19
-16.616 -7.518 1.264 19
-15.928 -7.034 1.246 15
-16.249 -7.009 1.122 27
-16.34 -6.893 1.024 28
-16.249 -6.712 0.948 28
-17.744 -7.181 0.667 3
-17.922 -7.121 0.548 5
-17.669 -6.895 0.49 20
-18.63 -7.162 0.251 16
-18.746 -7.105 0.13 29
-19.552 -7.321 -0.108 13
-19.239 -7.126 -0.173 0
-18.951 -6.96 -0.246 18
-41.584 -15.163 -4.395 27
-38.854 -14.097 -4.183 4
-36.446 -13.18 -4.008 4
-25.107 -9.061 -2.023 5
-24.45 -8.823 -2.094 8
-24.571 -8.875 -2.333 0
-22.512 -8.154 -2.095 2
-21.995 -7.996 -2.192 1
-22.503 -8.223 -2.546 1
-23.784 -8.741 -3.121 38
-22.88 -8.467 -3.152 20
-21.889 -8.159 -3.148 18
-21.016 -7.899 -3.171 15
-20.107 -7.623 -3.173 13
-19.215 -7.348 -3.166 18
-18.483 -7.134 -3.201 14
-15.763 -7.657 1.65 16
-15.903 -7.521 1.538 19
-16.2 -7.466 1.413 25
-17.109 -7.686 1.226 20
-13.739 -6.024 1.498 5
-16.186 -6.928 1.144 18
-16.474 -6.895 1.023 21
-16.281 -6.67 0.961 21
-19.834 -7.961 0.413 3
-17.838 -7.028 0.58 10
-17.765 -6.873 0.498 32
-18.454 -7.032 0.301 27
-18.752 -7.044 0.154 5
-19.603 -7.274 -0.088 28
-49.475 -18.162 -5.086 6
-45.181 -16.444 -4.668 6
-41.912 -15.144 -4.386 28
-39.141 -14.074 -4.171 4
-36.714 -13.159 -3.997 4
-25.105 -8.98 -1.978 6
-24.559 -8.787 -2.073 8
-24.687 -8.842 -2.313 1
-22.674 -8.145 -2.09 2
-22.159 -7.991 -2.189 5
-22.689 -8.226 -2.549 1
-23.891 -8.713 -3.101 41
-22.996 -8.447 -3.137 16
-22.004 -8.144 -3.137 18
-21.115 -7.882 -3.158 15
-20.208 -7.611 -3.163 13
-19.307 -7.336 -3.156 15
-18.571 -7.124 -3.193 14
-15.689 -7.572 1.665 0
-16.099 -7.563 1.53 3
-15.63 -7.154 1.479 23
-16.52 -7.368 1.299 18
-17.771 -7.733 1.072 42
-16.484 -7.002 1.124 24
-17.009 -7.062 0.975 16
-16.297 -6.623 0.975 25
-19.645 -7.82 0.459 13
-19.949 -7.792 0.317 22
-17.806 -6.829 0.515 21
-18.451 -6.969 0.325 26
-18.493 -6.885 0.218 0
-19.42 -7.142 -0.031 17
-49.968 -18.177 -5.093 5
-45.527 -16.42 -4.657 11
-42.232 -15.122 -4.375 28
-39.428 -14.049 -4.158 4
-36.968 -13.132 -3.982 4
-25.081 -8.893 -1.929 4
-24.645 -8.741 -2.047 58
-24.693 -8.769 -2.269 66
-22.765 -8.11 -2.068 0
-22.374 -8.003 -2.197 2
-23.988 -8.628 -2.82 8
-24.053 -8.705 -3.095 35
-23.12 -8.43 -3.125 17
-22.115 -8.127 -3.124 19
-21.218 -7.866 -3.145 16
-20.309 -7.598 -3.153 14
-19.389 -7.32 -3.143 16
-18.662 -7.115 -3.185 14
-15.601 -7.48 1.681 29
-15.838 -7.39 1.564 6
-15.664 -7.119 1.487 19
-16.438 -7.279 1.319 18
-18.008 -7.778 1.061 7
-15.915 -6.708 1.203 13
-16.776 -6.911 1.018 22
-16.454 -6.632 0.972 21
-16.4 -6.473 0.897 0
-16.372 -6.341 0.817 0
-17.936 -6.819 0.518 18
-18.5 -6.926 0.341 14
-18.323 -6.76 0.269 16
-17.856 -6.507 0.238 0
-50.462 -18.189 -5.098 5
-45.945 -16.42 -4.657 5
-42.571 -15.104 -4.367 27
-39.722 -14.026 -4.147 4
-37.2 -13.096 -3.963 4
-25.068 -8.81 -1.883 8
-24.739 -8.698 -2.022 57
-24.746 -8.713 -2.235 1
-25.522 -9.016 -2.634 11
-22.56 -8.004 -2.198 3
-23.617 -8.428 -2.684 2
-24.186 -8.686 -3.082 40
-23.251 -8.415 -3.114 15
-22.23 -8.111 -3.112 18
-21.306 -7.843 -3.128 16
-20.403 -7.582 -3.14 14
-19.485 -7.31 -3.133 15
-18.753 -7.106 -3.177 14
-16.059 -7.651 1.651 16
-15.825 -7.335 1.574 20
-15.832 -7.145 1.481 28
-16.462 -7.237 1.329 14
-18.912 -8.108 0.979 23
-16.118 -6.742 1.194 30
-16.698 -6.824 1.043 31
-16.467 -6.583 0.987 25
-16.501 -6.459 0.901 3
-18.045 -6.928 0.614 35
-18.31 -6.9 0.489 29
-18.575 -6.892 0.355 5
-18.271 -6.68 0.301 32
-17.87 -6.453 0.261 13
-50.968 -18.202 -5.104 5
-46.393 -16.427 -4.66 4
-42.91 -15.086 -4.358 27
-40.028 -14.006 -4.136 4
-37.477 -13.075 -3.952 4
-35.177 -12.252 -3.791 8
-24.833 -8.654 -1.997 42
-26.488 -9.246 -2.556 1
-25.598 -8.967 -2.603 7
-22.703 -7.989 -2.188 0
-23.562 -8.342 -2.626 3
-24.263 -8.647 -3.055 40
-23.375 -8.397 -3.101 15
-22.331 -8.088 -3.095 18
-21.394 -7.821 -3.11 15
-20.494 -7.566 -3.126 13
-19.574 -7.296 -3.122 17
-18.834 -7.092 -3.165 14
-16.234 -7.685 1.645 24
-15.851 -7.298 1.581 22
-15.691 -7.033 1.505 17
-16.362 -7.141 1.351 21
-18.855 -8.022 1.0 23
-15.99 -6.636 1.222 26
-15.911 -6.451 1.15 2
-16.524 -6.552 0.997 24
-16.429 -6.376 0.928 25
-18.612 -7.084 0.561 2
-18.5 -6.91 0.485 24
-18.467 -6.791 0.393 12
-18.081 -6.55 0.354 28
-17.873 -6.395 0.285 15
-51.507 -18.226 -5.115 5
-46.853 -16.436 -4.664 4
-43.261 -15.068 -4.349 27
-40.346 -13.987 -4.127 4
-37.746 -13.049 -3.938 4
-35.417 -12.225 -3.777 8
-24.83 -8.577 -1.952 1
-27.41 -9.486 -2.699 15
-25.607 -8.895 -2.558 4
-25.626 -8.944 -2.808 30
-24.283 -8.529 -2.753 3
-24.333 -8.605 -3.025 21
-23.506 -8.381 -3.09 16
-22.453 -8.074 -3.085 19
-21.496 -7.804 -3.097 16
-20.595 -7.552 -3.115 14
-19.666 -7.283 -3.112 16
-18.918 -7.08 -3.154 18
-16.16 -7.601 1.66 21
-16.508 -7.55 1.532 31
-16.14 -7.183 1.473 23
-15.453 -6.696 1.454 1
-18.247 -7.706 1.079 33
-15.969 -6.576 1.238 23
-17.196 -6.916 1.017 19
-16.718 -6.574 0.99 24
-16.467 -6.336 0.941 23
-18.572 -7.007 0.587 16
-18.437 -6.825 0.516 17
0.0 -0.0 3.0 0
-18.043 -6.477 0.383 21
-17.679 -6.267 0.34 24
-52.085 -18.258 -5.129 6
-47.275 -16.43 -4.661 4
-43.601 -15.045 -4.338 26
-40.656 -13.964 -4.115 4
-38.008 -13.019 -3.922 4
-35.665 -12.2 -3.763 8
-25.998 -8.901 -2.139 28
-26.983 -9.257 -2.562 24
-25.56 -8.804 -2.501 5
-25.727 -8.905 -2.783 28
-24.003 -8.362 -2.641 1
-24.326 -8.536 -2.977 3
-23.623 -8.36 -3.074 17
-22.568 -8.057 -3.071 18
-21.592 -7.784 -3.082 14
-20.685 -7.534 -3.101 13
-19.762 -7.272 -3.102 15
-19.016 -7.073 -3.148 14
-16.519 -7.719 1.639 24
-16.35 -7.427 1.556 21
-16.239 -7.178 1.474 22
-15.431 -6.638 1.468 22
-18.089 -7.582 1.11 20
-15.933 -6.51 1.256 18
-17.697 -7.06 0.976 9
-16.849 -6.57 0.991 27
-16.539 -6.31 0.95 26
-18.371 -6.871 0.634 15
-18.399 -6.751 0.543 35
0.0 -0.0 3.0 0
-18.184 -6.467 0.387 23
-17.513 -6.15 0.389 22
-52.63 -18.277 -5.137 8
-47.728 -16.431 -4.662 5
-43.953 -15.024 -4.328 23
-40.963 -13.938 -4.102 4
-38.3 -12.998 -3.911 4
-35.902 -12.169 -3.746 8
-26.093 -8.853 -2.111 29
-27.019 -9.188 -2.521 27
-25.609 -8.746 -2.465 4
-25.832 -8.867 -2.758 30
-24.393 -8.431 -2.687 13
-24.565 -8.553 -2.989 12
-23.75 -8.341 -3.06 17
-22.675 -8.037 -3.056 19
-21.701 -7.769 -3.07 15
-20.775 -7.516 -3.087 14
-19.866 -7.263 -3.094 16
-19.097 -7.058 -3.136 14
-16.589 -7.702 1.642 20
-16.417 -7.407 1.56 21
-16.218 -7.118 1.487 26
-15.453 -6.599 1.477 21
-15.823 -6.582 1.359 0
-16.111 -6.531 1.25 12
-17.362 -6.87 1.03 16
-16.743 -6.475 1.02 7
-16.551 -6.261 0.966 25
-17.06 -6.325 0.822 0
-18.365 -6.678 0.57 8
-18.339 -6.561 0.481 10
-18.176 -6.404 0.412 15
-17.579 -6.115 0.404 24
-17.927 -6.167 0.254 10
-48.137 -16.416 -4.655 4
-44.293 -14.998 -4.315 19
-41.269 -13.911 -4.088 3
-38.577 -12.971 -3.897 4
-36.15 -12.142 -3.73 7
-26.183 -8.805 -2.084 30
-26.571 -8.957 -2.382 26
-25.737 -8.714 -2.445 3
-25.933 -8.828 -2.733 33
-24.334 -8.342 -2.626 7
-24.624 -8.507 -2.956 34
-23.867 -8.32 -3.045 16
-22.798 -8.021 -3.044 18
-21.807 -7.753 -3.057 15
-20.862 -7.497 -3.071 13
-19.954 -7.248 -3.082 15
-19.181 -7.046 -3.125 13
-16.601 -7.658 1.65 27
-16.651 -7.462 1.55 21
-16.555 -7.215 1.466 12
-15.545 -6.59 1.479 9
-15.816 -6.53 1.372 23
-16.288 -6.551 1.245 13
-17.453 -6.85 1.036 12
-16.633 -6.378 1.05 25
-16.712 -6.267 0.964 26
-17.128 -6.294 0.833 10
-18.159 -6.543 0.619 12
-18.058 -6.401 0.543 19
-18.122 -6.326 0.444 11
-17.663 -6.086 0.417 16
-17.911 -6.103 0.283 28
-48.644 -16.43 -4.662 4
-44.716 -14.997 -4.315 6
-41.573 -13.881 -4.073 4
-38.836 -12.936 -3.878 4
-36.402 -12.114 -3.715 8
-26.281 -8.758 -2.057 31
-26.562 -8.874 -2.332 20
-25.86 -8.68 -2.424 3
-26.038 -8.789 -2.708 34
-24.074 -8.186 -2.521 24
-24.701 -8.466 -2.928 4
-24.002 -8.303 -3.033 16
-22.905 -8.001 -3.029 19
-21.913 -7.736 -3.044 15
-20.959 -7.482 -3.059 14
-20.054 -7.238 -3.073 15
-19.275 -7.037 -3.117 14
-16.74 -7.673 1.647 19
-17.114 -7.618 1.519 18
-16.472 -7.128 1.485 17
-16.885 -7.105 1.36 11
-15.864 -6.499 1.38 22
-16.278 -6.495 1.26 24
-16.161 -6.291 1.196 27
-16.645 -6.329 1.065 11
-16.586 -6.166 0.997 3
-17.144 -6.244 0.85 21
-17.2 -6.141 0.765 16
-18.113 -6.361 0.558 16
-18.17 -6.283 0.461 9
-17.642 -6.022 0.444 18
-17.894 -6.039 0.311 26
-49.162 -16.446 -4.669 4
-45.113 -14.986 -4.309 5
-41.921 -13.865 -4.064 4
-39.125 -12.91 -3.864 4
-36.654 -12.085 -3.699 7
-26.361 -8.705 -2.026 31
-26.585 -8.804 -2.29 3
-26.002 -8.652 -2.407 3
-26.176 -8.762 -2.69 35
-24.08 -8.121 -2.478 43
-24.977 -8.493 -2.947 27
-24.144 -8.29 -3.023 16
-23.02 -7.982 -3.015 19
-22.016 -7.717 -3.029 15
-21.053 -7.464 -3.044 13
-20.154 -7.226 -3.063 15
-19.356 -7.023 -3.105 14
-16.908 -7.699 1.643 19
-17.01 -7.521 1.538 22
-16.473 -7.078 1.495 27
-16.239 -6.783 1.434 8
-15.878 -6.456 1.39 31
-16.33 -6.465 1.268 18
-16.232 -6.266 1.203 26
-16.667 -6.284 1.079 28
-16.452 -6.063 1.03 18
-17.067 -6.16 0.879 23
-17.228 -6.094 0.782 19
-18.074 -6.288 0.586 13
-18.303 -6.269 0.467 0
-17.606 -5.952 0.473 22
-17.945 -5.997 0.33 20
-49.553 -16.417 -4.655 9
-45.515 -14.973 -4.303 5
-42.217 -13.829 -4.046 4
-39.407 -12.88 -3.849 4
-36.914 -12.057 -3.684 8
-26.601 -8.704 -2.025 45
-26.855 -8.814 -2.296 36
-26.602 -8.776 -2.484 27
-26.292 -8.726 -2.667 38
-24.163 -8.083 -2.452 20
-24.762 -8.354 -2.849 3
-24.275 -8.271 -3.009 17
-23.127 -7.961 -2.999 21
-22.122 -7.7 -3.016 15
-21.143 -7.445 -3.029 14
-20.246 -7.212 -3.052 16
-19.439 -7.009 -3.093 14
-16.938 -7.663 1.649 21
-17.022 -7.475 1.547 26
-16.436 -7.013 1.509 21
-16.239 -6.733 1.445 19
-16.066 -6.482 1.384 25
-16.704 -6.56 1.242 14
-16.239 -6.218 1.217 28
-16.675 -6.233 1.094 24
-16.37 -5.98 1.057 31
-17.146 -6.133 0.888 0
-18.087 -6.339 0.693 15
-18.567 -6.399 0.544 7
-17.847 -6.054 0.554 13
-17.604 -5.894 0.498 17
-17.894 -5.922 0.363 21
-50.02 -16.411 -4.652 9
-45.89 -14.95 -4.292 6
-42.544 -13.802 -4.032 4
-39.692 -12.85 -3.832 4
-37.166 -12.026 -3.666 7
-26.789 -8.684 -2.014 45
-27.002 -8.782 -2.277 25
-26.577 -8.691 -2.43 12
-26.423 -8.695 -2.647 40
-24.796 -8.227 -2.549 14
-25.501 -8.536 -2.977 33
-24.417 -8.256 -2.998 16
-23.257 -7.946 -2.988 17
-22.235 -7.685 -3.005 15
-21.244 -7.431 -3.017 15
-20.342 -7.2 -3.042 16
-19.52 -6.995 -3.08 14
-16.874 -7.585 1.663 22
-16.449 -7.175 1.605 21
-16.003 -6.78 1.559 22
0.0 -0.0 3.0 0
-16.048 -6.424 1.398 22
-16.43 -6.401 1.285 19
-16.555 -6.287 1.197 23
-16.769 -6.214 1.1 8
-16.374 -5.928 1.074 24
-18.51 -6.561 0.741 5
-18.171 -6.31 0.703 18
0.0 -0.0 3.0 0
-18.168 -6.104 0.534 36
-18.045 -5.983 0.46 13
-17.873 -5.857 0.392 24
-50.524 -16.413 -4.654 8
-46.289 -14.933 -4.283 5
-42.859 -13.769 -4.016 4
-40.012 -12.829 -3.821 4
-37.396 -11.985 -3.644 7
-26.913 -8.644 -1.991 37
-27.01 -8.706 -2.231 17
-27.044 -8.765 -2.477 49
-26.501 -8.647 -2.615 37
-25.122 -8.266 -2.576 28
-25.519 -8.473 -2.933 35
-24.549 -8.236 -2.984 18
-23.383 -7.931 -2.976 15
-22.345 -7.669 -2.991 16
-21.344 -7.415 -3.004 15
-20.434 -7.186 -3.029 17
-19.603 -6.981 -3.068 14
-16.827 -7.514 1.675 22
-16.376 -7.094 1.621 21
-16.205 -6.817 1.551 23
-16.213 -6.624 1.471 1
-16.203 -6.437 1.395 15
-16.545 -6.394 1.287 19
-16.957 -6.386 1.169 20
-16.765 -6.16 1.117 9
-16.422 -5.893 1.085 26
0.0 -0.0 3.0 0
-18.236 -6.274 0.717 24
0.0 -0.0 3.0 0
-17.872 -5.946 0.597 16
-18.028 -5.919 0.488 22
-17.882 -5.803 0.417 19
-50.996 -16.403 -4.649 9
-46.71 -14.92 -4.277 6
-43.197 -13.741 -4.002 5
-40.305 -12.798 -3.805 4
-37.679 -11.961 -3.63 7
-26.785 -8.523 -1.921 37
-27.003 -8.624 -2.182 35
-26.88 -8.635 -2.396 46
-26.617 -8.61 -2.591 36
-25.131 -8.201 -2.531 19
-25.607 -8.434 -2.906 42
-24.698 -8.223 -2.975 18
-23.498 -7.911 -2.961 15
-22.447 -7.649 -2.976 15
-21.445 -7.4 -2.992 16
-20.533 -7.174 -3.02 16
-19.694 -6.97 -3.059 14
-16.838 -7.47 1.683 17
-16.614 -7.149 1.61 20
-16.506 -6.894 1.535 15
-16.105 -6.531 1.492 23
-16.395 -6.463 1.389 20
-16.507 -6.329 1.304 14
-16.946 -6.329 1.185 21
-17.412 -6.342 1.061 8
-16.59 -5.9 1.083 24
-17.365 -6.042 0.919 30
-18.685 -6.367 0.682 20
0.0 -0.0 3.0 0
-17.986 -5.926 0.606 16
-18.131 -5.893 0.498 22
-17.882 -5.745 0.442 12
-51.505 -16.401 -4.648 7
-47.12 -14.902 -4.268 6
-43.558 -13.72 -3.991 4
-40.613 -12.77 -3.79 4
-37.92 -11.923 -3.609 8
-26.8 -8.448 -1.878 45
-26.879 -8.505 -2.111 22
-26.58 -8.463 -2.288 47
-26.803 -8.596 -2.582 42
-25.197 -8.153 -2.499 18
-25.654 -8.382 -2.869 30
-24.837 -8.206 -2.962 18
-23.631 -7.897 -2.951 15
-22.557 -7.632 -2.963 15
-21.55 -7.386 -2.981 15
-20.633 -7.162 -3.009 15
-19.781 -6.958 -3.048 14
-17.207 -7.585 1.663 25
-16.629 -7.106 1.619 21
-16.568 -6.871 1.539 19
-16.171 -6.509 1.497 20
-16.424 -6.424 1.398 23
-16.685 -6.345 1.3 19
-16.715 -6.19 1.225 15
-17.431 -6.295 1.076 7
-16.649 -5.868 1.093 27
-17.283 -5.959 0.948 29
-18.691 -6.309 0.704 17
-88.268 -29.275 -8.237 9
-17.949 -5.856 0.634 1
-18.238 -5.869 0.509 9
-17.902 -5.694 0.465 9
-52.045 -16.408 -4.651 6
-47.55 -14.887 -4.261 5
-43.897 -13.689 -3.975 7
-40.952 -12.751 -3.78 3
-38.196 -11.893 -3.593 7
-26.916 -8.404 -1.852 48
-26.89 -8.431 -2.066 8
-26.617 -8.399 -2.248 53
-26.881 -8.546 -2.55 67
-25.392 -8.148 -2.496 23
-25.623 -8.305 -2.815 33
-24.983 -8.19 -2.95 18
-23.745 -7.877 -2.935 15
-22.659 -7.612 -2.947 14
-21.654 -7.371 -2.969 15
-20.732 -7.15 -2.999 16
-19.854 -6.94 -3.033 21
-17.076 -7.478 1.681 18
-17.172 -7.289 1.583 26
-16.166 -6.656 1.585 19
-16.195 -6.47 1.506 17
-16.653 -6.463 1.389 4
-16.689 -6.295 1.313 28
-17.304 -6.354 1.178 56
-17.375 -6.219 1.099 16
-16.634 -5.81 1.112 18
-16.354 -5.586 1.077 18
-18.685 -6.247 0.726 9
0.0 -0.0 3.0 0
-17.957 -5.8 0.657 4
-18.291 -5.828 0.526 6
0.0 -0.0 3.0 0
-52.628 -16.423 -4.658 4
-47.972 -14.868 -4.251 4
-44.228 -13.655 -3.958 9
-41.28 -12.726 -3.766 4
-38.456 -11.858 -3.573 7
-26.994 -8.349 -1.82 23
-26.866 -8.346 -2.015 37
-26.706 -8.352 -2.219 46
-26.933 -8.488 -2.512 36
-25.476 -8.106 -2.468 25
-25.945 -8.341 -2.841 36
-25.118 -8.17 -2.936 18
-23.875 -7.86 -2.923 16
-22.783 -7.599 -2.937 15
-21.773 -7.361 -2.961 14
-20.842 -7.141 -2.992 16
-19.974 -6.939 -3.032 14
-17.354 -7.55 1.669 34
-17.142 -7.226 1.595 23
-16.18 -6.614 1.594 16
-16.513 -6.548 1.488 28
-16.307 -6.28 1.434 11
-16.658 -6.233 1.33 28
-17.394 -6.333 1.184 14
-16.853 -5.98 1.172 4
-16.723 -5.788 1.119 21
-16.42 -5.557 1.087 21
-18.912 -6.262 0.721 3
-19.012 -6.183 0.627 5
-18.011 -5.759 0.673 4
-66.558 -20.991 -5.91 4
0.0 -0.0 3.0 0
-53.154 -16.419 -4.656 4
-48.421 -14.854 -4.245 4
-44.601 -13.631 -3.946 4
-41.597 -12.696 -3.75 4
-38.739 -11.829 -3.557 6
-36.3 -11.119 -3.42 10
-26.824 -8.255 -1.96 43
-26.836 -8.316 -2.196 64
-27.041 -8.447 -2.486 34
-25.578 -8.07 -2.443 21
-26.368 -8.409 -2.888 37
-25.26 -8.153 -2.923 19
-24.019 -7.849 -2.915 14
-22.903 -7.585 -2.926 15
-21.874 -7.345 -2.948 15
-20.938 -7.127 -2.98 16
-20.079 -6.932 -3.026 14
-17.134 -7.406 1.694 5
-17.355 -7.266 1.588 21
-16.507 -6.7 1.576 11
-16.304 -6.416 1.519 26
-16.224 -6.199 1.454 18
-16.728 -6.208 1.337 24
-16.551 -5.975 1.287 1
-16.762 -5.895 1.198 26
-16.955 -5.815 1.111 17
-16.422 -5.505 1.105 26
-21.138 -6.932 0.477 28
-19.036 -6.13 0.647 16
-77.73 -24.607 -6.942 7
0.0 -0.0 3.0 0
