# .PCD v0.7 - Point Cloud Data file format
VERSION 0.7
FIELDS x y z intensity
SIZE 4 4 4 4
TYPE F F F F
COUNT 1 1 1 1
WIDTH 1978
HEIGHT 1
VIEWPOINT 0 0 0 1 0 0 0
POINTS 1978
DATA ascii
-12.38 -8.532 1.186 7
-11.036 -7.488 1.271 7
-11.219 -7.501 1.13 12
-11.34 -7.474 0.997 6
-11.214 -7.288 0.91 17
-12.531 -8.037 0.543 2
-11.484 -7.271 0.638 10
-12.59 -7.876 0.288 13
-12.608 -7.796 0.163 10
-12.506 -7.65 0.063 29
-12.798 -7.747 -0.13 6
-32.05 -19.221 -5.159 14
-30.254 -17.979 -5.005 4
-28.495 -16.797 -4.832 6
-26.939 -15.756 -4.685 7
-25.576 -14.858 -4.57 5
-24.342 -14.054 -4.473 5
-23.242 -13.339 -4.394 6
-22.209 -12.684 -4.323 8
-21.295 -12.104 -4.273 7
-20.442 -11.575 -4.233 8
-19.635 -11.076 -4.193 7
-18.877 -10.619 -4.162 24
-16.178 -9.075 -3.354 26
-15.664 -8.769 -3.371 13
-16.07 -8.978 -3.765 21
-15.69 -8.753 -3.839 30
-15.054 -8.389 -3.793 11
-14.529 -8.087 -3.786 12
-14.058 -7.82 -3.798 20
-13.692 -9.688 1.292 4
-11.062 -7.699 1.504 5
-10.986 -7.525 1.4 26
-11.127 -7.503 1.268 7
-11.314 -7.516 1.126 1
-11.323 -7.415 1.013 20
-11.25 -7.264 0.917 7
-12.45 -7.932 0.575 0
-11.554 -7.267 0.639 1
-12.739 -7.916 0.274 25
-12.633 -7.758 0.176 23
-12.485 -7.585 0.088 8
-12.814 -7.704 -0.113 42
-32.267 -19.217 -5.157 14
-30.464 -17.979 -5.005 4
-28.688 -16.794 -4.831 5
-27.101 -15.742 -4.678 7
-25.746 -14.854 -4.569 5
-24.492 -14.045 -4.468 6
-23.387 -13.332 -4.39 6
-22.335 -12.67 -4.315 8
-21.406 -12.086 -4.262 7
-20.547 -11.558 -4.222 7
-19.749 -11.068 -4.187 7
-16.859 -9.422 -3.355 1
-16.297 -9.083 -3.36 15
-15.739 -8.755 -3.361 16
-16.005 -8.886 -3.696 19
-15.712 -8.712 -3.807 21
-15.123 -8.378 -3.784 10
-14.601 -8.079 -3.779 12
-14.116 -7.807 -3.786 21
-10.95 -7.703 1.642 13
-11.061 -7.652 1.513 5
-10.88 -7.407 1.426 30
-11.133 -7.461 1.278 16
-11.922 -7.87 1.038 9
-11.505 -7.486 0.994 10
-11.822 -7.583 0.826 1
-12.115 -7.669 0.655 10
-12.447 -7.776 0.473 28
-13.133 -8.106 0.209 25
-12.645 -7.714 0.192 20
-13.531 -8.166 -0.134 0
-12.843 -7.668 -0.098 25
-32.494 -19.221 -5.159 16
-30.697 -17.993 -5.011 7
-28.884 -16.793 -4.831 5
-27.294 -15.745 -4.679 7
-25.912 -14.847 -4.565 5
-24.643 -14.034 -4.462 5
-23.512 -13.312 -4.379 7
-22.457 -12.653 -4.305 8
-21.526 -12.072 -4.254 7
-19.914 -11.127 -3.953 21
-19.849 -11.05 -4.176 7
-19.083 -10.595 -4.147 12
-16.347 -9.053 -3.339 18
-16.074 -8.885 -3.455 14
-16.412 -9.055 -3.824 32
-15.75 -8.68 -3.782 13
-15.19 -8.364 -3.773 12
-14.67 -8.069 -3.771 12
-14.18 -7.796 -3.777 22
-10.939 -7.649 1.651 27
-11.031 -7.585 1.526 25
-10.876 -7.359 1.436 12
-11.175 -7.442 1.282 13
-13.61 -8.927 0.774 2
-11.811 -7.636 0.954 5
-11.665 -7.434 0.868 0
-11.855 -7.455 0.721 2
-11.882 -7.374 0.604 1
-13.23 -8.111 0.207 21
-12.624 -7.648 0.216 10
-13.525 -8.106 -0.112 1
-12.882 -7.64 -0.087 5
-32.724 -19.224 -5.16 14
-30.907 -17.991 -5.01 5
-29.084 -16.792 -4.83 6
-27.474 -15.74 -4.677 7
-26.066 -14.833 -4.558 5
-24.79 -14.021 -4.455 5
-23.646 -13.297 -4.371 7
-22.587 -12.64 -4.298 8
-21.64 -12.055 -4.243 7
-19.988 -11.093 -3.932 255
-19.952 -11.035 -4.166 7
-19.182 -10.581 -4.137 9
-16.38 -9.012 -3.311 15
-16.107 -8.847 -3.428 5
-16.185 -8.874 -3.687 26
-15.818 -8.664 -3.769 13
-15.26 -8.352 -3.763 11
-14.735 -8.057 -3.761 13
-14.232 -7.779 -3.762 21
-10.977 -7.629 1.655 10
-11.027 -7.536 1.535 13
-11.646 -7.831 1.335 1
-11.704 -7.746 1.212 12
-11.651 -7.594 1.107 1
-11.881 -7.631 0.955 10
-11.812 -7.479 0.855 33
-11.664 -7.286 0.772 10
-11.597 -7.149 0.677 12
-13.347 -8.128 0.201 22
-12.669 -7.623 0.225 20
-35.671 -21.232 -5.15 24
-12.746 -7.507 -0.033 24
-32.945 -19.22 -5.158 14
-31.111 -17.984 -5.007 10
-29.277 -16.787 -4.828 5
-27.657 -15.735 -4.674 7
-26.226 -14.82 -4.551 5
-24.937 -14.008 -4.448 5
-23.788 -13.285 -4.364 7
-22.723 -12.629 -4.292 9
-21.76 -12.04 -4.234 7
-20.041 -11.049 -3.904 45
-20.062 -11.023 -4.158 8
-17.201 -9.427 -3.359 1
-16.393 -8.961 -3.275 16
-16.205 -8.844 -3.426 5
-16.313 -8.889 -3.698 28
-15.886 -8.648 -3.756 13
-15.333 -8.341 -3.754 13
-14.804 -8.047 -3.752 13
-14.293 -7.767 -3.752 19
-31.212 -21.566 -0.803 22
-11.059 -7.511 1.54 22
-11.358 -7.591 1.387 38
-11.76 -7.734 1.214 22
-11.784 -7.631 1.097 16
-11.664 -7.444 1.005 16
-11.625 -7.311 0.903 3
-11.647 -7.227 0.791 18
-11.845 -7.254 0.643 2
-13.461 -8.142 0.196 21
-12.623 -7.544 0.254 10
-35.887 -21.214 -5.143 22
-12.795 -7.483 -0.023 30
-33.166 -19.215 -5.156 13
-31.345 -17.994 -5.011 8
-29.474 -16.783 -4.826 5
-27.837 -15.727 -4.671 7
-26.396 -14.814 -4.548 5
-25.098 -14.001 -4.445 6
-23.923 -13.269 -4.355 7
-22.852 -12.615 -4.283 9
-21.874 -12.021 -4.223 7
-21.012 -11.507 -4.19 7
-20.166 -11.006 -4.148 7
-17.172 -9.35 -3.306 10
-16.502 -8.963 -3.276 20
-17.171 -9.312 -3.765 22
-16.647 -9.014 -3.792 30
-15.967 -8.638 -3.749 13
-15.396 -8.324 -3.741 11
-14.866 -8.032 -3.74 14
-14.354 -7.754 -3.741 18
-11.572 -7.948 1.599 14
-11.126 -7.512 1.54 26
-11.258 -7.478 1.411 24
-11.551 -7.548 1.257 29
-11.664 -7.506 1.129 6
-11.66 -7.393 1.019 8
-11.604 -7.251 0.921 1
-11.67 -7.194 0.801 15
-11.99 -7.292 0.631 4
-11.861 -7.125 0.547 0
-12.648 -7.507 0.268 25
-12.942 -7.598 0.084 22
-12.851 -7.464 -0.016 20
-33.377 -19.203 -5.151 12
-31.55 -17.985 -5.007 4
-29.674 -16.779 -4.824 5
-28.027 -15.725 -4.67 6
-26.57 -14.809 -4.545 5
-25.256 -13.992 -4.44 5
-24.055 -13.25 -4.345 7
-22.982 -12.6 -4.275 9
-22.005 -12.011 -4.217 5
-20.471 -11.136 -3.958 7
-20.283 -10.997 -4.141 7
-17.43 -9.428 -3.359 5
-16.565 -8.939 -3.259 19
-16.133 -8.693 -3.316 15
-16.444 -8.848 -3.667 29
-16.038 -8.624 -3.738 12
-15.47 -8.313 -3.732 12
-14.945 -8.027 -3.735 13
-14.424 -7.747 -3.735 22
-11.545 -7.882 1.61 15
-11.148 -7.481 1.546 22
-11.25 -7.426 1.422 11
-11.527 -7.485 1.272 17
-11.787 -7.536 1.121 8
-11.616 -7.318 1.039 7
-13.764 -8.544 0.55 8
-11.642 -7.129 0.82 12
-11.814 -7.137 0.681 10
-11.904 -7.102 0.555 13
-12.649 -7.457 0.286 8
-12.96 -7.556 0.1 39
-12.882 -7.431 -0.002 14
-33.592 -19.191 -5.146 12
-31.798 -18.0 -5.014 4
-29.912 -16.796 -4.832 11
-28.201 -15.712 -4.663 6
-26.731 -14.794 -4.538 4
-25.411 -13.979 -4.433 6
-24.197 -13.237 -4.337 7
-23.108 -12.583 -4.265 9
-22.119 -11.992 -4.205 7
-21.226 -11.468 -4.166 7
-20.393 -10.983 -4.133 7
-17.495 -9.4 -3.341 15
-16.664 -8.934 -3.256 18
-16.311 -8.733 -3.345 4
-16.636 -8.895 -3.703 34
-16.116 -8.612 -3.728 12
-15.543 -8.302 -3.723 11
-15.01 -8.014 -3.724 12
-14.485 -7.735 -3.724 20
-11.577 -7.857 1.615 6
-11.173 -7.452 1.551 30
-11.156 -7.318 1.445 22
-12.113 -7.816 1.196 9
-11.498 -7.305 1.179 17
-12.411 -7.767 0.919 9
-13.757 -8.484 0.567 19
-13.042 -7.932 0.575 3
-11.905 -7.143 0.679 0
-46.878 -27.78 -6.565 3
-12.402 -7.261 0.357 11
-13.002 -7.528 0.11 1
-12.931 -7.407 0.007 26
-33.803 -19.178 -5.141 11
-32.047 -18.014 -5.02 5
-30.083 -16.773 -4.821 19
-28.392 -15.708 -4.661 7
-26.895 -14.782 -4.532 5
-25.569 -13.97 -4.428 6
-24.336 -13.22 -4.328 7
-23.244 -12.57 -4.257 8
-22.247 -11.978 -4.197 7
-21.342 -11.453 -4.157 8
-20.487 -10.96 -4.117 8
-17.569 -9.379 -3.326 7
-16.753 -8.924 -3.249 16
-16.56 -8.81 -3.401 4
-16.868 -8.963 -3.754 45
-16.191 -8.598 -3.717 12
-15.616 -8.29 -3.713 11
-15.082 -8.005 -3.717 13
-14.546 -7.721 -3.712 20
-11.24 -7.583 1.663 13
-11.499 -7.623 1.518 25
-11.17 -7.282 1.452 24
-13.185 -8.454 1.048 43
-11.631 -7.343 1.169 10
-11.678 -7.261 1.054 6
-12.248 -7.504 0.848 33
-12.394 -7.487 0.711 0
-12.565 -7.489 0.567 20
-47.325 -27.853 -6.591 3
-12.409 -7.214 0.374 8
-36.95 -21.246 -5.155 20
-12.891 -7.333 0.037 24
-34.019 -19.165 -5.135 10
-32.263 -18.008 -5.018 4
-30.312 -16.782 -4.826 15
-28.58 -15.701 -4.658 7
-27.073 -14.775 -4.528 4
-25.724 -13.956 -4.421 6
-24.471 -13.202 -4.318 8
-23.378 -12.555 -4.249 9
-22.361 -11.958 -4.185 7
-20.584 -10.972 -3.856 69
-20.489 -10.888 -4.071 30
-17.63 -9.349 -3.306 10
-16.856 -8.92 -3.246 25
-17.577 -9.291 -3.75 17
-17.001 -8.976 -3.764 31
-16.272 -8.588 -3.709 12
-15.692 -8.28 -3.705 19
-15.147 -7.991 -3.705 13
-14.624 -7.717 -3.708 15
-11.555 -7.749 1.634 22
-11.561 -7.618 1.519 2
-11.295 -7.318 1.445 17
-11.396 -7.261 1.324 14
-11.801 -7.401 1.155 12
-11.589 -7.159 1.082 11
-12.512 -7.613 0.817 22
-13.692 -8.216 0.488 3
-12.531 -7.418 0.59 26
-12.987 -7.591 0.386 2
-12.395 -7.157 0.395 22
-12.421 -7.092 0.278 0
-12.916 -7.295 0.053 18
-34.238 -19.153 -5.13 10
-32.489 -18.006 -5.017 5
-30.527 -16.782 -4.826 15
-28.778 -15.698 -4.657 7
-27.248 -14.766 -4.524 5
-25.883 -13.943 -4.414 6
-24.617 -13.188 -4.31 7
-23.511 -12.54 -4.24 8
-22.489 -11.944 -4.177 7
-20.603 -10.908 -3.816 255
-20.539 -10.841 -4.04 19
-17.728 -9.339 -3.299 13
-16.841 -8.855 -3.2 22
-16.829 -8.838 -3.421 15
-17.09 -8.966 -3.757 37
-16.35 -8.575 -3.7 12
-15.766 -8.268 -3.696 11
-15.219 -7.981 -3.697 14
-14.691 -7.708 -3.7 15
-11.561 -7.706 1.641 9
-11.157 -7.307 1.58 22
-11.534 -7.426 1.422 7
-11.448 -7.248 1.327 28
-11.699 -7.291 1.182 3
-11.614 -7.127 1.09 8
-12.441 -7.52 0.844 11
-12.509 -7.456 0.72 14
-12.524 -7.363 0.608 22
-13.001 -7.547 0.401 0
-12.48 -7.156 0.395 17
-12.558 -7.12 0.267 1
-12.961 -7.269 0.063 23
-34.457 -19.14 -5.124 9
-32.715 -18.004 -5.016 5
-30.743 -16.781 -4.825 13
-28.98 -15.697 -4.656 7
-27.416 -14.752 -4.517 4
-26.045 -13.933 -4.408 6
-24.77 -13.177 -4.304 8
-23.644 -12.524 -4.231 9
-22.61 -11.926 -4.166 7
-20.611 -10.839 -3.773 255
-20.639 -10.821 -4.027 9
-17.836 -9.334 -3.296 16
-17.312 -9.042 -3.331 21
-16.905 -8.821 -3.409 17
-17.146 -8.938 -3.736 42
-16.424 -8.56 -3.688 13
-15.846 -8.26 -3.689 12
-15.281 -7.966 -3.684 14
-14.749 -7.693 -3.687 15
-12.635 -8.372 1.524 22
-11.178 -7.276 1.586 23
-11.713 -7.494 1.407 64
-11.392 -7.167 1.345 9
-11.694 -7.241 1.195 8
-11.592 -7.068 1.106 19
-12.481 -7.495 0.851 3
-12.522 -7.414 0.733 21
-12.626 -7.373 0.604 23
-13.289 -7.661 0.362 7
-12.664 -7.212 0.375 35
-12.9 -7.263 0.212 4
-12.965 -7.22 0.083 21
-34.676 -19.125 -5.118 8
-32.955 -18.007 -5.017 5
-30.969 -16.785 -4.827 14
-29.176 -15.691 -4.653 7
-27.595 -14.744 -4.512 5
-26.2 -13.917 -4.4 6
-24.905 -13.157 -4.293 6
-23.785 -12.511 -4.223 9
-22.745 -11.915 -4.159 7
-20.62 -10.768 -3.729 255
-20.515 -10.683 -3.938 32
-17.951 -9.331 -3.294 19
-17.152 -8.901 -3.232 18
-16.805 -8.713 -3.33 25
-17.209 -8.915 -3.718 48
-16.492 -8.543 -3.674 12
-15.919 -8.247 -3.679 11
-15.357 -7.958 -3.677 20
-14.81 -7.679 -3.675 18
-12.831 -8.45 1.51 20
-11.199 -7.244 1.592 3
-12.694 -8.071 1.284 6
-11.423 -7.141 1.351 22
-11.702 -7.199 1.205 17
-11.57 -7.007 1.122 19
-12.559 -7.491 0.852 8
-12.604 -7.412 0.734 22
-12.657 -7.34 0.615 11
-12.879 -7.374 0.461 22
-12.579 -7.112 0.411 14
-12.797 -7.154 0.254 14
-13.006 -7.193 0.094 7
-34.896 -19.109 -5.111 8
-33.196 -18.009 -5.018 5
-31.171 -16.774 -4.822 15
-29.372 -15.684 -4.65 7
-27.771 -14.732 -4.507 4
-26.38 -13.914 -4.398 6
-25.052 -13.141 -4.284 5
-23.912 -12.49 -4.211 7
-20.746 -10.793 -3.485 35
-20.631 -10.701 -3.687 255
-21.026 -10.876 -4.063 8
-17.975 -9.281 -3.26 18
-17.222 -8.878 -3.216 18
-17.066 -8.791 -3.387 16
-17.308 -8.909 -3.713 37
-16.573 -8.531 -3.665 15
-15.989 -8.233 -3.667 11
-15.426 -7.945 -3.667 20
-14.894 -7.677 -3.674 14
-11.053 -7.236 1.724 10
-11.631 -7.478 1.546 8
-11.239 -7.102 1.49 12
-11.353 -7.052 1.372 20
-11.403 -6.969 1.263 20
-11.523 -6.933 1.142 12
-12.701 -7.526 0.842 24
-12.692 -7.413 0.734 13
-12.814 -7.38 0.602 18
-12.9 -7.334 0.475 21
-12.633 -7.093 0.418 18
-12.724 -7.063 0.289 23
-13.017 -7.147 0.112 7
-35.116 -19.093 -5.104 9
-33.454 -18.02 -5.023 5
-31.405 -16.779 -4.824 15
-29.564 -15.673 -4.644 7
-27.967 -14.731 -4.506 4
-26.549 -13.904 -4.393 6
-25.212 -13.133 -4.28 3
-24.056 -12.477 -4.203 7
-20.757 -10.723 -3.443 25
-20.632 -10.628 -3.641 255
-21.018 -10.798 -4.012 24
-18.056 -9.26 -3.246 17
-17.712 -9.07 -3.351 7
-17.115 -8.759 -3.364 22
-17.374 -8.887 -3.697 35
-16.651 -8.518 -3.655 25
-16.075 -8.227 -3.662 12
-15.501 -7.936 -3.659 16
-14.958 -7.666 -3.664 14
-11.11 -7.23 1.725 9
-11.743 -7.503 1.541 22
-11.28 -7.082 1.495 6
-12.131 -7.487 1.271 24
-11.468 -6.963 1.264 16
-11.579 -6.92 1.146 1
-13.438 -7.908 0.732 6
-12.709 -7.372 0.746 5
-12.786 -7.313 0.624 10
-13.349 -7.537 0.405 16
-12.639 -7.047 0.435 30
-12.807 -7.059 0.29 8
-12.986 -7.079 0.14 8
-35.346 -19.081 -5.099 8
-33.705 -18.025 -5.025 5
-31.622 -16.774 -4.822 16
-29.77 -15.67 -4.643 7
-28.153 -14.722 -4.501 4
-26.702 -13.884 -4.382 6
-25.334 -13.103 -4.263 4
-24.193 -12.46 -4.194 7
-23.123 -11.863 -4.128 7
-20.646 -10.562 -3.6 255
-20.992 -10.712 -3.956 26
-18.093 -9.218 -3.218 22
-17.799 -9.055 -3.34 51
-17.468 -8.882 -3.453 23
-17.461 -8.874 -3.687 36
-16.732 -8.506 -3.646 13
-16.149 -8.214 -3.651 12
-15.573 -7.925 -3.65 18
-15.025 -7.655 -3.654 14
-11.668 -7.547 1.669 0
-12.332 -7.831 1.478 19
-11.273 -7.034 1.505 6
-11.855 -7.27 1.321 31
-11.788 -7.11 1.227 18
-12.67 -7.522 0.984 6
-13.339 -7.798 0.764 10
-13.229 -7.622 0.67 1
-12.861 -7.305 0.626 14
-12.84 -7.199 0.521 28
-12.79 -7.081 0.423 26
-13.099 -7.169 0.248 3
-13.061 -7.07 0.144 0
-35.57 -19.064 -5.092 9
-33.947 -18.024 -5.025 4
-31.842 -16.769 -4.82 16
-29.981 -15.667 -4.641 27
-28.346 -14.717 -4.499 4
-26.882 -13.878 -4.379 6
-25.501 -13.096 -4.259 4
-24.32 -12.438 -4.181 6
-23.241 -11.84 -4.114 7
-20.663 -10.498 -3.56 53
-21.356 -10.823 -4.029 7
-18.218 -9.219 -3.218 15
-17.865 -9.029 -3.322 26
-17.636 -8.909 -3.473 24
-17.547 -8.861 -3.677 37
-16.814 -8.494 -3.636 13
-16.232 -8.205 -3.645 11
-15.658 -7.92 -3.646 15
-15.09 -7.642 -3.643 15
-17.132 -11.015 1.058 19
-12.412 -7.833 1.477 21
-12.27 -7.609 1.383 21
-12.047 -7.34 1.305 39
-11.799 -7.071 1.237 19
-12.747 -7.519 0.985 3
-13.487 -7.831 0.754 3
-65.217 -37.318 -8.409 4
-12.936 -7.297 0.629 17
-12.805 -7.129 0.545 17
-12.858 -7.067 0.428 19
-13.209 -7.178 0.245 28
-37.196 -19.989 -5.076 24
-35.801 -19.05 -5.086 8
-34.206 -18.031 -5.028 5
-32.074 -16.769 -4.82 13
-30.153 -15.644 -4.63 39
-28.533 -14.708 -4.494 4
-27.049 -13.865 -4.372 6
-25.634 -13.07 -4.245 5
-24.465 -12.423 -4.172 5
-23.376 -11.826 -4.106 7
-20.811 -10.5 -3.561 26
-21.48 -10.813 -4.022 7
-18.378 -9.237 -3.231 21
-17.714 -8.893 -3.227 21
-18.314 -9.191 -3.678 21
-17.609 -8.835 -3.658 39
-16.895 -8.481 -3.626 15
-16.312 -8.196 -3.637 12
-15.73 -7.909 -3.637 15
-15.164 -7.634 -3.636 15
-17.791 -11.369 0.995 21
-12.428 -7.795 1.485 50
-12.583 -7.753 1.352 51
-12.18 -7.374 1.298 26
-11.851 -7.056 1.241 25
-13.352 -7.823 0.904 9
-13.377 -7.715 0.788 5
-13.232 -7.52 0.701 0
-12.98 -7.272 0.637 8
-13.319 -7.363 0.465 20
-12.94 -7.063 0.429 13
-13.212 -7.128 0.264 34
-37.558 -20.038 -5.096 22
-36.029 -19.032 -5.079 8
-34.459 -18.033 -5.029 5
-32.284 -16.757 -4.814 8
-30.364 -15.639 -4.628 41
-28.706 -14.69 -4.485 4
-27.222 -13.853 -4.366 6
-25.812 -13.067 -4.243 4
-24.588 -12.398 -4.158 6
-23.515 -11.813 -4.098 7
-21.947 -10.997 -3.872 21
-21.595 -10.795 -4.01 7
-18.373 -9.173 -3.187 35
-17.684 -8.819 -3.175 23
-17.66 -8.805 -3.397 17
-17.685 -8.817 -3.644 28
-16.973 -8.467 -3.615 13
-16.385 -8.181 -3.625 12
-15.799 -7.896 -3.626 21
-15.231 -7.623 -3.627 14
-12.236 -7.772 1.63 0
0.0 -0.0 3.0 0
-12.077 -7.395 1.428 25
-12.12 -7.29 1.317 19
-12.378 -7.321 1.175 17
-13.434 -7.818 0.905 0
-13.655 -7.822 0.757 2
-13.221 -7.462 0.719 1
-13.131 -7.304 0.627 35
-13.384 -7.347 0.47 20
-13.268 -7.19 0.383 22
-13.264 -7.105 0.273 12
-37.848 -20.046 -5.099 23
-36.27 -19.022 -5.074 9
-34.708 -18.031 -5.028 5
-32.54 -16.768 -4.819 4
-30.568 -15.63 -4.623 42
-28.879 -14.672 -4.476 4
-27.389 -13.838 -4.358 6
-25.966 -13.051 -4.234 4
-24.726 -12.378 -4.147 6
-23.633 -11.789 -4.083 3
-22.622 -11.256 -4.033 7
-21.716 -10.782 -4.002 7
-18.427 -9.138 -3.164 36
-17.771 -8.803 -3.164 26
-17.609 -8.723 -3.337 23
-17.775 -8.804 -3.634 33
-17.058 -8.456 -3.606 13
-16.469 -8.173 -3.618 12
-15.878 -7.888 -3.619 16
-15.299 -7.612 -3.617 15
-12.278 -7.752 1.633 10
-12.33 -7.638 1.515 2
-12.105 -7.366 1.434 15
-13.308 -7.954 1.164 12
-12.437 -7.308 1.178 6
-12.682 -7.332 1.035 6
-13.497 -7.679 0.798 2
-66.182 -37.095 -8.341 23
-12.992 -7.176 0.668 10
-13.013 -7.092 0.558 15
-13.156 -7.078 0.424 39
-13.294 -7.07 0.286 12
-38.159 -20.065 -5.107 22
-36.502 -19.004 -5.067 10
-34.962 -18.03 -5.028 5
-32.762 -16.759 -4.815 4
-30.782 -15.625 -4.621 41
-29.07 -14.662 -4.471 4
-27.567 -13.826 -4.352 6
-26.158 -13.053 -4.235 6
-24.864 -12.359 -4.135 5
-22.013 -10.903 -3.551 0
-22.748 -11.24 -4.024 7
-18.5 -9.122 -2.924 12
-18.518 -9.121 -3.152 22
-17.847 -8.782 -3.149 20
-17.668 -8.694 -3.317 23
-17.861 -8.79 -3.624 31
-17.139 -8.443 -3.596 14
-16.542 -8.158 -3.607 12
-15.947 -7.873 -3.606 18
-15.376 -7.605 -3.611 15
-13.294 -8.343 1.529 32
-12.365 -7.613 1.52 0
-12.099 -7.315 1.445 10
-12.553 -7.454 1.279 25
-12.805 -7.475 1.136 11
-16.796 -9.645 0.416 27
-13.445 -7.597 0.822 9
-66.437 -36.981 -8.306 22
-13.209 -7.245 0.646 13
-13.115 -7.098 0.556 27
-12.891 -6.886 0.494 17
-13.328 -7.036 0.299 0
-38.47 -20.082 -5.113 22
-36.741 -18.989 -5.06 9
-35.24 -18.04 -5.032 5
-33.002 -16.757 -4.814 4
-30.994 -15.617 -4.617 39
-29.271 -14.655 -4.467 4
-27.745 -13.815 -4.345 6
-26.295 -13.027 -4.221 6
-25.005 -12.34 -4.124 6
-23.898 -11.753 -4.062 4
-22.868 -11.22 -4.011 7
-18.456 -9.037 -2.869 34
-18.648 -9.122 -3.153 7
-17.975 -8.786 -3.152 22
-17.754 -8.679 -3.306 5
-17.947 -8.776 -3.613 23
-17.224 -8.43 -3.586 13
-16.616 -8.143 -3.594 12
-16.015 -7.86 -3.595 19
-15.44 -7.591 -3.599 15
-13.149 -8.201 1.554 23
-13.653 -8.354 1.376 14
-12.011 -7.216 1.466 6
-12.623 -7.447 1.281 32
-12.941 -7.504 1.129 9
-12.682 -7.233 1.062 2
-13.624 -7.645 0.808 13
-66.727 -36.884 -8.277 23
-13.037 -7.102 0.693 14
-13.598 -7.307 0.484 22
-12.931 -6.858 0.504 29
-41.356 -21.676 -5.321 20
-38.799 -20.106 -5.123 23
-36.984 -18.974 -5.054 10
-35.48 -18.03 -5.028 6
-33.241 -16.755 -4.813 5
-31.216 -15.613 -4.615 36
-29.473 -14.648 -4.464 4
-27.912 -13.797 -4.336 5
-26.453 -13.009 -4.211 6
-25.167 -12.331 -4.119 6
-24.03 -11.734 -4.051 4
-22.999 -11.205 -4.002 8
-18.475 -8.984 -2.834 38
-18.653 -9.062 -3.113 5
-18.213 -8.843 -3.192 6
-18.557 -9.012 -3.548 18
-18.027 -8.758 -3.599 30
-17.315 -8.421 -3.579 13
-16.692 -8.131 -3.584 12
-16.087 -7.847 -3.585 15
-15.511 -7.581 -3.59 15
-13.138 -8.144 1.564 23
-15.367 -9.344 1.184 23
-13.07 -7.802 1.342 41
-12.254 -7.182 1.342 30
-12.939 -7.454 1.142 3
-12.687 -7.187 1.074 8
-13.655 -7.61 0.818 12
-67.044 -36.802 -8.252 18
-12.959 -7.009 0.723 18
-14.088 -7.516 0.412 24
-12.887 -6.785 0.53 21
-41.736 -21.715 -5.336 19
-39.073 -20.1 -5.121 23
-37.227 -18.958 -5.047 10
-35.755 -18.036 -5.03 5
-33.467 -16.744 -4.808 28
-31.435 -15.607 -4.612 37
-29.657 -14.631 -4.455 4
-28.083 -13.779 -4.326 6
-26.618 -12.996 -4.204 7
-25.326 -12.319 -4.113 6
-24.163 -11.715 -4.039 4
-18.491 -8.945 -2.59 3
-18.518 -8.942 -2.807 28
-20.663 -9.97 -3.725 13
-18.252 -8.802 -3.163 20
0.0 -0.0 3.0 0
-18.082 -8.728 -3.577 18
-17.393 -8.406 -3.567 13
-16.776 -8.12 -3.576 12
-16.163 -7.837 -3.576 14
-15.579 -7.569 -3.58 15
-30.848 -19.008 -0.352 20
-13.452 -8.128 1.42 22
-12.58 -7.461 1.414 13
-12.21 -7.11 1.359 22
-12.645 -7.236 1.196 9
-12.75 -7.175 1.078 1
-13.886 -7.686 0.796 21
-13.678 -7.456 0.721 3
-12.727 -6.834 0.779 11
-13.955 -7.392 0.455 11
-13.098 -6.847 0.508 2
-42.06 -21.724 -5.339 20
-39.417 -20.127 -5.132 20
-37.487 -18.95 -5.044 9
-36.024 -18.037 -5.031 6
-33.739 -16.755 -4.813 14
-31.658 -15.601 -4.609 36
-29.856 -14.621 -4.45 4
-28.268 -13.769 -4.321 6
-26.776 -12.977 -4.193 7
-25.472 -12.3 -4.102 6
-24.288 -11.691 -4.025 4
-18.453 -8.864 -2.539 29
-18.595 -8.917 -2.791 7
-20.605 -9.875 -3.66 9
-18.166 -8.701 -3.093 21
-18.839 -9.028 -3.559 28
-18.137 -8.698 -3.554 13
-17.475 -8.392 -3.556 13
-16.852 -8.107 -3.565 12
-16.235 -7.823 -3.565 15
-15.65 -7.559 -3.571 19
-15.581 -9.542 1.317 0
-13.232 -7.947 1.455 21
-12.029 -7.089 1.493 30
-12.554 -7.263 1.323 20
-12.666 -7.2 1.205 12
-13.586 -7.593 0.965 3
-13.386 -7.358 0.89 1
-13.545 -7.331 0.759 3
-12.794 -6.822 0.783 7
-13.563 -7.132 0.544 6
-13.421 -6.964 0.465 0
-42.328 -21.703 -5.331 20
-39.731 -20.138 -5.136 24
-37.769 -18.951 -5.044 8
-36.279 -18.03 -5.027 6
-33.927 -16.723 -4.798 15
-31.884 -15.596 -4.606 35
-30.058 -14.61 -4.444 4
-28.471 -13.765 -4.319 5
-26.948 -12.965 -4.187 6
-25.624 -12.284 -4.092 6
-24.424 -11.672 -4.013 4
-18.464 -8.807 -2.503 37
-19.726 -9.393 -3.1 19
-19.742 -9.395 -3.337 14
-18.211 -8.664 -3.067 20
-19.061 -9.074 -3.593 29
-18.224 -8.682 -3.543 13
-17.566 -8.383 -3.549 13
-16.933 -8.095 -3.555 14
-16.31 -7.812 -3.555 19
-15.717 -7.547 -3.56 16
-16.312 -9.929 1.249 23
-13.221 -7.89 1.466 26
-12.739 -7.461 1.414 11
-12.324 -7.083 1.365 27
-12.809 -7.233 1.197 6
-12.731 -7.067 1.106 1
-14.049 -7.67 0.801 5
-13.16 -7.073 0.837 26
-13.617 -7.209 0.658 11
-13.877 -7.245 0.505 2
-50.866 -26.204 -6.537 3
-42.699 -21.732 -5.342 18
-40.055 -20.153 -5.142 21
-38.052 -18.951 -5.044 7
-36.545 -18.026 -5.026 5
-34.238 -16.75 -4.811 8
-32.118 -15.593 -4.605 34
-30.271 -14.605 -4.441 4
-28.646 -13.747 -4.31 5
-27.11 -12.948 -4.177 6
-25.769 -12.265 -4.081 6
-18.506 -8.78 -2.276 0
-18.51 -8.766 -2.477 33
-19.986 -9.451 -3.137 20
-20.158 -9.528 -3.426 6
-18.284 -8.64 -3.05 18
-19.117 -9.04 -3.568 22
-18.32 -8.672 -3.534 11
-17.651 -8.369 -3.539 13
-16.999 -8.076 -3.54 20
-16.386 -7.801 -3.546 13
-15.788 -7.535 -3.55 15
-15.508 -9.382 1.346 1
-12.627 -7.488 1.544 13
-12.039 -7.005 1.511 16
-12.451 -7.11 1.359 20
-12.63 -7.084 1.234 7
-13.906 -7.667 0.946 29
-14.149 -7.67 0.801 2
-13.325 -7.112 0.826 19
-13.583 -7.14 0.68 6
-57.334 -29.718 -7.233 3
-51.44 -26.305 -6.574 2
-43.056 -21.752 -5.35 16
-40.366 -20.158 -5.144 21
-38.391 -18.976 -5.055 7
-36.826 -18.028 -5.027 6
-34.448 -16.726 -4.799 20
-32.345 -15.586 -4.602 32
-30.477 -14.594 -4.436 4
-28.825 -13.73 -4.301 5
-27.282 -12.933 -4.169 4
-25.925 -12.248 -4.072 6
-18.432 -8.682 -2.216 26
-18.579 -8.736 -2.459 2
-19.877 -9.333 -3.061 18
-20.091 -9.43 -3.361 18
-18.381 -8.627 -3.041 24
-18.79 -8.827 -3.413 5
-18.396 -8.65 -3.518 16
-17.736 -8.355 -3.528 13
-17.093 -8.07 -3.535 15
-16.458 -7.787 -3.534 14
-15.852 -7.521 -3.538 15
-15.056 -9.053 1.404 17
-12.751 -7.515 1.539 28
-12.011 -6.944 1.524 5
-12.376 -7.02 1.379 24
-12.599 -7.019 1.25 7
-12.826 -7.024 1.118 2
-14.316 -7.707 0.79 19
-13.446 -7.125 0.822 22
-13.564 -7.079 0.7 16
-13.66 -7.029 0.58 11
-13.395 -6.799 0.525 23
-43.47 -21.798 -5.368 16
-40.709 -20.177 -5.152 23
-38.717 -18.994 -5.062 7
-37.099 -18.026 -5.026 6
-34.672 -16.708 -4.791 19
-32.558 -15.57 -4.594 16
-30.694 -14.588 -4.433 5
-29.028 -13.724 -4.297 6
-27.455 -12.919 -4.161 4
-26.085 -12.233 -4.063 5
-18.446 -8.625 -2.183 36
-23.762 -11.093 -3.932 4
-19.935 -9.294 -3.035 19
-19.243 -8.969 -3.05 1
-18.582 -8.662 -3.065 17
-18.901 -8.819 -3.408 15
-18.489 -8.637 -3.509 16
-17.831 -8.346 -3.521 13
-17.17 -8.056 -3.523 14
-16.526 -7.772 -3.521 14
-15.926 -7.511 -3.529 16
-15.484 -9.253 1.368 22
-12.658 -7.413 1.559 6
-11.996 -6.891 1.535 17
-12.154 -6.849 1.419 27
-12.627 -6.988 1.258 1
-12.879 -7.004 1.123 11
-14.318 -7.655 0.805 18
-13.99 -7.361 0.749 2
-14.384 -7.452 0.579 20
-13.908 -7.104 0.554 2
-13.445 -6.775 0.534 9
-43.98 -21.89 -5.403 14
-41.034 -20.186 -5.156 22
-39.092 -19.034 -5.079 8
-37.391 -18.03 -5.027 6
-34.899 -16.691 -4.783 13
-32.846 -15.589 -4.603 7
-30.912 -14.581 -4.429 4
-29.243 -13.722 -4.296 5
-27.617 -12.899 -4.15 6
-26.234 -12.213 -4.051 5
-18.491 -8.584 -2.158 28
-23.886 -11.07 -3.917 5
-19.996 -9.257 -3.012 19
-19.226 -8.9 -3.003 5
-18.61 -8.616 -3.033 15
-19.082 -8.844 -3.426 5
-18.6 -8.632 -3.505 13
-17.92 -8.334 -3.511 13
-17.246 -8.041 -3.511 13
-16.598 -7.757 -3.509 14
-15.993 -7.498 -3.518 16
-12.632 -7.503 1.677 1
-13.584 -7.906 1.463 18
-12.624 -7.205 1.469 35
-12.195 -6.827 1.424 14
-12.717 -6.991 1.257 7
-12.656 -6.836 1.168 5
-13.827 -7.341 0.895 89
-13.027 -6.806 0.919 10
-14.447 -7.43 0.586 14
-13.487 -6.839 0.645 7
-13.481 -6.743 0.546 24
-44.459 -21.964 -5.431 14
-41.314 -20.171 -5.149 23
-39.422 -19.049 -5.086 12
-37.683 -18.032 -5.029 5
-35.141 -16.679 -4.777 9
-33.091 -15.586 -4.602 7
-31.101 -14.559 -4.418 4
-29.44 -13.71 -4.29 6
-27.793 -12.884 -4.142 5
-18.422 -8.512 -1.914 38
-18.563 -8.555 -2.14 1
-23.995 -11.041 -3.899 15
-20.117 -9.247 -3.005 20
-19.223 -8.836 -2.96 4
-18.801 -8.644 -3.053 5
-19.131 -8.808 -3.399 6
-18.693 -8.618 -3.494 16
-18.005 -8.32 -3.5 14
-17.316 -8.023 -3.497 14
-16.674 -7.745 -3.499 14
-16.068 -7.488 -3.509 15
-12.643 -7.463 1.684 15
-13.617 -7.874 1.469 18
-12.482 -7.078 1.496 21
-12.169 -6.767 1.438 28
-12.822 -7.0 1.255 24
-12.795 -6.863 1.161 1
-13.678 -7.21 0.932 26
-13.09 -6.79 0.924 10
-14.502 -7.405 0.594 13
-13.516 -6.803 0.657 10
-13.549 -6.726 0.552 17
-44.925 -22.027 -5.455 15
-41.605 -20.159 -5.145 22
-39.743 -19.058 -5.09 15
-37.983 -18.037 -5.031 6
-35.408 -16.677 -4.777 6
-33.32 -15.575 -4.596 6
-31.322 -14.551 -4.414 4
-29.633 -13.696 -4.283 5
-27.981 -12.874 -4.136 4
-18.42 -8.449 -1.878 39
-25.278 -11.563 -3.948 4
-24.049 -10.986 -3.865 31
-19.272 -8.795 -2.711 5
-19.213 -8.769 -2.915 4
-19.048 -8.698 -3.09 7
-19.128 -8.747 -3.355 5
-18.796 -8.609 -3.487 13
-18.096 -8.308 -3.491 13
-17.41 -8.016 -3.491 13
-16.746 -7.731 -3.487 13
-16.138 -7.476 -3.499 16
-17.162 -10.068 1.225 26
-13.632 -7.834 1.477 18
-12.444 -7.01 1.51 26
-12.429 -6.866 1.415 0
-13.38 -7.256 1.191 11
-12.571 -6.697 1.206 4
-13.785 -7.215 0.931 27
-13.126 -6.76 0.933 1
-14.388 -7.294 0.63 10
-13.725 -6.858 0.639 18
-13.571 -6.687 0.566 5
-45.371 -22.078 -5.475 14
-41.971 -20.182 -5.154 19
-40.059 -19.064 -5.092 18
-38.286 -18.043 -5.033 6
-35.725 -16.697 -4.786 15
-33.552 -15.562 -4.59 7
-31.54 -14.54 -4.409 4
-29.824 -13.68 -4.274 5
-18.424 -8.413 -1.663 0
-18.471 -8.409 -1.855 34
-25.425 -11.544 -3.937 4
-24.109 -10.933 -3.832 23
-19.243 -8.719 -2.662 4
-19.205 -8.704 -2.871 4
-18.981 -8.608 -3.027 13
-19.121 -8.685 -3.31 6
-18.924 -8.61 -3.488 15
-18.188 -8.297 -3.482 13
-17.494 -8.003 -3.481 15
-16.825 -7.72 -3.478 14
-16.209 -7.464 -3.488 15
-17.351 -10.116 1.216 20
-13.574 -7.751 1.493 21
-12.481 -6.987 1.515 1
-12.679 -6.959 1.393 5
-13.601 -7.326 1.174 8
-13.619 -7.204 1.07 11
-13.673 -7.107 0.962 14
-13.161 -6.729 0.943 0
-14.277 -7.184 0.666 32
-13.737 -6.813 0.654 15
-13.529 -6.616 0.592 9
-45.941 -22.186 -5.516 12
-42.295 -20.183 -5.154 21
-40.38 -19.069 -5.094 19
-38.576 -18.039 -5.032 6
-35.954 -16.675 -4.776 6
-33.787 -15.552 -4.585 7
-31.773 -14.536 -4.406 4
-30.032 -13.67 -4.268 5
-18.408 -8.342 -1.624 27
-18.53 -8.372 -1.834 14
-24.107 -10.865 -3.529 25
-24.353 -10.964 -3.851 6
-19.229 -8.65 -2.618 4
-19.201 -8.641 -2.829 4
-19.177 -8.636 -3.047 4
-19.113 -8.623 -3.265 8
-19.042 -8.606 -3.485 12
-18.277 -8.283 -3.472 14
-17.57 -7.988 -3.469 14
-16.897 -7.705 -3.465 14
-16.287 -7.455 -3.48 16
-15.417 -8.934 1.425 5
-13.416 -7.613 1.52 0
-12.313 -6.847 1.545 0
-13.597 -7.412 1.289 5
-13.083 -6.999 1.255 7
-12.71 -6.677 1.211 0
-14.284 -7.371 0.886 7
-14.32 -7.268 0.778 23
-14.278 -7.132 0.683 33
-13.759 -6.773 0.668 21
-13.569 -6.586 0.603 31
-17.796 -8.528 -0.274 1
-42.598 -20.171 -5.15 22
-40.691 -19.068 -5.094 21
-38.891 -18.046 -5.035 6
-36.243 -16.679 -4.777 4
-34.023 -15.539 -4.579 7
-18.437 -8.37 -1.265 13
-18.468 -8.342 -1.435 16
-18.402 -8.276 -1.588 40
-27.045 -12.128 -4.002 6
-24.128 -10.794 -3.486 255
-23.646 -10.567 -3.603 7
-19.228 -8.587 -2.577 4
-19.186 -8.573 -2.783 4
-19.159 -8.568 -2.999 4
-19.14 -8.576 -3.231 6
-19.156 -8.601 -3.481 15
-18.365 -8.269 -3.461 14
-17.664 -7.98 -3.462 12
-16.962 -7.687 -3.45 14
-16.361 -7.444 -3.471 16
-15.428 -8.885 1.433 22
-15.73 -8.869 1.276 22
-15.328 -8.469 1.2 20
-12.685 -6.869 1.414 6
-12.939 -6.875 1.286 9
-12.776 -6.665 1.214 19
-13.346 -6.839 1.039 1
-14.176 -7.144 0.816 37
-14.294 -7.088 0.697 20
-13.834 -6.759 0.673 18
-13.594 -6.548 0.617 19
-50.365 -23.954 -6.195 5
-18.029 -8.471 -0.423 16
-18.152 -8.44 -0.582 26
-18.228 -8.393 -0.737 11
-18.286 -8.35 -0.894 21
-18.369 -8.325 -1.06 20
-18.441 -8.307 -1.233 41
-18.479 -8.283 -1.404 39
-18.402 -8.214 -1.553 45
-27.213 -12.111 -3.992 6
-24.102 -10.702 -3.431 1
-23.634 -10.484 -3.551 64
-19.212 -8.518 -2.532 4
-19.178 -8.509 -2.739 8
-19.161 -8.51 -2.959 4
-19.22 -8.554 -3.215 2
-19.253 -8.587 -3.471 15
-18.454 -8.256 -3.45 14
-17.744 -7.965 -3.45 12
-17.044 -7.677 -3.442 14
-16.432 -7.431 -3.46 16
-15.483 -8.862 1.437 15
-15.591 -8.735 1.302 22
-15.903 -8.73 1.144 17
-12.621 -6.789 1.433 33
-12.91 -6.813 1.301 12
-13.191 -6.834 1.169 10
-13.834 -7.038 0.982 11
-14.053 -7.031 0.85 18
-14.402 -7.089 0.697 13
-13.76 -6.672 0.703 24
-13.598 -6.5 0.634 27
-17.91 -8.453 -0.245 12
-18.05 -8.416 -0.4 23
-18.17 -8.383 -0.558 34
-18.25 -8.337 -0.712 35
-18.304 -8.293 -0.867 45
-18.398 -8.273 -1.035 35
-18.492 -8.265 -1.211 28
-18.558 -8.254 -1.389 21
-18.456 -8.174 -1.531 17
-27.37 -12.089 -3.98 6
-23.521 -10.366 -3.229 1
-23.934 -10.539 -3.586 56
-19.214 -8.458 -2.493 4
-19.177 -8.448 -2.698 10
-19.142 -8.442 -2.911 8
-19.359 -8.557 -3.217 3
-19.343 -8.57 -3.458 13
-18.542 -8.241 -3.439 13
-17.825 -7.951 -3.438 13
-17.119 -7.664 -3.431 13
-16.509 -7.422 -3.451 15
-15.483 -8.807 1.447 22
-15.623 -8.697 1.31 25
-15.876 -8.658 1.16 12
-12.647 -6.757 1.44 4
-13.254 -6.946 1.268 12
-13.19 -6.786 1.182 20
-13.123 -6.629 1.099 28
-13.724 -6.816 0.916 16
-14.417 -7.044 0.711 24
-13.842 -6.662 0.706 22
-13.68 -6.49 0.638 28
-17.916 -8.39 -0.221 26
-43.63 -20.185 -5.155 19
-18.212 -8.337 -0.539 1
-18.396 -8.338 -0.712 3
-18.351 -8.249 -0.847 14
-18.595 -8.296 -1.046 5
-18.539 -8.222 -1.189 0
-18.283 -8.069 -1.29 29
-18.518 -8.138 -1.511 7
-27.545 -12.073 -3.971 6
-23.594 -10.32 -3.201 255
-19.676 -8.6 -2.374 0
-19.198 -8.389 -2.448 5
-19.168 -8.384 -2.655 4
-19.137 -8.381 -2.868 4
-19.485 -8.553 -3.214 3
-19.447 -8.558 -3.449 12
-18.648 -8.234 -3.433 14
-17.912 -7.939 -3.429 12
-17.198 -7.651 -3.42 14
-16.58 -7.409 -3.44 16
-15.451 -8.734 1.46 5
-15.675 -8.671 1.315 18
-12.576 -6.813 1.552 4
-12.818 -6.803 1.429 3
-13.187 -6.864 1.289 12
-12.903 -6.591 1.234 6
-12.916 -6.477 1.143 26
-13.766 -6.787 0.925 16
-14.215 -6.893 0.76 12
-13.831 -6.607 0.725 20
-13.676 -6.438 0.657 26
-17.965 -8.348 -0.205 26
-44.028 -20.21 -5.165 19
-41.977 -19.064 -5.092 22
-18.579 -8.354 -0.72 1
-18.616 -8.302 -0.871 6
-18.61 -8.237 -1.017 43
-32.892 -14.472 -4.374 4
-18.279 -8.005 -1.256 35
-29.296 -12.776 -4.082 56
-27.713 -12.054 -3.959 6
-23.637 -10.261 -3.165 255
-19.789 -8.585 -2.364 1
-19.189 -8.324 -2.406 4
-19.162 -8.322 -2.613 4
-19.248 -8.37 -2.861 2
-19.599 -8.545 -3.208 4
-19.54 -8.542 -3.437 13
-18.75 -8.225 -3.426 17
-17.992 -7.924 -3.416 13
-17.277 -7.639 -3.41 14
-16.657 -7.399 -3.432 16
-16.163 -9.08 1.399 2
-15.632 -8.592 1.33 17
-15.847 -8.529 1.187 22
-12.651 -6.67 1.46 8
-13.186 -6.816 1.301 1
-13.688 -6.942 1.14 14
-12.549 -6.248 1.208 27
-13.641 -6.676 0.959 29
-14.201 -6.835 0.779 26
-13.838 -6.559 0.741 20
-13.761 -6.429 0.66 29
-17.961 -8.282 -0.179 32
-44.386 -20.216 -5.168 19
-42.329 -19.072 -5.096 23
-40.494 -18.065 -5.043 7
-18.667 -8.258 -0.851 34
-18.649 -8.189 -0.994 1
-18.276 -7.978 -1.065 11
-18.326 -7.962 -1.234 34
-29.51 -12.769 -4.078 57
-23.649 -10.208 -2.894 9
-23.71 -10.215 -3.138 255
-19.93 -8.582 -2.363 1
-19.19 -8.264 -2.367 4
-19.149 -8.256 -2.569 16
-19.387 -8.372 -2.862 2
-19.711 -8.534 -3.201 7
-19.644 -8.529 -3.427 14
-18.856 -8.218 -3.421 15
-18.075 -7.91 -3.405 13
-17.362 -7.63 -3.402 14
-16.732 -7.386 -3.421 16
-16.108 -8.993 1.414 22
-16.485 -9.003 1.25 16
-13.288 -7.105 1.49 0
-13.967 -7.314 1.312 1
-13.475 -6.917 1.275 13
-12.503 -6.296 1.313 12
-12.586 -6.221 1.216 10
-13.313 -6.468 1.023 22
-14.19 -6.779 0.797 24
-13.863 -6.522 0.754 26
0.0 -0.0 3.0 0
-17.945 -8.21 -0.152 29
-44.796 -20.241 -5.178 20
-42.646 -19.063 -5.092 28
-18.73 -8.289 -0.69 11
-18.684 -8.2 -0.824 20
-35.498 -15.464 -4.542 6
-18.279 -7.916 -1.033 43
-18.393 -7.928 -1.215 6
-29.709 -12.755 -4.07 56
-23.65 -10.129 -2.848 71
-23.814 -10.182 -3.118 7
-20.046 -8.567 -2.354 3
-19.184 -8.2 -2.325 5
-19.15 -8.197 -2.529 4
-19.52 -8.37 -2.86 2
-19.833 -8.528 -3.196 6
-19.745 -8.516 -3.417 13
-18.941 -8.201 -3.407 16
-18.155 -7.895 -3.393 13
-17.445 -7.618 -3.392 15
-16.809 -7.376 -3.412 16
-15.728 -8.726 1.461 20
-15.736 -8.539 1.34 10
-15.783 -8.384 1.218 19
-15.216 -7.913 1.173 12
-13.962 -7.118 1.225 8
-12.529 -6.265 1.321 14
-12.711 -6.238 1.211 13
-13.569 -6.543 1.0 30
-14.208 -6.737 0.811 23
-13.873 -6.476 0.77 22
-14.453 -6.648 0.58 16
-16.58 -7.526 0.111 11
-45.27 -20.294 -5.199 17
-42.944 -19.044 -5.084 26
-18.809 -8.258 -0.677 39
-18.651 -8.121 -0.787 0
-18.263 -7.892 -0.849 28
-18.329 -7.874 -1.012 30
-31.683 -13.55 -4.204 5
-29.902 -12.738 -4.061 54
-23.743 -10.091 -2.826 2
-24.8 -10.522 -3.322 26
-20.184 -8.562 -2.35 2
-19.217 -8.153 -2.295 3
-19.268 -8.188 -2.523 1
-19.659 -8.37 -2.861 1
-19.948 -8.518 -3.189 6
-19.845 -8.501 -3.406 13
-19.037 -8.188 -3.397 15
-18.239 -7.88 -3.381 12
-17.52 -7.603 -3.38 15
-16.883 -7.364 -3.402 15
-15.835 -8.731 1.461 13
-16.282 -8.778 1.294 17
-14.001 -7.388 1.43 5
-13.097 -6.766 1.438 3
-14.079 -7.127 1.223 6
-12.925 -6.416 1.281 48
-12.838 -6.254 1.207 10
-13.635 -6.526 1.005 14
-14.334 -6.744 0.809 23
-14.081 -6.523 0.754 15
-14.464 -6.601 0.597 0
-16.594 -7.473 0.131 15
-20.006 -8.897 -0.595 2
-18.868 -8.3 -0.523 9
-18.92 -8.24 -0.669 10
-18.163 -7.845 -0.658 4
-18.265 -7.83 -0.819 39
-33.844 -14.424 -4.349 16
-31.897 -13.532 -4.195 5
-30.105 -12.724 -4.053 44
-28.447 -11.996 -3.926 6
-24.618 -10.366 -3.228 159
-20.297 -8.545 -2.339 2
-19.317 -8.135 -2.283 2
-19.404 -8.186 -2.521 1
-19.813 -8.375 -2.865 2
-20.074 -8.512 -3.184 6
-19.942 -8.485 -3.394 13
-19.115 -8.167 -3.381 15
-18.337 -7.872 -3.374 13
-17.609 -7.594 -3.372 14
-16.961 -7.353 -3.392 17
-15.715 -8.611 1.482 22
-16.271 -8.715 1.306 21
-16.225 -8.504 1.192 17
-13.811 -7.086 1.364 3
-12.651 -6.36 1.414 6
-12.577 -6.2 1.339 20
-12.885 -6.231 1.213 19
-14.279 -6.784 0.926 3
-14.208 -6.635 0.844 15
-14.249 -6.55 0.745 37
-14.439 -6.538 0.62 2
-16.615 -7.423 0.15 21
-18.764 -8.278 -0.345 8
-18.871 -8.235 -0.495 34
-41.726 -18.026 -5.026 8
-18.158 -7.779 -0.627 36
-18.328 -7.794 -0.801 15
-34.071 -14.405 -4.34 5
-32.121 -13.518 -4.188 4
-30.331 -12.717 -4.049 34
-28.626 -11.978 -3.915 7
-24.565 -10.264 -3.167 152
-20.424 -8.533 -2.332 4
-19.436 -8.125 -2.276 2
-19.544 -8.184 -2.52 2
-19.946 -8.372 -2.862 2
-20.214 -8.512 -3.184 7
-20.043 -8.47 -3.383 13
-19.21 -8.154 -3.37 14
-18.438 -7.864 -3.368 13
-17.698 -7.585 -3.365 14
-17.038 -7.342 -3.383 16
-15.283 -8.322 1.533 20
-16.221 -8.633 1.322 17
-13.273 -6.911 1.531 2
-13.299 -6.777 1.435 10
-13.153 -6.566 1.363 5
-12.581 -6.157 1.35 24
-12.883 -6.185 1.226 12
-13.181 -6.215 1.1 0
-14.25 -6.603 0.854 13
-14.533 -6.629 0.717 18
-14.536 -6.53 0.623 1
-16.618 -7.366 0.172 31
-18.123 -7.931 -0.204 16
-19.029 -8.237 -0.496 29
-18.078 -7.746 -0.449 14
-18.203 -7.734 -0.607 28
-36.53 -15.407 -4.514 34
-34.303 -14.385 -4.329 16
-32.353 -13.507 -4.182 4
-30.545 -12.705 -4.043 18
-28.816 -11.962 -3.906 6
-24.512 -10.161 -3.106 212
-20.548 -8.519 -2.323 3
-19.55 -8.112 -2.268 3
-19.687 -8.185 -2.521 2
-20.086 -8.37 -2.861 2
-20.357 -8.513 -3.185 5
-20.133 -8.45 -3.368 13
-19.306 -8.141 -3.36 16
-18.521 -7.849 -3.356 13
-17.774 -7.57 -3.352 15
-17.109 -7.327 -3.37 15
-15.281 -8.268 1.542 18
-16.22 -8.577 1.333 21
-15.552 -8.044 1.29 11
-12.712 -6.433 1.515 43
-12.891 -6.39 1.407 19
-12.718 -6.18 1.344 21
-12.902 -6.148 1.237 10
-14.001 -6.552 0.997 3
-14.678 -6.749 0.807 0
-14.576 -6.596 0.729 25
-14.586 -6.501 0.634 5
-16.661 -7.326 0.188 23
-18.182 -7.892 -0.189 17
-18.031 -7.741 -0.286 0
-18.072 -7.68 -0.42 35
-18.266 -7.698 -0.59 5
-36.805 -15.396 -4.509 27
-34.512 -14.356 -4.315 5
-32.575 -13.49 -4.173 4
-30.731 -12.681 -4.029 27
-29.014 -11.949 -3.899 7
-24.476 -10.068 -3.05 255
-20.679 -8.508 -2.317 3
-19.647 -8.09 -2.254 3
-19.824 -8.181 -2.518 2
-20.223 -8.367 -2.859 2
-20.523 -8.522 -3.192 4
-20.219 -8.428 -3.351 14
-19.408 -8.129 -3.351 15
-18.612 -7.837 -3.346 13
-17.863 -7.56 -3.344 14
-17.183 -7.315 -3.359 15
-15.514 -8.342 1.529 23
-15.143 -7.956 1.453 12
-15.556 -7.993 1.301 11
-13.221 -6.645 1.466 11
-12.906 -6.352 1.416 9
-13.08 -6.31 1.309 9
-12.906 -6.105 1.249 5
-16.389 -7.612 0.673 9
-16.001 -7.302 0.627 26
-14.598 -6.554 0.743 19
-14.524 -6.423 0.662 9
-16.689 -7.279 0.206 30
-18.854 -8.118 -0.28 27
-17.992 -7.661 -0.252 32
-18.142 -7.648 -0.405 6
-39.773 -16.625 -4.753 18
-37.069 -15.38 -4.501 25
-34.799 -14.356 -4.315 4
-32.796 -13.472 -4.163 5
-30.903 -12.65 -4.012 47
-29.198 -11.93 -3.888 7
-24.428 -9.97 -2.99 219
-20.799 -8.492 -2.306 3
-19.777 -8.083 -2.249 3
-19.964 -8.178 -2.516 2
-20.378 -8.37 -2.861 2
-20.667 -8.521 -3.191 5
-20.323 -8.414 -3.34 13
-19.508 -8.117 -3.341 13
-18.692 -7.82 -3.333 12
-17.952 -7.551 -3.336 15
-17.25 -7.299 -3.345 16
-15.378 -8.217 1.551 17
-15.193 -7.931 1.458 19
-15.589 -7.957 1.309 17
-15.472 -7.723 1.217 5
-13.136 -6.42 1.399 9
-12.891 -6.174 1.346 11
-12.95 -6.081 1.256 3
-16.348 -7.536 0.696 3
-16.129 -7.303 0.627 25
-17.466 -7.781 0.321 8
-14.571 -6.392 0.674 23
-16.734 -7.239 0.221 18
-17.897 -7.643 -0.088 9
-18.029 -7.614 -0.232 32
-18.332 -7.663 -0.412 29
-40.06 -16.607 -4.744 23
-37.363 -15.374 -4.498 25
-35.052 -14.343 -4.308 3
-33.047 -13.464 -4.159 10
-31.075 -12.618 -3.994 59
-29.396 -11.916 -3.879 7
-24.514 -9.927 -2.965 8
-24.337 -9.86 -3.162 27
-19.888 -8.067 -2.239 3
-20.093 -8.17 -2.511 1
-20.529 -8.371 -2.862 2
-20.85 -8.536 -3.202 4
-20.428 -8.4 -3.33 13
-19.603 -8.103 -3.33 14
-18.765 -7.799 -3.316 20
-18.038 -7.539 -3.326 14
-17.324 -7.286 -3.333 15
-15.393 -8.174 1.559 23
-15.137 -7.85 1.474 22
-15.843 -8.032 1.293 16
-13.309 -6.597 1.477 6
-12.911 -6.265 1.438 18
-13.767 -6.545 1.246 20
-13.152 -6.129 1.243 5
-16.278 -7.446 0.724 26
-16.163 -7.262 0.64 6
-14.726 -6.509 0.759 7
-16.406 -7.139 0.402 13
-16.806 -7.211 0.232 23
-17.901 -7.583 -0.064 33
-18.077 -7.571 -0.214 52
-18.358 -7.611 -0.389 29
-40.376 -16.599 -4.74 22
-37.642 -15.361 -4.492 35
-35.317 -14.332 -4.302 4
-33.244 -13.434 -4.143 5
-31.261 -12.591 -3.979 36
-29.59 -11.898 -3.869 7
-24.394 -9.8 -2.889 11
-21.206 -8.525 -2.327 10
-19.996 -8.049 -2.227 3
-20.237 -8.167 -2.509 1
-20.684 -8.373 -2.863 1
-21.051 -8.558 -3.218 4
-20.51 -8.376 -3.311 17
-19.692 -8.085 -3.317 14
-18.862 -7.789 -3.307 15
-18.123 -7.528 -3.317 15
-17.405 -7.275 -3.324 16
-15.464 -8.159 1.561 21
-15.155 -7.809 1.482 29
-16.114 -8.115 1.275 19
-15.694 -7.727 1.216 19
-12.89 -6.211 1.451 13
-13.88 -6.551 1.245 7
-13.199 -6.106 1.249 20
-16.337 -7.416 0.733 28
-16.193 -7.219 0.654 8
-16.696 -7.321 0.479 27
-16.415 -7.085 0.421 20
-16.99 -7.231 0.224 49
-16.501 -6.932 0.199 2
-18.048 -7.497 -0.182 22
-43.768 -17.994 -5.011 13
-40.681 -16.585 -4.734 21
-37.929 -15.349 -4.486 23
-35.597 -14.325 -4.299 6
-33.473 -13.415 -4.133 3
-31.484 -12.577 -3.972 13
-29.774 -11.876 -3.856 7
-24.312 -9.69 -2.823 38
-21.178 -8.448 -2.279 5
-20.118 -8.037 -2.219 3
-20.389 -8.167 -2.509 2
-21.13 -8.492 -2.946 5
-21.243 -8.575 -3.23 3
-20.618 -8.362 -3.301 13
-19.794 -8.072 -3.307 14
-18.939 -7.77 -3.292 13
-18.202 -7.513 -3.304 15
-17.479 -7.262 -3.313 16
-15.595 -8.177 1.558 16
-15.219 -7.79 1.486 13
-16.425 -8.216 1.254 2
-12.856 -6.286 1.549 0
-13.149 -6.291 1.432 9
-13.237 -6.202 1.338 20
-13.203 -6.062 1.262 1
-16.403 -7.389 0.741 10
-16.568 -7.328 0.619 0
-16.698 -7.264 0.499 21
-16.478 -7.055 0.432 28
-16.634 -7.022 0.305 28
-17.871 -7.445 -0.008 16
-18.069 -7.443 -0.159 17
-44.122 -17.988 -5.009 13
-40.991 -16.572 -4.728 18
-38.22 -15.337 -4.48 24
-35.804 -14.29 -4.281 15
-33.71 -13.399 -4.124 4
-24.186 -9.583 -2.312 0
-24.271 -9.603 -2.544 49
-24.248 -9.588 -2.761 31
-21.186 -8.385 -2.24 4
-20.237 -8.022 -2.21 3
-20.533 -8.163 -2.506 2
-21.131 -8.43 -2.903 4
-21.412 -8.582 -3.235 3
-20.722 -8.345 -3.289 15
-19.897 -8.06 -3.298 14
-19.019 -7.752 -3.278 13
-18.284 -7.5 -3.293 15
-17.559 -7.251 -3.303 17
-15.691 -8.176 1.558 22
-15.631 -7.95 1.455 14
-14.212 -7.061 1.499 0
-13.354 -6.484 1.503 10
-13.117 -6.231 1.447 0
-12.855 -5.98 1.398 20
-13.222 -6.024 1.273 7
-16.292 -7.282 0.774 29
-16.631 -7.298 0.629 0
-17.722 -7.647 0.367 21
-16.578 -7.04 0.438 28
-16.639 -6.967 0.326 25
0.0 -0.0 3.0 0
-18.522 -7.566 -0.212 30
-18.395 -7.437 -0.311 1
-41.279 -16.547 -4.716 13
-38.507 -15.323 -4.473 25
-36.07 -14.275 -4.274 4
-33.991 -13.397 -4.124 6
-24.063 -9.455 -2.241 3
-24.203 -9.498 -2.484 45
-24.177 -9.483 -2.698 30
-21.289 -8.36 -2.224 3
-20.374 -8.015 -2.205 3
-20.71 -8.173 -2.513 1
-21.247 -8.415 -2.892 1
-21.579 -8.587 -3.239 4
-20.83 -8.331 -3.278 16
-19.993 -8.044 -3.285 14
-19.106 -7.737 -3.265 13
-18.37 -7.487 -3.283 15
-17.644 -7.242 -3.295 15
-15.72 -8.139 1.565 21
-15.386 -7.773 1.489 16
-15.813 -7.804 1.341 0
-13.559 -6.537 1.491 1
-13.786 -6.502 1.379 2
-12.971 -5.988 1.395 20
-13.229 -5.982 1.285 3
-16.311 -7.235 0.788 27
-16.658 -7.252 0.644 4
-17.641 -7.551 0.4 41
-16.604 -6.994 0.454 30
-16.622 -6.902 0.351 30
-19.015 -7.79 -0.147 23
-18.563 -7.518 -0.191 26
-18.421 -7.384 -0.287 1
-41.585 -16.528 -4.707 10
-38.802 -15.309 -4.467 25
-36.365 -14.271 -4.271 4
-34.213 -13.373 -4.111 7
-24.005 -9.354 -2.185 5
-24.134 -9.394 -2.423 35
-24.116 -9.383 -2.638 32
-21.394 -8.335 -2.208 3
-20.482 -7.995 -2.192 3
-21.125 -8.274 -2.581 5
-21.428 -8.424 -2.899 2
-21.749 -8.593 -3.243 7
-20.945 -8.319 -3.269 14
-20.092 -8.03 -3.274 15
-19.203 -7.726 -3.256 12
-18.452 -7.473 -3.271 15
-17.732 -7.233 -3.288 16
-15.419 -7.932 1.601 3
-15.382 -7.721 1.499 25
-15.656 -7.674 1.369 15
-15.738 -7.535 1.26 3
-16.676 -7.808 1.053 12
-12.865 -5.896 1.42 26
-13.236 -5.941 1.297 0
-16.264 -7.158 0.812 25
-17.613 -7.608 0.528 68
-17.756 -7.539 0.404 20
-16.645 -6.953 0.469 25
-16.264 -6.697 0.429 28
-18.114 -7.359 0.027 27
-18.885 -7.584 -0.219 23
-45.321 -18.011 -5.019 10
-41.924 -16.521 -4.704 7
-39.097 -15.294 -4.459 25
-36.61 -14.244 -4.258 4
-34.451 -13.353 -4.1 6
-24.016 -9.281 -2.144 4
-24.069 -9.291 -2.364 47
-24.054 -9.284 -2.578 49
-21.511 -8.314 -2.195 3
-20.623 -7.987 -2.187 3
-21.129 -8.213 -2.54 3
-21.602 -8.43 -2.903 2
-21.908 -8.594 -3.244 18
-21.056 -8.306 -3.259 14
-20.191 -8.016 -3.262 14
-19.304 -7.716 -3.248 13
-18.531 -7.457 -3.258 15
-17.812 -7.221 -3.277 15
-15.415 -7.88 1.61 23
-15.403 -7.68 1.507 23
-15.717 -7.652 1.374 19
-15.688 -7.459 1.278 22
-16.709 -7.767 1.063 23
-12.876 -5.857 1.431 16
-15.929 -7.094 0.966 28
-16.184 -7.067 0.839 13
-17.648 -7.562 0.543 20
-17.075 -7.191 0.524 17
-16.705 -6.921 0.481 30
-16.25 -6.634 0.453 27
-18.138 -7.306 0.048 30
-18.98 -7.557 -0.208 8
-45.714 -18.012 -5.019 8
-42.334 -16.539 -4.712 4
-39.4 -15.281 -4.453 23
-36.887 -14.23 -4.251 4
-34.689 -13.331 -4.088 6
-24.562 -9.413 -2.217 15
-23.999 -9.189 -2.305 48
-24.12 -9.234 -2.548 54
-21.624 -8.292 -2.181 2
-20.807 -7.996 -2.193 2
-21.27 -8.205 -2.534 1
-21.761 -8.43 -2.903 2
-22.036 -8.582 -3.235 17
-21.171 -8.293 -3.249 14
-20.286 -7.998 -3.249 14
-19.409 -7.707 -3.241 13
-18.613 -7.443 -3.245 15
-17.893 -7.21 -3.268 15
-15.443 -7.844 1.617 21
-15.448 -7.653 1.512 26
-15.709 -7.596 1.385 20
-15.727 -7.425 1.286 28
-16.692 -7.704 1.079 12
-12.871 -5.811 1.443 22
-13.752 -6.078 1.257 1
-16.217 -7.026 0.852 26
-16.795 -7.139 0.68 17
-17.091 -7.139 0.542 36
-16.65 -6.84 0.51 26
-16.29 -6.595 0.468 22
-18.703 -7.469 -0.018 32
-18.26 -7.208 -0.06 12
-46.169 -18.034 -5.029 8
-42.652 -16.52 -4.703 13
-39.707 -15.267 -4.446 26
-37.146 -14.208 -4.239 4
-34.908 -13.302 -4.073 18
-24.617 -9.354 -2.185 21
-23.94 -9.09 -2.248 58
-24.211 -9.193 -2.524 55
-21.73 -8.266 -2.165 2
-21.12 -8.053 -2.23 4
-21.433 -8.205 -2.534 1
-21.947 -8.439 -2.909 1
-22.163 -8.569 -3.226 18
-21.29 -8.28 -3.24 14
-20.393 -7.986 -3.239 14
-19.51 -7.696 -3.232 12
-18.705 -7.433 -3.237 14
-17.978 -7.2 -3.259 16
-15.609 -7.878 1.611 17
-15.591 -7.672 1.509 21
-15.928 -7.65 1.374 47
-16.04 -7.52 1.264 26
-13.531 -6.2 1.454 2
-12.914 -5.788 1.449 36
-15.867 -6.959 1.004 25
-16.188 -6.959 0.872 29
-16.854 -7.106 0.691 20
-17.066 -7.07 0.566 19
-16.702 -6.804 0.523 26
-16.481 -6.616 0.46 17
-18.643 -7.382 0.017 26
-18.269 -7.15 -0.035 16
-46.588 -18.04 -5.032 8
-42.952 -16.492 -4.69 18
-40.007 -15.249 -4.437 25
-37.432 -14.193 -4.232 4
-35.153 -13.28 -4.061 15
-24.705 -9.308 -2.16 16
-23.994 -9.035 -2.216 40
-24.06 -9.061 -2.445 55
-21.854 -8.247 -2.153 2
-21.148 -8.001 -2.196 2
-21.611 -8.21 -2.538 1
-22.139 -8.449 -2.916 1
-22.272 -8.549 -3.212 15
-21.397 -8.264 -3.227 16
-20.488 -7.969 -3.226 15
-19.612 -7.686 -3.224 13
-18.78 -7.415 -3.222 15
-18.051 -7.185 -3.246 16
-15.769 -7.908 1.606 10
-15.611 -7.632 1.517 24
-15.837 -7.554 1.394 15
-15.873 -7.389 1.294 17
-13.553 -6.164 1.463 0
-12.898 -5.737 1.463 11
-15.971 -6.951 1.007 25
-16.257 -6.933 0.88 28
-17.587 -7.355 0.61 14
-17.143 -7.044 0.575 17
-16.705 -6.749 0.544 20
-18.107 -7.207 0.233 30
-18.583 -7.294 0.053 30
-18.264 -7.085 -0.008 13
-47.003 -18.042 -5.033 8
-43.286 -16.475 -4.682 17
-40.322 -15.235 -4.43 27
-37.695 -14.169 -4.219 4
-35.421 -13.267 -4.054 5
-24.848 -9.283 -2.146 8
-24.096 -8.997 -2.194 57
-24.125 -9.011 -2.414 3
-21.975 -8.225 -2.139 2
-21.315 -8.001 -2.196 1
-21.778 -8.21 -2.537 1
-22.328 -8.458 -2.922 1
-22.396 -8.535 -3.201 15
-21.509 -8.249 -3.216 15
-20.587 -7.953 -3.214 15
-19.709 -7.673 -3.213 14
-18.862 -7.4 -3.209 15
-18.136 -7.175 -3.237 16
-15.793 -7.87 1.612 2
-15.635 -7.593 1.524 19
-15.905 -7.535 1.398 22
-15.985 -7.388 1.294 13
-13.342 -6.024 1.498 3
-16.917 -7.469 0.999 38
-16.083 -6.945 1.008 19
-16.271 -6.884 0.895 26
-17.514 -7.266 0.639 25
-17.107 -6.97 0.6 2
-17.232 -6.903 0.488 18
-18.131 -7.155 0.253 28
-18.619 -7.246 0.073 22
-18.273 -7.027 0.017 4
-19.109 -7.27 -0.237 1
-43.657 -16.47 -4.68 20
-40.63 -15.217 -4.422 27
-37.97 -14.147 -4.208 4
-35.685 -13.25 -4.045 4
-24.962 -9.246 -2.125 8
-24.183 -8.953 -2.169 57
-24.289 -8.997 -2.406 0
-22.114 -8.21 -2.13 2
-21.482 -8.0 -2.195 2
-21.957 -8.213 -2.54 2
-22.496 -8.457 -2.922 2
-22.516 -8.518 -3.189 15
-21.602 -8.226 -3.199 16
-20.701 -7.943 -3.205 14
-19.803 -7.659 -3.202 13
-18.948 -7.386 -3.198 15
-18.22 -7.164 -3.227 14
-15.674 -7.761 1.632 13
-15.742 -7.594 1.524 23
-15.691 -7.382 1.431 28
-16.487 -7.566 1.253 14
-16.181 -7.253 1.192 19
-16.21 -7.103 1.097 12
-16.181 -6.933 1.012 23
-16.325 -6.852 0.905 28
-17.662 -7.267 0.639 22
-17.813 -7.198 0.521 19
-17.118 -6.799 0.525 26
-18.486 -7.233 0.224 30
-18.691 -7.21 0.087 31
-18.301 -6.976 0.039 0
-19.119 -7.21 -0.21 33
-44.032 -16.465 -4.678 19
-40.953 -15.202 -4.414 27
-38.263 -14.131 -4.2 4
-35.924 -13.222 -4.03 4
-25.09 -9.214 -2.107 9
-24.273 -8.91 -2.144 7
-24.387 -8.958 -2.382 0
-22.249 -8.193 -2.12 2
-21.649 -7.998 -2.194 1
-22.139 -8.217 -2.542 1
-22.693 -8.467 -2.929 1
-22.636 -8.501 -3.176 15
-21.699 -8.205 -3.183 18
-20.814 -7.931 -3.197 15
-19.908 -7.649 -3.194 13
-19.04 -7.375 -3.189 16
-18.297 -7.15 -3.215 14
-15.684 -7.717 1.639 25
-15.737 -7.542 1.534 23
-15.921 -7.439 1.419 18
-16.667 -7.596 1.246 16
-16.176 -7.198 1.205 25
-16.341 -7.105 1.096 14
-16.257 -6.912 1.018 30
-16.291 -6.783 0.926 15
-17.743 -7.241 0.647 10
-17.884 -7.166 0.533 25
-17.18 -6.766 0.537 30
-18.606 -7.216 0.23 25
-18.752 -7.17 0.103 21
-20.567 -7.771 -0.298 1
-19.155 -7.16 -0.188 12
-18.908 -7.008 -0.268 16
-41.265 -15.181 -4.404 27
-38.535 -14.106 -4.188 4
-36.181 -13.2 -4.019 4
-25.2 -9.174 -2.085 11
-24.375 -8.872 -2.122 3
-24.466 -8.912 -2.355 0
-22.392 -8.178 -2.11 2
-21.82 -7.996 -2.193 1
-22.317 -8.219 -2.544 1
-23.488 -8.697 -3.09 6
-22.756 -8.484 -3.164 16
-21.789 -8.18 -3.164 17
-20.92 -7.917 -3.186 16
-20.009 -7.637 -3.184 14
-19.129 -7.362 -3.178 15
-18.388 -7.141 -3.208 15
-15.711 -7.68 1.646 23
-15.807 -7.525 1.537 14
-16.111 -7.476 1.411 18
-16.616 -7.518 1.264 19
-15.928 -7.034 1.246 15
-16.252 -7.013 1.121 26
-16.34 -6.893 1.024 28
-16.245 -6.71 0.949 27
-17.74 -7.181 0.667 3
-17.926 -7.122 0.548 4
-17.668 -6.898 0.489 20
-18.63 -7.162 0.251 16
-18.746 -7.105 0.13 29
-19.548 -7.32 -0.107 12
-19.25 -7.131 -0.175 1
-18.925 -6.95 -0.241 21
-41.577 -15.16 -4.394 27
-38.843 -14.093 -4.181 4
-36.434 -13.176 -4.006 4
-25.122 -9.066 -2.025 5
-24.454 -8.825 -2.095 8
-24.553 -8.869 -2.329 0
-22.527 -8.16 -2.099 2
-21.98 -7.99 -2.189 1
-22.503 -8.223 -2.546 1
-23.78 -8.739 -3.119 38
-22.873 -8.464 -3.15 20
-21.893 -8.161 -3.15 17
