# .PCD v0.7 - Point Cloud Data file format
VERSION 0.7
FIELDS x y z intensity
SIZE 4 4 4 4
TYPE F F F F
COUNT 1 1 1 1
WIDTH 2211
HEIGHT 1
VIEWPOINT 0 0 0 1 0 0 0
POINTS 2211
DATA ascii
0.0 -0.0 3.0 0
-74.739 -4.549 1.162 14
-76.854 -3.72 1.421 33
-83.583 -3.283 1.538 15
-4.852 -0.172 2.92 21
-4.872 -0.188 2.908 23
-4.785 -0.223 2.887 25
-1.688 -0.097 2.948 2
-4.825 -0.338 2.813 29
-4.854 -0.402 2.768 39
-4.854 -0.466 2.72 13
-4.665 -0.509 2.682 15
-9.234 -1.129 2.267 11
-1.623 -0.219 2.852 22
-1.63 -0.241 2.831 28
-1.652 -0.265 2.808 29
-1.681 -0.29 2.781 27
-6.208 -1.145 2.105 7
-1.485 -0.292 2.764 5
-1.51 -0.313 2.737 28
-1.199 -0.262 2.772 6
0.0 -0.0 3.0 0
0.0 -0.0 3.0 0
0.0 -0.0 3.0 0
0.0 -0.0 3.0 0
0.0 -0.0 3.0 0
0.0 -0.0 3.0 0
0.0 -0.0 3.0 0
0.0 -0.0 3.0 0
0.0 -0.0 3.0 0
-13.97 -1.501 2.483 2
-16.123 -1.478 2.462 3
0.0 -0.0 3.0 0
-75.228 -4.714 1.095 14
-77.271 -3.91 1.34 16
-84.119 -3.527 1.43 14
-4.876 -0.187 2.913 18
-4.855 -0.199 2.903 19
-4.761 -0.232 2.882 33
-1.672 -0.099 2.947 3
-4.928 -0.352 2.805 23
-4.885 -0.411 2.763 43
-4.829 -0.469 2.718 13
-4.681 -0.515 2.678 23
-9.031 -1.111 2.279 11
-1.614 -0.219 2.852 27
-1.626 -0.241 2.831 29
-1.648 -0.265 2.807 29
-1.681 -0.291 2.781 28
-6.091 -1.126 2.12 8
-1.485 -0.292 2.763 7
-1.486 -0.309 2.741 21
-1.168 -0.255 2.778 6
0.0 -0.0 3.0 0
0.0 -0.0 3.0 0
0.0 -0.0 3.0 0
0.0 -0.0 3.0 0
0.0 -0.0 3.0 0
0.0 -0.0 3.0 0
0.0 -0.0 3.0 0
0.0 -0.0 3.0 0
-12.16 -1.519 2.507 0
-13.797 -1.498 2.484 2
-15.918 -1.48 2.461 2
-74.643 -5.828 0.763 29
-15.399 -0.994 2.598 1
-77.289 -4.087 1.265 8
-4.81 -0.214 2.905 0
-4.891 -0.201 2.906 34
-4.81 -0.21 2.898 11
-4.752 -0.242 2.877 32
-1.668 -0.102 2.946 3
-4.939 -0.36 2.8 17
-4.988 -0.425 2.754 37
-4.825 -0.474 2.715 16
-4.68 -0.519 2.676 26
-8.678 -1.074 2.302 9
-1.61 -0.22 2.852 27
-1.621 -0.242 2.831 27
-1.648 -0.266 2.807 28
-1.681 -0.292 2.78 28
-5.996 -1.112 2.131 8
-1.489 -0.294 2.762 9
-1.355 -0.282 2.764 24
-1.156 -0.254 2.78 10
0.0 -0.0 3.0 0
0.0 -0.0 3.0 0
0.0 -0.0 3.0 0
0.0 -0.0 3.0 0
0.0 -0.0 3.0 0
0.0 -0.0 3.0 0
0.0 -0.0 3.0 0
0.0 -0.0 3.0 0
-12.027 -1.515 2.508 2
-13.624 -1.496 2.485 2
-15.713 -1.484 2.46 2
0.0 -0.0 3.0 0
-13.793 -0.918 2.629 0
-15.456 -0.853 2.638 10
-4.79 -0.226 2.899 6
-4.882 -0.215 2.9 36
-4.758 -0.221 2.892 32
-4.756 -0.253 2.871 31
-1.676 -0.106 2.944 4
-1.694 -0.126 2.93 1
-5.071 -0.439 2.747 37
-4.828 -0.479 2.712 25
-4.683 -0.524 2.672 25
-8.673 -1.081 2.298 18
-1.61 -0.221 2.851 24
-1.546 -0.232 2.838 25
-1.639 -0.266 2.807 23
-1.681 -0.293 2.779 27
-5.98 -1.112 2.131 12
-1.493 -0.295 2.761 12
-1.328 -0.277 2.768 22
-1.145 -0.252 2.781 6
0.0 -0.0 3.0 0
0.0 -0.0 3.0 0
0.0 -0.0 3.0 0
0.0 -0.0 3.0 0
0.0 -0.0 3.0 0
0.0 -0.0 3.0 0
0.0 -0.0 3.0 0
0.0 -0.0 3.0 0
-11.894 -1.511 2.509 2
-13.539 -1.504 2.482 2
-15.555 -1.492 2.457 2
0.0 -0.0 3.0 0
-13.735 -0.941 2.62 21
-13.805 -0.795 2.663 0
-4.797 -0.24 2.893 3
-4.877 -0.228 2.894 42
-4.737 -0.232 2.887 33
-4.743 -0.263 2.866 29
-1.672 -0.109 2.942 4
-1.662 -0.126 2.93 3
-5.094 -0.448 2.742 35
-4.823 -0.484 2.709 24
-4.687 -0.529 2.67 23
-8.616 -1.081 2.298 4
-1.519 -0.21 2.859 25
-1.393 -0.21 2.853 35
-1.482 -0.242 2.825 29
-1.672 -0.292 2.78 26
-5.975 -1.114 2.13 9
-1.488 -0.295 2.761 13
-1.32 -0.276 2.769 19
-1.129 -0.248 2.784 10
0.0 -0.0 3.0 0
0.0 -0.0 3.0 0
0.0 -0.0 3.0 0
0.0 -0.0 3.0 0
0.0 -0.0 3.0 0
0.0 -0.0 3.0 0
0.0 -0.0 3.0 0
-10.528 -1.524 2.534 2
-11.765 -1.51 2.509 2
-13.338 -1.5 2.483 4
-15.362 -1.497 2.455 2
-76.473 -6.367 0.556 17
-13.664 -0.965 2.61 24
-13.811 -0.829 2.648 34
-16.233 -0.856 2.619 1
-4.805 -0.239 2.888 33
-4.732 -0.245 2.88 34
-4.802 -0.278 2.858 27
-1.675 -0.112 2.941 6
-1.626 -0.126 2.93 3
-5.093 -0.455 2.737 3
-4.818 -0.489 2.706 25
-4.872 -0.555 2.653 26
-8.563 -1.083 2.297 4
-1.499 -0.208 2.859 25
-1.4 -0.212 2.852 32
-1.408 -0.23 2.833 29
-1.668 -0.292 2.78 24
-5.896 -1.103 2.139 1
-1.48 -0.294 2.762 14
-1.235 -0.259 2.783 15
-1.117 -0.246 2.786 9
0.0 -0.0 3.0 0
0.0 -0.0 3.0 0
0.0 -0.0 3.0 0
0.0 -0.0 3.0 0
0.0 -0.0 3.0 0
0.0 -0.0 3.0 0
0.0 -0.0 3.0 0
-10.423 -1.52 2.535 2
-11.636 -1.508 2.51 2
-13.252 -1.509 2.48 4
-15.164 -1.503 2.453 2
0.0 -0.0 3.0 0
-13.634 -0.993 2.599 45
-13.824 -0.864 2.633 0
-16.206 -0.899 2.6 8
-4.768 -0.251 2.883 43
-4.727 -0.257 2.874 37
-4.821 -0.291 2.852 29
-1.671 -0.115 2.939 9
-1.562 -0.124 2.931 6
-1.555 -0.141 2.919 0
-4.821 -0.496 2.702 25
-4.931 -0.567 2.646 36
-8.135 -1.037 2.327 0
-1.511 -0.211 2.857 23
-1.424 -0.216 2.849 28
-1.396 -0.229 2.834 26
-1.566 -0.275 2.793 21
-5.841 -1.096 2.143 13
-1.472 -0.293 2.763 13
-1.219 -0.256 2.785 14
-1.063 -0.235 2.796 11
0.0 -0.0 3.0 0
0.0 -0.0 3.0 0
0.0 -0.0 3.0 0
0.0 -0.0 3.0 0
0.0 -0.0 3.0 0
-13.179 -2.384 2.361 6
-9.326 -1.528 2.562 0
-10.323 -1.519 2.536 2
-11.579 -1.516 2.507 5
-13.055 -1.507 2.481 5
-14.966 -1.509 2.451 2
-17.118 -1.49 2.428 6
-12.136 -0.91 2.632 5
-12.15 -0.79 2.665 5
-16.207 -0.944 2.58 8
-4.759 -0.264 2.877 43
-4.726 -0.27 2.868 30
-4.828 -0.302 2.846 13
-1.659 -0.118 2.937 8
-1.573 -0.128 2.929 8
-1.559 -0.144 2.917 2
-4.825 -0.503 2.698 23
-4.962 -0.576 2.64 15
-7.963 -1.023 2.336 0
-1.506 -0.212 2.857 16
-1.349 -0.206 2.856 21
-1.36 -0.224 2.837 18
-1.422 -0.251 2.811 33
-1.638 -0.308 2.759 4
-1.468 -0.293 2.762 13
-1.223 -0.257 2.784 14
-1.04 -0.23 2.8 12
0.0 -0.0 3.0 0
0.0 -0.0 3.0 0
0.0 -0.0 3.0 0
0.0 -0.0 3.0 0
0.0 -0.0 3.0 0
-13.184 -2.4 2.357 84
-9.269 -1.529 2.562 2
-10.226 -1.517 2.536 2
-11.469 -1.518 2.507 7
-12.941 -1.513 2.479 4
-14.78 -1.516 2.448 2
-17.019 -1.516 2.418 2
-12.066 -0.932 2.623 19
-12.135 -0.82 2.652 19
-16.0 -0.977 2.565 5
-4.754 -0.277 2.871 41
-4.745 -0.284 2.861 22
-4.851 -0.316 2.839 3
-1.654 -0.121 2.936 6
-1.597 -0.132 2.927 11
-1.551 -0.146 2.916 7
-1.584 -0.167 2.899 3
-4.965 -0.583 2.635 1
-7.772 -1.007 2.346 0
-1.451 -0.205 2.861 11
-1.341 -0.206 2.856 18
-1.277 -0.212 2.846 13
-1.429 -0.253 2.809 34
-1.634 -0.309 2.759 8
-1.453 -0.291 2.764 12
-1.149 -0.243 2.796 11
-1.044 -0.232 2.799 12
0.0 -0.0 3.0 0
0.0 -0.0 3.0 0
0.0 -0.0 3.0 0
0.0 -0.0 3.0 0
-11.834 -2.372 2.409 0
-13.185 -2.414 2.353 86
-9.176 -1.525 2.563 2
-10.133 -1.516 2.536 2
-11.356 -1.52 2.506 10
-12.808 -1.518 2.477 3
-14.606 -1.525 2.445 2
-10.47 -0.953 2.634 0
-12.012 -0.956 2.614 21
-10.53 -0.738 2.687 0
-15.889 -1.014 2.548 9
-4.757 -0.291 2.864 36
-4.76 -0.298 2.855 26
-4.834 -0.326 2.834 0
-1.65 -0.125 2.934 3
-1.593 -0.135 2.925 10
-1.539 -0.147 2.915 7
-1.572 -0.168 2.899 3
-1.6 -0.19 2.881 0
-7.604 -0.994 2.354 0
-1.427 -0.204 2.862 11
-1.305 -0.202 2.858 16
-1.273 -0.212 2.846 12
-1.421 -0.253 2.809 27
-1.626 -0.308 2.759 7
-1.445 -0.29 2.765 11
-1.083 -0.23 2.807 10
-1.047 -0.233 2.797 12
0.0 -0.0 3.0 0
0.0 -0.0 3.0 0
0.0 -0.0 3.0 0
0.0 -0.0 3.0 0
-11.792 -2.376 2.408 68
-8.318 -1.532 2.589 3
-9.103 -1.523 2.563 2
-10.067 -1.52 2.535 3
-11.239 -1.52 2.506 10
-12.658 -1.522 2.476 4
-14.424 -1.532 2.442 2
-10.448 -0.973 2.626 54
-11.977 -0.98 2.604 18
-10.519 -0.765 2.675 29
-15.814 -1.054 2.531 30
-4.768 -0.305 2.858 31
-4.779 -0.313 2.847 6
-9.523 -0.667 2.66 0
-1.642 -0.127 2.933 1
-1.568 -0.136 2.925 14
-1.542 -0.15 2.914 8
-1.548 -0.168 2.899 7
-1.592 -0.191 2.881 3
-7.448 -0.982 2.362 0
-1.375 -0.197 2.867 9
-1.261 -0.196 2.862 16
-1.246 -0.209 2.848 12
-1.3 -0.233 2.825 13
-1.551 -0.295 2.769 3
-1.409 -0.284 2.77 11
-1.083 -0.23 2.807 10
-1.047 -0.234 2.797 12
0.0 -0.0 3.0 0
0.0 -0.0 3.0 0
0.0 -0.0 3.0 0
-10.378 -2.285 2.472 0
-11.778 -2.386 2.405 86
-8.257 -1.531 2.59 3
-9.022 -1.522 2.564 2
-9.998 -1.524 2.534 5
-11.141 -1.525 2.504 7
-12.528 -1.527 2.474 4
-14.254 -1.542 2.439 2
-10.414 -0.992 2.619 103
-10.505 -0.885 2.642 5
-10.513 -0.792 2.664 0
-15.196 -1.055 2.53 40
-4.827 -0.323 2.85 26
-4.762 -0.324 2.842 2
-9.485 -0.689 2.649 10
-9.39 -0.749 2.602 10
-1.568 -0.139 2.923 13
-1.538 -0.152 2.912 12
-1.543 -0.17 2.898 7
-1.576 -0.191 2.88 6
-7.289 -0.97 2.37 0
-1.379 -0.2 2.865 11
-1.265 -0.198 2.861 16
-1.234 -0.207 2.849 15
-1.26 -0.227 2.829 12
-1.504 -0.287 2.775 10
-1.382 -0.279 2.774 9
-1.087 -0.232 2.806 11
-1.055 -0.236 2.795 13
0.0 -0.0 3.0 0
0.0 -0.0 3.0 0
0.0 -0.0 3.0 0
-10.173 -2.251 2.48 55
-7.598 -1.548 2.614 0
-8.192 -1.53 2.59 3
-8.965 -1.524 2.563 2
-9.909 -1.525 2.534 10
-11.028 -1.527 2.504 11
-12.414 -1.536 2.471 4
-14.08 -1.55 2.436 3
-10.376 -1.011 2.612 99
-10.462 -0.907 2.634 14
-15.891 -1.24 2.474 9
-15.153 -1.095 2.512 44
-4.814 -0.335 2.844 6
-12.585 -0.892 2.565 18
-9.438 -0.71 2.638 11
-9.364 -0.768 2.592 15
-1.556 -0.141 2.922 14
-1.538 -0.155 2.91 16
-1.551 -0.173 2.896 10
-1.56 -0.192 2.88 7
-7.149 -0.961 2.376 0
-1.434 -0.21 2.859 10
-1.288 -0.203 2.858 16
-1.245 -0.211 2.847 15
-1.241 -0.224 2.831 12
-1.407 -0.27 2.789 12
-1.351 -0.274 2.778 8
-1.086 -0.232 2.805 11
-1.058 -0.237 2.794 13
0.0 -0.0 3.0 0
0.0 -0.0 3.0 0
-9.413 -2.26 2.52 0
-10.081 -2.242 2.482 59
-7.545 -1.547 2.614 3
-8.139 -1.53 2.59 2
-8.892 -1.524 2.563 2
-9.823 -1.527 2.533 8
-10.95 -1.534 2.501 5
-12.268 -1.54 2.47 2
-13.826 -1.55 2.436 6
-10.349 -1.032 2.604 57
-10.42 -0.928 2.625 20
-15.819 -1.275 2.459 26
-15.001 -1.126 2.499 14
-4.848 -0.352 2.836 1
-9.532 -0.703 2.657 0
-9.416 -0.733 2.627 12
-9.33 -0.787 2.582 101
-1.567 -0.146 2.919 18
-1.553 -0.159 2.908 20
-1.535 -0.174 2.896 11
-1.551 -0.193 2.88 8
-1.576 -0.214 2.861 0
-1.587 -0.234 2.842 8
-1.323 -0.21 2.853 14
-1.245 -0.212 2.846 16
-1.229 -0.223 2.832 15
-1.368 -0.264 2.794 12
-1.316 -0.268 2.783 7
-1.09 -0.234 2.804 11
-1.054 -0.237 2.794 13
0.0 -0.0 3.0 0
0.0 -0.0 3.0 0
-9.406 -2.269 2.518 26
-10.066 -2.25 2.48 58
-7.489 -1.544 2.615 3
-8.086 -1.531 2.59 2
-8.897 -1.538 2.559 8
-9.765 -1.533 2.531 11
-10.812 -1.533 2.502 5
-12.119 -1.543 2.469 3
-13.755 -1.571 2.428 13
-10.339 -1.054 2.596 32
-10.445 -0.956 2.614 17
-15.23 -1.269 2.461 59
-14.021 -1.092 2.514 1
-12.732 -0.961 2.552 27
-9.486 -0.726 2.646 10
-9.394 -0.755 2.615 13
-9.295 -0.806 2.571 255
-1.579 -0.15 2.917 12
-1.549 -0.162 2.907 18
-1.534 -0.176 2.894 18
-1.547 -0.195 2.878 11
-1.563 -0.214 2.861 3
-1.634 -0.243 2.836 10
-1.323 -0.211 2.852 13
-1.248 -0.214 2.845 16
-1.224 -0.224 2.832 15
-1.332 -0.258 2.798 15
-1.28 -0.262 2.788 8
-1.097 -0.236 2.802 11
-1.062 -0.239 2.792 12
0.0 -0.0 3.0 0
0.0 -0.0 3.0 0
-9.38 -2.273 2.517 29
-6.946 -1.561 2.64 3
-7.444 -1.544 2.615 3
-8.021 -1.53 2.59 2
-8.804 -1.535 2.56 17
-9.684 -1.536 2.531 13
-10.73 -1.541 2.499 7
-11.996 -1.551 2.466 8
-8.864 -1.03 2.625 4
-8.825 -0.919 2.647 0
-10.458 -0.984 2.602 16
-8.841 -0.761 2.677 6
-12.77 -1.031 2.541 6
-12.521 -0.981 2.543 11
-9.439 -0.748 2.635 10
-9.379 -0.778 2.604 12
-9.142 -0.814 2.567 255
-1.594 -0.155 2.914 11
-1.529 -0.162 2.906 20
-1.534 -0.179 2.892 21
-1.543 -0.196 2.877 12
-1.523 -0.211 2.863 6
-1.63 -0.244 2.836 13
-1.358 -0.218 2.847 25
-1.26 -0.217 2.842 16
-1.24 -0.227 2.829 14
-1.266 -0.246 2.808 12
-1.234 -0.254 2.795 11
-1.101 -0.238 2.8 11
-1.069 -0.242 2.789 12
0.0 -0.0 3.0 0
-8.952 -2.341 2.545 0
-9.339 -2.274 2.517 31
-6.893 -1.558 2.64 3
-7.391 -1.544 2.615 3
-7.98 -1.533 2.589 3
-8.751 -1.539 2.559 5
-9.579 -1.535 2.531 7
-10.637 -1.546 2.498 6
-11.886 -1.559 2.463 4
-8.791 -1.041 2.621 20
-8.831 -0.94 2.639 17
-8.864 -0.856 2.654 0
-14.871 -1.319 2.44 21
-12.759 -1.066 2.525 49
-9.518 -0.773 2.64 1
-9.417 -0.773 2.623 11
-9.349 -0.8 2.592 20
-8.765 -0.802 2.574 255
-1.586 -0.158 2.913 6
-1.532 -0.166 2.904 18
-1.541 -0.183 2.89 19
-1.534 -0.197 2.877 19
-1.503 -0.21 2.863 7
-1.586 -0.239 2.839 13
-1.385 -0.225 2.843 27
-1.271 -0.22 2.84 16
-1.235 -0.228 2.828 16
-1.238 -0.242 2.811 13
-1.28 -0.264 2.786 10
-1.101 -0.239 2.8 12
-1.069 -0.243 2.789 12
-7.974 -2.239 2.605 0
-8.907 -2.34 2.545 41
-6.43 -1.574 2.666 1
-6.848 -1.557 2.641 3
-7.342 -1.543 2.615 3
-7.962 -1.541 2.587 4
-8.693 -1.543 2.558 17
-9.521 -1.542 2.529 5
-10.523 -1.549 2.497 6
-11.752 -1.565 2.461 8
-8.756 -1.055 2.616 14
-8.784 -0.957 2.633 25
-8.842 -0.876 2.646 26
-14.011 -1.281 2.456 2
-12.719 -1.099 2.511 16
-9.483 -0.798 2.628 10
-9.398 -0.798 2.611 12
-9.314 -0.821 2.581 66
-8.675 -0.815 2.567 255
-1.573 -0.159 2.912 0
-1.54 -0.17 2.902 20
-1.529 -0.183 2.89 20
-1.518 -0.198 2.876 22
-1.499 -0.212 2.862 8
-1.574 -0.24 2.838 18
-1.396 -0.228 2.84 27
-1.302 -0.227 2.835 20
-1.239 -0.23 2.827 16
-1.219 -0.24 2.813 14
-1.283 -0.266 2.785 11
-1.104 -0.24 2.798 12
-1.076 -0.245 2.787 12
-7.987 -2.252 2.603 2
-8.885 -2.344 2.544 74
-6.385 -1.57 2.666 2
-6.807 -1.556 2.641 3
-7.297 -1.544 2.615 3
-7.912 -1.544 2.586 20
-8.604 -1.54 2.558 5
-9.451 -1.546 2.527 8
-10.448 -1.557 2.494 12
-11.642 -1.574 2.458 8
-8.734 -1.072 2.61 14
-8.746 -0.973 2.627 20
-8.835 -0.899 2.637 7
-16.231 -1.529 2.351 0
-12.512 -1.117 2.503 8
-9.445 -0.821 2.617 11
-9.379 -0.822 2.599 14
-9.288 -0.844 2.57 255
-8.669 -0.835 2.556 255
-8.107 -0.841 2.534 1
-1.527 -0.172 2.901 15
-1.529 -0.186 2.888 20
-1.506 -0.199 2.876 21
-1.506 -0.215 2.86 11
-1.557 -0.239 2.839 23
-1.443 -0.238 2.833 23
-1.317 -0.231 2.832 22
-1.25 -0.233 2.824 16
-1.222 -0.241 2.812 16
-1.279 -0.266 2.785 13
-1.104 -0.241 2.798 12
-1.076 -0.246 2.786 12
-7.969 -2.256 2.602 79
-8.886 -2.355 2.542 63
-6.348 -1.57 2.666 2
-6.758 -1.554 2.641 3
-7.251 -1.545 2.615 3
-7.871 -1.548 2.585 3
-8.57 -1.548 2.556 13
-9.357 -1.548 2.527 9
-10.343 -1.561 2.493 6
-7.173 -0.985 2.661 0
-8.707 -1.089 2.604 22
-8.72 -0.991 2.619 18
-8.9 -0.929 2.625 1
-12.61 -1.222 2.481 6
-9.54 -0.878 2.609 1
-9.414 -0.846 2.606 11
-9.357 -0.846 2.587 26
-8.704 -0.814 2.585 44
-8.654 -0.856 2.545 76
-7.906 -0.838 2.535 0
-1.551 -0.177 2.898 11
-1.52 -0.189 2.887 23
-1.501 -0.201 2.874 25
-1.49 -0.215 2.86 14
-1.557 -0.242 2.837 22
-1.517 -0.252 2.824 22
-1.321 -0.234 2.83 23
-1.258 -0.236 2.822 18
-1.226 -0.243 2.81 16
-1.286 -0.269 2.782 13
-1.111 -0.244 2.795 11
-1.075 -0.247 2.785 13
-7.974 -2.267 2.6 79
-5.937 -1.581 2.693 3
-6.311 -1.569 2.667 2
-6.721 -1.555 2.641 3
-7.253 -1.556 2.612 19
-7.805 -1.548 2.585 19
-8.485 -1.547 2.556 8
-9.279 -1.552 2.526 7
-10.233 -1.565 2.492 9
-7.143 -0.996 2.657 1
-8.708 -1.108 2.597 17
-8.697 -1.01 2.612 30
-7.196 -0.77 2.689 10
-12.065 -1.203 2.489 3
-9.481 -0.9 2.599 9
-9.399 -0.871 2.594 12
-9.306 -0.868 2.577 36
-8.674 -0.835 2.575 42
-8.604 -0.872 2.537 20
-7.725 -0.836 2.536 0
-1.57 -0.183 2.894 10
-1.532 -0.193 2.884 29
-1.481 -0.201 2.875 23
-1.494 -0.218 2.858 19
-1.529 -0.239 2.839 21
-1.525 -0.255 2.821 25
-1.324 -0.236 2.829 24
-1.292 -0.244 2.816 24
-1.241 -0.247 2.807 18
-1.297 -0.272 2.779 13
-1.123 -0.247 2.793 12
-1.075 -0.248 2.785 13
-7.972 -2.276 2.599 77
-5.893 -1.577 2.693 2
-6.267 -1.566 2.667 2
-6.676 -1.554 2.641 3
-7.196 -1.554 2.612 3
-7.775 -1.554 2.584 4
-8.462 -1.558 2.553 8
-9.237 -1.561 2.523 12
-10.17 -1.575 2.488 6
-7.18 -1.016 2.65 22
-8.71 -1.129 2.589 14
-8.694 -1.031 2.604 22
-7.202 -0.789 2.681 36
-11.668 -1.196 2.492 3
-9.438 -0.923 2.589 10
-9.372 -0.895 2.582 13
-9.16 -0.88 2.571 8
-8.675 -0.858 2.563 253
-8.136 -0.845 2.551 0
-7.564 -0.837 2.536 0
-1.542 -0.183 2.894 8
-1.527 -0.195 2.883 27
-1.473 -0.202 2.874 23
-1.497 -0.221 2.856 26
-1.513 -0.239 2.839 23
-1.512 -0.255 2.822 26
-1.343 -0.241 2.825 26
-1.308 -0.248 2.813 25
-1.275 -0.256 2.8 28
-1.255 -0.264 2.786 14
-1.122 -0.248 2.792 13
-1.079 -0.249 2.783 12
-5.527 -1.585 2.721 1
-5.86 -1.576 2.694 2
-6.226 -1.565 2.667 2
-6.643 -1.556 2.641 3
-7.15 -1.555 2.612 13
-7.698 -1.551 2.584 13
-8.365 -1.555 2.554 13
-9.139 -1.562 2.523 10
-10.084 -1.583 2.486 9
-7.122 -1.023 2.648 144
-7.186 -0.948 2.655 4
-8.691 -1.052 2.596 24
-7.152 -0.802 2.676 0
-9.53 -1.003 2.574 1
-9.419 -0.948 2.578 11
-9.349 -0.921 2.571 18
-8.688 -0.86 2.581 25
-8.644 -0.879 2.552 15
-7.911 -0.842 2.553 0
-7.418 -0.838 2.536 0
-1.541 -0.187 2.892 11
-1.531 -0.198 2.881 22
-1.468 -0.204 2.873 24
-1.477 -0.22 2.857 23
-1.504 -0.24 2.838 23
-1.524 -0.259 2.819 30
-1.351 -0.244 2.823 28
-1.303 -0.249 2.812 25
-1.279 -0.258 2.799 28
-1.254 -0.265 2.785 16
-1.141 -0.253 2.788 17
-1.082 -0.251 2.782 12
-5.49 -1.581 2.721 3
-5.823 -1.573 2.694 2
-6.189 -1.564 2.667 2
-6.64 -1.565 2.639 3
-7.132 -1.563 2.61 8
-7.68 -1.56 2.582 6
-8.323 -1.562 2.552 5
-9.081 -1.569 2.52 6
-10.001 -1.59 2.484 11
-7.088 -1.034 2.644 172
-7.175 -0.963 2.649 10
-7.205 -0.891 2.658 1
-12.643 -1.453 2.413 9
-9.483 -1.025 2.565 10
-9.4 -0.974 2.566 12
-9.318 -0.944 2.56 37
-8.677 -0.882 2.57 21
-8.601 -0.897 2.543 6
-7.737 -0.842 2.552 0
-7.249 -0.836 2.537 0
-1.541 -0.189 2.891 12
-1.546 -0.203 2.878 20
-1.456 -0.205 2.872 23
-1.472 -0.222 2.856 27
-1.488 -0.239 2.839 25
-1.519 -0.261 2.817 27
-1.374 -0.25 2.818 27
-1.318 -0.254 2.809 25
-1.298 -0.263 2.795 26
-1.265 -0.269 2.782 13
-1.148 -0.257 2.785 16
-1.089 -0.254 2.779 12
-5.469 -1.582 2.721 3
-5.783 -1.571 2.695 2
-6.156 -1.565 2.667 2
-6.584 -1.562 2.639 15
-5.975 -1.319 2.671 0
-7.595 -1.555 2.583 9
-8.253 -1.564 2.552 17
-9.011 -1.575 2.518 12
-9.911 -1.596 2.481 12
-7.058 -1.045 2.64 98
-7.165 -0.979 2.644 15
-7.21 -0.91 2.651 6
-12.19 -1.433 2.421 4
-9.44 -1.046 2.556 11
-9.377 -0.998 2.556 13
-9.231 -0.962 2.551 41
-8.677 -0.907 2.557 74
-8.082 -0.865 2.559 0
-7.552 -0.842 2.553 0
-1.542 -0.182 2.899 0
-1.54 -0.193 2.889 17
-1.541 -0.206 2.876 23
-1.448 -0.206 2.871 24
-1.46 -0.223 2.855 24
-1.488 -0.242 2.837 27
-1.515 -0.262 2.817 27
-1.389 -0.254 2.815 32
-1.341 -0.26 2.804 27
-1.321 -0.269 2.79 29
-1.284 -0.275 2.778 12
-1.159 -0.26 2.782 15
-1.085 -0.254 2.779 12
-5.44 -1.581 2.721 2
-5.754 -1.571 2.695 2
-6.118 -1.565 2.667 3
-6.515 -1.556 2.641 8
-5.942 -1.322 2.67 0
-7.569 -1.564 2.581 9
-8.183 -1.565 2.551 4
-8.921 -1.577 2.518 8
-9.817 -1.602 2.48 8
-7.051 -1.06 2.635 106
-7.099 -0.987 2.641 30
-7.243 -0.933 2.642 10
-9.54 -1.148 2.536 1
-9.416 -1.071 2.546 11
-9.349 -1.022 2.545 18
-8.695 -0.932 2.566 24
-8.619 -0.926 2.548 9
-7.888 -0.865 2.559 0
-7.383 -0.842 2.552 0
-1.538 -0.184 2.898 2
-1.528 -0.195 2.888 22
-1.541 -0.209 2.875 23
-1.443 -0.209 2.87 24
-1.463 -0.226 2.853 25
-1.475 -0.242 2.837 27
-1.573 -0.274 2.808 21
-1.388 -0.257 2.814 34
-1.348 -0.263 2.802 28
-1.328 -0.272 2.787 27
-1.257 -0.27 2.781 13
-1.174 -0.265 2.778 17
-1.085 -0.255 2.779 11
-5.407 -1.58 2.721 2
-5.728 -1.572 2.694 3
-6.132 -1.577 2.665 4
-6.528 -1.569 2.638 3
-5.854 -1.312 2.673 0
-7.496 -1.563 2.581 7
-8.141 -1.573 2.549 14
-8.878 -1.587 2.515 7
-9.762 -1.613 2.476 9
-7.045 -1.076 2.63 51
-7.084 -1.002 2.635 35
-7.213 -0.947 2.636 12
-9.481 -1.166 2.529 9
-9.401 -1.095 2.535 12
-9.318 -1.046 2.534 29
-8.68 -0.955 2.555 16
-8.58 -0.945 2.539 2
-7.715 -0.867 2.558 0
-7.245 -0.845 2.551 0
-1.533 -0.188 2.896 6
-1.531 -0.198 2.885 22
-1.54 -0.212 2.873 36
-1.431 -0.21 2.869 23
-1.459 -0.228 2.852 26
-1.479 -0.245 2.835 26
-1.607 -0.282 2.802 22
-1.388 -0.258 2.812 34
-1.379 -0.27 2.796 24
-1.312 -0.271 2.789 18
-1.233 -0.267 2.784 15
-1.193 -0.27 2.774 16
-1.088 -0.256 2.777 11
-5.378 -1.578 2.722 3
-5.688 -1.569 2.695 2
-6.087 -1.575 2.665 4
-6.495 -1.572 2.637 15
-5.75 -1.299 2.676 0
-5.746 -1.208 2.676 0
-8.056 -1.572 2.549 4
-8.8 -1.591 2.514 15
-9.683 -1.621 2.473 13
-7.03 -1.089 2.625 33
-7.062 -1.017 2.63 15
-7.171 -0.96 2.631 8
-9.438 -1.187 2.521 10
-9.378 -1.119 2.525 12
-9.231 -1.062 2.527 41
-8.665 -0.978 2.544 37
-8.064 -0.911 2.555 0
-7.545 -0.869 2.557 0
-7.092 -0.845 2.55 0
-1.521 -0.19 2.895 8
-1.526 -0.201 2.884 25
-1.536 -0.215 2.871 39
-1.43 -0.212 2.867 20
-1.458 -0.231 2.85 23
-1.474 -0.246 2.834 25
-1.622 -0.288 2.799 22
-1.383 -0.259 2.812 22
-1.406 -0.278 2.791 22
-1.4 -0.291 2.773 12
-1.217 -0.265 2.786 17
-1.223 -0.278 2.767 17
-1.088 -0.258 2.776 11
-5.349 -1.577 2.722 3
-5.662 -1.57 2.695 3
-6.053 -1.576 2.665 22
-6.48 -1.58 2.635 11
-6.912 -1.573 2.608 11
-7.408 -1.571 2.579 4
-8.029 -1.583 2.546 13
-8.722 -1.595 2.512 5
-9.553 -1.621 2.473 5
-7.019 -1.104 2.62 22
-7.055 -1.033 2.624 21
-7.243 -0.989 2.62 7
-9.41 -1.209 2.512 11
-9.35 -1.142 2.515 17
-8.692 -1.025 2.543 19
-8.61 -0.997 2.535 6
-7.879 -0.913 2.555 0
-7.376 -0.87 2.557 0
-6.95 -0.846 2.55 0
-1.52 -0.194 2.893 12
-1.534 -0.205 2.881 40
-1.539 -0.219 2.869 41
-1.363 -0.205 2.872 21
-1.383 -0.221 2.857 23
-1.47 -0.248 2.832 21
-1.626 -0.291 2.796 17
-1.383 -0.261 2.81 21
-1.405 -0.279 2.79 22
-1.45 -0.302 2.764 20
-1.213 -0.265 2.785 16
-1.196 -0.273 2.771 21
-1.091 -0.26 2.774 11
-5.313 -1.575 2.722 4
-5.66 -1.579 2.693 4
-6.039 -1.581 2.664 7
-6.419 -1.575 2.636 4
-6.859 -1.573 2.608 4
-7.362 -1.575 2.578 20
-7.943 -1.581 2.547 5
-8.687 -1.607 2.509 13
-5.585 -0.96 2.688 0
-7.013 -1.12 2.614 34
-7.036 -1.048 2.619 21
-7.185 -1.0 2.616 6
-9.394 -1.233 2.502 11
-9.319 -1.165 2.506 40
-8.684 -1.05 2.533 13
-8.519 -1.011 2.528 1
-7.705 -0.915 2.554 0
-7.222 -0.871 2.556 0
-6.817 -0.848 2.549 0
-1.527 -0.198 2.89 19
-1.529 -0.208 2.88 41
-1.527 -0.22 2.868 39
-1.366 -0.208 2.87 20
-1.379 -0.223 2.855 23
-1.363 -0.233 2.843 26
-1.602 -0.289 2.798 13
-1.378 -0.262 2.81 22
-1.401 -0.28 2.789 20
-1.403 -0.295 2.77 15
-1.201 -0.264 2.786 17
-1.188 -0.273 2.771 20
-1.102 -0.264 2.771 11
-5.28 -1.573 2.723 3
-5.619 -1.577 2.694 12
-5.994 -1.58 2.664 3
-6.382 -1.577 2.636 16
-6.817 -1.576 2.607 19
-7.316 -1.579 2.577 4
-7.917 -1.592 2.543 13
-8.601 -1.61 2.508 7
-5.54 -0.965 2.687 0
-7.022 -1.139 2.608 20
-7.025 -1.064 2.613 42
-9.44 -1.339 2.486 9
-9.375 -1.256 2.492 11
-9.271 -1.185 2.497 6
-8.673 -1.073 2.522 23
-8.048 -0.979 2.544 0
-7.531 -0.916 2.553 0
-7.076 -0.873 2.555 0
-6.695 -0.851 2.548 0
-1.511 -0.2 2.889 24
-1.529 -0.212 2.878 42
-1.514 -0.221 2.867 36
-1.369 -0.212 2.868 20
-1.382 -0.225 2.854 23
-1.359 -0.234 2.842 26
-1.386 -0.253 2.823 19
-1.382 -0.265 2.807 20
-1.4 -0.282 2.788 16
-1.383 -0.292 2.772 11
-1.193 -0.264 2.787 18
-1.21 -0.279 2.766 13
-1.128 -0.271 2.765 12
-5.274 -1.579 2.722 3
-5.605 -1.582 2.693 21
-5.953 -1.579 2.664 12
-6.364 -1.584 2.634 10
-6.803 -1.585 2.605 7
-7.266 -1.582 2.576 9
-7.835 -1.592 2.543 5
-5.513 -1.043 2.681 0
-5.549 -0.979 2.682 5
-5.545 -0.912 2.686 0
-7.034 -1.083 2.606 48
-5.562 -0.804 2.691 0
-9.347 -1.278 2.484 16
-8.685 -1.135 2.518 14
-8.614 -1.091 2.514 6
-7.858 -0.978 2.544 0
-7.354 -0.915 2.554 0
-6.947 -0.877 2.553 0
-6.562 -0.851 2.548 0
-1.51 -0.204 2.887 25
-1.528 -0.215 2.876 41
-1.525 -0.227 2.864 35
-1.349 -0.211 2.868 18
-1.362 -0.225 2.854 19
-1.382 -0.241 2.837 25
-1.354 -0.249 2.826 18
-1.373 -0.265 2.807 13
-1.403 -0.285 2.785 12
-1.336 -0.284 2.778 10
-1.188 -0.264 2.786 13
-1.279 -0.297 2.751 12
-1.174 -0.283 2.754 13
-5.264 -1.584 2.721 6
-5.587 -1.585 2.692 6
-5.939 -1.585 2.663 13
-6.31 -1.582 2.635 4
-6.737 -1.583 2.605 4
-7.243 -1.592 2.573 10
-7.808 -1.602 2.541 15
-5.538 -1.06 2.676 2
-5.523 -0.987 2.679 36
-5.558 -0.928 2.681 1
-7.039 -1.102 2.599 128
-5.54 -0.815 2.687 1
-9.327 -1.302 2.474 16
-8.681 -1.16 2.508 10
-8.4 -1.088 2.515 1
-7.692 -0.98 2.543 0
-7.22 -0.919 2.552 0
-6.805 -0.877 2.553 0
-1.523 -0.202 2.893 0
-1.506 -0.207 2.886 26
-1.523 -0.218 2.874 41
-1.529 -0.23 2.862 35
-1.329 -0.211 2.868 15
-1.322 -0.221 2.856 16
-1.338 -0.236 2.841 22
-1.284 -0.238 2.833 11
-1.369 -0.267 2.806 12
-1.395 -0.285 2.785 10
-1.208 -0.259 2.798 10
-1.169 -0.261 2.788 9
-1.305 -0.304 2.745 12
-1.158 -0.281 2.756 13
-5.227 -1.581 2.721 6
-5.546 -1.583 2.692 5
-5.894 -1.584 2.663 4
-6.277 -1.585 2.634 14
-6.711 -1.589 2.604 19
-7.173 -1.591 2.574 6
-7.73 -1.603 2.54 4
-5.489 -1.063 2.675 28
-5.482 -0.993 2.677 14
-5.559 -0.941 2.676 8
-7.044 -1.122 2.592 156
-5.541 -0.83 2.682 25
-9.303 -1.325 2.465 26
-8.665 -1.182 2.498 15
-8.036 -1.065 2.526 0
-7.527 -0.981 2.543 0
-7.066 -0.92 2.551 0
-6.664 -0.878 2.553 0
-1.514 -0.204 2.891 0
-1.513 -0.212 2.883 33
-1.523 -0.222 2.872 41
-1.528 -0.233 2.86 32
-1.328 -0.213 2.867 17
-1.314 -0.222 2.856 14
-1.31 -0.233 2.843 19
-1.267 -0.237 2.834 11
-1.341 -0.263 2.809 8
-1.379 -0.284 2.786 5
-1.188 -0.256 2.8 13
-1.172 -0.263 2.787 16
-1.32 -0.309 2.741 12
-1.157 -0.281 2.755 12
-5.205 -1.583 2.721 6
-5.509 -1.582 2.693 10
-5.86 -1.585 2.663 6
-6.262 -1.593 2.632 11
-6.673 -1.593 2.603 5
-7.135 -1.597 2.572 22
-7.699 -1.613 2.538 18
-5.47 -1.072 2.672 17
-5.452 -1.0 2.675 13
-5.514 -0.948 2.674 9
-7.056 -1.141 2.585 54
-5.543 -0.845 2.676 4
-8.694 -1.262 2.49 7
-8.618 -1.2 2.491 5
-7.842 -1.062 2.527 0
-7.349 -0.979 2.544 0
-6.921 -0.921 2.551 0
-6.546 -0.881 2.551 0
-1.522 -0.209 2.889 1
-1.516 -0.216 2.881 43
-1.526 -0.226 2.87 41
-1.519 -0.235 2.859 30
-1.273 -0.207 2.871 12
-1.246 -0.213 2.862 12
-1.29 -0.231 2.844 16
-1.24 -0.234 2.836 10
-1.201 -0.238 2.827 2
-1.243 -0.258 2.806 0
-1.199 -0.26 2.797 12
-1.175 -0.266 2.785 22
-1.376 -0.324 2.728 11
-1.21 -0.296 2.742 14
-5.18 -1.584 2.721 12
-5.491 -1.586 2.692 18
-5.819 -1.584 2.663 23
-6.205 -1.59 2.633 4
-6.619 -1.593 2.603 6
-7.085 -1.6 2.571 3
-7.633 -1.616 2.537 3
-5.444 -1.079 2.67 17
-5.429 -1.009 2.672 23
-5.456 -0.951 2.672 14
-5.583 -0.917 2.666 0
-5.536 -0.859 2.67 0
-8.631 -1.277 2.484 7
-8.254 -1.173 2.502 0
-7.677 -1.062 2.527 0
-7.203 -0.981 2.543 0
-6.791 -0.923 2.55 0
-6.234 -0.856 2.564 0
-1.521 -0.214 2.886 2
-1.511 -0.219 2.879 44
-1.521 -0.229 2.868 38
-1.53 -0.241 2.855 27
-1.249 -0.206 2.871 10
-1.234 -0.213 2.862 11
-1.211 -0.22 2.852 13
-1.2 -0.229 2.84 9
-1.188 -0.237 2.828 4
-1.184 -0.247 2.814 4
-1.203 -0.263 2.795 11
-1.167 -0.265 2.785 19
-1.513 -0.358 2.699 5
-1.297 -0.319 2.723 16
-5.162 -1.587 2.72 21
-5.477 -1.592 2.691 6
-5.812 -1.593 2.661 7
-6.167 -1.592 2.633 12
-6.589 -1.599 2.601 24
-7.039 -1.604 2.57 12
-7.587 -1.622 2.535 14
-5.426 -1.088 2.667 16
-5.407 -1.018 2.669 20
-5.446 -0.963 2.668 17
-5.557 -0.928 2.662 4
-9.296 -1.469 2.436 27
-8.406 -1.267 2.488 2
-8.029 -1.165 2.506 0
-7.499 -1.059 2.528 0
-7.054 -0.981 2.543 0
-6.653 -0.923 2.55 0
-6.152 -0.862 2.561 1
-1.516 -0.217 2.885 3
-1.507 -0.223 2.877 45
-1.528 -0.234 2.865 37
-1.534 -0.244 2.853 26
-1.248 -0.209 2.87 7
-1.233 -0.215 2.86 11
-1.207 -0.221 2.851 13
-1.188 -0.228 2.84 14
-1.192 -0.24 2.826 7
-1.18 -0.249 2.813 10
-1.191 -0.261 2.796 12
-1.174 -0.268 2.783 11
-1.417 -0.337 2.717 4
-1.338 -0.33 2.713 6
-5.144 -1.591 2.719 7
-5.432 -1.588 2.691 5
-5.779 -1.594 2.661 4
-6.149 -1.599 2.631 15
-6.551 -1.603 2.6 4
-7.02 -1.615 2.567 10
-7.544 -1.63 2.533 3
-5.404 -1.096 2.665 28
-5.401 -1.03 2.665 17
-5.459 -0.98 2.663 16
-5.59 -0.948 2.655 6
-8.688 -1.397 2.464 11
-8.023 -1.232 2.502 4
-7.839 -1.16 2.508 0
-7.341 -1.058 2.529 0
-6.912 -0.981 2.543 0
-6.523 -0.924 2.549 0
-5.916 -0.845 2.569 8
-1.512 -0.22 2.883 5
-1.506 -0.226 2.875 43
-1.52 -0.236 2.864 38
-1.533 -0.248 2.851 20
-1.251 -0.212 2.868 7
-1.241 -0.219 2.858 10
-1.21 -0.224 2.849 12
-1.187 -0.23 2.839 15
-1.187 -0.241 2.825 8
-1.183 -0.25 2.811 3
-1.198 -0.265 2.793 12
-1.212 -0.279 2.774 10
-1.306 -0.313 2.738 12
-1.322 -0.329 2.714 13
-5.096 -1.584 2.721 7
-5.399 -1.588 2.691 11
-5.733 -1.592 2.662 9
-6.103 -1.599 2.631 4
-6.509 -1.605 2.6 7
-6.954 -1.615 2.567 4
-7.474 -1.631 2.532 14
-5.405 -1.109 2.661 23
-5.382 -1.039 2.662 18
-5.507 -1.002 2.655 14
-5.575 -0.961 2.65 10
-8.688 -1.421 2.455 14
-7.829 -1.225 2.505 5
-7.662 -1.156 2.509 0
-7.187 -1.057 2.529 0
-6.782 -0.982 2.542 0
-6.323 -0.913 2.555 0
-5.902 -0.86 2.562 19
-1.511 -0.224 2.881 5
-1.509 -0.231 2.872 43
-1.523 -0.241 2.861 34
-1.54 -0.253 2.848 17
-1.255 -0.215 2.866 6
-1.24 -0.222 2.856 11
-1.213 -0.227 2.847 12
-1.194 -0.234 2.836 16
-1.191 -0.243 2.823 9
-1.167 -0.249 2.812 0
-1.209 -0.269 2.789 9
-1.211 -0.281 2.773 12
-1.29 -0.31 2.74 10
-1.333 -0.333 2.711 14
-5.078 -1.588 2.72 7
-5.381 -1.593 2.69 20
-5.719 -1.599 2.66 18
-6.065 -1.602 2.63 8
-6.478 -1.611 2.598 24
-6.915 -1.621 2.566 20
-7.224 -1.593 2.543 6
-5.394 -1.119 2.658 20
-5.372 -1.051 2.659 34
-5.516 -1.018 2.65 16
-5.529 -0.967 2.648 10
-8.644 -1.437 2.448 11
-7.644 -1.218 2.508 6
-7.488 -1.151 2.511 0
-7.058 -1.059 2.529 0
-6.648 -0.982 2.542 0
-6.158 -0.908 2.557 1
-5.907 -0.877 2.553 24
-1.498 -0.227 2.879 7
-1.508 -0.234 2.87 42
-1.522 -0.244 2.859 31
-1.539 -0.256 2.846 14
-1.262 -0.219 2.863 6
-1.247 -0.226 2.853 9
-1.217 -0.23 2.845 13
-1.202 -0.238 2.834 16
-1.186 -0.245 2.822 11
-1.174 -0.253 2.81 5
-1.17 -0.262 2.795 16
-1.207 -0.281 2.772 15
-1.282 -0.31 2.74 10
-1.329 -0.333 2.71 16
-5.06 -1.591 2.719 16
-5.37 -1.6 2.689 6
-5.677 -1.598 2.66 5
-6.039 -1.607 2.629 21
-6.432 -1.614 2.598 4
-6.877 -1.626 2.564 4
-7.349 -1.638 2.53 7
-5.392 -1.131 2.654 19
-5.357 -1.062 2.655 61
-5.454 -1.021 2.648 26
-5.538 -0.984 2.642 2
-8.521 -1.441 2.447 5
-7.475 -1.212 2.51 6
-7.327 -1.147 2.513 0
-6.896 -1.055 2.53 0
-6.515 -0.982 2.542 0
-5.918 -0.889 2.566 10
-5.903 -0.893 2.545 97
-1.505 -0.232 2.877 10
-1.504 -0.237 2.869 40
-1.521 -0.248 2.857 28
-1.535 -0.259 2.845 10
-1.273 -0.224 2.86 5
-1.243 -0.228 2.852 8
-1.22 -0.233 2.843 12
-1.201 -0.24 2.832 15
-1.189 -0.247 2.821 16
-1.17 -0.253 2.809 2
-1.169 -0.264 2.794 24
-1.214 -0.285 2.769 16
-1.285 -0.313 2.738 17
-1.294 -0.326 2.716 14
-5.05 -1.597 2.718 15
-5.322 -1.595 2.69 5
-5.648 -1.601 2.66 4
-6.005 -1.609 2.628 4
-6.386 -1.615 2.597 8
-6.823 -1.629 2.564 10
-7.357 -1.657 2.525 12
-5.389 -1.144 2.65 18
-5.358 -1.075 2.651 75
-5.424 -1.029 2.646 34
-5.582 -1.007 2.634 2
-8.198 -1.409 2.459 1
-7.329 -1.21 2.511 4
-7.185 -1.146 2.513 0
-6.778 -1.056 2.53 0
-6.31 -0.97 2.548 0
-5.907 -0.905 2.559 13
-5.889 -0.908 2.538 7
-1.501 -0.235 2.875 12
-1.507 -0.242 2.866 37
-1.521 -0.251 2.855 25
-1.538 -0.263 2.842 7
-1.268 -0.226 2.859 3
-1.246 -0.231 2.85 8
-1.227 -0.237 2.84 13
-1.2 -0.242 2.831 15
-1.185 -0.249 2.819 18
-1.169 -0.255 2.808 2
-1.184 -0.269 2.79 16
-1.225 -0.289 2.766 17
-1.276 -0.313 2.738 18
-1.297 -0.329 2.714 15
-5.032 -1.601 2.718 7
-5.303 -1.599 2.689 7
-5.614 -1.603 2.659 13
-5.955 -1.608 2.629 7
-6.364 -1.624 2.595 23
-6.803 -1.64 2.561 17
-7.287 -1.657 2.525 4
-5.386 -1.156 2.646 16
-5.355 -1.088 2.647 165
-5.421 -1.043 2.641 28
-5.556 -1.017 2.63 4
-8.013 -1.4 2.463 1
-7.211 -1.211 2.511 1
-7.031 -1.143 2.515 0
-6.644 -1.055 2.53 0
-6.153 -0.963 2.551 1
-5.9 -0.921 2.551 17
-5.87 -0.921 2.531 4
-1.496 -0.239 2.873 13
-1.502 -0.245 2.864 36
-1.524 -0.255 2.853 17
-1.549 -0.269 2.838 6
-1.272 -0.229 2.857 1
-1.249 -0.234 2.848 8
-1.223 -0.238 2.839 12
-1.211 -0.246 2.828 18
-1.188 -0.251 2.818 19
-1.165 -0.256 2.807 9
-1.233 -0.282 2.78 9
-1.22 -0.29 2.765 16
-1.272 -0.313 2.737 20
-1.296 -0.33 2.713 16
-4.987 -1.595 2.719 8
-5.274 -1.6 2.689 24
-5.607 -1.612 2.657 11
-5.929 -1.614 2.627 30
-6.318 -1.626 2.595 4
-6.749 -1.642 2.56 4
-7.252 -1.667 2.522 14
-5.387 -1.17 2.642 17
-5.352 -1.101 2.642 159
-5.418 -1.056 2.636 14
-8.523 -1.584 2.424 3
-7.824 -1.389 2.467 1
-7.116 -1.216 2.509 0
-6.89 -1.14 2.516 0
-6.503 -1.051 2.532 0
-5.909 -0.943 2.56 12
-5.904 -0.939 2.542 52
-5.717 -0.914 2.535 1
-1.495 -0.243 2.871 12
-1.501 -0.249 2.862 31
-1.523 -0.259 2.85 15
-1.556 -0.274 2.835 3
0.0 -0.0 3.0 0
-1.252 -0.237 2.846 6
-1.226 -0.242 2.837 10
-1.215 -0.249 2.826 16
-1.191 -0.254 2.816 21
-1.168 -0.259 2.805 4
-1.252 -0.288 2.775 10
-1.22 -0.292 2.764 17
-1.271 -0.315 2.736 32
-1.269 -0.325 2.718 21
-4.969 -1.599 2.718 8
-5.267 -1.608 2.687 9
-5.558 -1.609 2.658 4
-5.906 -1.62 2.626 6
-6.275 -1.628 2.594 8
-6.703 -1.645 2.559 13
-7.193 -1.671 2.521 3
-5.392 -1.184 2.638 17
-5.353 -1.115 2.638 87
-5.411 -1.07 2.632 16
-8.204 -1.547 2.437 1
-7.647 -1.378 2.471 1
-7.053 -1.225 2.505 0
-6.756 -1.137 2.517 0
-6.326 -1.042 2.536 0
-5.902 -0.959 2.553 13
-5.881 -0.952 2.536 4
-5.548 -0.902 2.54 0
-1.494 -0.246 2.869 12
-1.497 -0.252 2.86 25
-1.526 -0.264 2.848 13
-1.559 -0.278 2.833 0
0.0 -0.0 3.0 0
-1.256 -0.24 2.844 3
-1.225 -0.244 2.836 9
-1.214 -0.251 2.824 16
-1.194 -0.257 2.813 18
-7.739 -1.73 1.697 0
-1.259 -0.292 2.772 10
-1.215 -0.292 2.763 19
-1.271 -0.317 2.734 33
-1.261 -0.324 2.718 24
-4.948 -1.602 2.718 19
-5.222 -1.605 2.688 5
-5.528 -1.612 2.657 4
-5.865 -1.62 2.626 5
-6.26 -1.638 2.592 21
-6.684 -1.656 2.556 9
-7.154 -1.678 2.519 14
-5.42 -1.204 2.632 15
-5.362 -1.13 2.633 52
-5.408 -1.084 2.627 13
-8.016 -1.534 2.442 1
-7.485 -1.37 2.474 1
-6.943 -1.226 2.505 1
-6.634 -1.137 2.518 0
-6.161 -1.033 2.54 1
-5.906 -0.977 2.544 17
-5.858 -0.965 2.529 3
-5.47 -0.905 2.539 0
-1.493 -0.25 2.867 9
-1.5 -0.256 2.858 24
-1.525 -0.267 2.846 9
-4.587 -0.829 2.502 0
0.0 -0.0 3.0 0
-1.267 -0.245 2.841 2
-1.228 -0.247 2.833 8
-1.256 -0.262 2.816 21
-1.19 -0.258 2.812 13
0.0 -0.0 3.0 0
-1.266 -0.296 2.769 11
-1.192 -0.289 2.766 17
-1.27 -0.318 2.733 33
-1.26 -0.326 2.717 27
-4.941 -1.609 2.716 13
-5.196 -1.608 2.688 6
-5.494 -1.613 2.657 17
-5.83 -1.624 2.625 12
-6.21 -1.639 2.591 4
-3.946 -0.987 2.735 3
-7.127 -1.689 2.516 5
-5.444 -1.223 2.626 13
-5.351 -1.142 2.629 41
-5.409 -1.098 2.622 25
-3.949 -0.766 2.721 0
-7.32 -1.361 2.477 1
-6.849 -1.229 2.504 2
-6.497 -1.132 2.519 0
-5.906 -1.008 2.551 12
-5.899 -0.992 2.537 32
-5.737 -0.962 2.531 1
-5.353 -0.901 2.541 0
-1.489 -0.253 2.865 7
-1.503 -0.261 2.855 23
-1.528 -0.272 2.843 7
-4.51 -0.826 2.503 0
0.0 -0.0 3.0 0
0.0 -0.0 3.0 0
-1.232 -0.25 2.831 5
-1.263 -0.266 2.814 19
-1.193 -0.261 2.81 12
-10.916 -2.478 1.133 0
-1.261 -0.297 2.768 13
-1.157 -0.282 2.772 18
-1.265 -0.319 2.732 34
-1.259 -0.328 2.715 29
-4.904 -1.607 2.717 6
-5.17 -1.61 2.687 17
-5.494 -1.625 2.655 9
-5.823 -1.635 2.623 14
-3.942 -1.049 2.738 1
-3.924 -0.991 2.735 1
-5.558 -1.331 2.618 0
-5.444 -1.237 2.622 9
-5.363 -1.158 2.624 23
-5.409 -1.113 2.617 38
-3.915 -0.771 2.719 0
-7.167 -1.353 2.48 1
-6.735 -1.228 2.504 3
-6.344 -1.124 2.523 0
-5.902 -1.024 2.544 9
-5.872 -1.006 2.531 4
-5.533 -0.944 2.539 0
-5.272 -0.902 2.54 0
-1.488 -0.258 2.863 6
-1.498 -0.264 2.854 13
-1.539 -0.278 2.84 5
-4.492 -0.834 2.499 0
0.0 -0.0 3.0 0
0.0 -0.0 3.0 0
-1.239 -0.255 2.828 3
-1.262 -0.268 2.812 15
-1.189 -0.262 2.81 10
0.0 -0.0 3.0 0
-1.268 -0.301 2.765 14
-1.144 -0.281 2.773 17
-1.253 -0.318 2.733 33
-1.259 -0.329 2.714 29
-4.867 -1.603 2.717 7
-5.159 -1.617 2.686 14
-5.445 -1.621 2.655 4
-5.774 -1.633 2.623 4
-3.855 -1.035 2.742 3
-3.879 -0.989 2.735 10
-5.547 -1.342 2.615 6
-5.457 -1.254 2.617 7
-5.372 -1.174 2.618 17
-3.914 -0.816 2.719 4
-7.489 -1.496 2.456 1
-7.025 -1.347 2.483 1
-6.629 -1.229 2.504 1
-6.155 -1.108 2.53 0
-5.911 -1.043 2.536 15
-5.849 -1.019 2.525 3
-5.428 -0.941 2.541 0
0.0 -0.0 3.0 0
-1.483 -0.26 2.862 2
-1.501 -0.269 2.851 8
-1.554 -0.284 2.836 1
-4.431 -0.833 2.499 0
0.0 -0.0 3.0 0
0.0 -0.0 3.0 0
-1.246 -0.258 2.826 2
-1.269 -0.273 2.809 11
-1.192 -0.265 2.807 8
-5.3 -1.222 2.079 0
-1.267 -0.303 2.764 15
-1.144 -0.282 2.772 12
-1.252 -0.32 2.732 31
-1.262 -0.332 2.712 30
-4.852 -1.609 2.716 8
-5.129 -1.618 2.685 5
-5.415 -1.624 2.655 5
-5.735 -1.635 2.623 6
-3.887 -1.052 2.738 5
-3.877 -0.998 2.733 8
-3.989 -0.975 2.721 1
-5.461 -1.268 2.612 6
-5.4 -1.195 2.612 16
-3.912 -0.826 2.715 7
-3.906 -0.791 2.712 1
-6.88 -1.338 2.486 1
-6.535 -1.23 2.503 0
-5.904 -1.081 2.541 10
-5.903 -1.059 2.528 20
-5.68 -1.006 2.531 1
-5.33 -0.94 2.541 0
-5.085 -0.899 2.542 0
-1.49 -0.266 2.858 0
-1.504 -0.273 2.849 8
0.0 -0.0 3.0 0
0.0 -0.0 3.0 0
0.0 -0.0 3.0 0
0.0 -0.0 3.0 0
0.0 -0.0 3.0 0
-1.322 -0.287 2.799 11
-1.195 -0.268 2.805 6
-5.262 -1.223 2.079 1
-1.266 -0.305 2.762 15
-1.154 -0.287 2.768 9
-1.237 -0.318 2.734 30
-1.261 -0.333 2.71 32
-4.834 -1.613 2.716 18
-5.096 -1.619 2.685 5
-5.381 -1.626 2.654 19
-5.705 -1.64 2.621 22
-3.847 -1.05 2.738 12
-3.859 -1.002 2.732 18
-3.913 -0.966 2.723 1
-3.885 -0.913 2.721 1
-3.932 -0.88 2.714 2
-3.913 -0.837 2.712 10
-3.892 -0.799 2.709 0
-6.759 -1.335 2.488 1
-6.35 -1.213 2.51 0
-5.905 -1.099 2.534 8
-5.864 -1.069 2.524 3
-5.524 -0.995 2.536 0
-5.245 -0.94 2.541 0
-5.011 -0.901 2.541 0
-1.461 -0.265 2.859 0
-1.507 -0.278 2.846 7
0.0 -0.0 3.0 0
0.0 -0.0 3.0 0
0.0 -0.0 3.0 0
0.0 -0.0 3.0 0
-7.414 -1.57 1.941 0
-1.36 -0.297 2.792 10
-1.202 -0.272 2.802 6
-5.239 -1.227 2.075 2
-1.269 -0.308 2.76 13
-1.161 -0.29 2.765 8
-1.224 -0.316 2.735 29
-1.252 -0.333 2.71 34
-4.824 -1.619 2.715 14
-5.07 -1.621 2.685 8
-5.385 -1.639 2.652 9
-5.694 -1.649 2.619 7
-3.833 -1.055 2.737 17
-3.833 -1.005 2.731 16
-3.953 -0.986 2.717 3
-3.886 -0.923 2.718 2
-3.918 -0.888 2.712 10
-3.899 -0.845 2.709 15
-7.018 -1.461 2.468 1
-6.594 -1.32 2.493 1
-6.115 -1.187 2.52 0
-5.909 -1.117 2.526 15
-5.833 -1.081 2.519 2
-5.411 -0.991 2.538 0
-5.151 -0.939 2.542 0
-4.918 -0.898 2.543 0
0.0 -0.0 3.0 0
-1.518 -0.284 2.843 0
0.0 -0.0 3.0 0
0.0 -0.0 3.0 0
0.0 -0.0 3.0 0
0.0 -0.0 3.0 0
-7.355 -1.573 1.939 0
-1.502 -0.332 2.768 7
-1.205 -0.275 2.8 3
-5.228 -1.234 2.07 2
-1.276 -0.311 2.757 12
-1.187 -0.299 2.758 7
-1.22 -0.317 2.734 26
-1.252 -0.335 2.709 35
-4.798 -1.621 2.714 7
-5.047 -1.625 2.684 20
-5.328 -1.634 2.653 5
-5.648 -1.649 2.619 5
-3.819 -1.061 2.735 17
-3.816 -1.009 2.73 22
-3.896 -0.981 2.719 7
-3.876 -0.93 2.716 7
-3.908 -0.896 2.709 17
-3.9 -0.856 2.705 13
-6.885 -1.452 2.471 1
-6.312 -1.283 2.508 1
-5.904 -1.163 2.53 8
-5.897 -1.132 2.519 11
-5.645 -1.064 2.526 0
-5.333 -0.992 2.537 0
-5.097 -0.944 2.54 0
-4.86 -0.902 2.541 0
-4.708 -0.881 2.532 0
0.0 -0.0 3.0 0
0.0 -0.0 3.0 0
0.0 -0.0 3.0 0
0.0 -0.0 3.0 0
0.0 -0.0 3.0 0
0.0 -0.0 3.0 0
-1.54 -0.344 2.759 7
-6.84 -1.576 1.855 2
-5.156 -1.227 2.075 1
-1.279 -0.314 2.755 10
-1.274 -0.323 2.739 10
-1.204 -0.314 2.736 21
-1.243 -0.335 2.709 34
-4.772 -1.622 2.714 8
-5.048 -1.636 2.682 8
-5.306 -1.639 2.652 5
-5.606 -1.65 2.619 10
-3.801 -1.065 2.734 16
-3.801 -1.015 2.728 18
-3.944 -1.003 2.712 10
-3.862 -0.937 2.714 10
-3.905 -0.906 2.706 24
-3.898 -0.866 2.702 7
-6.759 -1.446 2.474 1
-6.136 -1.265 2.514 0
-5.912 -1.182 2.522 6
-5.854 -1.141 2.516 2
-5.497 -1.052 2.532 0
-5.224 -0.987 2.54 0
-5.019 -0.944 2.539 0
-4.818 -0.908 2.538 0
0.0 -0.0 3.0 0
0.0 -0.0 3.0 0
0.0 -0.0 3.0 0
0.0 -0.0 3.0 0
0.0 -0.0 3.0 0
0.0 -0.0 3.0 0
0.0 -0.0 3.0 0
-1.539 -0.347 2.757 7
-6.843 -1.59 1.845 2
-5.126 -1.229 2.074 1
-1.275 -0.315 2.754 10
-1.307 -0.334 2.73 11
-1.165 -0.306 2.743 18
-1.227 -0.332 2.711 32
-4.75 -1.624 2.714 7
-4.999 -1.631 2.683 6
-5.283 -1.643 2.651 14
-5.56 -1.649 2.619 21
-3.787 -1.07 2.733 17
-3.78 -1.018 2.727 21
-3.918 -1.007 2.711 13
-3.847 -0.944 2.711 14
-3.903 -0.917 2.702 26
-3.899 -0.877 2.698 1
-6.622 -1.435 2.478 1
-5.96 -1.246 2.522 1
-5.9 -1.197 2.516 17
-5.803 -1.148 2.513 1
-5.411 -1.052 2.532 0
-5.154 -0.99 2.539 0
-4.953 -0.946 2.539 0
-4.752 -0.909 2.537 0
-53.177 -10.242 -2.446 2
0.0 -0.0 3.0 0
0.0 -0.0 3.0 0
0.0 -0.0 3.0 0
0.0 -0.0 3.0 0
0.0 -0.0 3.0 0
0.0 -0.0 3.0 0
-1.534 -0.349 2.756 3
-6.835 -1.601 1.837 3
-3.273 -0.791 2.404 0
-1.274 -0.318 2.752 8
-1.341 -0.344 2.721 11
-1.123 -0.297 2.751 11
-1.219 -0.332 2.712 29
-4.72 -1.624 2.714 14
-4.981 -1.637 2.682 6
-5.268 -1.65 2.649 10
-3.859 -1.153 2.734 1
-3.765 -1.073 2.732 17
-3.773 -1.027 2.725 21
-3.858 -1.001 2.713 16
-3.849 -0.955 2.708 14
-3.9 -0.927 2.699 20
-6.895 -1.571 2.459 1
-6.501 -1.427 2.48 1
-5.91 -1.252 2.519 12
-5.892 -1.213 2.51 8
-5.588 -1.123 2.523 0
-5.302 -1.046 2.534 0
-5.076 -0.99 2.539 0
0.0 -0.0 3.0 0
-4.702 -0.913 2.535 0
-4.534 -0.886 2.529 0
0.0 -0.0 3.0 0
0.0 -0.0 3.0 0
0.0 -0.0 3.0 0
0.0 -0.0 3.0 0
0.0 -0.0 3.0 0
0.0 -0.0 3.0 0
-1.541 -0.353 2.753 1
0.0 -0.0 3.0 0
-3.187 -0.777 2.415 0
-1.281 -0.321 2.749 6
-1.382 -0.357 2.711 11
-1.111 -0.295 2.752 11
-1.215 -0.332 2.711 28
-4.721 -1.634 2.712 16
-4.954 -1.639 2.682 13
-5.227 -1.649 2.649 4
-3.852 -1.16 2.732 4
-3.755 -1.079 2.731 32
-3.763 -1.033 2.723 24
-3.828 -1.004 2.712 18
-3.842 -0.963 2.705 16
-3.905 -0.939 2.695 12
-6.758 -1.559 2.463 1
-6.364 -1.416 2.485 1
-5.808 -1.249 2.521 1
-5.861 -1.224 2.506 2
-5.495 -1.12 2.525 0
-5.216 -1.045 2.535 0
0.0 -0.0 3.0 0
-4.798 -0.945 2.539 0
-4.616 -0.909 2.537 0
0.0 -0.0 3.0 0
0.0 -0.0 3.0 0
0.0 -0.0 3.0 0
0.0 -0.0 3.0 0
0.0 -0.0 3.0 0
0.0 -0.0 3.0 0
0.0 -0.0 3.0 0
-6.794 -1.573 1.899 0
-3.4 -0.81 2.411 0
-3.147 -0.773 2.418 0
-1.28 -0.323 2.747 3
-1.43 -0.372 2.699 12
-1.118 -0.299 2.749 12
-1.195 -0.329 2.714 22
-4.695 -1.636 2.712 7
-4.936 -1.643 2.681 16
-5.208 -1.656 2.648 4
-3.853 -1.17 2.73 7
-3.748 -1.086 2.729 20
-3.753 -1.04 2.721 22
-3.818 -1.011 2.71 25
-3.843 -0.974 2.702 16
-3.926 -0.954 2.69 3
-6.633 -1.549 2.467 1
-6.208 -1.399 2.491 1
-5.703 -1.242 2.523 1
-5.806 -1.23 2.503 1
-5.397 -1.117 2.526 0
-5.146 -1.047 2.534 0
-4.909 -0.986 2.54 0
0.0 -0.0 3.0 0
-4.547 -0.909 2.537 0
-52.227 -10.502 -2.584 2
0.0 -0.0 3.0 0
0.0 -0.0 3.0 0
0.0 -0.0 3.0 0
0.0 -0.0 3.0 0
0.0 -0.0 3.0 0
-122.475 -27.816 -15.762 17
0.0 -0.0 3.0 0
-3.267 -0.785 2.429 0
-3.076 -0.761 2.427 7
-1.275 -0.324 2.746 0
-1.455 -0.382 2.691 10
-1.121 -0.302 2.747 11
-1.172 -0.325 2.718 18
-4.673 -1.638 2.711 8
-4.913 -1.647 2.68 6
-5.174 -1.658 2.648 11
-3.85 -1.178 2.728 6
-3.742 -1.094 2.727 21
-3.75 -1.049 2.719 22
-3.8 -1.016 2.709 28
-3.848 -0.986 2.699 19
-3.935 -0.967 2.686 2
-6.508 -1.538 2.47 0
-5.912 -1.35 2.509 7
-5.59 -1.234 2.526 0
-5.627 -1.209 2.512 0
-5.308 -1.114 2.527 0
-5.08 -1.048 2.533 0
-4.866 -0.992 2.537 0
-4.694 -0.952 2.536 0
0.0 -0.0 3.0 0
0.0 -0.0 3.0 0
0.0 -0.0 3.0 0
0.0 -0.0 3.0 0
0.0 -0.0 3.0 0
0.0 -0.0 3.0 0
0.0 -0.0 3.0 0
0.0 -0.0 3.0 0
0.0 -0.0 3.0 0
-3.203 -0.776 2.436 0
-3.074 -0.766 2.422 7
-3.066 -0.787 2.386 32
-1.523 -0.402 2.675 7
-1.135 -0.308 2.741 11
-1.118 -0.312 2.729 13
-4.65 -1.642 2.711 8
-4.88 -1.647 2.68 6
-5.162 -1.666 2.646 15
-3.855 -1.19 2.725 4
-3.739 -1.103 2.725 18
-3.736 -1.054 2.717 27
-3.793 -1.024 2.706 34
-3.842 -0.994 2.696 15
-3.94 -0.979 2.682 1
-6.364 -1.522 2.476 0
-5.912 -1.367 2.503 5
-5.492 -1.229 2.528 1
-5.494 -1.196 2.517 0
-5.226 -1.112 2.528 0
-4.975 -1.042 2.536 0
-4.785 -0.99 2.539 0
0.0 -0.0 3.0 0
-49.977 -10.282 -2.239 3
0.0 -0.0 3.0 0
0.0 -0.0 3.0 0
0.0 -0.0 3.0 0
0.0 -0.0 3.0 0
0.0 -0.0 3.0 0
0.0 -0.0 3.0 0
0.0 -0.0 3.0 0
0.0 -0.0 3.0 0
-3.159 -0.773 2.439 1
-3.075 -0.773 2.417 8
-3.056 -0.79 2.383 7
-1.544 -0.41 2.668 8
-1.142 -0.312 2.738 12
-1.091 -0.306 2.734 13
-4.621 -1.641 2.711 11
-4.857 -1.65 2.679 6
-5.132 -1.668 2.645 5
-3.868 -1.203 2.722 3
-3.74 -1.112 2.723 18
-3.733 -1.063 2.715 27
-3.783 -1.032 2.704 24
-3.824 -1.0 2.694 16
-3.917 -0.985 2.68 1
-6.204 -1.501 2.483 1
-5.904 -1.382 2.497 21
-5.407 -1.225 2.53 0
-5.389 -1.19 2.519 0
-5.141 -1.11 2.529 0
-4.901 -1.041 2.537 0
-4.739 -0.994 2.536 0
-4.539 -0.947 2.538 0
-50.046 -10.443 -2.321 4
-51.345 -10.763 -2.723 2
-50.334 -10.659 -2.908 3
0.0 -0.0 3.0 0
0.0 -0.0 3.0 0
0.0 -0.0 3.0 0
0.0 -0.0 3.0 0
-3.461 -0.81 2.454 0
-3.255 -0.782 2.453 0
-3.088 -0.762 2.447 7
-3.073 -0.778 2.413 12
-3.05 -0.794 2.38 3
-1.543 -0.413 2.666 8
-1.148 -0.315 2.735 13
-1.094 -0.309 2.732 13
-4.602 -1.645 2.71 20
-4.838 -1.656 2.678 15
-5.098 -1.669 2.645 5
-3.865 -1.211 2.72 7
-3.734 -1.12 2.721 17
-3.727 -1.071 2.713 42
-3.776 -1.04 2.702 20
-3.817 -1.008 2.692 15
-3.918 -0.996 2.676 2
-5.917 -1.449 2.501 5
-5.868 -1.391 2.494 2
-5.345 -1.228 2.529 0
-5.3 -1.186 2.521 0
-5.074 -1.111 2.528 0
-4.851 -1.044 2.535 0
-4.673 -0.995 2.536 0
-48.344 -10.237 -1.993 2
-50.091 -10.598 -2.4 3
0.0 -0.0 3.0 0
-50.262 -10.783 -2.977 2
0.0 -0.0 3.0 0
0.0 -0.0 3.0 0
0.0 -0.0 3.0 0
0.0 -0.0 3.0 0
-3.435 -0.812 2.452 0
-3.199 -0.775 2.457 0
-3.082 -0.767 2.443 8
-3.067 -0.783 2.41 46
-3.055 -0.801 2.374 0
-1.542 -0.415 2.664 4
-1.144 -0.316 2.735 12
-1.093 -0.31 2.731 12
-4.599 -1.654 2.708 9
-4.827 -1.663 2.677 15
-5.079 -1.676 2.644 7
-3.851 -1.217 2.719 6
-3.719 -1.125 2.72 20
-3.72 -1.078 2.711 40
-3.762 -1.047 2.7 17
-3.806 -1.017 2.689 15
-3.904 -1.004 2.674 1
-5.92 -1.468 2.495 3
-5.821 -1.397 2.492 2
-9.059 -2.107 2.191 0
-5.207 -1.181 2.523 0
-4.985 -1.107 2.53 0
-4.773 -1.043 2.536 0
0.0 -0.0 3.0 0
-48.024 -10.312 -2.03 2
-50.159 -10.759 -2.482 4
-50.321 -10.837 -2.762 3
-50.007 -10.868 -3.024 2
0.0 -0.0 3.0 0
0.0 -0.0 3.0 0
0.0 -0.0 3.0 0
0.0 -0.0 3.0 0
-3.344 -0.798 2.462 0
-3.12 -0.763 2.466 1
-3.076 -0.771 2.44 10
-3.068 -0.79 2.405 8
-3.072 -0.812 2.366 0
-1.537 -0.417 2.662 4
-1.124 -0.313 2.737 10
-1.093 -0.311 2.729 12
-4.562 -1.652 2.709 7
-4.801 -1.666 2.676 6
-5.049 -1.677 2.643 19
-3.836 -1.222 2.718 8
-3.72 -1.135 2.717 17
-3.717 -1.088 2.709 46
-3.751 -1.054 2.698 18
-3.827 -1.032 2.684 14
-7.277 -1.891 2.386 1
-5.904 -1.48 2.491 17
-5.662 -1.375 2.499 0
0.0 -0.0 3.0 0
-5.144 -1.183 2.522 0
-4.904 -1.103 2.532 0
-7.188 -1.592 2.291 1
0.0 -0.0 3.0 0
0.0 -0.0 3.0 0
0.0 -0.0 3.0 0
-50.314 -10.979 -2.838 3
-49.725 -10.946 -3.067 2
0.0 -0.0 3.0 0
0.0 -0.0 3.0 0
0.0 -0.0 3.0 0
0.0 -0.0 3.0 0
-3.227 -0.777 2.476 0
-3.075 -0.759 2.468 5
-3.073 -0.777 2.435 28
-3.055 -0.793 2.402 3
-1.22 -0.325 2.746 0
-1.525 -0.416 2.663 1
-1.138 -0.319 2.733 10
-1.099 -0.315 2.726 12
-4.532 -1.651 2.709 10
-4.771 -1.666 2.676 7
-5.045 -1.689 2.641 9
-3.83 -1.229 2.716 10
-3.714 -1.143 2.715 26
-3.707 -1.095 2.707 46
-3.752 -1.064 2.695 24
-3.839 -1.047 2.68 17
-5.914 -1.554 2.495 4
-5.857 -1.486 2.488 2
-5.553 -1.365 2.503 0
-5.166 -1.233 2.527 0
-5.051 -1.176 2.525 0
-4.846 -1.104 2.531 0
-7.143 -1.604 2.286 1
0.0 -0.0 3.0 0
0.0 -0.0 3.0 0
-47.093 -10.378 -2.288 1
-50.237 -11.107 -2.906 2
-49.497 -11.035 -3.117 2
0.0 -0.0 3.0 0
0.0 -0.0 3.0 0
0.0 -0.0 3.0 0
0.0 -0.0 3.0 0
-3.186 -0.775 2.477 0
-3.073 -0.766 2.464 9
-3.063 -0.782 2.432 72
-3.075 -0.805 2.394 1
-1.208 -0.324 2.747 2
-1.173 -0.322 2.739 1
-1.183 -0.333 2.72 10
-1.102 -0.318 2.724 11
-4.517 -1.657 2.708 8
-4.748 -1.67 2.675 6
-4.992 -1.683 2.642 5
-3.819 -1.236 2.715 8
-3.711 -1.151 2.713 21
-3.711 -1.106 2.704 46
-3.749 -1.073 2.692 23
-3.859 -1.063 2.675 13
-5.925 -1.574 2.489 3
-5.798 -1.487 2.488 1
-5.464 -1.359 2.505 0
-5.139 -1.241 2.524 1
-4.981 -1.175 2.525 0
-7.014 -1.62 2.312 13
-7.119 -1.619 2.279 2
0.0 -0.0 3.0 0
0.0 -0.0 3.0 0
-46.855 -10.463 -2.331 3
-49.938 -11.184 -2.947 2
-49.196 -11.106 -3.156 2
0.0 -0.0 3.0 0
0.0 -0.0 3.0 0
0.0 -0.0 3.0 0
-3.311 -0.796 2.483 0
-3.107 -0.763 2.485 1
-3.071 -0.772 2.46 11
-3.065 -0.789 2.427 9
-3.073 -0.81 2.39 0
-1.23 -0.332 2.74 3
-1.176 -0.325 2.737 2
-1.148 -0.326 2.727 5
-1.105 -0.32 2.721 11
-4.502 -1.661 2.707 16
-4.726 -1.674 2.675 14
-4.976 -1.69 2.641 5
-3.812 -1.243 2.713 8
-3.719 -1.164 2.71 18
-3.712 -1.116 2.701 36
-3.731 -1.078 2.691 29
-3.837 -1.068 2.674 17
-5.898 -1.583 2.485 14
-5.651 -1.467 2.495 0
-5.363 -1.35 2.509 0
-5.069 -1.24 2.524 3
-7.119 -1.701 2.313 1
-4.698 -1.1 2.533 0
-4.526 -1.043 2.536 0
-4.349 -0.992 2.538 0
0.0 -0.0 3.0 0
-46.609 -10.546 -2.373 2
-49.675 -11.269 -2.992 2
-48.991 -11.198 -3.207 2
0.0 -0.0 3.0 0
0.0 -0.0 3.0 0
0.0 -0.0 3.0 0
-3.193 -0.776 2.496 0
-3.077 -0.763 2.486 8
-3.064 -0.777 2.456 74
-3.062 -0.795 2.423 3
-3.063 -0.814 2.387 0
-1.225 -0.334 2.739 3
-1.209 -0.337 2.727 2
-1.196 -0.341 2.714 4
-1.112 -0.325 2.717 12
-4.491 -1.668 2.706 13
-4.718 -1.683 2.673 16
-4.95 -1.694 2.64 11
-3.809 -1.252 2.711 12
-3.716 -1.173 2.708 16
-3.709 -1.126 2.698 27
-3.743 -1.093 2.687 22
-3.841 -1.08 2.67 14
-5.839 -1.585 2.485 1
-5.535 -1.452 2.5 0
-5.258 -1.34 2.512 0
-5.022 -1.244 2.523 4
-7.122 -1.723 2.304 0
-4.671 -1.108 2.53 0
-7.119 -1.663 2.26 2
0.0 -0.0 3.0 0
0.0 -0.0 3.0 0
-46.343 -10.622 -2.412 2
-49.438 -11.358 -3.039 2
0.0 -0.0 3.0 0
0.0 -0.0 3.0 0
0.0 -0.0 3.0 0
-3.444 -0.829 2.482 0
-3.167 -0.777 2.495 0
-3.071 -0.769 2.481 10
-3.062 -0.784 2.451 114
-3.075 -0.805 2.415 1
-3.053 -0.818 2.384 0
-1.224 -0.336 2.738 2
-1.208 -0.339 2.725 4
-1.202 -0.345 2.71 3
-1.122 -0.33 2.713 12
-4.465 -1.669 2.706 7
-4.688 -1.684 2.673 7
-4.934 -1.702 2.638 13
-3.814 -1.263 2.708 9
-3.725 -1.185 2.704 15
-3.706 -1.134 2.696 26
-3.736 -1.1 2.684 22
-3.831 -1.087 2.668 16
-5.784 -1.587 2.485 1
-5.465 -1.45 2.501 0
-5.073 -1.308 2.524 0
-4.968 -1.246 2.522 4
-9.343 -2.289 2.075 0
-7.044 -1.692 2.282 2
-7.144 -1.691 2.247 5
0.0 -0.0 3.0 0
0.0 -0.0 3.0 0
-46.07 -10.696 -2.45 3
-49.185 -11.443 -3.085 2
-48.499 -11.36 -3.297 2
0.0 -0.0 3.0 0
-3.479 -0.834 2.499 0
-3.257 -0.793 2.504 0
-3.092 -0.766 2.502 10
-3.072 -0.777 2.476 27
-3.06 -0.79 2.447 10
-3.065 -0.809 2.412 0
-2.997 -0.81 2.39 0
-1.216 -0.336 2.738 3
-1.207 -0.341 2.724 6
-1.186 -0.343 2.712 5
-1.121 -0.332 2.712 12
-4.428 -1.666 2.706 9
-4.658 -1.684 2.673 7
-4.915 -1.707 2.637 5
-3.841 -1.282 2.704 5
-3.733 -1.198 2.701 15
-3.707 -1.145 2.693 22
-3.745 -1.114 2.681 17
-3.831 -1.099 2.664 12
-5.634 -1.562 2.493 0
-5.36 -1.438 2.505 0
-4.926 -1.284 2.533 1
-4.921 -1.248 2.521 1
-9.251 -2.294 2.073 0
-7.062 -1.718 2.271 2
