# .PCD v0.7 - Point Cloud Data file format
VERSION 0.7
FIELDS x y z intensity
SIZE 4 4 4 4
TYPE F F F F
COUNT 1 1 1 1
WIDTH 2075
HEIGHT 1
VIEWPOINT 0 0 0 1 0 0 0
POINTS 2075
DATA ascii
4.217 -15.887 -4.749 41
4.1 -15.309 -4.8 7
3.981 -14.73 -4.832 6
3.872 -14.208 -4.876 37
3.772 -13.715 -4.918 5
3.673 -13.243 -4.957 6
3.576 -12.773 -4.981 7
3.484 -12.336 -5.011 6
3.397 -11.912 -5.034 9
3.314 -11.519 -5.066 9
3.235 -11.133 -5.088 11
3.156 -10.762 -5.11 11
3.08 -10.399 -5.125 12
3.011 -10.062 -5.148 11
2.94 -9.732 -5.166 13
2.876 -9.419 -5.188 14
7.516 -32.833 -2.789 12
7.631 -33.072 -3.429 24
7.37 -31.664 -3.73 16
7.087 -30.206 -3.974 7
6.676 -28.208 -4.033 6
6.322 -26.479 -4.095 5
6.013 -24.986 -4.165 5
5.738 -23.639 -4.227 35
5.494 -22.454 -4.296 5
5.284 -21.41 -4.372 5
5.081 -20.423 -4.434 12
4.899 -19.521 -4.493 9
4.741 -18.739 -4.571 8
4.581 -17.948 -4.618 7
4.428 -17.21 -4.663 8
4.292 -16.533 -4.709 8
4.159 -15.889 -4.749 9
4.043 -15.31 -4.801 7
3.926 -14.731 -4.833 6
3.818 -14.209 -4.876 39
3.721 -13.718 -4.92 5
3.624 -13.249 -4.961 6
3.527 -12.772 -4.981 7
3.437 -12.339 -5.013 8
3.351 -11.917 -5.038 8
3.268 -11.518 -5.065 9
3.192 -11.141 -5.094 11
3.113 -10.767 -5.113 11
3.039 -10.404 -5.128 11
2.97 -10.063 -5.149 13
2.9 -9.733 -5.167 14
2.837 -9.42 -5.189 15
7.458 -33.047 -2.827 27
7.526 -33.083 -3.431 29
7.261 -31.641 -3.725 15
6.985 -30.197 -3.971 7
6.58 -28.201 -4.031 6
6.231 -26.471 -4.093 6
5.928 -24.986 -4.165 5
5.657 -23.637 -4.227 30
5.417 -22.455 -4.296 5
5.211 -21.415 -4.374 6
5.008 -20.416 -4.431 12
4.83 -19.521 -4.493 9
4.675 -18.742 -4.572 8
4.516 -17.946 -4.617 7
4.367 -17.216 -4.665 8
4.232 -16.535 -4.71 7
4.102 -15.897 -4.753 9
3.988 -15.314 -4.803 7
3.87 -14.729 -4.831 6
3.765 -14.209 -4.876 38
3.669 -13.722 -4.922 6
3.573 -13.249 -4.961 6
3.475 -12.765 -4.976 7
3.39 -12.344 -5.016 9
3.305 -11.919 -5.04 10
3.224 -11.523 -5.069 10
3.148 -11.142 -5.095 11
3.071 -10.771 -5.117 12
2.998 -10.408 -5.132 10
2.929 -10.066 -5.151 11
2.86 -9.734 -5.167 13
2.797 -9.417 -5.186 15
7.475 -33.604 -2.925 15
7.422 -33.097 -3.433 32
7.156 -31.635 -3.724 11
6.884 -30.191 -3.97 7
6.484 -28.191 -4.029 6
6.142 -26.474 -4.094 6
5.843 -24.984 -4.164 5
5.577 -23.643 -4.228 26
5.338 -22.449 -4.294 5
5.136 -21.411 -4.372 5
4.936 -20.416 -4.431 10
4.76 -19.516 -4.492 9
4.608 -18.741 -4.572 8
4.45 -17.941 -4.616 8
4.305 -17.217 -4.665 8
4.172 -16.536 -4.711 7
4.044 -15.898 -4.754 9
3.93 -15.311 -4.801 6
3.815 -14.729 -4.831 6
3.712 -14.212 -4.878 38
3.617 -13.722 -4.922 6
3.522 -13.248 -4.96 7
3.427 -12.767 -4.978 7
3.342 -12.343 -5.016 8
3.259 -11.921 -5.041 10
3.177 -11.519 -5.065 10
3.104 -11.144 -5.097 12
3.028 -10.773 -5.118 11
2.956 -10.409 -5.133 12
2.888 -10.067 -5.152 12
2.821 -9.74 -5.173 14
2.759 -9.424 -5.192 15
7.367 -33.604 -2.925 8
7.314 -33.096 -3.433 30
7.048 -31.614 -3.72 10
6.783 -30.188 -3.969 7
6.389 -28.187 -4.028 6
6.053 -26.474 -4.094 6
5.759 -24.987 -4.165 5
5.496 -23.64 -4.228 23
5.26 -22.446 -4.293 6
5.063 -21.419 -4.375 6
4.865 -20.416 -4.431 9
4.69 -19.512 -4.49 10
4.539 -18.733 -4.569 8
4.386 -17.943 -4.616 8
4.243 -17.215 -4.665 8
4.112 -16.536 -4.711 7
3.985 -15.895 -4.753 9
3.873 -15.308 -4.8 6
3.761 -14.732 -4.833 6
3.658 -14.212 -4.878 40
3.568 -13.731 -4.928 6
3.471 -13.248 -4.96 7
3.379 -12.773 -4.982 9
3.294 -12.345 -5.017 10
3.212 -11.923 -5.042 10
3.133 -11.527 -5.071 10
3.06 -11.146 -5.098 11
2.985 -10.773 -5.118 11
2.914 -10.413 -5.136 11
2.848 -10.071 -5.155 11
2.781 -9.741 -5.173 13
2.72 -9.424 -5.192 16
8.238 -38.137 -3.725 6
7.206 -33.095 -3.433 29
6.94 -31.597 -3.716 13
6.679 -30.166 -3.964 7
6.295 -28.183 -4.027 6
5.963 -26.465 -4.091 6
5.672 -24.978 -4.162 5
5.416 -23.642 -4.228 21
5.183 -22.446 -4.293 5
4.987 -21.411 -4.373 5
4.792 -20.408 -4.428 9
4.623 -19.519 -4.493 9
4.475 -18.743 -4.573 8
4.323 -17.945 -4.617 8
4.181 -17.217 -4.665 8
4.053 -16.541 -4.713 7
3.927 -15.896 -4.753 9
3.816 -15.308 -4.8 7
3.706 -14.732 -4.833 6
3.604 -14.208 -4.876 38
3.517 -13.737 -4.931 6
3.423 -13.257 -4.966 7
3.329 -12.772 -4.981 9
3.246 -12.344 -5.016 8
3.166 -11.925 -5.043 10
3.088 -11.528 -5.072 10
3.016 -11.149 -5.101 12
2.942 -10.774 -5.119 12
2.872 -10.414 -5.136 11
2.807 -10.071 -5.156 12
2.742 -9.744 -5.176 14
2.681 -9.428 -5.195 16
8.109 -38.108 -3.719 7
7.095 -33.078 -3.43 29
6.838 -31.603 -3.717 16
6.577 -30.156 -3.962 9
6.198 -28.172 -4.024 6
5.873 -26.46 -4.09 6
5.586 -24.971 -4.16 5
5.337 -23.65 -4.231 17
5.105 -22.443 -4.292 5
4.912 -21.407 -4.371 5
4.722 -20.414 -4.43 10
4.553 -19.513 -4.49 10
4.408 -18.741 -4.572 8
4.259 -17.947 -4.618 8
4.119 -17.218 -4.666 8
3.992 -16.538 -4.712 7
3.87 -15.903 -4.756 9
3.762 -15.319 -4.805 7
3.652 -14.735 -4.835 6
3.552 -14.215 -4.879 36
3.464 -13.734 -4.929 7
3.373 -13.259 -4.967 8
3.281 -12.777 -4.984 9
3.2 -12.352 -5.022 9
3.12 -11.929 -5.047 10
3.043 -11.53 -5.073 10
2.973 -11.154 -5.104 10
2.9 -10.781 -5.124 11
2.83 -10.415 -5.137 12
2.766 -10.072 -5.156 12
2.702 -9.744 -5.177 14
2.643 -9.433 -5.2 19
7.982 -38.085 -3.715 6
6.985 -33.064 -3.427 28
6.739 -31.619 -3.721 13
6.476 -30.145 -3.96 6
6.103 -28.163 -4.022 6
5.784 -26.458 -4.09 6
5.501 -24.966 -4.159 5
5.258 -23.655 -4.232 15
5.027 -22.439 -4.291 5
4.837 -21.403 -4.37 6
4.65 -20.413 -4.43 9
4.485 -19.516 -4.491 10
4.341 -18.736 -4.57 8
4.194 -17.944 -4.617 8
4.057 -17.219 -4.666 6
3.931 -16.532 -4.709 7
3.811 -15.9 -4.755 9
3.704 -15.312 -4.802 7
3.598 -14.739 -4.837 6
3.497 -14.207 -4.875 41
3.413 -13.736 -4.931 7
3.323 -13.261 -4.968 8
3.231 -12.773 -4.981 9
3.15 -12.344 -5.016 9
3.074 -11.931 -5.048 10
2.999 -11.537 -5.078 10
2.928 -11.152 -5.103 12
2.857 -10.783 -5.125 10
2.788 -10.415 -5.137 11
2.726 -10.078 -5.161 11
2.661 -9.745 -5.177 13
2.605 -9.437 -5.203 22
7.854 -38.055 -3.71 6
6.872 -33.032 -3.421 21
6.639 -31.635 -3.724 15
6.379 -30.156 -3.962 7
6.009 -28.158 -4.021 6
5.695 -26.457 -4.089 5
5.418 -24.971 -4.16 5
5.176 -23.648 -4.23 12
4.951 -22.443 -4.292 5
4.764 -21.407 -4.371 5
4.578 -20.409 -4.428 9
4.415 -19.507 -4.488 9
4.275 -18.741 -4.572 8
4.131 -17.949 -4.619 8
3.995 -17.216 -4.665 8
3.871 -16.533 -4.709 7
3.754 -15.903 -4.756 8
3.648 -15.315 -4.804 7
3.544 -14.742 -4.838 7
3.445 -14.213 -4.878 41
3.361 -13.739 -4.932 7
3.272 -13.26 -4.967 7
3.183 -12.778 -4.984 9
3.104 -12.353 -5.022 9
3.028 -11.932 -5.049 10
2.953 -11.535 -5.077 10
2.884 -11.153 -5.103 12
2.814 -10.783 -5.126 12
2.748 -10.422 -5.143 9
2.686 -10.082 -5.164 11
2.622 -9.747 -5.179 12
2.564 -9.431 -5.198 24
7.727 -38.028 -3.705 7
6.76 -33.009 -3.416 12
6.539 -31.651 -3.728 13
6.274 -30.129 -3.956 7
5.914 -28.154 -4.019 6
5.607 -26.455 -4.088 5
5.333 -24.968 -4.16 5
5.095 -23.644 -4.229 9
4.874 -22.439 -4.291 5
4.691 -21.41 -4.372 5
4.509 -20.415 -4.43 12
4.346 -19.505 -4.487 12
4.208 -18.735 -4.57 8
4.067 -17.947 -4.618 8
3.934 -17.22 -4.667 8
3.812 -16.536 -4.711 7
3.697 -15.907 -4.758 8
3.593 -15.319 -4.805 7
3.488 -14.738 -4.836 7
3.391 -14.209 -4.876 40
3.31 -13.74 -4.933 8
3.222 -13.262 -4.969 8
3.135 -12.779 -4.985 9
3.057 -12.354 -5.023 8
2.981 -11.934 -5.05 10
2.907 -11.533 -5.075 10
2.841 -11.157 -5.106 11
2.771 -10.784 -5.126 12
2.706 -10.423 -5.143 12
2.645 -10.085 -5.167 13
2.583 -9.754 -5.185 13
2.526 -9.433 -5.2 27
7.6 -38.005 -3.701 6
6.649 -32.987 -3.412 13
6.433 -31.635 -3.724 13
6.176 -30.133 -3.957 7
5.821 -28.152 -4.019 6
5.518 -26.453 -4.088 6
5.247 -24.957 -4.156 5
5.014 -23.64 -4.228 8
4.798 -22.442 -4.292 4
4.613 -21.39 -4.365 6
4.435 -20.403 -4.426 29
4.279 -19.51 -4.489 9
4.141 -18.733 -4.568 8
4.003 -17.947 -4.618 8
3.872 -17.22 -4.667 7
3.752 -16.536 -4.711 7
3.639 -15.907 -4.758 7
3.537 -15.322 -4.807 7
3.433 -14.737 -4.836 8
3.339 -14.211 -4.877 40
3.258 -13.739 -4.932 7
3.172 -13.264 -4.97 8
3.086 -12.781 -4.986 8
3.01 -12.358 -5.025 9
2.935 -11.934 -5.05 10
2.863 -11.537 -5.078 10
2.798 -11.164 -5.111 10
2.73 -10.791 -5.131 11
2.664 -10.423 -5.143 10
2.604 -10.085 -5.167 12
2.544 -9.757 -5.187 14
2.487 -9.436 -5.203 32
7.473 -37.972 -3.696 7
6.542 -32.98 -3.411 11
6.334 -31.65 -3.728 13
6.074 -30.113 -3.952 7
5.726 -28.142 -4.017 6
5.431 -26.457 -4.089 6
5.163 -24.954 -4.155 5
4.932 -23.632 -4.225 7
4.719 -22.434 -4.289 4
4.539 -21.385 -4.363 6
4.362 -20.389 -4.421 29
4.21 -19.508 -4.488 10
4.076 -18.737 -4.57 9
3.937 -17.937 -4.614 10
3.81 -17.218 -4.666 5
3.692 -16.536 -4.711 7
3.582 -15.91 -4.76 7
3.48 -15.317 -4.805 8
3.378 -14.733 -4.834 8
3.286 -14.214 -4.879 40
3.208 -13.748 -4.937 7
3.122 -13.266 -4.971 7
3.038 -12.786 -4.99 8
2.963 -12.36 -5.026 8
2.89 -11.939 -5.053 9
2.819 -11.541 -5.081 10
2.753 -11.161 -5.109 11
2.686 -10.788 -5.129 10
2.622 -10.423 -5.143 12
2.562 -10.079 -5.162 12
2.504 -9.756 -5.187 13
2.449 -9.442 -5.208 33
7.348 -37.952 -3.692 6
6.436 -32.98 -3.411 10
6.233 -31.662 -3.73 10
5.974 -30.108 -3.951 7
5.634 -28.145 -4.017 7
5.342 -26.455 -4.089 6
5.079 -24.954 -4.156 5
4.85 -23.621 -4.222 7
4.641 -22.426 -4.287 4
4.465 -21.384 -4.363 5
4.292 -20.395 -4.423 34
4.142 -19.509 -4.489 9
4.01 -18.734 -4.569 8
3.874 -17.937 -4.614 16
3.748 -17.218 -4.666 5
3.633 -16.54 -4.713 7
3.523 -15.906 -4.758 9
3.423 -15.317 -4.805 7
3.325 -14.742 -4.838 8
3.233 -14.212 -4.878 41
3.156 -13.746 -4.936 8
3.072 -13.264 -4.97 7
2.989 -12.784 -4.988 8
2.917 -12.367 -5.031 10
2.844 -11.943 -5.056 10
2.774 -11.545 -5.084 11
2.709 -11.162 -5.109 11
2.643 -10.791 -5.132 11
2.581 -10.429 -5.148 12
2.524 -10.092 -5.172 11
2.464 -9.756 -5.186 13
2.41 -9.441 -5.207 37
7.224 -37.939 -3.69 7
6.328 -32.972 -3.409 10
6.132 -31.669 -3.731 11
5.874 -30.099 -3.949 7
5.538 -28.127 -4.013 6
5.254 -26.451 -4.088 5
4.995 -24.95 -4.154 5
4.77 -23.62 -4.221 7
4.566 -22.432 -4.289 5
4.393 -21.389 -4.365 6
4.22 -20.389 -4.421 22
4.075 -19.515 -4.491 9
3.945 -18.739 -4.571 8
3.81 -17.938 -4.614 29
3.688 -17.225 -4.669 5
3.575 -16.543 -4.714 7
3.466 -15.908 -4.759 9
3.368 -15.319 -4.805 8
3.271 -14.741 -4.838 8
3.181 -14.218 -4.881 41
3.105 -13.748 -4.937 8
3.022 -13.266 -4.971 7
2.942 -12.792 -4.993 9
2.868 -12.362 -5.028 10
2.798 -11.944 -5.056 9
2.73 -11.549 -5.086 10
2.666 -11.165 -5.112 10
2.601 -10.795 -5.134 11
2.54 -10.432 -5.151 11
2.483 -10.091 -5.172 12
2.425 -9.762 -5.191 14
2.372 -9.444 -5.21 35
7.1 -37.921 -3.687 6
6.222 -32.971 -3.409 10
6.031 -31.676 -3.733 14
5.775 -30.093 -3.948 7
5.446 -28.131 -4.014 6
5.165 -26.448 -4.087 6
4.912 -24.954 -4.155 5
4.691 -23.619 -4.221 7
4.489 -22.426 -4.287 5
4.318 -21.383 -4.363 5
4.153 -20.401 -4.425 10
4.008 -19.515 -4.491 10
3.879 -18.739 -4.571 8
3.747 -17.942 -4.616 38
3.626 -17.22 -4.667 4
3.515 -16.543 -4.714 7
3.41 -15.918 -4.764 10
3.314 -15.329 -4.81 8
3.217 -14.742 -4.839 8
3.128 -14.216 -4.88 34
3.054 -13.75 -4.938 8
2.973 -13.273 -4.975 8
2.892 -12.786 -4.99 9
2.821 -12.366 -5.031 10
2.752 -11.945 -5.057 10
2.683 -11.543 -5.082 10
2.622 -11.165 -5.112 11
2.558 -10.794 -5.134 11
2.498 -10.432 -5.151 10
2.442 -10.094 -5.174 13
2.386 -9.765 -5.193 14
2.333 -9.446 -5.211 38
6.973 -37.885 -3.68 7
6.116 -32.967 -3.408 8
5.931 -31.69 -3.736 14
5.676 -30.091 -3.947 6
5.352 -28.125 -4.012 6
5.079 -26.452 -4.088 6
4.829 -24.953 -4.155 5
4.609 -23.607 -4.217 6
4.411 -22.417 -4.284 5
4.247 -21.393 -4.366 5
4.082 -20.398 -4.424 9
3.939 -19.512 -4.49 10
3.814 -18.74 -4.571 9
3.683 -17.938 -4.614 43
3.566 -17.228 -4.67 7
3.456 -16.546 -4.715 7
3.351 -15.91 -4.76 9
3.256 -15.321 -4.806 8
3.162 -14.741 -4.838 8
3.076 -14.221 -4.883 38
3.003 -13.751 -4.939 7
2.924 -13.275 -4.976 8
2.844 -12.791 -4.992 9
2.774 -12.367 -5.031 10
2.707 -11.951 -5.061 10
2.64 -11.552 -5.089 10
2.577 -11.162 -5.11 10
2.515 -10.794 -5.134 10
2.456 -10.432 -5.15 12
2.402 -10.096 -5.176 12
2.347 -9.77 -5.198 14
2.294 -9.445 -5.211 40
6.852 -37.882 -3.68 7
6.011 -32.973 -3.409 8
5.83 -31.696 -3.737 13
5.576 -30.082 -3.945 7
5.259 -28.118 -4.011 6
4.991 -26.452 -4.088 6
4.746 -24.956 -4.156 5
4.531 -23.616 -4.22 6
4.335 -22.415 -4.283 5
4.172 -21.382 -4.362 6
4.012 -20.403 -4.426 10
3.873 -19.52 -4.493 10
3.748 -18.74 -4.571 9
3.621 -17.941 -4.615 50
3.505 -17.227 -4.67 7
3.397 -16.548 -4.717 7
3.294 -15.912 -4.761 9
3.201 -15.322 -4.807 8
3.108 -14.742 -4.839 8
3.023 -14.219 -4.882 40
2.95 -13.746 -4.936 8
2.874 -13.276 -4.977 8
2.796 -12.795 -4.995 9
2.727 -12.367 -5.031 9
2.66 -11.949 -5.059 10
2.595 -11.553 -5.089 10
2.535 -11.169 -5.115 11
2.474 -10.8 -5.139 11
2.416 -10.44 -5.157 11
2.361 -10.096 -5.175 11
2.306 -9.766 -5.195 14
2.256 -9.447 -5.213 36
6.724 -37.84 -3.672 7
5.906 -32.976 -3.41 8
5.729 -31.706 -3.739 14
5.478 -30.079 -3.944 7
5.166 -28.115 -4.01 6
4.903 -26.447 -4.087 6
4.662 -24.951 -4.155 5
4.451 -23.615 -4.22 6
4.26 -22.421 -4.285 4
4.1 -21.388 -4.364 5
3.941 -20.4 -4.425 9
3.804 -19.512 -4.49 10
3.683 -18.744 -4.573 8
3.557 -17.941 -4.615 58
3.444 -17.229 -4.671 8
3.338 -16.55 -4.717 8
3.236 -15.915 -4.762 9
3.145 -15.321 -4.806 8
3.054 -14.744 -4.84 8
2.971 -14.224 -4.884 41
2.9 -13.754 -4.941 7
2.825 -13.28 -4.979 7
2.747 -12.792 -4.993 8
2.681 -12.374 -5.036 9
2.616 -11.955 -5.064 10
2.55 -11.553 -5.089 10
2.492 -11.175 -5.119 11
2.431 -10.8 -5.138 11
2.374 -10.44 -5.157 12
2.322 -10.102 -5.18 11
2.268 -9.771 -5.199 13
2.218 -9.453 -5.217 38
6.599 -37.813 -3.668 8
5.802 -32.985 -3.412 8
5.629 -31.719 -3.742 14
5.378 -30.064 -3.941 7
5.072 -28.107 -4.008 6
4.816 -26.451 -4.087 6
4.58 -24.957 -4.156 5
4.37 -23.605 -4.217 6
4.183 -22.418 -4.284 4
4.026 -21.385 -4.363 6
3.871 -20.4 -4.425 9
3.735 -19.505 -4.487 9
3.618 -18.743 -4.573 9
3.495 -17.947 -4.618 50
3.381 -17.221 -4.667 8
3.278 -16.546 -4.715 7
3.179 -15.917 -4.763 9
3.091 -15.33 -4.811 8
3.0 -14.742 -4.839 8
2.919 -14.225 -4.885 41
2.849 -13.755 -4.941 7
2.775 -13.281 -4.98 7
2.7 -12.799 -4.998 9
2.633 -12.375 -5.036 9
2.569 -11.952 -5.062 10
2.507 -11.559 -5.094 9
2.449 -11.178 -5.121 11
2.389 -10.803 -5.141 11
2.333 -10.443 -5.159 11
2.281 -10.101 -5.179 11
2.228 -9.774 -5.201 12
2.178 -9.449 -5.214 39
6.476 -37.79 -3.663 9
5.696 -32.979 -3.41 9
5.527 -31.72 -3.742 13
5.282 -30.072 -3.943 7
4.982 -28.115 -4.01 6
4.727 -26.442 -4.085 6
4.497 -24.956 -4.156 5
4.292 -23.607 -4.217 6
4.106 -22.412 -4.282 4
3.953 -21.381 -4.362 5
3.801 -20.401 -4.425 9
3.669 -19.512 -4.49 10
3.552 -18.743 -4.573 8
3.433 -17.95 -4.619 45
3.321 -17.228 -4.67 7
3.219 -16.547 -4.716 7
3.122 -15.918 -4.764 9
3.035 -15.331 -4.812 8
2.948 -14.75 -4.843 8
2.867 -14.226 -4.885 37
2.799 -13.759 -4.944 8
2.726 -13.285 -4.982 8
2.652 -12.8 -4.998 8
2.587 -12.378 -5.038 10
2.523 -11.956 -5.064 9
2.461 -11.556 -5.091 11
2.405 -11.178 -5.121 12
2.346 -10.805 -5.142 12
2.292 -10.445 -5.161 11
2.24 -10.103 -5.182 12
2.188 -9.773 -5.2 12
2.141 -9.46 -5.223 39
6.35 -37.755 -3.657 9
5.587 -32.957 -3.406 9
5.429 -31.744 -3.747 14
5.182 -30.061 -3.94 7
4.888 -28.106 -4.008 6
4.641 -26.448 -4.087 6
4.413 -24.954 -4.156 6
4.213 -23.609 -4.218 7
4.032 -22.416 -4.283 4
3.88 -21.381 -4.362 5
3.731 -20.397 -4.424 9
3.601 -19.512 -4.49 9
3.485 -18.734 -4.569 8
3.368 -17.942 -4.616 44
3.261 -17.233 -4.673 8
3.161 -16.549 -4.717 7
3.065 -15.92 -4.765 9
2.979 -15.329 -4.81 8
2.893 -14.748 -4.842 8
2.814 -14.227 -4.886 41
2.748 -13.76 -4.944 8
2.675 -13.281 -4.98 7
2.603 -12.796 -4.996 8
2.54 -12.378 -5.038 10
2.478 -11.959 -5.066 10
2.416 -11.555 -5.091 10
2.361 -11.18 -5.123 12
2.305 -10.812 -5.147 12
2.251 -10.448 -5.163 10
2.201 -10.109 -5.186 11
2.15 -9.778 -5.205 15
2.102 -9.456 -5.22 37
6.225 -37.719 -3.651 16
5.484 -32.971 -3.409 11
5.329 -31.752 -3.749 17
5.083 -30.053 -3.938 7
4.793 -28.082 -4.002 6
4.553 -26.443 -4.085 6
4.33 -24.948 -4.154 5
4.133 -23.605 -4.217 6
3.954 -22.406 -4.28 4
3.807 -21.381 -4.362 6
3.661 -20.4 -4.425 9
3.533 -19.511 -4.49 10
3.421 -18.741 -4.572 9
3.304 -17.937 -4.614 41
3.199 -17.229 -4.671 7
3.102 -16.551 -4.718 7
3.008 -15.922 -4.766 9
2.924 -15.33 -4.811 9
2.841 -14.756 -4.846 8
2.761 -14.224 -4.884 39
2.697 -13.76 -4.945 8
2.627 -13.289 -4.985 7
2.555 -12.8 -4.998 9
2.492 -12.378 -5.038 9
2.432 -11.962 -5.068 10
2.372 -11.561 -5.095 10
2.318 -11.183 -5.125 12
2.262 -10.814 -5.149 8
2.209 -10.45 -5.165 11
2.16 -10.108 -5.185 12
2.109 -9.774 -5.201 12
2.065 -9.463 -5.226 38
6.104 -37.707 -3.649 16
5.38 -32.975 -3.41 10
5.227 -31.752 -3.749 17
4.984 -30.037 -3.935 6
4.703 -28.096 -4.005 7
4.467 -26.449 -4.087 6
4.247 -24.95 -4.154 5
4.055 -23.61 -4.218 6
3.88 -22.413 -4.282 4
3.735 -21.385 -4.363 6
3.591 -20.4 -4.425 9
3.465 -19.506 -4.488 9
3.355 -18.736 -4.57 8
3.242 -17.939 -4.615 37
3.138 -17.227 -4.67 8
3.043 -16.549 -4.717 8
2.951 -15.919 -4.764 10
2.868 -15.331 -4.812 8
2.788 -14.761 -4.848 8
2.71 -14.228 -4.887 41
2.646 -13.764 -4.947 8
2.577 -13.289 -4.985 7
2.507 -12.804 -5.001 9
2.446 -12.381 -5.04 10
2.387 -11.964 -5.07 10
2.327 -11.561 -5.095 10
2.274 -11.182 -5.124 11
2.22 -10.816 -5.15 11
2.168 -10.452 -5.166 11
2.12 -10.11 -5.187 11
2.07 -9.779 -5.206 13
2.025 -9.462 -5.225 38
5.983 -37.697 -3.647 20
5.278 -32.991 -3.413 9
5.126 -31.761 -3.751 18
4.887 -30.041 -3.935 6
4.61 -28.088 -4.003 6
4.378 -26.436 -4.083 6
4.164 -24.947 -4.153 5
3.975 -23.6 -4.215 6
3.802 -22.398 -4.278 4
3.661 -21.374 -4.36 6
3.52 -20.392 -4.422 9
3.399 -19.509 -4.489 9
3.29 -18.738 -4.571 8
3.18 -17.944 -4.617 36
3.076 -17.221 -4.667 7
2.984 -16.551 -4.718 7
2.894 -15.924 -4.767 9
2.814 -15.336 -4.814 8
2.733 -14.757 -4.847 9
2.658 -14.232 -4.889 39
2.595 -13.764 -4.947 8
2.529 -13.296 -4.989 7
2.459 -12.803 -5.0 8
2.399 -12.381 -5.04 10
2.341 -11.964 -5.07 10
2.283 -11.563 -5.097 10
2.232 -11.188 -5.128 12
2.178 -10.818 -5.152 11
2.127 -10.454 -5.168 13
2.08 -10.114 -5.19 11
2.031 -9.78 -5.207 12
1.987 -9.463 -5.226 38
5.864 -37.692 -3.646 21
5.173 -32.995 -3.414 9
5.025 -31.76 -3.751 17
4.788 -30.028 -3.933 6
4.519 -28.086 -4.003 6
4.29 -26.43 -4.082 6
4.082 -24.951 -4.155 5
3.895 -23.592 -4.213 6
3.73 -22.417 -4.284 3
3.59 -21.381 -4.362 5
3.452 -20.402 -4.426 9
3.332 -19.516 -4.491 9
3.224 -18.733 -4.569 8
3.117 -17.946 -4.618 36
3.018 -17.233 -4.673 8
2.925 -16.552 -4.718 7
2.837 -15.922 -4.766 10
2.758 -15.333 -4.813 8
2.679 -14.758 -4.847 9
2.605 -14.229 -4.887 39
2.545 -13.768 -4.949 8
2.479 -13.296 -4.989 4
2.412 -12.809 -5.004 8
2.353 -12.387 -5.044 10
2.295 -11.963 -5.069 10
2.238 -11.563 -5.097 10
2.188 -11.187 -5.128 11
2.135 -10.817 -5.151 11
2.086 -10.456 -5.169 12
2.039 -10.113 -5.19 12
1.992 -9.785 -5.211 13
1.949 -9.465 -5.228 38
5.742 -37.674 -3.643 22
5.07 -33.002 -3.415 10
4.926 -31.779 -3.755 18
4.692 -30.035 -3.934 7
4.427 -28.084 -4.002 7
4.206 -26.442 -4.085 6
4.0 -24.952 -4.155 5
3.817 -23.597 -4.214 6
3.653 -22.41 -4.281 4
3.517 -21.38 -4.362 6
3.382 -20.398 -4.424 9
3.265 -19.514 -4.491 12
3.16 -18.735 -4.569 8
3.054 -17.944 -4.617 30
2.957 -17.231 -4.672 7
2.867 -16.556 -4.72 7
2.781 -15.926 -4.767 9
2.703 -15.337 -4.814 8
2.626 -14.762 -4.849 9
2.554 -14.232 -4.889 39
2.495 -13.772 -4.951 8
2.43 -13.302 -4.993 6
2.363 -12.806 -5.002 9
2.305 -12.386 -5.044 10
2.251 -11.973 -5.076 10
2.194 -11.565 -5.098 10
2.145 -11.192 -5.132 11
2.092 -10.816 -5.15 11
2.044 -10.455 -5.168 11
1.999 -10.115 -5.191 12
1.953 -9.787 -5.212 13
1.91 -9.467 -5.229 40
5.622 -37.664 -3.641 22
4.966 -33.005 -3.416 11
4.824 -31.778 -3.755 19
4.595 -30.03 -3.933 6
4.336 -28.085 -4.002 7
4.117 -26.428 -4.081 5
3.917 -24.948 -4.154 5
3.738 -23.593 -4.213 6
3.58 -22.42 -4.285 3
3.443 -21.372 -4.359 6
3.312 -20.396 -4.423 9
3.197 -19.505 -4.487 27
3.096 -18.741 -4.572 8
2.991 -17.939 -4.615 21
2.896 -17.232 -4.672 8
2.808 -16.554 -4.719 8
2.724 -15.926 -4.768 9
2.647 -15.334 -4.813 8
2.573 -14.766 -4.851 9
2.501 -14.232 -4.889 39
2.443 -13.767 -4.948 8
2.38 -13.299 -4.991 7
2.315 -12.808 -5.003 8
2.259 -12.389 -5.046 9
2.205 -11.972 -5.075 10
2.149 -11.564 -5.097 10
2.101 -11.191 -5.131 11
2.05 -10.818 -5.152 11
2.003 -10.46 -5.172 11
1.959 -10.12 -5.195 12
1.914 -9.788 -5.213 13
1.872 -9.468 -5.23 38
5.5 -37.641 -3.637 22
4.862 -33.012 -3.417 14
4.725 -31.796 -3.758 15
4.496 -30.016 -3.93 6
4.243 -28.075 -4.0 7
4.03 -26.428 -4.081 5
3.835 -24.953 -4.155 5
3.657 -23.581 -4.209 6
3.503 -22.408 -4.281 3
3.37 -21.366 -4.357 5
3.244 -20.402 -4.426 9
3.128 -19.496 -4.484 40
3.03 -18.735 -4.569 8
2.929 -17.944 -4.617 13
2.835 -17.229 -4.671 8
2.749 -16.551 -4.718 7
2.667 -15.927 -4.768 10
2.593 -15.338 -4.815 8
2.519 -14.762 -4.849 9
2.45 -14.236 -4.891 38
2.392 -13.767 -4.948 7
2.33 -13.298 -4.99 7
2.267 -12.812 -5.006 8
2.212 -12.388 -5.045 10
2.159 -11.971 -5.075 10
2.105 -11.57 -5.101 10
2.058 -11.193 -5.133 11
2.009 -10.826 -5.158 11
1.962 -10.461 -5.173 11
1.919 -10.121 -5.196 9
1.874 -9.789 -5.214 13
1.834 -9.475 -5.237 38
5.379 -37.623 -3.634 21
4.753 -32.98 -3.411 13
4.624 -31.798 -3.759 14
4.399 -30.013 -3.929 6
4.15 -28.064 -3.997 7
3.944 -26.429 -4.082 5
3.752 -24.949 -4.154 4
3.581 -23.591 -4.213 5
3.428 -22.407 -4.281 4
3.299 -21.369 -4.358 5
3.173 -20.396 -4.424 9
3.062 -19.502 -4.486 36
2.965 -18.732 -4.568 8
2.867 -17.948 -4.619 8
2.775 -17.234 -4.673 7
2.69 -16.552 -4.718 7
2.61 -15.927 -4.768 10
2.537 -15.334 -4.813 7
2.465 -14.762 -4.849 9
2.398 -14.239 -4.893 40
2.342 -13.771 -4.95 8
2.281 -13.297 -4.99 7
2.22 -12.814 -5.007 8
2.165 -12.39 -5.046 9
2.113 -11.973 -5.076 9
2.062 -11.575 -5.105 10
2.015 -11.195 -5.134 12
1.967 -10.828 -5.159 11
1.921 -10.463 -5.174 11
1.879 -10.126 -5.2 12
1.835 -9.794 -5.218 12
1.795 -9.473 -5.235 35
5.26 -37.611 -3.632 23
4.645 -32.956 -3.406 23
4.524 -31.804 -3.76 18
4.3 -30.0 -3.926 6
4.06 -28.066 -3.998 6
3.859 -26.437 -4.084 6
3.67 -24.948 -4.154 5
3.502 -23.591 -4.213 5
3.351 -22.395 -4.276 4
3.226 -21.368 -4.358 6
3.104 -20.398 -4.424 9
2.994 -19.496 -4.484 25
2.9 -18.734 -4.569 8
2.805 -17.953 -4.62 7
2.715 -17.239 -4.675 7
2.632 -16.552 -4.718 7
2.553 -15.927 -4.768 9
2.483 -15.341 -4.817 8
2.412 -14.762 -4.849 9
2.346 -14.242 -4.894 40
2.292 -13.777 -4.954 8
2.232 -13.304 -4.994 7
2.171 -12.813 -5.007 8
2.119 -12.393 -5.048 9
2.068 -11.975 -5.077 10
2.017 -11.574 -5.104 10
1.972 -11.2 -5.138 11
1.925 -10.83 -5.161 11
1.881 -10.471 -5.181 10
1.839 -10.127 -5.201 11
1.797 -9.801 -5.224 14
1.757 -9.477 -5.238 32
5.139 -37.592 -3.628 24
4.533 -32.899 -3.395 35
4.424 -31.818 -3.763 16
4.204 -29.997 -3.925 6
3.967 -28.051 -3.994 6
3.771 -26.425 -4.081 5
3.588 -24.947 -4.154 5
3.423 -23.586 -4.211 6
3.277 -22.404 -4.28 4
3.154 -21.362 -4.356 6
3.034 -20.392 -4.422 9
2.93 -19.512 -4.49 10
2.836 -18.735 -4.569 8
2.743 -17.954 -4.621 7
2.654 -17.231 -4.672 8
2.574 -16.556 -4.72 7
2.497 -15.931 -4.77 9
2.427 -15.341 -4.817 8
2.359 -14.765 -4.851 8
2.294 -14.238 -4.892 38
2.24 -13.772 -4.951 7
2.183 -13.303 -4.993 8
2.124 -12.819 -5.01 8
2.072 -12.392 -5.047 9
2.022 -11.974 -5.077 10
1.973 -11.575 -5.105 11
1.928 -11.199 -5.136 11
1.882 -10.828 -5.159 11
1.839 -10.469 -5.179 11
1.799 -10.128 -5.202 11
1.757 -9.796 -5.22 13
1.719 -9.478 -5.239 37
5.02 -37.579 -3.626 24
4.435 -32.944 -3.404 29
4.322 -31.812 -3.762 16
4.107 -29.998 -3.926 6
3.878 -28.062 -3.997 6
3.684 -26.421 -4.08 5
3.505 -24.939 -4.151 5
3.345 -23.589 -4.212 6
3.201 -22.391 -4.275 4
3.081 -21.36 -4.355 5
2.966 -20.397 -4.424 9
2.863 -19.509 -4.489 9
2.772 -18.74 -4.571 8
2.681 -17.955 -4.621 7
2.594 -17.236 -4.674 8
2.515 -16.556 -4.72 7
2.44 -15.931 -4.77 9
2.373 -15.345 -4.818 8
2.304 -14.758 -4.847 8
2.243 -14.244 -4.896 38
2.19 -13.771 -4.951 8
2.134 -13.308 -4.996 8
2.077 -12.821 -5.011 8
2.025 -12.393 -5.048 9
1.976 -11.972 -5.075 10
1.928 -11.577 -5.106 13
1.885 -11.2 -5.137 10
1.84 -10.829 -5.161 11
1.798 -10.47 -5.18 12
1.758 -10.13 -5.203 11
1.717 -9.797 -5.221 13
1.681 -9.48 -5.24 14
4.901 -37.571 -3.625 23
4.331 -32.941 -3.403 28
4.222 -31.82 -3.764 16
4.011 -29.995 -3.925 6
3.785 -28.051 -3.994 6
3.6 -26.432 -4.082 6
3.423 -24.938 -4.151 5
3.267 -23.583 -4.21 6
3.127 -22.397 -4.277 5
3.01 -21.361 -4.355 6
2.897 -20.399 -4.425 9
2.796 -19.51 -4.489 9
2.707 -18.736 -4.57 8
2.617 -17.947 -4.618 5
2.534 -17.239 -4.675 7
2.457 -16.559 -4.722 7
2.384 -15.934 -4.772 9
2.317 -15.34 -4.816 8
2.251 -14.761 -4.848 8
2.19 -14.24 -4.893 39
2.14 -13.777 -4.954 8
2.084 -13.304 -4.994 7
2.028 -12.816 -5.008 8
1.979 -12.399 -5.052 9
1.932 -11.981 -5.081 11
1.885 -11.582 -5.11 10
1.842 -11.202 -5.138 11
1.797 -10.827 -5.159 11
1.756 -10.468 -5.179 12
1.718 -10.13 -5.203 10
1.679 -9.801 -5.224 13
1.643 -9.483 -5.244 16
4.782 -37.562 -3.623 24
4.228 -32.954 -3.406 27
4.121 -31.825 -3.765 15
3.913 -29.984 -3.922 6
3.694 -28.046 -3.993 6
3.512 -26.423 -4.08 6
3.341 -24.937 -4.151 4
3.19 -23.593 -4.213 6
3.052 -22.399 -4.278 5
2.936 -21.351 -4.352 6
2.827 -20.396 -4.424 9
2.73 -19.511 -4.489 9
2.643 -18.74 -4.572 8
2.556 -17.958 -4.623 7
2.473 -17.236 -4.674 8
2.398 -16.556 -4.72 7
2.328 -15.937 -4.773 8
2.263 -15.346 -4.819 7
2.199 -14.77 -4.853 8
2.138 -14.239 -4.893 38
2.089 -13.776 -4.954 8
2.035 -13.306 -4.995 8
1.981 -12.821 -5.012 9
1.933 -12.401 -5.053 9
1.886 -11.979 -5.08 10
1.84 -11.58 -5.108 10
1.799 -11.206 -5.142 10
1.756 -10.835 -5.164 11
1.716 -10.472 -5.182 11
1.678 -10.135 -5.207 10
1.64 -9.805 -5.227 13
1.604 -9.484 -5.244 15
4.663 -37.549 -3.621 20
4.124 -32.951 -3.405 36
4.021 -31.83 -3.766 15
3.817 -29.983 -3.922 7
3.603 -28.042 -3.992 6
3.426 -26.418 -4.079 5
3.259 -24.939 -4.151 4
3.111 -23.587 -4.211 5
2.976 -22.388 -4.274 5
2.865 -21.352 -4.352 6
2.758 -20.397 -4.424 9
2.663 -19.511 -4.489 9
2.578 -18.74 -4.572 7
2.494 -17.958 -4.623 7
2.413 -17.235 -4.673 7
2.341 -16.559 -4.722 8
2.271 -15.936 -4.773 9
2.209 -15.349 -4.821 7
2.146 -14.773 -4.855 8
2.086 -14.242 -4.894 31
2.039 -13.778 -4.955 8
1.987 -13.311 -4.998 7
1.933 -12.823 -5.013 8
1.886 -12.403 -5.054 10
1.841 -11.984 -5.083 10
1.796 -11.581 -5.109 10
1.755 -11.205 -5.141 11
1.713 -10.833 -5.163 11
1.674 -10.473 -5.183 12
1.638 -10.135 -5.207 11
1.601 -9.805 -5.228 13
1.567 -9.49 -5.25 13
4.546 -37.551 -3.621 21
4.018 -32.928 -3.4 29
3.922 -31.845 -3.769 15
3.72 -29.972 -3.92 6
3.513 -28.044 -3.992 7
3.339 -26.413 -4.077 5
3.178 -24.941 -4.152 5
3.033 -23.585 -4.211 6
2.901 -22.382 -4.272 5
2.792 -21.346 -4.35 6
2.689 -20.393 -4.422 9
2.597 -19.512 -4.49 9
2.514 -18.737 -4.57 8
2.43 -17.947 -4.618 7
2.353 -17.239 -4.675 8
2.282 -16.558 -4.721 8
2.213 -15.929 -4.769 8
2.153 -15.345 -4.818 8
2.093 -14.775 -4.856 8
2.034 -14.24 -4.893 40
1.988 -13.781 -4.956 8
1.937 -13.313 -4.999 7
1.885 -12.822 -5.012 8
1.84 -12.404 -5.055 10
1.796 -11.989 -5.086 10
1.751 -11.58 -5.108 10
1.713 -11.209 -5.143 11
1.671 -10.834 -5.164 11
1.634 -10.481 -5.188 11
1.598 -10.136 -5.208 12
1.562 -9.812 -5.234 15
1.528 -9.488 -5.248 14
4.429 -37.556 -3.622 9
3.921 -32.987 -3.412 19
3.821 -31.849 -3.77 15
3.624 -29.971 -3.919 6
3.423 -28.047 -3.993 7
3.254 -26.419 -4.079 5
3.095 -24.935 -4.15 5
2.956 -23.59 -4.212 6
2.825 -22.372 -4.269 7
2.72 -21.343 -4.349 6
2.62 -20.398 -4.424 9
2.53 -19.512 -4.49 9
2.45 -18.74 -4.572 9
2.368 -17.947 -4.618 5
2.294 -17.241 -4.676 8
2.224 -16.561 -4.723 8
2.158 -15.934 -4.772 9
2.099 -15.351 -4.822 8
2.04 -14.774 -4.855 8
1.982 -14.238 -4.892 42
1.938 -13.782 -4.957 8
1.888 -13.315 -5.0 8
1.838 -12.826 -5.015 8
1.792 -12.399 -5.052 10
1.75 -11.983 -5.083 9
1.707 -11.584 -5.111 11
1.669 -11.207 -5.142 11
1.629 -10.838 -5.167 12
1.593 -10.478 -5.186 12
1.557 -10.133 -5.206 12
1.522 -9.81 -5.231 13
1.49 -9.495 -5.253 14
4.311 -37.546 -3.62 8
3.817 -32.987 -3.412 19
3.72 -31.853 -3.771 14
3.527 -29.959 -3.917 6
3.331 -28.035 -3.99 6
3.169 -26.421 -4.08 6
3.013 -24.929 -4.148 5
2.878 -23.591 -4.212 6
2.75 -22.365 -4.267 8
2.65 -21.351 -4.352 6
2.551 -20.394 -4.423 9
2.464 -19.515 -4.491 9
2.385 -18.737 -4.57 8
2.307 -17.954 -4.621 5
2.233 -17.237 -4.674 8
2.166 -16.56 -4.722 7
2.101 -15.93 -4.77 9
2.044 -15.35 -4.821 7
1.988 -14.783 -4.86 9
1.93 -14.237 -4.892 43
1.887 -13.781 -4.956 8
1.84 -13.32 -5.003 8
1.79 -12.828 -5.016 7
1.747 -12.406 -5.057 10
1.705 -11.984 -5.083 10
1.663 -11.585 -5.112 10
1.626 -11.207 -5.143 11
1.588 -10.842 -5.17 11
1.552 -10.482 -5.189 12
1.518 -10.14 -5.211 12
1.483 -9.81 -5.232 13
1.451 -9.492 -5.251 13
4.191 -37.523 -3.616 9
3.713 -32.986 -3.412 16
3.62 -31.859 -3.772 12
3.429 -29.945 -3.913 7
3.24 -28.028 -3.988 6
3.083 -26.419 -4.079 5
2.931 -24.927 -4.148 5
2.8 -23.587 -4.211 6
2.677 -22.373 -4.269 11
2.579 -21.355 -4.353 6
2.482 -20.394 -4.423 9
2.397 -19.507 -4.488 9
2.321 -18.736 -4.57 6
2.244 -17.949 -4.619 4
2.173 -17.236 -4.674 8
2.108 -16.563 -4.723 7
2.045 -15.936 -4.773 9
1.989 -15.352 -4.822 7
1.934 -14.777 -4.857 9
1.879 -14.242 -4.895 42
1.837 -13.782 -4.957 8
1.79 -13.318 -5.002 7
1.742 -12.83 -5.017 8
1.699 -12.401 -5.053 10
1.659 -11.986 -5.084 11
1.619 -11.589 -5.115 10
1.583 -11.211 -5.145 11
1.545 -10.843 -5.171 11
1.511 -10.482 -5.19 13
1.478 -10.141 -5.212 12
1.444 -9.814 -5.235 14
1.414 -9.498 -5.256 14
4.073 -37.508 -3.614 7
3.612 -33.001 -3.415 14
3.52 -31.867 -3.774 14
3.331 -29.921 -3.908 10
3.149 -28.023 -3.987 6
2.996 -26.413 -4.077 5
2.85 -24.928 -4.148 5
2.722 -23.584 -4.21 5
2.602 -22.373 -4.269 12
2.507 -21.351 -4.352 5
2.413 -20.394 -4.423 9
2.331 -19.507 -4.488 9
2.256 -18.731 -4.568 5
2.183 -17.952 -4.62 5
2.113 -17.235 -4.673 8
2.05 -16.561 -4.723 7
1.988 -15.934 -4.772 9
1.934 -15.35 -4.821 7
1.881 -14.783 -4.86 9
1.828 -14.244 -4.896 39
1.787 -13.787 -4.96 8
1.741 -13.32 -5.003 7
1.695 -12.83 -5.017 8
1.654 -12.412 -5.061 10
1.615 -11.99 -5.087 9
1.575 -11.59 -5.115 10
1.54 -11.215 -5.148 11
1.503 -10.843 -5.171 12
1.47 -10.486 -5.193 36
1.438 -10.147 -5.217 13
1.405 -9.814 -5.235 13
1.376 -9.498 -5.257 13
3.954 -37.493 -3.611 7
3.508 -33.0 -3.415 19
3.421 -31.876 -3.776 12
3.234 -29.904 -3.904 14
3.059 -28.021 -3.986 6
2.909 -26.403 -4.075 6
2.768 -24.924 -4.147 5
2.645 -23.589 -4.212 6
2.527 -22.365 -4.267 15
2.436 -21.351 -4.352 6
2.345 -20.393 -4.422 9
2.265 -19.509 -4.489 9
2.192 -18.734 -4.569 5
2.121 -17.958 -4.623 4
2.053 -17.238 -4.675 8
1.992 -16.564 -4.724 7
1.932 -15.936 -4.773 9
1.88 -15.352 -4.822 6
1.827 -14.777 -4.857 9
1.776 -14.245 -4.896 40
1.737 -13.785 -4.959 8
1.692 -13.317 -5.002 7
1.648 -12.834 -5.02 9
1.606 -12.403 -5.054 10
1.57 -11.994 -5.09 9
1.531 -11.594 -5.118 10
1.497 -11.216 -5.149 12
1.462 -10.846 -5.173 12
1.428 -10.484 -5.191 47
1.398 -10.144 -5.215 12
1.366 -9.821 -5.24 14
1.338 -9.501 -5.259 14
3.837 -37.485 -3.61 6
3.404 -32.998 -3.414 19
3.32 -31.875 -3.775 13
3.142 -29.94 -3.912 6
2.968 -28.014 -3.985 6
2.825 -26.411 -4.077 6
2.686 -24.921 -4.146 5
2.567 -23.593 -4.213 6
2.453 -22.369 -4.268 17
2.364 -21.347 -4.35 6
2.277 -20.399 -4.425 10
2.199 -19.516 -4.491 9
2.129 -18.744 -4.573 7
2.059 -17.957 -4.622 5
1.992 -17.232 -4.672 9
1.934 -16.569 -4.726 7
1.876 -15.938 -4.774 9
1.826 -15.357 -4.825 7
1.775 -14.786 -4.862 9
1.725 -14.243 -4.895 41
1.687 -13.79 -4.962 8
1.643 -13.318 -5.002 7
1.6 -12.836 -5.021 8
1.561 -12.41 -5.059 9
1.524 -11.988 -5.086 10
1.487 -11.591 -5.116 11
1.454 -11.216 -5.149 12
1.42 -10.85 -5.176 11
1.388 -10.487 -5.193 50
1.358 -10.151 -5.22 10
1.327 -9.817 -5.238 13
1.299 -9.501 -5.259 14
3.718 -37.465 -3.606 7
3.3 -32.993 -3.413 18
3.219 -31.881 -3.777 13
3.048 -29.954 -3.915 6
2.88 -28.031 -3.989 6
2.739 -26.404 -4.075 6
2.605 -24.921 -4.146 5
2.49 -23.589 -4.212 5
2.38 -22.373 -4.269 18
2.294 -21.357 -4.354 6
2.208 -20.399 -4.425 15
2.132 -19.511 -4.49 9
2.064 -18.732 -4.568 8
1.997 -17.955 -4.622 5
1.932 -17.23 -4.671 34
1.877 -16.575 -4.729 7
1.82 -15.943 -4.776 9
1.771 -15.355 -4.824 6
1.722 -14.787 -4.862 9
1.674 -14.248 -4.898 43
1.636 -13.791 -4.962 8
1.595 -13.322 -5.005 7
1.552 -12.837 -5.021 7
1.514 -12.411 -5.06 10
1.48 -11.999 -5.093 10
1.442 -11.591 -5.116 10
1.411 -11.217 -5.149 12
1.377 -10.847 -5.174 11
1.347 -10.487 -5.193 49
1.319 -10.154 -5.223 10
1.288 -9.82 -5.24 13
1.261 -9.504 -5.262 14
3.6 -37.445 -3.603 7
3.195 -32.979 -3.41 21
3.12 -31.898 -3.78 14
2.95 -29.927 -3.909 6
2.788 -28.012 -3.984 6
2.653 -26.4 -4.074 6
2.524 -24.921 -4.146 4
2.412 -23.585 -4.211 5
2.306 -22.376 -4.27 22
2.222 -21.353 -4.352 6
2.138 -20.387 -4.42 24
2.066 -19.514 -4.491 9
2.0 -18.737 -4.57 8
1.936 -17.961 -4.624 7
1.873 -17.232 -4.672 41
1.82 -16.58 -4.731 8
1.763 -15.934 -4.772 9
1.717 -15.36 -4.826 6
1.669 -14.789 -4.863 9
1.622 -14.248 -4.898 43
1.587 -13.795 -4.965 7
1.546 -13.323 -5.005 7
1.504 -12.833 -5.019 9
1.468 -12.415 -5.063 10
1.434 -11.995 -5.091 10
1.398 -11.589 -5.114 11
1.367 -11.214 -5.147 11
1.336 -10.851 -5.177 11
1.306 -10.493 -5.198 50
1.278 -10.154 -5.223 13
1.249 -9.82 -5.24 14
1.223 -9.507 -5.264 13
3.481 -37.411 -3.597 11
3.094 -32.996 -3.414 20
3.02 -31.903 -3.781 13
2.856 -29.932 -3.91 6
2.7 -28.024 -3.987 6
2.568 -26.405 -4.075 5
2.443 -24.921 -4.146 5
2.335 -23.595 -4.214 6
2.232 -22.375 -4.27 24
2.151 -21.355 -4.353 6
2.069 -20.385 -4.42 25
2.001 -19.516 -4.491 9
1.936 -18.736 -4.57 8
1.874 -17.955 -4.622 5
1.813 -17.234 -4.673 46
1.762 -16.581 -4.732 7
1.708 -15.943 -4.776 9
1.662 -15.357 -4.825 6
1.616 -14.786 -4.862 9
1.571 -14.249 -4.899 43
1.536 -13.792 -4.963 7
1.497 -13.327 -5.008 8
1.457 -12.838 -5.022 9
1.421 -12.409 -5.059 10
1.389 -11.996 -5.091 10
1.355 -11.598 -5.121 10
1.325 -11.22 -5.152 12
1.293 -10.844 -5.172 12
1.265 -10.493 -5.198 49
1.239 -10.157 -5.225 13
1.21 -9.823 -5.242 13
1.185 -9.513 -5.269 13
3.365 -37.418 -3.598 19
2.991 -33.002 -3.415 10
2.92 -31.913 -3.783 13
2.76 -29.929 -3.91 6
2.609 -28.013 -3.984 7
2.482 -26.392 -4.072 6
2.361 -24.917 -4.145 5
2.257 -23.591 -4.213 5
2.158 -22.377 -4.271 26
2.079 -21.35 -4.352 6
2.0 -20.38 -4.418 16
1.934 -19.514 -4.491 9
1.873 -18.742 -4.572 8
1.812 -17.957 -4.622 5
1.753 -17.232 -4.672 44
1.703 -16.579 -4.731 7
1.651 -15.937 -4.773 9
1.607 -15.355 -4.824 6
1.564 -14.79 -4.864 8
1.519 -14.25 -4.899 45
1.485 -13.79 -4.962 8
1.448 -13.325 -5.006 7
1.41 -12.838 -5.022 8
1.375 -12.413 -5.061 10
1.343 -11.996 -5.091 10
1.311 -11.599 -5.122 11
1.282 -11.224 -5.154 11
1.251 -10.851 -5.177 12
1.224 -10.493 -5.198 43
1.198 -10.151 -5.22 12
1.171 -9.826 -5.245 13
1.147 -9.509 -5.266 15
3.252 -37.459 -3.605 16
2.888 -33.006 -3.416 14
2.82 -31.91 -3.783 14
2.665 -29.929 -3.91 6
2.518 -28.001 -3.981 6
2.396 -26.392 -4.072 5
2.28 -24.919 -4.146 5
2.18 -23.594 -4.213 6
2.084 -22.372 -4.269 28
2.008 -21.345 -4.35 6
1.932 -20.382 -4.418 10
1.868 -19.512 -4.49 9
1.809 -18.743 -4.573 7
1.751 -17.963 -4.625 7
1.693 -17.233 -4.673 46
1.646 -16.58 -4.731 7
1.596 -15.945 -4.777 9
1.552 -15.356 -4.824 6
1.51 -14.784 -4.861 8
1.468 -14.251 -4.899 50
1.436 -13.793 -4.964 8
1.399 -13.324 -5.006 8
1.362 -12.835 -5.02 9
1.329 -12.412 -5.061 9
1.298 -11.996 -5.091 10
1.266 -11.599 -5.122 10
1.239 -11.224 -5.154 11
1.21 -10.854 -5.179 10
1.183 -10.496 -5.2 39
1.159 -10.159 -5.227 12
1.132 -9.826 -5.245 15
1.109 -9.512 -5.268 15
3.134 -37.434 -3.601 8
2.784 -32.999 -3.414 14
2.72 -31.925 -3.786 13
2.569 -29.918 -3.907 6
2.428 -27.997 -3.98 6
2.311 -26.387 -4.07 6
2.199 -24.914 -4.144 5
2.103 -23.597 -4.214 6
2.011 -22.387 -4.274 28
1.936 -21.34 -4.348 6
1.865 -20.391 -4.422 9
1.802 -19.514 -4.491 9
1.745 -18.745 -4.573 8
1.689 -17.964 -4.625 7
1.634 -17.235 -4.673 43
1.588 -16.585 -4.733 7
1.539 -15.946 -4.777 9
1.498 -15.356 -4.824 4
1.458 -14.799 -4.869 8
1.416 -14.252 -4.9 47
1.385 -13.794 -4.964 8
1.35 -13.325 -5.007 8
1.314 -12.835 -5.02 7
1.283 -12.416 -5.063 10
1.253 -11.999 -5.094 10
1.223 -11.602 -5.124 10
1.196 -11.227 -5.157 9
1.167 -10.854 -5.179 44
1.142 -10.499 -5.202 51
1.118 -10.159 -5.227 11
1.093 -9.831 -5.249 14
1.07 -9.511 -5.268 13
3.017 -37.423 -3.599 7
2.682 -33.004 -3.415 11
2.619 -31.922 -3.785 13
2.473 -29.909 -3.905 6
2.339 -28.0 -3.981 6
2.225 -26.383 -4.069 5
2.118 -24.917 -4.145 5
2.026 -23.602 -4.216 5
1.937 -22.381 -4.272 27
1.865 -21.338 -4.347 6
1.796 -20.386 -4.42 9
1.736 -19.516 -4.491 9
1.681 -18.742 -4.572 8
1.628 -17.965 -4.625 8
1.574 -17.232 -4.672 44
1.53 -16.582 -4.732 7
1.483 -15.946 -4.777 9
1.444 -15.368 -4.83 4
1.405 -14.792 -4.865 8
1.365 -14.255 -4.902 49
1.335 -13.794 -4.964 8
1.302 -13.332 -5.011 7
1.267 -12.838 -5.022 8
1.236 -12.416 -5.063 9
1.208 -12.002 -5.096 10
1.179 -11.605 -5.126 10
1.153 -11.226 -5.156 12
1.125 -10.853 -5.178 48
1.101 -10.498 -5.202 49
1.079 -10.162 -5.229 11
1.054 -9.831 -5.249 12
1.032 -9.51 -5.267 15
2.902 -37.435 -3.601 8
2.578 -32.996 -3.414 12
2.52 -31.937 -3.789 9
2.378 -29.905 -3.904 6
2.25 -28.015 -3.985 6
2.139 -26.366 -4.065 5
2.037 -24.92 -4.146 5
1.949 -23.604 -4.217 5
1.863 -22.383 -4.273 28
1.794 -21.335 -4.346 6
1.727 -20.387 -4.42 9
1.67 -19.513 -4.49 9
1.617 -18.74 -4.571 7
1.566 -17.969 -4.627 8
1.514 -17.232 -4.672 42
1.472 -16.579 -4.731 7
1.427 -15.947 -4.778 9
1.389 -15.358 -4.825 6
1.352 -14.789 -4.863 8
1.314 -14.259 -4.904 47
1.285 -13.798 -4.966 8
1.252 -13.329 -5.009 7
1.219 -12.838 -5.022 7
1.19 -12.416 -5.063 10
1.163 -11.999 -5.093 11
1.134 -11.601 -5.123 11
1.11 -11.222 -5.153 12
1.084 -10.859 -5.183 48
1.06 -10.501 -5.204 46
1.038 -10.161 -5.228 12
1.014 -9.83 -5.248 13
0.994 -9.513 -5.269 13
2.785 -37.421 -3.598 16
2.474 -32.991 -3.413 11
2.419 -31.933 -3.788 11
2.283 -29.897 -3.902 7
2.16 -28.006 -3.983 6
2.055 -26.377 -4.068 5
1.956 -24.914 -4.144 5
1.872 -23.603 -4.216 6
1.789 -22.385 -4.273 28
1.722 -21.329 -4.344 6
1.659 -20.389 -4.421 8
1.604 -19.514 -4.491 10
1.553 -18.741 -4.572 7
1.504 -17.966 -4.626 8
1.455 -17.237 -4.674 38
1.414 -16.583 -4.733 7
1.372 -15.951 -4.78 10
1.335 -15.365 -4.829 6
1.299 -14.789 -4.864 8
1.263 -14.262 -4.906 49
1.235 -13.798 -4.966 8
1.204 -13.332 -5.011 8
1.172 -12.838 -5.022 7
1.143 -12.416 -5.063 10
1.118 -12.006 -5.098 10
1.091 -11.604 -5.126 10
1.067 -11.229 -5.158 11
1.042 -10.858 -5.182 41
1.019 -10.497 -5.201 45
0.999 -10.167 -5.233 12
0.976 -9.835 -5.253 13
0.956 -9.518 -5.274 14
2.665 -37.37 -3.589 19
2.37 -32.968 -3.408 17
2.319 -31.941 -3.789 12
2.188 -29.895 -3.902 7
2.071 -28.009 -3.983 6
1.969 -26.367 -4.065 6
1.875 -24.909 -4.143 5
1.795 -23.6 -4.215 5
1.716 -22.385 -4.273 27
1.651 -21.33 -4.345 7
1.591 -20.389 -4.421 8
1.539 -19.515 -4.491 9
1.49 -18.745 -4.573 7
1.443 -17.971 -4.628 8
1.395 -17.238 -4.675 38
1.356 -16.58 -4.731 8
1.316 -15.952 -4.78 9
1.281 -15.365 -4.829 7
1.246 -14.789 -4.864 8
1.212 -14.262 -4.906 48
1.185 -13.797 -4.966 8
1.155 -13.335 -5.012 7
1.124 -12.838 -5.022 8
1.098 -12.425 -5.069 9
1.072 -12.001 -5.095 9
1.046 -11.604 -5.125 11
1.024 -11.228 -5.157 11
1.0 -10.858 -5.182 46
0.978 -10.5 -5.203 44
0.959 -10.166 -5.232 13
0.937 -9.834 -5.252 13
0.918 -9.518 -5.274 13
2.548 -37.343 -3.585 12
2.268 -32.982 -3.411 16
2.219 -31.939 -3.789 13
2.092 -29.882 -3.899 8
1.981 -28.01 -3.984 7
1.884 -26.361 -4.063 5
1.794 -24.903 -4.141 5
1.718 -23.602 -4.216 6
1.642 -22.39 -4.275 23
1.581 -21.331 -4.345 6
1.523 -20.39 -4.421 9
1.473 -19.516 -4.491 9
1.426 -18.746 -4.574 8
1.381 -17.96 -4.624 7
1.336 -17.238 -4.675 38
1.299 -16.584 -4.733 7
1.26 -15.952 -4.78 9
1.226 -15.365 -4.829 6
1.193 -14.789 -4.863 8
1.16 -14.259 -4.904 42
1.135 -13.801 -4.968 8
1.106 -13.335 -5.012 7
1.077 -12.841 -5.024 8
1.051 -12.418 -5.064 9
1.027 -12.0 -5.094 9
1.003 -11.609 -5.129 10
0.981 -11.23 -5.159 12
0.958 -10.86 -5.184 45
0.938 -10.502 -5.205 45
0.918 -10.165 -5.231 11
0.898 -9.837 -5.254 14
0.88 -9.519 -5.275 14
2.434 -37.37 -3.589 7
2.165 -32.985 -3.412 15
2.119 -31.953 -3.792 14
1.997 -29.877 -3.898 9
1.892 -28.005 -3.982 7
1.798 -26.348 -4.06 6
1.713 -24.9 -4.14 6
1.641 -23.611 -4.218 6
1.568 -22.384 -4.273 20
1.509 -21.324 -4.343 7
1.454 -20.383 -4.419 9
1.407 -19.513 -4.49 9
1.362 -18.746 -4.574 8
1.32 -17.967 -4.627 7
1.277 -17.241 -4.676 38
1.241 -16.584 -4.733 7
1.203 -15.952 -4.78 9
1.172 -15.369 -4.831 5
1.141 -14.792 -4.865 8
1.109 -14.265 -4.907 43
1.085 -13.8 -4.967 8
1.057 -13.328 -5.008 7
1.03 -12.844 -5.026 8
1.005 -12.424 -5.068 9
0.982 -12.004 -5.097 10
0.959 -11.608 -5.128 10
0.938 -11.229 -5.159 12
0.916 -10.863 -5.186 48
0.896 -10.501 -5.204 44
0.879 -10.17 -5.236 13
0.858 -9.836 -5.253 13
0.841 -9.518 -5.274 14
2.158 -34.785 -3.134 1
2.062 -32.975 -3.41 13
2.019 -31.96 -3.793 13
1.902 -29.868 -3.896 10
1.802 -28.006 -3.983 6
1.713 -26.345 -4.059 7
1.632 -24.901 -4.14 5
1.563 -23.6 -4.215 5
1.495 -22.396 -4.277 22
1.439 -21.329 -4.344 6
1.387 -20.391 -4.422 9
1.341 -19.517 -4.492 9
1.298 -18.743 -4.573 8
1.258 -17.968 -4.627 8
1.217 -17.245 -4.678 41
1.183 -16.584 -4.733 8
1.148 -15.954 -4.781 10
1.118 -15.368 -4.83 5
1.088 -14.796 -4.867 8
1.058 -14.265 -4.907 45
1.035 -13.806 -4.971 8
1.009 -13.334 -5.012 7
0.982 -12.84 -5.023 8
0.959 -12.42 -5.065 10
0.938 -12.01 -5.101 9
0.915 -11.611 -5.13 10
0.896 -11.232 -5.16 11
0.874 -10.862 -5.185 47
0.855 -10.5 -5.204 45
0.838 -10.166 -5.232 12
0.82 -9.84 -5.257 14
0.803 -9.524 -5.279 14
2.202 -37.344 -3.585 6
1.96 -32.985 -3.412 18
1.919 -31.957 -3.793 13
1.808 -29.872 -3.897 13
1.713 -28.0 -3.981 6
1.627 -26.315 -4.051 15
1.551 -24.895 -4.138 5
1.486 -23.601 -4.215 6
1.422 -22.4 -4.278 19
1.368 -21.333 -4.345 7
1.318 -20.387 -4.42 9
1.275 -19.513 -4.49 9
1.235 -18.749 -4.575 6
1.197 -17.967 -4.627 8
1.158 -17.245 -4.678 37
1.126 -16.586 -4.734 7
1.091 -15.951 -4.78 9
1.063 -15.368 -4.83 7
1.035 -14.795 -4.866 8
1.007 -14.271 -4.911 47
0.985 -13.803 -4.969 8
0.959 -13.329 -5.009 7
0.935 -12.846 -5.027 8
0.913 -12.426 -5.069 9
0.893 -12.009 -5.1 9
0.871 -11.607 -5.127 11
0.852 -11.231 -5.16 10
0.832 -10.857 -5.181 48
0.815 -10.505 -5.207 44
0.799 -10.168 -5.234 12
0.78 -9.836 -5.253 15
0.765 -9.525 -5.28 14
2.087 -37.366 -3.589 5
1.857 -32.987 -3.412 21
1.819 -31.967 -3.795 13
1.713 -29.862 -3.894 13
1.624 -28.005 -3.982 7
1.542 -26.316 -4.051 21
1.47 -24.895 -4.138 5
1.41 -23.609 -4.218 5
1.348 -22.408 -4.281 17
1.298 -21.334 -4.346 7
1.25 -20.391 -4.422 9
1.21 -19.517 -4.492 10
1.171 -18.749 -4.575 8
1.135 -17.964 -4.625 8
1.098 -17.24 -4.676 39
1.068 -16.59 -4.736 7
1.035 -15.95 -4.779 12
1.009 -15.37 -4.832 7
0.982 -14.794 -4.866 9
0.955 -14.267 -4.908 48
0.935 -13.805 -4.97 8
0.911 -13.339 -5.015 7
0.888 -12.848 -5.028 8
0.866 -12.425 -5.069 10
0.847 -12.007 -5.099 10
0.827 -11.609 -5.129 10
0.81 -11.236 -5.163 9
0.79 -10.862 -5.185 48
0.774 -10.504 -5.207 44
0.759 -10.17 -5.235 11
0.741 -9.841 -5.257 13
0.727 -9.526 -5.281 14
1.971 -37.349 -3.586 4
1.753 -32.969 -3.409 19
1.719 -31.977 -3.797 13
1.619 -29.871 -3.896 16
1.534 -27.999 -3.981 6
1.458 -26.317 -4.052 26
1.39 -24.892 -4.138 6
1.332 -23.605 -4.217 6
1.275 -22.412 -4.282 12
1.227 -21.326 -4.343 7
1.182 -20.391 -4.422 9
1.144 -19.513 -4.49 9
1.108 -18.749 -4.575 8
1.074 -17.971 -4.628 8
1.039 -17.244 -4.678 32
1.01 -16.585 -4.734 7
0.979 -15.942 -4.775 38
0.955 -15.369 -4.831 8
0.93 -14.796 -4.867 9
0.904 -14.269 -4.91 47
0.885 -13.804 -4.97 8
0.862 -13.331 -5.01 8
0.841 -12.853 -5.032 8
0.82 -12.427 -5.07 10
0.802 -12.009 -5.1 9
0.783 -11.611 -5.13 11
0.767 -11.231 -5.16 8
0.749 -10.867 -5.189 46
0.733 -10.506 -5.208 44
0.719 -10.174 -5.239 13
0.702 -9.843 -5.259 13
0.689 -9.522 -5.278 16
1.855 -37.346 -3.585 7
1.651 -32.97 -3.409 21
1.619 -31.982 -3.798 15
1.524 -29.865 -3.895 21
1.445 -28.002 -3.982 6
1.373 -26.317 -4.052 26
1.309 -24.895 -4.139 6
1.255 -23.605 -4.217 5
1.201 -22.412 -4.282 14
1.156 -21.326 -4.343 7
1.114 -20.391 -4.422 9
1.078 -19.516 -4.491 13
1.044 -18.752 -4.576 7
1.012 -17.974 -4.629 8
0.979 -17.247 -4.679 34
0.953 -16.588 -4.735 7
0.924 -15.948 -4.778 39
0.9 -15.365 -4.829 7
0.877 -14.799 -4.869 8
0.853 -14.275 -4.913 43
0.835 -13.81 -4.973 8
0.814 -13.336 -5.013 7
0.794 -12.852 -5.031 8
0.774 -12.429 -5.071 10
0.757 -12.008 -5.099 10
0.739 -11.61 -5.129 11
0.724 -11.236 -5.164 12
0.707 -10.863 -5.186 41
0.692 -10.507 -5.209 45
0.679 -10.176 -5.24 13
0.664 -9.844 -5.26 14
0.651 -9.524 -5.279 42
1.74 -37.34 -3.584 6
1.546 -32.932 -3.401 28
1.519 -31.982 -3.798 14
1.43 -29.869 -3.896 22
1.356 -28.007 -3.983 7
1.289 -26.317 -4.052 29
1.228 -24.884 -4.135 6
1.178 -23.605 -4.217 5
1.128 -22.412 -4.282 12
1.085 -21.329 -4.344 7
1.046 -20.394 -4.423 9
1.013 -19.515 -4.491 23
0.981 -18.755 -4.577 7
0.951 -17.973 -4.629 7
0.92 -17.253 -4.682 29
0.895 -16.587 -4.735 8
0.868 -15.947 -4.778 39
0.847 -15.378 -4.836 8
0.825 -14.802 -4.87 9
0.802 -14.27 -4.91 38
0.786 -13.816 -4.976 8
0.765 -13.342 -5.017 7
0.746 -12.851 -5.03 8
0.728 -12.424 -5.069 9
0.712 -12.007 -5.099 10
0.695 -11.611 -5.13 11
0.681 -11.238 -5.165 10
0.665 -10.865 -5.187 23
0.651 -10.506 -5.208 45
0.639 -10.169 -5.234 12
0.625 -9.846 -5.262 14
0.612 -9.525 -5.28 40
1.625 -37.341 -3.584 6
1.445 -32.948 -3.405 21
1.419 -31.986 -3.799 16
1.336 -29.873 -3.897 23
1.267 -28.003 -3.982 6
1.204 -26.317 -4.052 28
1.148 -24.884 -4.135 6
1.102 -23.613 -4.219 5
1.054 -22.418 -4.284 9
1.015 -21.328 -4.344 7
0.978 -20.389 -4.421 9
0.946 -19.503 -4.487 41
0.917 -18.758 -4.579 7
0.89 -17.976 -4.63 8
0.861 -17.26 -4.684 28
0.838 -16.597 -4.739 8
0.812 -15.946 -4.777 39
0.792 -15.373 -4.833 8
0.772 -14.804 -4.871 9
0.75 -14.269 -4.91 38
0.735 -13.807 -4.971 8
0.716 -13.337 -5.014 7
0.699 -12.85 -5.029 8
0.682 -12.43 -5.072 9
0.667 -12.008 -5.1 9
0.651 -11.613 -5.131 11
0.638 -11.24 -5.167 11
0.623 -10.866 -5.188 11
0.611 -10.513 -5.214 51
0.599 -10.177 -5.241 13
0.585 -9.844 -5.26 13
0.574 -9.527 -5.281 44
1.509 -37.33 -3.582 6
1.342 -32.941 -3.403 20
1.319 -31.983 -3.798 14
1.241 -29.869 -3.896 26
1.177 -27.999 -3.981 6
1.12 -26.32 -4.052 30
1.067 -24.876 -4.133 6
1.024 -23.6 -4.215 6
0.98 -22.407 -4.28 7
0.944 -21.335 -4.346 7
0.91 -20.392 -4.422 9
0.881 -19.513 -4.49 39
0.854 -18.753 -4.577 7
0.828 -17.975 -4.63 7
0.802 -17.261 -4.685 25
0.78 -16.599 -4.74 8
0.756 -15.948 -4.778 39
0.738 -15.376 -4.834 8
0.719 -14.799 -4.869 9
0.699 -14.264 -4.907 29
0.685 -13.812 -4.974 8
0.668 -13.342 -5.017 7
0.652 -12.855 -5.033 8
0.636 -12.428 -5.071 10
0.623 -12.017 -5.105 10
0.607 -11.618 -5.135 11
0.596 -11.241 -5.167 12
0.581 -10.868 -5.189 11
0.57 -10.512 -5.213 55
0.559 -10.174 -5.239 12
0.547 -9.849 -5.264 13
0.536 -9.528 -5.283 41
1.207 -32.331 -2.701 30
1.239 -32.933 -3.401 18
1.219 -31.995 -3.801 13
1.147 -29.873 -3.897 24
1.088 -28.006 -3.983 7
1.035 -26.308 -4.049 29
0.987 -24.882 -4.135 6
0.948 -23.611 -4.219 6
0.906 -22.398 -4.278 5
0.874 -21.33 -4.344 9
0.842 -20.387 -4.42 9
0.815 -19.508 -4.488 20
0.79 -18.76 -4.579 7
0.767 -17.976 -4.631 8
0.742 -17.264 -4.686 16
0.723 -16.605 -4.743 8
0.7 -15.95 -4.779 41
0.684 -15.374 -4.833 8
0.667 -14.808 -4.874 9
0.648 -14.273 -4.912 20
0.635 -13.808 -4.972 8
0.619 -13.344 -5.018 7
0.604 -12.857 -5.034 8
0.589 -12.426 -5.07 9
0.577 -12.015 -5.104 10
0.563 -11.616 -5.134 12
0.553 -11.243 -5.168 11
0.539 -10.866 -5.188 12
0.529 -10.51 -5.211 56
0.519 -10.176 -5.24 13
0.507 -9.843 -5.259 14
0.498 -9.529 -5.283 39
1.106 -32.283 -2.692 34
1.137 -32.94 -3.403 19
1.118 -31.99 -3.8 13
1.052 -29.872 -3.896 28
0.999 -28.002 -3.982 6
0.951 -26.311 -4.05 30
0.906 -24.877 -4.133 6
0.87 -23.598 -4.215 5
0.833 -22.401 -4.279 5
0.803 -21.336 -4.347 7
0.774 -20.394 -4.423 9
0.75 -19.515 -4.491 10
0.727 -18.758 -4.579 7
0.705 -17.971 -4.628 7
0.683 -17.266 -4.687 14
0.665 -16.604 -4.742 8
0.644 -15.952 -4.781 39
0.629 -15.369 -4.831 8
0.614 -14.806 -4.873 9
0.597 -14.278 -4.914 14
0.585 -13.812 -4.974 8
0.57 -13.342 -5.017 7
0.557 -12.851 -5.03 8
0.543 -12.435 -5.075 10
0.532 -12.017 -5.105 11
0.519 -11.611 -5.13 10
0.51 -11.241 -5.167 12
0.497 -10.867 -5.189 11
0.488 -10.515 -5.215 47
0.48 -10.183 -5.246 11
0.468 -9.845 -5.261 13
0.46 -9.527 -5.282 42
1.163 -37.326 -3.582 7
1.035 -32.951 -3.405 19
1.018 -31.981 -3.798 19
0.958 -29.883 -3.899 29
0.91 -28.001 -3.981 6
0.866 -26.302 -4.048 28
0.826 -24.88 -4.134 6
0.794 -23.609 -4.218 5
0.759 -22.395 -4.277 5
0.733 -21.338 -4.347 9
0.706 -20.403 -4.426 9
0.685 -19.524 -4.495 9
0.663 -18.759 -4.579 7
0.644 -17.973 -4.629 7
0.624 -17.264 -4.686 10
0.608 -16.602 -4.742 8
0.589 -15.951 -4.78 37
0.575 -15.377 -4.835 8
0.561 -14.808 -4.874 8
0.546 -14.276 -4.913 10
0.535 -13.814 -4.975 8
0.522 -13.344 -5.018 7
0.51 -12.859 -5.035 8
0.497 -12.432 -5.073 10
0.487 -12.014 -5.104 9
0.476 -11.619 -5.135 11
0.467 -11.243 -5.168 13
0.456 -10.874 -5.194 12
0.447 -10.512 -5.213 49
0.439 -10.178 -5.242 13
0.429 -9.849 -5.264 14
0.422 -9.531 -5.285 37
1.048 -37.326 -3.582 7
0.933 -32.958 -3.406 20
0.918 -32.004 -3.803 13
0.864 -29.882 -3.899 30
0.821 -28.007 -3.983 6
0.782 -26.305 -4.048 27
0.745 -24.882 -4.135 6
0.717 -23.603 -4.216 6
0.686 -22.405 -4.28 5
0.662 -21.337 -4.347 9
0.638 -20.398 -4.424 10
