# .PCD v0.7 - Point Cloud Data file format
VERSION 0.7
FIELDS x y z intensity
SIZE 4 4 4 4
TYPE F F F F
COUNT 1 1 1 1
WIDTH 2069
HEIGHT 1
VIEWPOINT 0 0 0 1 0 0 0
POINTS 2069
DATA ascii
7.915 -12.069 -4.838 7
7.685 -11.619 -4.837 7
7.471 -11.203 -4.844 7
7.275 -10.815 -4.858 8
7.08 -10.438 -4.865 9
6.895 -10.077 -4.873 9
6.723 -9.738 -4.886 27
6.555 -9.414 -4.899 24
6.379 -9.079 -4.892 12
0.0 -0.0 3.0 0
21.101 -39.14 -4.608 8
17.838 -32.78 -3.968 17
16.867 -30.724 -4.093 20
16.254 -29.338 -4.315 11
15.652 -28.005 -4.504 6
14.749 -26.153 -4.499 6
13.963 -24.538 -4.502 5
13.259 -23.104 -4.507 6
12.644 -21.839 -4.52 5
12.104 -20.74 -4.549 5
11.596 -19.689 -4.558 22
11.176 -18.82 -4.604 8
10.763 -17.97 -4.628 6
10.368 -17.169 -4.644 6
10.006 -16.428 -4.66 8
9.678 -15.76 -4.687 8
9.375 -15.138 -4.713 5
9.083 -14.542 -4.732 7
8.815 -13.998 -4.759 7
8.564 -13.486 -4.786 5
8.315 -12.988 -4.804 7
8.082 -12.517 -4.822 38
7.859 -12.072 -4.84 7
7.632 -11.624 -4.841 8
7.425 -11.217 -4.854 5
7.227 -10.822 -4.862 8
7.032 -10.443 -4.87 8
6.847 -10.079 -4.875 9
6.681 -9.748 -4.894 12
6.513 -9.421 -4.905 26
6.336 -9.082 -4.895 11
0.0 -0.0 3.0 0
20.913 -39.078 -4.596 8
17.73 -32.823 -3.977 21
16.731 -30.702 -4.088 21
16.137 -29.341 -4.316 14
15.519 -27.974 -4.496 6
14.629 -26.133 -4.494 6
13.851 -24.522 -4.497 5
13.157 -23.097 -4.505 6
12.541 -21.823 -4.514 6
12.013 -20.739 -4.548 5
11.509 -19.687 -4.557 31
11.091 -18.817 -4.603 7
10.683 -17.969 -4.627 7
10.294 -17.173 -4.646 6
9.934 -16.43 -4.662 8
9.607 -15.762 -4.687 8
9.308 -15.141 -4.715 6
9.02 -14.548 -4.735 7
8.753 -14.004 -4.763 7
8.498 -13.481 -4.783 4
8.258 -12.995 -4.808 7
8.025 -12.52 -4.824 39
7.804 -12.078 -4.844 6
7.579 -11.629 -4.844 7
7.369 -11.215 -4.853 7
7.176 -10.826 -4.865 8
6.983 -10.447 -4.872 8
6.804 -10.09 -4.883 10
6.636 -9.753 -4.898 9
6.468 -9.425 -4.909 25
6.294 -9.088 -4.9 20
0.0 -0.0 3.0 0
20.721 -39.004 -4.582 11
17.511 -32.657 -3.941 20
16.559 -30.61 -4.067 21
16.031 -29.365 -4.322 15
15.39 -27.947 -4.488 6
14.509 -26.111 -4.487 6
13.731 -24.492 -4.488 6
13.047 -23.075 -4.497 7
12.445 -21.817 -4.512 6
11.916 -20.724 -4.543 5
11.422 -19.685 -4.556 32
11.005 -18.81 -4.6 9
10.602 -17.967 -4.626 7
10.214 -17.167 -4.643 6
9.863 -16.436 -4.664 8
9.537 -15.763 -4.688 8
9.241 -15.146 -4.717 6
8.955 -14.551 -4.737 6
8.689 -14.007 -4.764 7
8.442 -13.492 -4.79 6
8.2 -12.999 -4.811 7
7.969 -12.527 -4.828 40
7.748 -12.08 -4.845 6
7.526 -11.634 -4.847 7
7.318 -11.218 -4.855 7
7.126 -10.829 -4.868 8
6.937 -10.455 -4.879 8
6.756 -10.092 -4.885 9
6.589 -9.754 -4.899 10
6.426 -9.432 -4.914 24
6.258 -9.103 -4.913 11
20.702 -39.61 -3.984 40
20.536 -38.943 -4.57 10
17.387 -32.667 -3.944 21
16.383 -30.511 -4.044 30
15.931 -29.399 -4.33 16
15.258 -27.915 -4.48 6
14.386 -26.083 -4.479 6
13.624 -24.482 -4.485 6
12.947 -23.07 -4.496 6
12.342 -21.801 -4.507 6
11.826 -20.723 -4.543 5
11.331 -19.675 -4.553 30
10.924 -18.812 -4.601 9
10.524 -17.968 -4.627 7
10.139 -17.171 -4.645 7
9.787 -16.432 -4.662 8
9.465 -15.763 -4.688 8
9.173 -15.147 -4.718 6
8.89 -14.555 -4.739 6
8.628 -14.012 -4.767 7
8.38 -13.494 -4.791 6
8.141 -13.003 -4.813 7
7.914 -12.533 -4.832 38
7.696 -12.089 -4.851 6
7.474 -11.638 -4.85 7
7.266 -11.223 -4.858 7
7.075 -10.832 -4.87 9
6.89 -10.461 -4.883 8
6.711 -10.1 -4.891 10
6.547 -9.765 -4.907 10
6.379 -9.433 -4.915 22
6.217 -9.108 -4.918 13
20.532 -39.576 -3.978 63
20.352 -38.881 -4.558 10
17.198 -32.552 -3.919 22
16.28 -30.545 -4.052 31
15.823 -29.419 -4.335 15
15.122 -27.875 -4.469 6
14.268 -26.065 -4.474 6
13.514 -24.468 -4.481 5
12.839 -23.051 -4.49 7
12.246 -21.793 -4.504 6
11.736 -20.721 -4.542 6
11.25 -19.682 -4.555 28
10.842 -18.811 -4.6 9
10.444 -17.966 -4.626 7
10.063 -17.171 -4.645 6
9.715 -16.435 -4.664 8
9.396 -15.767 -4.69 8
9.104 -15.147 -4.718 6
8.823 -14.554 -4.738 6
8.566 -14.017 -4.77 7
8.324 -13.504 -4.797 6
8.082 -13.006 -4.815 7
7.857 -12.535 -4.833 38
7.64 -12.091 -4.852 6
7.421 -11.643 -4.853 7
7.217 -11.229 -4.863 7
7.027 -10.839 -4.875 8
6.839 -10.461 -4.883 9
6.661 -10.099 -4.89 12
6.503 -9.771 -4.913 11
6.339 -9.442 -4.923 27
6.183 -9.125 -4.932 19
20.376 -39.571 -3.977 46
20.152 -38.788 -4.54 7
17.045 -32.505 -3.909 23
16.171 -30.569 -4.057 29
15.717 -29.441 -4.341 16
15.0 -27.858 -4.465 6
14.149 -26.043 -4.468 6
13.401 -24.448 -4.474 5
12.732 -23.031 -4.483 7
12.148 -21.782 -4.5 6
11.643 -20.712 -4.539 5
11.159 -19.672 -4.551 26
10.759 -18.81 -4.6 9
10.366 -17.967 -4.626 8
9.991 -17.177 -4.648 8
9.643 -16.437 -4.665 8
9.326 -15.768 -4.691 7
9.039 -15.154 -4.721 7
8.758 -14.556 -4.74 6
8.503 -14.018 -4.771 7
8.262 -13.506 -4.798 6
8.024 -13.01 -4.817 7
7.798 -12.535 -4.833 36
7.586 -12.096 -4.855 6
7.368 -11.647 -4.856 7
7.163 -11.23 -4.864 7
6.976 -10.841 -4.877 8
6.793 -10.469 -4.889 9
6.617 -10.107 -4.896 9
6.454 -9.77 -4.912 8
6.294 -9.445 -4.926 30
6.145 -9.136 -4.942 21
20.225 -39.57 -3.977 40
19.95 -38.686 -4.52 6
16.893 -32.458 -3.899 22
16.081 -30.628 -4.071 28
15.611 -29.464 -4.346 15
14.865 -27.816 -4.453 6
14.03 -26.019 -4.461 6
13.292 -24.433 -4.47 5
12.62 -23.002 -4.474 10
12.052 -21.774 -4.497 5
11.55 -20.703 -4.535 5
11.077 -19.675 -4.552 23
10.677 -18.808 -4.599 9
10.286 -17.964 -4.625 8
9.912 -17.17 -4.644 6
9.573 -16.441 -4.667 7
9.256 -15.769 -4.691 8
8.973 -15.156 -4.722 5
8.695 -14.561 -4.742 6
8.44 -14.02 -4.771 7
8.2 -13.506 -4.798 5
7.967 -13.016 -4.821 7
7.744 -12.544 -4.838 38
7.53 -12.098 -4.856 7
7.315 -11.652 -4.859 7
7.114 -11.236 -4.868 7
6.928 -10.847 -4.881 8
6.742 -10.468 -4.888 8
6.571 -10.111 -4.9 9
6.413 -9.78 -4.92 12
6.252 -9.452 -4.931 29
6.101 -9.14 -4.945 22
15.987 -31.514 -2.557 7
19.766 -38.619 -4.507 6
16.776 -32.477 -3.903 25
15.948 -30.606 -4.066 26
15.509 -29.494 -4.354 15
14.744 -27.798 -4.449 6
13.915 -26.003 -4.456 6
13.182 -24.415 -4.464 6
12.51 -22.975 -4.465 20
11.956 -21.766 -4.495 6
11.459 -20.697 -4.533 5
10.994 -19.677 -4.553 16
10.593 -18.804 -4.597 7
10.208 -17.965 -4.626 8
9.836 -17.169 -4.644 8
9.499 -16.44 -4.666 6
9.186 -15.769 -4.691 8
8.905 -15.156 -4.722 5
8.632 -14.567 -4.745 7
8.38 -14.028 -4.776 7
8.142 -13.513 -4.802 6
7.907 -13.016 -4.821 7
7.687 -12.546 -4.84 38
7.476 -12.102 -4.859 7
7.265 -11.658 -4.864 7
7.062 -11.24 -4.87 7
6.879 -10.853 -4.885 8
6.697 -10.476 -4.894 8
6.524 -10.116 -4.903 9
6.369 -9.786 -4.925 10
6.206 -9.452 -4.932 24
6.06 -9.145 -4.949 20
15.855 -31.492 -2.553 29
19.581 -38.548 -4.493 6
16.634 -32.446 -3.897 23
15.811 -30.573 -4.058 29
15.408 -29.525 -4.361 14
14.615 -27.766 -4.44 6
13.799 -25.982 -4.45 6
13.073 -24.399 -4.46 6
12.411 -22.968 -4.463 21
11.862 -21.761 -4.493 6
11.361 -20.677 -4.526 5
10.91 -19.676 -4.553 17
10.509 -18.798 -4.595 7
10.126 -17.957 -4.622 7
9.764 -17.174 -4.647 7
9.424 -16.435 -4.664 7
9.118 -15.772 -4.693 8
8.84 -15.162 -4.726 5
8.567 -14.569 -4.747 7
8.317 -14.029 -4.776 7
8.08 -13.514 -4.802 5
7.848 -13.019 -4.823 7
7.63 -12.548 -4.841 37
7.422 -12.107 -4.862 7
7.212 -11.662 -4.866 7
7.014 -11.249 -4.877 7
6.831 -10.859 -4.889 8
6.649 -10.481 -4.898 8
6.478 -10.12 -4.907 9
6.322 -9.787 -4.926 9
6.167 -9.464 -4.941 23
6.02 -9.153 -4.957 19
15.746 -31.513 -2.557 8
19.391 -38.465 -4.477 5
16.522 -32.475 -3.903 24
15.658 -30.509 -4.044 27
15.302 -29.547 -4.367 15
14.487 -27.734 -4.431 6
13.681 -25.958 -4.443 6
12.963 -24.38 -4.454 6
12.308 -22.954 -4.458 29
11.767 -21.752 -4.49 5
11.275 -20.681 -4.527 5
10.827 -19.678 -4.554 11
10.431 -18.802 -4.597 6
10.048 -17.957 -4.622 7
9.688 -17.173 -4.646 8
9.35 -16.432 -4.662 7
9.052 -15.779 -4.696 8
8.774 -15.164 -4.727 5
8.503 -14.571 -4.748 7
8.254 -14.03 -4.777 7
8.02 -13.517 -4.804 5
7.792 -13.025 -4.826 7
7.575 -12.553 -4.844 34
7.37 -12.114 -4.867 6
7.159 -11.666 -4.869 6
6.965 -11.255 -4.881 7
6.781 -10.861 -4.891 8
6.602 -10.486 -4.901 9
6.432 -10.124 -4.91 9
6.277 -9.791 -4.929 10
6.119 -9.462 -4.939 27
5.977 -9.156 -4.959 24
19.645 -39.617 -3.985 68
19.203 -38.385 -4.461 6
16.416 -32.513 -3.911 36
15.551 -30.535 -4.049 32
15.2 -29.575 -4.374 13
14.359 -27.701 -4.422 6
13.565 -25.937 -4.437 6
12.855 -24.363 -4.449 6
12.213 -22.953 -4.458 33
11.669 -21.74 -4.486 6
11.185 -20.674 -4.525 5
10.739 -19.669 -4.55 10
10.351 -18.802 -4.597 7
9.971 -17.957 -4.622 8
9.613 -17.172 -4.645 6
9.282 -16.44 -4.666 7
8.978 -15.772 -4.693 8
8.708 -15.167 -4.728 6
8.44 -14.575 -4.75 7
8.193 -14.034 -4.779 7
7.963 -13.523 -4.807 5
7.733 -13.027 -4.827 7
7.52 -12.558 -4.847 35
7.316 -12.118 -4.869 6
7.107 -11.669 -4.871 7
6.913 -11.258 -4.883 7
6.73 -10.863 -4.892 8
6.556 -10.493 -4.907 8
6.386 -10.128 -4.913 8
6.233 -9.797 -4.934 9
6.08 -9.473 -4.949 22
5.935 -9.161 -4.963 25
15.13 -30.745 -2.421 2
19.018 -38.308 -4.446 5
16.271 -32.474 -3.903 24
15.356 -30.385 -4.015 31
15.101 -29.61 -4.383 12
14.235 -27.674 -4.415 5
13.447 -25.912 -4.43 6
12.744 -24.34 -4.441 5
12.116 -22.947 -4.456 35
11.574 -21.73 -4.482 5
11.096 -20.67 -4.523 5
10.655 -19.667 -4.55 9
10.271 -18.803 -4.597 7
9.895 -17.959 -4.623 8
9.541 -17.176 -4.647 6
9.207 -16.433 -4.663 8
8.91 -15.775 -4.694 7
8.64 -15.166 -4.727 5
8.376 -14.576 -4.75 7
8.135 -14.044 -4.785 7
7.897 -13.517 -4.804 5
7.673 -13.026 -4.827 7
7.466 -12.566 -4.852 36
7.261 -12.119 -4.87 7
7.056 -11.676 -4.875 7
6.864 -11.264 -4.887 7
6.684 -10.871 -4.899 8
6.509 -10.498 -4.911 9
6.339 -10.132 -4.916 10
6.19 -9.804 -4.939 10
6.034 -9.473 -4.949 17
5.892 -9.164 -4.966 24
15.005 -30.725 -2.418 18
18.839 -38.24 -4.433 5
16.101 -32.385 -3.884 22
15.256 -30.42 -4.023 33
14.993 -29.627 -4.387 14
14.115 -27.654 -4.41 6
13.334 -25.893 -4.425 5
12.638 -24.326 -4.437 4
12.016 -22.936 -4.452 34
11.481 -21.724 -4.48 5
11.008 -20.664 -4.521 6
10.567 -19.659 -4.546 9
10.185 -18.793 -4.593 7
9.817 -17.958 -4.623 8
9.466 -17.174 -4.646 6
9.139 -16.44 -4.666 7
8.845 -15.781 -4.697 8
8.577 -15.174 -4.731 5
8.313 -14.58 -4.753 6
8.07 -14.041 -4.783 7
7.847 -13.535 -4.814 6
7.619 -13.034 -4.832 7
7.409 -12.567 -4.853 35
7.207 -12.123 -4.873 7
7.005 -11.682 -4.879 7
6.816 -11.272 -4.893 7
6.635 -10.876 -4.902 8
6.462 -10.502 -4.914 9
6.295 -10.139 -4.922 9
6.145 -9.807 -4.942 9
5.997 -9.487 -4.96 15
5.85 -9.169 -4.97 23
14.952 -30.855 -2.441 19
18.662 -38.176 -4.421 6
15.976 -32.383 -3.883 23
15.148 -30.441 -4.028 36
14.885 -29.643 -4.391 13
13.989 -27.623 -4.402 6
13.217 -25.867 -4.417 6
12.534 -24.315 -4.434 5
11.92 -22.931 -4.451 28
11.383 -21.706 -4.474 5
10.912 -20.646 -4.515 6
10.48 -19.649 -4.543 9
10.109 -18.799 -4.595 7
9.744 -17.964 -4.625 7
9.392 -17.175 -4.647 8
9.066 -16.437 -4.665 8
8.777 -15.783 -4.698 8
8.509 -15.172 -4.731 5
8.247 -14.579 -4.752 6
8.009 -14.044 -4.785 8
7.784 -13.531 -4.812 4
7.562 -13.039 -4.835 7
7.354 -12.571 -4.855 37
7.153 -12.127 -4.875 7
6.953 -11.685 -4.881 7
6.763 -11.271 -4.892 7
6.587 -10.881 -4.906 8
6.416 -10.509 -4.919 9
6.251 -10.146 -4.927 8
6.1 -9.81 -4.944 9
5.954 -9.493 -4.965 15
5.81 -9.177 -4.977 24
19.052 -39.622 -3.986 62
18.484 -38.106 -4.407 6
15.81 -32.297 -3.865 21
15.013 -30.405 -4.02 31
14.772 -29.649 -4.392 13
13.868 -27.599 -4.395 6
13.106 -25.851 -4.413 6
12.424 -24.291 -4.426 5
11.827 -22.931 -4.451 25
11.292 -21.703 -4.473 5
10.827 -20.648 -4.515 5
10.396 -19.646 -4.541 9
10.028 -18.796 -4.594 7
9.664 -17.959 -4.623 8
9.319 -17.176 -4.647 8
8.998 -16.443 -4.668 7
8.707 -15.782 -4.698 8
8.445 -15.176 -4.733 6
8.188 -14.588 -4.757 6
7.95 -14.051 -4.788 7
7.726 -13.537 -4.816 6
7.506 -13.044 -4.838 7
7.298 -12.573 -4.856 38
7.101 -12.133 -4.879 7
6.904 -11.693 -4.887 7
6.712 -11.273 -4.894 7
6.537 -10.883 -4.907 8
6.366 -10.507 -4.918 8
6.206 -10.152 -4.932 8
6.056 -9.816 -4.949 28
5.908 -9.492 -4.965 14
5.765 -9.176 -4.977 21
14.829 -31.083 -2.481 26
18.305 -38.034 -4.393 6
15.684 -32.291 -3.864 24
14.89 -30.393 -4.017 32
14.637 -29.609 -4.382 20
13.747 -27.574 -4.388 5
12.989 -25.824 -4.405 6
12.317 -24.272 -4.421 5
11.729 -22.922 -4.448 20
11.201 -21.698 -4.471 5
10.736 -20.636 -4.511 6
10.311 -19.639 -4.539 9
9.95 -18.797 -4.595 7
9.587 -17.957 -4.622 8
9.246 -17.176 -4.647 6
8.929 -16.446 -4.669 7
8.638 -15.781 -4.697 7
8.379 -15.178 -4.734 5
8.125 -14.592 -4.759 7
7.888 -14.049 -4.788 7
7.665 -13.536 -4.815 5
7.451 -13.052 -4.842 7
7.244 -12.579 -4.86 39
7.044 -12.131 -4.878 7
6.848 -11.69 -4.885 7
6.664 -11.282 -4.9 7
6.49 -10.89 -4.912 8
6.319 -10.512 -4.921 8
6.16 -10.155 -4.934 9
6.009 -9.817 -4.949 27
5.866 -9.498 -4.969 13
5.722 -9.178 -4.978 24
14.8 -31.266 -2.513 22
18.135 -37.978 -4.382 6
15.499 -32.163 -3.837 19
14.794 -30.437 -4.027 30
14.52 -29.607 -4.382 13
13.624 -27.544 -4.381 6
12.878 -25.807 -4.4 5
12.214 -24.26 -4.417 5
11.64 -22.929 -4.45 14
11.105 -21.684 -4.466 5
10.646 -20.626 -4.507 6
10.229 -19.639 -4.539 10
9.871 -18.796 -4.594 6
9.516 -17.964 -4.625 8
9.171 -17.173 -4.646 8
8.86 -16.449 -4.67 8
8.569 -15.78 -4.696 8
8.315 -15.182 -4.735 5
8.063 -14.595 -4.76 6
7.828 -14.056 -4.791 7
7.609 -13.544 -4.82 7
7.392 -13.05 -4.841 7
7.189 -12.583 -4.863 40
6.994 -12.14 -4.884 7
6.799 -11.699 -4.891 6
6.611 -11.281 -4.899 7
6.44 -10.892 -4.913 8
6.275 -10.521 -4.928 9
6.116 -10.162 -4.939 10
5.964 -9.82 -4.952 28
5.82 -9.497 -4.969 13
5.681 -9.183 -4.983 25
14.74 -31.384 -2.534 19
17.957 -37.903 -4.368 5
15.418 -32.248 -3.855 30
14.668 -30.418 -4.022 33
14.393 -29.58 -4.375 14
13.507 -27.526 -4.376 6
12.768 -25.789 -4.395 6
12.108 -24.242 -4.411 5
11.536 -22.905 -4.442 10
11.016 -21.682 -4.466 5
10.56 -20.624 -4.507 6
10.144 -19.632 -4.536 9
9.79 -18.791 -4.592 7
9.435 -17.955 -4.621 8
9.098 -17.173 -4.646 6
8.79 -16.45 -4.671 8
8.505 -15.788 -4.7 7
8.248 -15.18 -4.735 5
8.001 -14.599 -4.762 7
7.769 -14.062 -4.794 7
7.553 -13.552 -4.824 6
7.335 -13.055 -4.844 7
7.135 -12.587 -4.865 41
6.942 -12.146 -4.888 7
6.748 -11.704 -4.895 7
6.565 -11.291 -4.906 7
6.392 -10.896 -4.916 8
6.226 -10.522 -4.929 8
6.07 -10.165 -4.941 8
5.923 -9.827 -4.958 24
5.779 -9.506 -4.976 10
5.639 -9.187 -4.986 21
14.687 -31.521 -2.558 20
17.783 -37.835 -4.354 5
15.279 -32.213 -3.847 22
14.564 -30.443 -4.028 31
14.267 -29.556 -4.369 12
13.385 -27.496 -4.368 6
12.656 -25.769 -4.389 5
12.007 -24.232 -4.408 5
11.437 -22.891 -4.438 7
10.922 -21.671 -4.462 5
10.473 -20.617 -4.504 6
10.063 -19.631 -4.536 10
9.712 -18.793 -4.593 8
9.355 -17.946 -4.618 8
9.025 -17.172 -4.646 8
8.719 -16.449 -4.671 8
8.438 -15.788 -4.701 7
8.182 -15.18 -4.735 7
7.937 -14.599 -4.762 6
7.705 -14.057 -4.792 7
7.49 -13.547 -4.822 6
7.277 -13.055 -4.844 7
7.08 -12.59 -4.867 8
6.886 -12.146 -4.887 7
6.696 -11.706 -4.896 7
6.516 -11.296 -4.909 7
6.346 -10.903 -4.922 9
6.181 -10.529 -4.934 8
6.025 -10.171 -4.946 9
5.876 -9.827 -4.958 26
5.739 -9.513 -4.982 12
5.596 -9.189 -4.988 23
14.581 -31.543 -2.562 8
17.62 -37.788 -4.345 5
15.153 -32.205 -3.845 24
14.458 -30.466 -4.034 40
14.136 -29.52 -4.36 12
13.264 -27.466 -4.359 6
12.544 -25.747 -4.383 5
11.902 -24.216 -4.403 5
11.336 -22.873 -4.432 6
10.83 -21.662 -4.459 5
10.387 -20.614 -4.503 6
9.982 -19.63 -4.535 10
9.633 -18.791 -4.592 9
9.281 -17.949 -4.619 8
8.952 -17.172 -4.646 8
8.649 -16.449 -4.67 8
8.372 -15.793 -4.703 7
8.122 -15.19 -4.74 6
7.871 -14.595 -4.76 6
7.648 -14.066 -4.797 8
7.431 -13.549 -4.823 6
7.223 -13.063 -4.849 7
7.028 -12.6 -4.873 8
6.835 -12.151 -4.891 6
6.644 -11.709 -4.898 6
6.467 -11.3 -4.913 7
6.296 -10.904 -4.922 8
6.137 -10.538 -4.941 9
5.983 -10.18 -4.953 9
5.832 -9.833 -4.962 24
5.693 -9.512 -4.981 11
5.556 -9.196 -4.994 23
18.185 -39.656 -3.992 62
17.45 -37.725 -4.333 6
15.028 -32.196 -3.843 31
14.353 -30.488 -4.039 31
14.004 -29.482 -4.351 12
13.147 -27.446 -4.354 6
12.427 -25.714 -4.373 6
11.795 -24.192 -4.396 5
11.241 -22.865 -4.429 6
10.743 -21.662 -4.459 5
10.299 -20.607 -4.5 6
9.895 -19.619 -4.531 9
9.556 -18.792 -4.593 7
9.208 -17.953 -4.621 8
8.881 -17.174 -4.646 7
8.58 -16.449 -4.671 7
8.305 -15.794 -4.703 8
8.055 -15.187 -4.738 5
7.812 -14.604 -4.765 7
7.587 -14.067 -4.798 7
7.373 -13.553 -4.825 6
7.164 -13.06 -4.847 7
6.972 -12.6 -4.873 7
6.783 -12.157 -4.895 7
6.595 -11.717 -4.903 6
6.416 -11.302 -4.914 7
6.249 -10.911 -4.927 8
6.086 -10.535 -4.939 15
5.937 -10.182 -4.955 9
5.789 -9.838 -4.967 18
5.652 -9.519 -4.988 13
5.515 -9.2 -4.998 21
18.065 -39.714 -4.003 11
17.28 -37.659 -4.32 6
14.91 -32.201 -3.845 31
14.234 -30.48 -4.037 26
13.874 -29.446 -4.342 13
13.026 -27.415 -4.346 6
12.323 -25.706 -4.371 6
11.694 -24.182 -4.393 5
11.142 -22.85 -4.424 6
10.648 -21.645 -4.453 5
10.209 -20.593 -4.495 6
9.817 -19.624 -4.533 10
9.474 -18.783 -4.589 7
9.133 -17.953 -4.621 8
8.81 -17.177 -4.648 8
8.511 -16.451 -4.671 8
8.234 -15.788 -4.7 7
7.991 -15.19 -4.739 5
7.747 -14.6 -4.763 7
7.525 -14.066 -4.797 8
7.318 -13.561 -4.829 6
7.109 -13.066 -4.851 7
6.919 -12.606 -4.877 7
6.731 -12.162 -4.898 7
6.545 -11.721 -4.906 7
6.368 -11.309 -4.919 8
6.201 -10.914 -4.93 9
6.039 -10.538 -4.941 8
5.889 -10.182 -4.955 10
5.747 -9.846 -4.973 15
5.61 -9.524 -4.992 13
5.472 -9.202 -4.999 23
17.906 -39.685 -3.997 18
17.111 -37.595 -4.308 6
14.782 -32.185 -3.841 36
14.113 -30.469 -4.034 25
13.751 -29.423 -4.336 13
12.909 -27.39 -4.339 6
12.21 -25.679 -4.363 5
11.599 -24.181 -4.393 5
11.048 -22.842 -4.422 6
10.558 -21.639 -4.451 5
10.127 -20.595 -4.496 6
9.731 -19.612 -4.528 25
9.398 -18.787 -4.591 9
9.054 -17.943 -4.616 8
8.737 -17.175 -4.647 6
8.442 -16.452 -4.672 8
8.171 -15.795 -4.704 7
7.929 -15.196 -4.743 7
7.688 -14.608 -4.767 7
7.463 -14.064 -4.796 7
7.258 -13.561 -4.83 6
7.053 -13.07 -4.853 7
6.866 -12.612 -4.881 7
6.678 -12.164 -4.9 7
6.494 -11.726 -4.909 7
6.319 -11.313 -4.922 7
6.155 -10.921 -4.935 9
5.997 -10.55 -4.95 9
5.845 -10.188 -4.959 9
5.703 -9.848 -4.975 12
5.567 -9.528 -4.995 12
5.434 -9.211 -5.007 21
17.764 -39.69 -3.998 6
16.943 -37.531 -4.295 6
14.642 -32.143 -3.832 33
13.99 -30.451 -4.03 27
13.631 -29.407 -4.332 13
12.795 -27.372 -4.334 6
12.104 -25.666 -4.36 6
11.494 -24.16 -4.387 5
10.953 -22.832 -4.419 6
10.466 -21.629 -4.448 5
10.038 -20.585 -4.492 6
9.649 -19.607 -4.526 34
9.321 -18.787 -4.591 8
8.981 -17.946 -4.617 8
8.667 -17.177 -4.648 8
8.375 -16.457 -4.674 8
8.104 -15.795 -4.704 8
7.86 -15.19 -4.739 7
7.625 -14.607 -4.767 6
7.404 -14.069 -4.798 7
7.201 -13.566 -4.832 6
6.997 -13.073 -4.855 7
6.809 -12.611 -4.881 8
6.623 -12.164 -4.899 7
6.442 -11.728 -4.911 7
6.27 -11.317 -4.924 7
6.105 -10.921 -4.935 8
5.949 -10.55 -4.95 8
5.8 -10.193 -4.964 9
5.662 -9.858 -4.983 11
5.525 -9.533 -4.999 15
5.389 -9.21 -5.006 21
17.614 -39.678 -3.996 6
16.787 -37.492 -4.288 5
14.513 -32.122 -3.828 32
13.881 -30.463 -4.033 27
13.506 -29.377 -4.324 11
12.675 -27.34 -4.326 6
11.995 -25.646 -4.354 6
11.394 -24.149 -4.383 5
10.862 -22.83 -4.418 6
10.375 -21.619 -4.444 5
9.955 -20.583 -4.491 6
9.571 -19.611 -4.528 23
9.243 -18.784 -4.589 9
8.906 -17.945 -4.617 8
8.593 -17.172 -4.646 6
8.308 -16.46 -4.676 8
8.039 -15.798 -4.705 7
7.797 -15.191 -4.74 6
7.561 -14.606 -4.766 6
7.345 -14.073 -4.801 7
7.144 -13.569 -4.834 6
6.945 -13.082 -4.861 7
6.756 -12.617 -4.884 7
6.573 -12.172 -4.905 7
6.392 -11.732 -4.913 7
6.22 -11.321 -4.927 7
6.059 -10.928 -4.94 8
5.9 -10.55 -4.95 8
5.756 -10.198 -4.967 10
5.618 -9.861 -4.985 9
5.481 -9.535 -5.001 16
5.349 -9.217 -5.012 19
17.475 -39.69 -3.999 8
16.622 -37.43 -4.276 6
14.403 -32.143 -3.832 33
13.763 -30.455 -4.031 25
13.379 -29.342 -4.316 9
12.561 -27.32 -4.32 6
11.888 -25.629 -4.349 5
11.296 -24.141 -4.381 5
10.765 -22.817 -4.414 6
10.289 -21.618 -4.444 5
9.873 -20.585 -4.492 7
9.492 -19.611 -4.528 9
9.168 -18.787 -4.59 8
8.832 -17.943 -4.616 8
8.524 -17.177 -4.648 7
8.241 -16.464 -4.677 8
7.972 -15.798 -4.705 7
7.732 -15.19 -4.74 6
7.501 -14.61 -4.769 7
7.29 -14.083 -4.807 7
7.087 -13.572 -4.836 6
6.887 -13.082 -4.86 7
6.702 -12.619 -4.885 9
6.521 -12.177 -4.908 7
6.343 -11.74 -4.918 7
6.173 -11.328 -4.932 7
6.011 -10.931 -4.942 8
5.855 -10.556 -4.954 8
5.71 -10.2 -4.969 9
5.576 -9.868 -4.991 10
5.439 -9.539 -5.004 22
5.308 -9.22 -5.015 24
14.141 -32.386 -2.71 13
16.458 -37.372 -4.264 5
14.279 -32.133 -3.83 27
13.643 -30.442 -4.028 27
13.257 -29.319 -4.31 9
12.447 -27.297 -4.314 6
11.788 -25.625 -4.348 5
11.193 -24.122 -4.375 5
10.668 -22.8 -4.408 6
10.198 -21.607 -4.44 6
9.787 -20.575 -4.489 6
9.412 -19.608 -4.527 9
9.089 -18.783 -4.589 8
8.759 -17.945 -4.617 8
8.453 -17.178 -4.648 7
8.175 -16.471 -4.681 8
7.907 -15.801 -4.707 7
7.67 -15.196 -4.743 5
7.439 -14.612 -4.769 6
7.226 -14.078 -4.804 7
7.028 -13.573 -4.836 6
6.833 -13.088 -4.864 7
6.651 -12.628 -4.891 7
6.468 -12.178 -4.908 7
6.291 -11.741 -4.919 7
6.124 -11.331 -4.934 7
5.964 -10.937 -4.946 8
5.81 -10.562 -4.959 9
5.667 -10.208 -4.976 10
5.529 -9.867 -4.99 11
5.396 -9.543 -5.008 27
5.268 -9.227 -5.021 22
13.637 -31.492 -2.553 27
16.296 -37.312 -4.253 6
14.146 -32.1 -3.823 34
13.533 -30.451 -4.03 26
13.137 -29.297 -4.305 7
12.329 -27.268 -4.306 6
11.683 -25.611 -4.344 6
11.097 -24.116 -4.373 5
10.575 -22.794 -4.406 6
10.109 -21.599 -4.437 5
9.705 -20.577 -4.489 7
9.331 -19.605 -4.526 9
9.011 -18.779 -4.587 9
8.688 -17.95 -4.619 8
8.379 -17.172 -4.646 8
8.107 -16.471 -4.681 8
7.842 -15.803 -4.708 7
7.605 -15.195 -4.742 5
7.379 -14.617 -4.772 7
7.168 -14.082 -4.806 7
6.97 -13.576 -4.838 6
6.775 -13.087 -4.864 7
6.595 -12.627 -4.89 7
6.415 -12.179 -4.909 7
6.241 -11.745 -4.922 7
6.075 -11.335 -4.937 6
5.915 -10.937 -4.946 9
5.767 -10.572 -4.967 9
5.623 -10.213 -4.979 10
5.486 -9.871 -4.994 9
5.352 -9.544 -5.008 33
5.225 -9.227 -5.021 24
13.518 -31.481 -2.551 30
14.082 -32.514 -3.32 25
14.018 -32.077 -3.818 36
13.423 -30.459 -4.032 26
13.015 -29.272 -4.298 7
12.215 -27.244 -4.3 6
11.576 -25.593 -4.339 6
11.001 -24.111 -4.371 5
10.483 -22.786 -4.404 6
10.023 -21.597 -4.436 4
9.622 -20.575 -4.489 7
9.253 -19.605 -4.526 9
8.933 -18.775 -4.585 7
8.614 -17.948 -4.619 8
8.31 -17.176 -4.647 8
8.035 -16.464 -4.677 8
7.777 -15.805 -4.709 7
7.543 -15.199 -4.744 5
7.316 -14.614 -4.77 6
7.111 -14.088 -4.809 7
6.913 -13.579 -4.84 6
6.721 -13.093 -4.867 7
6.542 -12.631 -4.893 7
6.363 -12.184 -4.912 7
6.194 -11.754 -4.928 6
6.024 -11.335 -4.937 6
5.871 -10.948 -4.955 8
5.719 -10.572 -4.966 9
5.576 -10.212 -4.979 11
5.446 -9.882 -5.002 9
5.312 -9.551 -5.014 12
5.184 -9.231 -5.024 19
13.406 -31.485 -2.552 22
13.986 -32.567 -3.33 34
13.89 -32.054 -3.813 32
13.31 -30.459 -4.032 25
12.893 -29.243 -4.291 7
12.099 -27.216 -4.292 6
11.465 -25.563 -4.33 5
10.901 -24.095 -4.366 5
10.391 -22.779 -4.401 6
9.935 -21.592 -4.435 4
9.539 -20.572 -4.488 7
9.174 -19.605 -4.526 9
8.858 -18.776 -4.586 9
8.538 -17.943 -4.616 8
8.238 -17.173 -4.646 8
7.97 -16.47 -4.68 8
7.712 -15.807 -4.71 7
7.48 -15.201 -4.745 5
7.259 -14.624 -4.776 7
7.051 -14.089 -4.81 7
6.855 -13.578 -4.84 6
6.666 -13.095 -4.868 7
6.489 -12.636 -4.896 7
6.311 -12.188 -4.915 7
6.14 -11.752 -4.927 7
5.975 -11.339 -4.939 7
5.822 -10.949 -4.955 8
5.672 -10.574 -4.968 8
5.533 -10.22 -4.984 9
5.398 -9.877 -4.998 8
5.269 -9.554 -5.017 12
5.144 -9.237 -5.029 23
13.43 -31.808 -2.609 16
14.037 -32.964 -3.408 14
13.749 -32.001 -3.802 38
13.205 -30.477 -4.036 25
12.769 -29.209 -4.283 7
11.986 -27.192 -4.286 6
11.361 -25.548 -4.326 6
10.8 -24.077 -4.361 5
10.304 -22.781 -4.402 6
9.848 -21.587 -4.433 4
9.453 -20.561 -4.484 6
9.095 -19.604 -4.525 9
8.78 -18.772 -4.584 9
8.469 -17.95 -4.619 8
8.171 -17.18 -4.649 7
7.903 -16.473 -4.682 8
7.645 -15.806 -4.709 7
7.417 -15.202 -4.746 5
7.196 -14.622 -4.774 6
6.991 -14.089 -4.81 7
6.799 -13.584 -4.843 5
6.612 -13.101 -4.872 7
6.433 -12.635 -4.895 7
6.258 -12.189 -4.916 7
6.093 -11.762 -4.933 7
5.927 -11.345 -4.944 7
5.776 -10.954 -4.958 8
5.628 -10.582 -4.974 9
5.489 -10.224 -4.988 8
5.358 -9.887 -5.006 9
5.229 -9.561 -5.023 12
5.104 -9.243 -5.035 20
13.331 -31.845 -2.615 21
13.936 -33.009 -3.416 10
13.608 -31.945 -3.79 32
13.092 -30.477 -4.036 26
12.65 -29.187 -4.277 7
11.876 -27.174 -4.281 6
11.26 -25.539 -4.323 5
10.707 -24.074 -4.36 5
10.209 -22.766 -4.397 6
9.761 -21.581 -4.431 4
9.364 -20.544 -4.477 6
9.012 -19.593 -4.521 9
8.707 -18.776 -4.586 9
8.393 -17.944 -4.617 8
8.101 -17.18 -4.649 8
7.833 -16.469 -4.679 7
7.58 -15.808 -4.71 7
7.355 -15.206 -4.748 5
7.136 -14.625 -4.776 7
6.932 -14.091 -4.811 7
6.744 -13.59 -4.846 6
6.556 -13.102 -4.872 7
6.38 -12.639 -4.898 7
6.21 -12.199 -4.922 7
6.041 -11.762 -4.934 7
5.88 -11.35 -4.947 7
5.728 -10.956 -4.96 8
5.585 -10.59 -4.98 9
5.445 -10.228 -4.991 9
5.312 -9.885 -5.005 10
5.183 -9.559 -5.021 12
5.063 -9.246 -5.038 19
13.215 -31.84 -2.614 21
15.519 -37.074 -4.206 6
13.492 -31.945 -3.79 35
12.98 -30.476 -4.036 27
12.525 -29.149 -4.268 6
11.767 -27.159 -4.277 6
11.153 -25.516 -4.316 5
10.607 -24.056 -4.355 5
10.12 -22.765 -4.397 6
9.674 -21.574 -4.429 4
9.283 -20.544 -4.477 6
8.937 -19.598 -4.523 9
8.63 -18.772 -4.584 8
8.321 -17.944 -4.617 8
8.031 -17.179 -4.648 6
7.767 -16.471 -4.681 8
7.514 -15.806 -4.709 7
7.292 -15.207 -4.748 6
7.074 -14.626 -4.777 6
6.875 -14.097 -4.814 7
6.687 -13.592 -4.847 5
6.5 -13.103 -4.873 7
6.326 -12.64 -4.899 7
6.154 -12.193 -4.918 7
5.993 -11.768 -4.938 7
5.831 -11.353 -4.949 7
5.681 -10.961 -4.964 8
5.54 -10.595 -4.984 9
5.401 -10.233 -4.995 9
5.267 -9.886 -5.005 9
5.143 -9.565 -5.026 11
5.02 -9.246 -5.037 23
13.155 -31.97 -2.637 22
15.363 -37.022 -4.196 2
13.365 -31.92 -3.785 36
12.864 -30.468 -4.034 27
12.407 -29.125 -4.262 6
11.654 -27.133 -4.27 7
11.05 -25.503 -4.313 5
10.511 -24.049 -4.352 5
10.025 -22.749 -4.392 6
9.592 -21.579 -4.43 4
9.202 -20.543 -4.477 7
8.857 -19.593 -4.521 9
8.558 -18.779 -4.587 7
8.252 -17.952 -4.62 8
7.961 -17.179 -4.648 7
7.697 -16.467 -4.679 7
7.451 -15.811 -4.711 7
7.231 -15.211 -4.751 7
7.016 -14.632 -4.78 6
6.816 -14.097 -4.814 10
6.627 -13.588 -4.845 6
6.446 -13.108 -4.876 7
6.276 -12.65 -4.905 7
6.104 -12.201 -4.923 7
5.941 -11.768 -4.938 7
5.782 -11.356 -4.951 7
5.635 -10.967 -4.968 8
5.494 -10.599 -4.987 8
5.355 -10.234 -4.996 9
5.224 -9.89 -5.009 10
5.099 -9.566 -5.026 12
4.982 -9.254 -5.045 21
13.035 -31.955 -2.634 26
15.205 -36.962 -4.185 5
13.255 -31.934 -3.788 33
12.755 -30.474 -4.035 27
12.291 -29.109 -4.258 6
11.548 -27.122 -4.267 6
10.941 -25.472 -4.304 5
10.412 -24.031 -4.347 5
9.932 -22.737 -4.388 6
9.504 -21.569 -4.427 4
9.12 -20.539 -4.476 7
8.778 -19.588 -4.519 9
8.479 -18.77 -4.583 8
8.178 -17.948 -4.618 8
7.893 -17.181 -4.65 8
7.629 -16.465 -4.678 7
7.385 -15.808 -4.71 7
7.166 -15.208 -4.749 5
6.956 -14.636 -4.782 6
6.759 -14.103 -4.818 8
6.573 -13.596 -4.85 6
6.392 -13.113 -4.879 6
6.222 -12.652 -4.906 7
6.054 -12.207 -4.927 8
5.888 -11.765 -4.935 7
5.733 -11.358 -4.953 7
5.587 -10.969 -4.969 7
5.451 -10.607 -4.993 10
5.311 -10.238 -4.999 8
5.182 -9.896 -5.014 8
5.058 -9.572 -5.032 11
4.939 -9.255 -5.045 22
12.96 -32.052 -2.652 36
15.054 -36.916 -4.176 5
13.125 -31.902 -3.781 37
12.643 -30.472 -4.035 25
12.172 -29.08 -4.25 6
11.438 -27.102 -4.262 6
10.84 -25.461 -4.301 6
10.317 -24.022 -4.344 5
9.846 -22.737 -4.388 6
9.418 -21.562 -4.424 5
9.037 -20.532 -4.473 7
8.7 -19.586 -4.519 9
8.405 -18.77 -4.584 8
8.108 -17.952 -4.62 8
7.824 -17.183 -4.65 8
7.564 -16.469 -4.68 7
7.32 -15.809 -4.711 7
7.104 -15.209 -4.749 5
6.894 -14.632 -4.78 6
6.699 -14.102 -4.817 9
6.516 -13.598 -4.851 4
6.339 -13.117 -4.882 7
6.168 -12.652 -4.906 7
6.002 -12.207 -4.927 7
5.841 -11.774 -4.941 7
5.684 -11.36 -4.955 7
5.541 -10.974 -4.973 7
5.402 -10.605 -4.991 7
5.267 -10.242 -5.002 9
5.139 -9.899 -5.016 10
5.018 -9.578 -5.037 13
4.899 -9.26 -5.05 21
16.3 -40.669 -4.171 5
14.912 -36.891 -4.171 4
13.007 -31.893 -3.779 35
12.517 -30.437 -4.027 27
12.053 -29.052 -4.243 6
11.328 -27.079 -4.256 6
10.745 -25.461 -4.301 5
10.218 -24.003 -4.339 5
9.755 -22.728 -4.385 6
9.331 -21.554 -4.422 5
8.954 -20.527 -4.471 6
8.625 -19.591 -4.52 9
8.336 -18.781 -4.588 6
8.036 -17.951 -4.62 8
7.753 -17.179 -4.648 8
7.497 -16.468 -4.679 7
7.259 -15.816 -4.714 7
7.042 -15.211 -4.751 7
6.837 -14.641 -4.785 7
6.642 -14.108 -4.82 10
6.461 -13.603 -4.853 6
6.283 -13.118 -4.882 7
6.117 -12.659 -4.91 7
5.95 -12.211 -4.93 7
5.789 -11.773 -4.941 7
5.635 -11.362 -4.956 7
5.495 -10.978 -4.976 8
5.359 -10.612 -4.997 9
5.224 -10.249 -5.007 10
5.096 -9.903 -5.019 9
4.974 -9.578 -5.037 10
4.859 -9.266 -5.054 20
16.133 -40.61 -4.161 5
14.754 -36.825 -4.158 5
12.892 -31.895 -3.779 32
12.409 -30.445 -4.029 26
11.936 -29.027 -4.237 6
11.222 -27.066 -4.252 6
10.639 -25.437 -4.294 5
10.122 -23.991 -4.335 5
9.665 -22.722 -4.383 6
9.245 -21.547 -4.419 5
8.874 -20.525 -4.47 7
8.545 -19.585 -4.518 9
8.258 -18.774 -4.585 8
7.964 -17.95 -4.619 8
7.685 -17.18 -4.649 7
7.43 -16.469 -4.68 7
7.193 -15.814 -4.713 7
6.98 -15.211 -4.751 6
6.774 -14.637 -4.783 6
6.584 -14.109 -4.821 7
6.407 -13.61 -4.858 6
6.229 -13.122 -4.885 7
6.062 -12.656 -4.908 6
5.9 -12.216 -4.933 7
5.741 -11.779 -4.945 6
5.59 -11.37 -4.961 7
5.449 -10.982 -4.979 8
5.312 -10.613 -4.998 12
5.178 -10.25 -5.008 9
5.053 -9.906 -5.022 10
4.933 -9.584 -5.042 15
4.819 -9.271 -5.06 22
15.965 -40.548 -4.15 6
14.604 -36.779 -4.149 5
12.761 -31.853 -3.771 31
12.293 -30.431 -4.026 16
11.819 -29.0 -4.231 7
11.113 -27.045 -4.247 6
10.535 -25.414 -4.287 5
10.026 -23.979 -4.331 5
9.571 -22.704 -4.377 6
9.159 -21.539 -4.416 5
8.789 -20.512 -4.466 7
8.471 -19.589 -4.519 9
8.186 -18.778 -4.587 6
7.892 -17.949 -4.619 8
7.617 -17.182 -4.65 7
7.363 -16.467 -4.679 7
7.13 -15.817 -4.715 7
6.92 -15.218 -4.754 7
6.715 -14.639 -4.784 6
6.525 -14.108 -4.82 11
6.351 -13.612 -4.859 6
6.174 -13.123 -4.885 7
6.012 -12.666 -4.915 7
5.851 -12.223 -4.938 7
5.691 -11.782 -4.947 7
5.539 -11.37 -4.961 7
5.403 -10.987 -4.982 7
5.267 -10.618 -5.001 9
5.134 -10.253 -5.011 9
5.008 -9.906 -5.022 10
4.89 -9.584 -5.042 11
4.778 -9.274 -5.061 20
15.799 -40.488 -4.139 5
14.457 -36.737 -4.141 5
12.636 -31.826 -3.765 27
12.167 -30.391 -4.016 10
11.703 -28.978 -4.225 6
11.009 -27.035 -4.244 6
10.432 -25.396 -4.282 6
9.933 -23.972 -4.329 5
9.487 -22.708 -4.378 6
9.076 -21.538 -4.416 5
8.711 -20.514 -4.466 7
8.391 -19.582 -4.517 9
8.11 -18.774 -4.585 8
7.819 -17.944 -4.617 8
7.55 -17.187 -4.652 7
7.3 -16.474 -4.682 5
7.066 -15.817 -4.715 7
6.862 -15.227 -4.759 7
6.657 -14.645 -4.787 6
6.468 -14.113 -4.823 9
6.294 -13.613 -4.859 5
6.123 -13.133 -4.891 6
5.958 -12.666 -4.914 7
5.798 -12.222 -4.937 7
5.642 -11.787 -4.951 7
5.495 -11.38 -4.968 7
5.358 -10.994 -4.988 8
5.223 -10.624 -5.006 9
5.087 -10.251 -5.009 9
4.967 -9.913 -5.027 10
4.849 -9.589 -5.046 13
4.737 -9.276 -5.063 21
15.637 -40.435 -4.13 6
13.302 -34.111 -3.63 11
12.506 -31.787 -3.757 29
12.05 -30.373 -4.012 12
11.587 -28.95 -4.218 6
10.899 -27.01 -4.237 6
10.33 -25.377 -4.277 5
9.839 -23.963 -4.326 5
9.403 -22.715 -4.38 6
8.989 -21.526 -4.412 4
8.631 -20.512 -4.466 7
8.311 -19.573 -4.513 9
8.038 -18.777 -4.586 6
7.752 -17.953 -4.621 8
7.482 -17.189 -4.653 8
7.231 -16.468 -4.679 7
7.002 -15.817 -4.715 8
6.798 -15.223 -4.756 6
6.596 -14.643 -4.786 6
6.415 -14.124 -4.829 8
6.236 -13.611 -4.858 5
6.065 -13.128 -4.888 7
5.907 -12.672 -4.918 7
5.748 -12.228 -4.941 7
5.594 -11.792 -4.954 7
5.445 -11.379 -4.967 8
5.309 -10.993 -4.987 8
5.177 -10.625 -5.007 10
5.043 -10.254 -5.011 9
4.922 -9.913 -5.027 8
4.807 -9.591 -5.048 12
4.696 -9.278 -5.065 20
15.47 -40.371 -4.118 6
13.276 -34.356 -3.678 13
12.388 -31.776 -3.754 27
11.941 -30.376 -4.013 12
11.469 -28.92 -4.211 6
10.793 -26.992 -4.233 6
10.231 -25.364 -4.273 6
9.744 -23.949 -4.322 5
9.304 -22.682 -4.37 6
8.906 -21.524 -4.411 4
8.553 -20.515 -4.467 7
8.235 -19.572 -4.513 9
7.963 -18.772 -4.584 6
7.679 -17.949 -4.619 8
7.416 -17.192 -4.655 8
7.166 -16.471 -4.681 7
6.944 -15.831 -4.721 7
6.738 -15.229 -4.76 6
6.538 -14.648 -4.789 6
6.357 -14.126 -4.83 8
6.183 -13.618 -4.862 6
6.014 -13.137 -4.893 7
5.853 -12.672 -4.918 7
5.697 -12.23 -4.942 7
5.544 -11.794 -4.955 7
5.4 -11.39 -4.975 7
5.265 -11.003 -4.994 8
5.133 -10.632 -5.012 9
5.001 -10.261 -5.016 9
4.882 -9.922 -5.034 9
4.765 -9.594 -5.05 13
4.653 -9.278 -5.065 19
15.3 -40.295 -4.105 5
13.046 -34.071 -3.623 18
12.27 -31.761 -3.751 29
11.837 -30.39 -4.016 14
11.362 -28.915 -4.209 6
10.688 -26.977 -4.229 6
10.133 -25.355 -4.27 5
9.648 -23.932 -4.317 6
9.22 -22.685 -4.371 6
8.826 -21.529 -4.413 4
8.472 -20.509 -4.465 7
8.161 -19.575 -4.514 9
7.889 -18.771 -4.584 8
7.609 -17.95 -4.619 8
7.346 -17.19 -4.653 7
7.102 -16.475 -4.682 7
6.88 -15.83 -4.721 7
6.677 -15.231 -4.761 6
6.479 -14.65 -4.79 6
6.299 -14.126 -4.83 10
6.13 -13.628 -4.868 6
5.962 -13.144 -4.897 6
5.801 -12.674 -4.92 7
5.648 -12.236 -4.946 7
5.496 -11.799 -4.958 7
5.352 -11.391 -4.976 7
5.219 -11.007 -4.997 8
5.088 -10.635 -5.014 9
4.958 -10.266 -5.021 9
4.838 -9.922 -5.034 10
4.726 -9.602 -5.057 11
4.615 -9.285 -5.072 16
15.143 -40.252 -4.097 6
12.822 -33.797 -3.57 14
12.151 -31.747 -3.748 27
11.736 -30.411 -4.021 12
11.243 -28.879 -4.2 6
10.579 -26.951 -4.221 6
10.033 -25.338 -4.265 6
9.554 -23.92 -4.313 6
9.135 -22.687 -4.372 5
8.74 -21.519 -4.41 5
8.388 -20.495 -4.46 7
8.083 -19.571 -4.513 9
7.814 -18.766 -4.582 6
7.536 -17.944 -4.617 8
7.277 -17.187 -4.652 8
7.036 -16.475 -4.682 7
6.817 -15.832 -4.722 7
6.615 -15.23 -4.76 7
6.422 -14.658 -4.794 6
6.241 -14.127 -4.831 8
6.072 -13.625 -4.866 6
5.904 -13.137 -4.894 6
5.749 -12.677 -4.922 7
5.595 -12.234 -4.945 6
5.446 -11.801 -4.96 7
5.304 -11.395 -4.979 7
5.173 -11.01 -4.999 8
5.043 -10.639 -5.017 8
4.914 -10.27 -5.023 10
4.797 -9.93 -5.041 9
4.683 -9.605 -5.059 12
4.572 -9.284 -5.071 21
14.981 -40.194 -4.087 5
12.737 -33.887 -3.587 16
12.029 -31.725 -3.743 25
11.639 -30.442 -4.028 11
11.131 -28.858 -4.195 6
10.476 -26.939 -4.218 6
9.933 -25.321 -4.261 6
9.455 -23.895 -4.306 6
9.044 -22.672 -4.366 6
8.657 -21.513 -4.408 5
8.311 -20.499 -4.461 7
8.009 -19.574 -4.514 10
7.742 -18.768 -4.583 6
7.465 -17.942 -4.616 8
7.211 -17.19 -4.654 8
6.972 -16.478 -4.684 7
6.749 -15.822 -4.717 10
6.554 -15.232 -4.761 7
6.362 -14.656 -4.793 6
6.183 -14.128 -4.831 9
6.019 -13.632 -4.87 6
5.851 -13.14 -4.895 7
5.695 -12.676 -4.921 7
5.543 -12.233 -4.944 7
5.397 -11.805 -4.963 8
5.257 -11.399 -4.982 7
5.126 -11.011 -5.0 8
4.997 -10.639 -5.017 8
4.87 -10.272 -5.025 10
4.754 -9.932 -5.043 9
4.643 -9.609 -5.063 12
4.534 -9.292 -5.077 20
14.819 -40.134 -4.077 5
12.647 -33.966 -3.602 17
11.904 -31.69 -3.736 22
11.536 -30.458 -4.032 12
11.017 -28.833 -4.189 6
10.375 -26.931 -4.216 6
9.836 -25.311 -4.258 6
9.363 -23.887 -4.303 6
8.959 -22.669 -4.366 6
8.574 -21.51 -4.406 5
8.227 -20.484 -4.456 7
7.932 -19.569 -4.512 9
7.67 -18.77 -4.583 9
7.394 -17.939 -4.615 8
7.143 -17.191 -4.654 7
6.908 -16.48 -4.685 7
6.686 -15.823 -4.718 41
6.495 -15.236 -4.763 7
6.302 -14.657 -4.793 6
6.127 -14.131 -4.833 8
5.963 -13.632 -4.87 5
5.798 -13.146 -4.899 8
5.644 -12.682 -4.925 7
5.494 -12.242 -4.95 12
5.348 -11.807 -4.964 7
5.21 -11.404 -4.985 7
5.078 -11.012 -5.0 9
4.95 -10.639 -5.017 8
4.825 -10.272 -5.026 8
4.712 -9.934 -5.045 8
4.604 -9.617 -5.07 11
4.493 -9.293 -5.079 21
14.656 -40.067 -4.065 6
12.212 -33.11 -3.436 4
11.79 -31.685 -3.735 27
11.438 -30.485 -4.038 13
10.903 -28.807 -4.182 6
10.265 -26.899 -4.208 6
9.736 -25.293 -4.253 6
9.272 -23.879 -4.3 6
8.872 -22.664 -4.364 6
8.489 -21.5 -4.403 5
8.148 -20.48 -4.454 7
7.856 -19.568 -4.511 9
7.596 -18.768 -4.583 8
7.327 -17.947 -4.618 8
7.076 -17.19 -4.654 7
6.841 -16.477 -4.683 7
6.624 -15.825 -4.718 43
6.434 -15.238 -4.764 6
6.245 -14.661 -4.796 6
6.069 -14.132 -4.834 8
5.909 -13.638 -4.874 6
5.745 -13.149 -4.901 6
5.593 -12.687 -4.928 7
5.446 -12.25 -4.955 7
5.301 -11.814 -4.968 9
5.161 -11.404 -4.985 7
5.034 -11.019 -5.006 8
4.905 -10.643 -5.02 7
4.781 -10.275 -5.027 8
4.67 -9.94 -5.049 10
4.562 -9.62 -5.072 10
4.452 -9.295 -5.08 22
14.503 -40.028 -4.058 6
12.076 -33.053 -3.425 7
11.675 -31.676 -3.733 26
11.341 -30.516 -4.045 14
10.797 -28.8 -4.181 6
10.167 -26.897 -4.207 5
9.635 -25.271 -4.246 6
9.179 -23.867 -4.297 6
8.788 -22.665 -4.364 6
8.407 -21.497 -4.402 5
8.067 -20.472 -4.451 7
7.781 -19.566 -4.511 9
7.523 -18.765 -4.582 8
7.257 -17.948 -4.618 8
7.01 -17.194 -4.655 8
6.781 -16.489 -4.689 8
6.562 -15.827 -4.719 46
6.373 -15.239 -4.765 7
6.187 -14.665 -4.797 6
6.013 -14.135 -4.835 7
5.854 -13.641 -4.876 6
5.691 -13.151 -4.902 6
5.541 -12.689 -4.929 7
5.394 -12.248 -4.954 7
5.251 -11.815 -4.969 7
5.114 -11.408 -4.988 7
4.985 -11.016 -5.003 8
4.86 -10.645 -5.022 7
4.737 -10.277 -5.029 7
4.628 -9.945 -5.053 8
4.521 -9.624 -5.076 11
4.411 -9.296 -5.081 18
14.344 -39.972 -4.048 6
11.95 -33.023 -3.419 21
11.548 -31.633 -3.724 32
11.239 -30.535 -4.05 14
10.685 -28.776 -4.175 6
10.063 -26.88 -4.203 6
9.543 -25.271 -4.246 6
9.089 -23.862 -4.295 6
8.702 -22.662 -4.363 6
8.325 -21.493 -4.401 5
7.987 -20.465 -4.449 7
7.707 -19.568 -4.511 12
7.453 -18.769 -4.583 8
7.188 -17.948 -4.618 8
6.941 -17.19 -4.654 7
6.711 -16.478 -4.684 7
6.501 -15.832 -4.722 46
6.311 -15.237 -4.764 7
6.128 -14.666 -4.798 6
5.958 -14.141 -4.839 7
5.798 -13.641 -4.876 6
5.638 -13.154 -4.903 7
5.49 -12.694 -4.932 7
5.344 -12.252 -4.957 7
5.203 -11.819 -4.972 7
5.066 -11.408 -4.988 7
4.941 -11.025 -5.01 8
4.817 -10.651 -5.026 8
4.696 -10.286 -5.036 8
4.585 -9.947 -5.055 10
4.476 -9.62 -5.072 12
4.371 -9.301 -5.085 18
14.182 -39.903 -4.036 5
11.845 -33.051 -3.424 30
11.437 -31.634 -3.724 30
11.139 -30.557 -4.055 13
10.574 -28.754 -4.169 6
9.959 -26.863 -4.198 6
9.447 -25.26 -4.243 6
8.999 -23.857 -4.294 6
8.613 -22.648 -4.359 5
8.244 -21.492 -4.4 5
7.909 -20.463 -4.448 7
7.63 -19.562 -4.509 25
7.38 -18.767 -4.582 8
7.117 -17.944 -4.617 8
6.873 -17.19 -4.653 7
6.648 -16.483 -4.686 7
6.439 -15.833 -4.722 45
6.252 -15.241 -4.765 6
6.072 -14.673 -4.802 6
5.902 -14.145 -4.841 7
5.745 -13.647 -4.879 6
5.585 -13.155 -4.904 6
5.44 -12.699 -4.935 7
5.294 -12.254 -4.958 7
5.152 -11.817 -4.971 8
5.02 -11.415 -4.993 7
4.894 -11.025 -5.01 7
4.77 -10.651 -5.026 10
4.652 -10.288 -5.038 9
4.543 -9.949 -5.057 9
4.433 -9.619 -5.071 23
4.33 -9.302 -5.086 20
14.031 -39.862 -4.029 5
11.852 -33.393 -3.491 19
11.324 -31.627 -3.723 29
11.042 -30.586 -4.061 15
10.463 -28.73 -4.163 6
9.855 -26.842 -4.192 5
9.349 -25.244 -4.239 6
8.911 -23.854 -4.293 7
8.53 -22.649 -4.359 6
8.159 -21.478 -4.395 5
7.831 -20.461 -4.447 7
7.551 -19.549 -4.504 36
7.309 -18.771 -4.584 6
7.048 -17.944 -4.617 8
6.807 -17.191 -4.654 8
6.586 -16.488 -4.689 7
6.375 -15.831 -4.721 47
6.191 -15.241 -4.766 5
6.013 -14.673 -4.802 6
5.845 -14.145 -4.841 9
5.687 -13.642 -4.876 6
5.533 -13.161 -4.908 7
5.387 -12.701 -4.936 7
5.245 -12.261 -4.962 7
5.104 -11.821 -4.973 7
4.974 -11.422 -4.997 7
4.849 -11.031 -5.015 8
4.727 -10.657 -5.03 9
4.61 -10.293 -5.042 9
4.501 -9.954 -5.06 9
4.392 -9.623 -5.075 26
4.292 -9.309 -5.093 21
13.872 -39.8 -4.018 6
11.661 -33.181 -3.45 15
11.218 -31.639 -3.725 30
10.943 -30.612 -4.067 14
10.354 -28.714 -4.159 6
9.757 -26.838 -4.191 5
9.256 -25.24 -4.237 6
8.82 -23.845 -4.29 7
8.441 -22.635 -4.355 5
8.081 -21.484 -4.398 5
7.756 -20.467 -4.449 7
7.476 -19.547 -4.503 36
7.235 -18.764 -4.581 6
6.978 -17.943 -4.616 8
6.741 -17.194 -4.655 8
6.523 -16.493 -4.691 7
6.314 -15.836 -4.724 46
6.132 -15.246 -4.768 7
5.954 -14.673 -4.802 6
5.788 -14.147 -4.842 9
5.635 -13.651 -4.881 4
5.479 -13.163 -4.909 6
5.335 -12.702 -4.937 7
5.191 -12.252 -4.957 7
5.057 -11.827 -4.977 8
4.927 -11.425 -5.0 7
4.805 -11.037 -5.019 16
4.683 -10.662 -5.034 9
4.563 -10.29 -5.039 8
4.459 -9.959 -5.064 9
4.35 -9.625 -5.076 23
4.252 -9.313 -5.096 18
13.723 -39.762 -4.011 5
11.826 -33.983 -3.606 19
11.106 -31.635 -3.724 28
10.841 -30.629 -4.071 14
10.242 -28.686 -4.152 6
9.653 -26.816 -4.185 5
9.158 -25.223 -4.233 6
8.731 -23.838 -4.288 6
8.359 -22.638 -4.356 5
7.999 -21.479 -4.396 5
7.678 -20.461 -4.447 7
7.4 -19.54 -4.501 23
7.167 -18.775 -4.585 9
6.91 -17.946 -4.617 8
6.673 -17.189 -4.653 8
6.459 -16.495 -4.692 7
6.252 -15.837 -4.724 45
6.073 -15.249 -4.77 6
5.896 -14.675 -4.803 7
5.732 -14.15 -4.843 7
5.582 -13.657 -4.885 6
5.427 -13.168 -4.912 6
5.282 -12.7 -4.936 7
5.144 -12.263 -4.964 7
5.008 -11.831 -4.98 7
4.879 -11.425 -5.0 7
4.76 -11.043 -5.023 8
4.641 -10.67 -5.041 10
4.522 -10.298 -5.045 9
4.414 -9.954 -5.061 8
4.309 -9.626 -5.077 22
4.215 -9.323 -5.104 22
13.562 -39.691 -3.999 6
11.587 -33.632 -3.537 17
10.974 -31.572 -3.711 21
10.742 -30.654 -4.077 14
10.137 -28.676 -4.15 6
9.553 -26.804 -4.182 6
9.065 -25.218 -4.231 6
8.64 -23.828 -4.285 7
8.27 -22.624 -4.351 5
7.92 -21.481 -4.396 4
7.6 -20.459 -4.446 8
7.333 -19.558 -4.508 10
7.095 -18.771 -4.584 6
6.84 -17.941 -4.615 8
6.609 -17.194 -4.655 8
6.394 -16.492 -4.69 7
6.189 -15.833 -4.722 44
6.013 -15.249 -4.77 6
5.84 -14.682 -4.807 6
5.675 -14.149 -4.843 9
5.525 -13.652 -4.882 6
5.373 -13.166 -4.911 6
5.233 -12.707 -4.94 7
5.094 -12.266 -4.966 7
4.96 -11.835 -4.983 8
4.832 -11.428 -5.002 7
4.713 -11.042 -5.023 7
4.596 -10.673 -5.043 10
4.478 -10.299 -5.047 8
4.375 -9.965 -5.069 9
4.269 -9.633 -5.083 15
4.176 -9.33 -5.11 18
13.415 -39.657 -3.993 5
11.388 -33.388 -3.49 20
10.846 -31.52 -3.7 29
10.644 -30.683 -4.084 17
10.028 -28.655 -4.144 6
9.453 -26.793 -4.179 6
8.97 -25.204 -4.227 5
8.55 -23.817 -4.282 7
8.185 -22.618 -4.349 6
7.84 -21.48 -4.396 5
7.523 -20.456 -4.445 7
7.257 -19.551 -4.505 9
7.022 -18.766 -4.582 8
6.773 -17.947 -4.618 8
6.544 -17.2 -4.658 8
6.332 -16.497 -4.692 7
6.13 -15.841 -4.726 46
5.954 -15.252 -4.771 7
5.781 -14.681 -4.806 6
5.62 -14.155 -4.846 8
5.471 -13.657 -4.885 6
5.321 -13.171 -4.914 6
5.181 -12.709 -4.941 7
5.042 -12.264 -4.964 7
4.911 -11.834 -4.982 7
4.785 -11.431 -5.004 7
4.67 -11.051 -5.029 8
4.553 -10.678 -5.047 10
4.436 -10.304 -5.051 8
4.33 -9.961 -5.066 8
4.227 -9.634 -5.084 14
4.138 -9.336 -5.115 18
11.418 -34.096 -3.012 2
11.312 -33.503 -3.512 23
10.744 -31.541 -3.704 27
10.545 -30.707 -4.089 16
9.922 -28.64 -4.141 6
9.349 -26.769 -4.173 6
8.874 -25.191 -4.223 6
8.461 -23.81 -4.279 7
8.103 -22.622 -4.35 5
7.758 -21.47 -4.393 5
7.447 -20.457 -4.446 8
7.185 -19.555 -4.506 9
6.951 -18.766 -4.582 8
6.703 -17.942 -4.616 8
6.478 -17.2 -4.658 8
6.268 -16.498 -4.693 7
6.066 -15.838 -4.725 47
5.895 -15.256 -4.773 6
5.724 -14.684 -4.808 6
5.566 -14.16 -4.849 7
5.418 -13.662 -4.888 6
5.266 -13.168 -4.912 6
5.132 -12.716 -4.946 7
4.994 -12.271 -4.969 7
4.864 -11.841 -4.987 7
4.738 -11.434 -5.006 7
4.622 -11.05 -5.029 9
4.505 -10.673 -5.043 8
4.394 -10.312 -5.056 7
4.29 -9.967 -5.071 10
4.187 -9.638 -5.088 12
4.101 -9.345 -5.124 22
13.112 -39.556 -3.975 5
11.192 -33.488 -3.51 30
10.643 -31.565 -3.709 28
10.444 -30.723 -4.093 13
9.813 -28.618 -4.135 6
9.251 -26.76 -4.17 6
8.787 -25.199 -4.226 6
8.37 -23.798 -4.276 6
8.017 -22.609 -4.346 5
7.678 -21.468 -4.392 5
7.371 -20.457 -4.446 8
7.111 -19.555 -4.506 9
6.881 -18.769 -4.583 8
6.634 -17.941 -4.615 8
6.413 -17.202 -4.659 8
6.204 -16.498 -4.693 7
6.007 -15.845 -4.728 45
5.836 -15.258 -4.774 6
5.667 -14.686 -4.809 6
5.507 -14.156 -4.847 7
5.362 -13.66 -4.886 6
5.216 -13.175 -4.917 7
5.08 -12.716 -4.946 7
4.943 -12.268 -4.967 7
4.815 -11.84 -4.986 7
4.692 -11.439 -5.01 7
4.58 -11.061 -5.037 7
4.463 -10.682 -5.049 9
4.352 -10.316 -5.06 8
4.248 -9.971 -5.075 9
4.146 -9.642 -5.09 11
4.054 -9.332 -5.112 16
12.963 -39.512 -3.967 6
11.094 -33.536 -3.519 20
10.539 -31.582 -3.713 27
10.342 -30.74 -4.097 14
9.707 -28.603 -4.132 6
9.151 -26.747 -4.167 6
8.69 -25.182 -4.221 6
8.284 -23.798 -4.276 7
7.935 -22.611 -4.347 5
7.601 -21.472 -4.393 4
7.293 -20.45 -4.443 9
7.037 -19.551 -4.505 10
6.811 -18.771 -4.584 8
6.568 -17.945 -4.617 8
6.347 -17.203 -4.659 8
6.142 -16.502 -4.695 7
5.945 -15.844 -4.728 46
5.774 -15.255 -4.773 6
5.609 -14.688 -4.81 6
5.454 -14.164 -4.851 7
5.308 -13.661 -4.887 6
5.164 -13.18 -4.919 6
5.028 -12.717 -4.946 7
4.896 -12.278 -4.973 7
4.768 -11.847 -4.991 8
4.644 -11.438 -5.009 7
4.533 -11.061 -5.036 8
4.418 -10.684 -5.051 8
4.308 -10.318 -5.061 8
4.207 -9.975 -5.078 9
4.106 -9.646 -5.094 11
4.011 -9.329 -5.11 16
12.808 -39.446 -3.955 7
10.968 -33.502 -3.512 20
10.427 -31.572 -3.711 30
10.233 -30.733 -4.095 14
9.599 -28.58 -4.126 6
9.052 -26.734 -4.163 6
8.597 -25.171 -4.218 6
8.191 -23.775 -4.269 7
7.847 -22.595 -4.341 5
7.52 -21.466 -4.391 5
7.218 -20.453 -4.444 8
6.965 -19.554 -4.506 10
6.738 -18.766 -4.582 8
6.499 -17.944 -4.617 8
6.278 -17.193 -4.655 8
6.078 -16.502 -4.695 7
5.886 -15.851 -4.731 47
5.716 -15.257 -4.774 6
5.552 -14.691 -4.811 6
5.396 -14.159 -4.848 9
5.256 -13.669 -4.892 5
5.111 -13.18 -4.92 6
4.977 -12.721 -4.949 7
4.845 -12.277 -4.973 7
4.72 -11.85 -4.993 7
4.598 -11.444 -5.013 7
4.489 -11.066 -5.04 8
4.376 -10.691 -5.057 8
4.267 -10.325 -5.067 8
4.165 -9.98 -5.081 9
4.064 -9.647 -5.094 11
3.973 -9.336 -5.115 15
12.654 -39.382 -3.944 8
10.848 -33.486 -3.509 25
10.311 -31.552 -3.706 32
10.117 -30.704 -4.089 16
9.495 -28.568 -4.123 6
8.952 -26.717 -4.159 6
8.506 -25.166 -4.216 5
8.105 -23.774 -4.268 6
7.764 -22.592 -4.341 5
7.439 -21.459 -4.389 5
7.142 -20.449 -4.443 9
6.891 -19.552 -4.505 9
6.666 -18.76 -4.58 8
6.432 -17.944 -4.617 8
6.214 -17.198 -4.657 8
6.015 -16.502 -4.695 7
5.824 -15.85 -4.731 42
5.657 -15.259 -4.775 6
5.494 -14.689 -4.81 4
5.344 -14.17 -4.855 7
5.201 -13.671 -4.893 6
5.058 -13.181 -4.92 7
4.927 -12.724 -4.951 7
4.797 -12.283 -4.977 7
4.67 -11.848 -4.992 7
4.55 -11.443 -5.013 7
4.444 -11.071 -5.043 8
4.332 -10.696 -5.06 9
4.223 -10.326 -5.068 9
4.124 -9.984 -5.085 10
4.022 -9.647 -5.095 9
3.935 -9.342 -5.121 18
12.506 -39.333 -3.935 10
10.716 -33.428 -3.498 23
10.195 -31.526 -3.701 32
10.008 -30.697 -4.087 16
9.391 -28.556 -4.12 6
8.857 -26.714 -4.158 6
8.412 -25.155 -4.213 6
8.019 -23.772 -4.268 6
7.679 -22.583 -4.338 5
7.359 -21.456 -4.388 5
7.066 -20.449 -4.443 9
6.817 -19.548 -4.504 10
6.594 -18.756 -4.578 8
6.364 -17.945 -4.617 8
6.15 -17.201 -4.659 7
5.951 -16.502 -4.695 7
5.763 -15.849 -4.73 39
5.598 -15.262 -4.776 7
5.436 -14.691 -4.811 6
5.285 -14.165 -4.852 7
5.147 -13.671 -4.893 6
5.006 -13.185 -4.922 6
4.876 -12.727 -4.953 7
4.747 -12.283 -4.977 6
4.622 -11.851 -4.994 7
4.503 -11.446 -5.014 7
4.397 -11.069 -5.042 8
4.288 -10.697 -5.061 11
4.182 -10.333 -5.073 10
4.081 -9.985 -5.085 10
3.987 -9.662 -5.107 10
3.899 -9.354 -5.131 17
12.354 -39.272 -3.925 12
10.592 -33.396 -3.492 31
10.081 -31.508 -3.697 29
9.892 -30.668 -4.08 16
9.283 -28.532 -4.114 5
8.759 -26.704 -4.155 6
8.32 -25.147 -4.211 6
7.933 -23.771 -4.267 7
7.593 -22.57 -4.333 5
7.278 -21.449 -4.386 5
6.989 -20.445 -4.441 7
6.747 -19.553 -4.506 10
6.525 -18.76 -4.58 7
6.294 -17.94 -4.615 8
6.084 -17.201 -4.659 8
5.887 -16.498 -4.693 7
5.704 -15.856 -4.733 44
5.542 -15.271 -4.781 6
5.382 -14.7 -4.816 6
5.231 -14.169 -4.854 8
5.094 -13.675 -4.895 4
4.955 -13.192 -4.926 6
4.825 -12.727 -4.953 7
4.698 -12.286 -4.979 6
4.573 -11.85 -4.993 7
4.457 -11.447 -5.015 7
4.354 -11.077 -5.048 7
4.244 -10.701 -5.064 9
4.138 -10.334 -5.074 9
4.038 -9.985 -5.085 8
3.942 -9.657 -5.103 11
3.859 -9.356 -5.133 16
12.216 -39.253 -3.921 13
10.487 -33.424 -3.497 30
9.979 -31.526 -3.701 29
9.776 -30.637 -4.073 13
9.176 -28.507 -4.108 4
8.658 -26.682 -4.149 6
8.226 -25.132 -4.207 6
7.847 -23.769 -4.267 7
7.51 -22.566 -4.332 5
7.203 -21.456 -4.388 5
6.913 -20.44 -4.44 9
6.672 -19.547 -4.504 10
6.453 -18.755 -4.577 8
6.228 -17.943 -4.617 8
6.022 -17.209 -4.662 8
5.827 -16.508 -4.698 7
5.641 -15.851 -4.731 42
5.484 -15.276 -4.783 6
5.325 -14.7 -4.816 6
5.177 -14.174 -4.857 8
5.038 -13.672 -4.894 5
4.904 -13.195 -4.928 6
4.774 -12.73 -4.955 7
4.647 -12.286 -4.978 6
4.527 -11.856 -4.997 7
4.41 -11.449 -5.017 7
4.306 -11.073 -5.045 17
4.201 -10.706 -5.067 9
4.095 -10.335 -5.075 9
3.999 -9.995 -5.093 10
3.903 -9.663 -5.108 12
3.818 -9.357 -5.134 19
12.076 -39.224 -3.916 13
10.391 -33.478 -3.507 32
9.878 -31.548 -3.706 29
9.661 -30.607 -4.066 13
9.073 -28.494 -4.104 5
8.562 -26.674 -4.147 7
8.134 -25.123 -4.204 6
7.756 -23.748 -4.261 7
7.427 -22.559 -4.33 5
7.122 -21.449 -4.385 5
6.84 -20.446 -4.442 9
6.6 -19.545 -4.503 9
6.383 -18.752 -4.576 6
6.16 -17.941 -4.615 8
5.955 -17.205 -4.66 8
5.765 -16.511 -4.699 7
5.579 -15.849 -4.73 42
5.423 -15.27 -4.781 6
5.268 -14.702 -4.817 6
5.121 -14.174 -4.857 8
4.987 -13.679 -4.898 5
4.851 -13.195 -4.928 6
4.723 -12.73 -4.955 7
4.598 -12.288 -4.98 6
4.477 -11.855 -4.996 7
4.365 -11.457 -5.022 7
4.261 -11.077 -5.048 44
4.156 -10.707 -5.068 9
4.051 -10.336 -5.075 9
3.958 -9.998 -5.096 8
3.861 -9.663 -5.108 15
3.775 -9.35 -5.128 19
11.927 -39.17 -3.907 15
10.276 -33.471 -3.506 22
9.778 -31.574 -3.711 31
9.547 -30.58 -4.06 13
8.969 -28.48 -4.101 6
8.465 -26.663 -4.144 6
8.042 -25.114 -4.201 5
7.67 -23.746 -4.26 6
7.345 -22.556 -4.329 5
7.044 -21.447 -4.385 5
6.764 -20.441 -4.44 9
6.527 -19.544 -4.502 9
