# .PCD v0.7 - Point Cloud Data file format
VERSION 0.7
FIELDS x y z intensity
SIZE 4 4 4 4
TYPE F F F F
COUNT 1 1 1 1
WIDTH 2133
HEIGHT 1
VIEWPOINT 0 0 0 1 0 0 0
POINTS 2133
DATA ascii
50.33 -9.279 -2.143 10
45.697 -8.601 -1.966 7
0.0 -0.0 3.0 0
35.355 -7.023 -1.388 3
0.0 -0.0 3.0 0
7.344 -1.555 1.951 56
7.342 -1.607 1.874 61
7.346 -1.663 1.792 58
7.37 -1.726 1.699 40
7.361 -1.782 1.608 30
7.364 -1.842 1.509 25
7.369 -1.902 1.404 24
7.364 -1.959 1.297 26
0.0 -0.0 3.0 0
0.0 -0.0 3.0 0
74.417 -22.65 -1.814 20
75.729 -21.934 -2.064 8
78.021 -21.49 -2.358 8
86.624 -22.702 -3.083 42
91.608 -22.843 -3.55 20
0.0 -0.0 3.0 0
97.587 -22.118 -4.187 11
99.43 -21.546 -4.419 9
52.371 -10.901 -0.968 18
52.274 -10.471 -1.019 22
53.129 -10.31 -1.166 17
0.0 -0.0 3.0 0
0.0 -0.0 3.0 0
0.0 -0.0 3.0 0
68.745 -12.529 -3.111 5
60.334 -11.017 -2.613 15
54.597 -10.056 -2.347 8
49.884 -9.331 -2.172 8
45.376 -8.659 -1.999 8
0.0 -0.0 3.0 0
35.73 -7.183 -1.488 6
0.0 -0.0 3.0 0
7.332 -1.568 1.942 0
7.342 -1.622 1.864 60
7.341 -1.676 1.782 59
7.357 -1.737 1.691 49
7.364 -1.795 1.597 19
7.367 -1.854 1.499 19
7.364 -1.913 1.395 19
7.371 -1.972 1.286 17
0.0 -0.0 3.0 0
0.0 -0.0 3.0 0
0.0 -0.0 3.0 0
74.864 -21.856 -2.046 11
77.256 -21.463 -2.351 7
86.615 -22.912 -3.139 42
0.0 -0.0 3.0 0
0.0 -0.0 3.0 0
0.0 -0.0 3.0 0
0.0 -0.0 3.0 0
52.954 -11.172 -1.066 16
0.0 -0.0 3.0 0
53.001 -10.442 -1.219 25
0.0 -0.0 3.0 0
0.0 -0.0 3.0 0
0.0 -0.0 3.0 0
57.837 -10.711 -2.224 4
59.767 -11.085 -2.648 17
54.108 -10.117 -2.38 8
49.453 -9.385 -2.202 9
45.038 -8.711 -2.03 8
0.0 -0.0 3.0 0
35.376 -7.197 -1.497 3
0.0 -0.0 3.0 0
26.708 -5.77 -0.892 0
7.341 -1.637 1.854 60
7.344 -1.692 1.771 58
7.345 -1.747 1.683 58
7.363 -1.808 1.587 28
7.366 -1.866 1.489 25
7.371 -1.926 1.384 24
7.362 -1.981 1.278 25
68.395 -23.241 -1.098 32
70.413 -22.821 -1.436 43
72.455 -22.375 -1.756 41
74.126 -21.811 -2.035 10
0.0 -0.0 3.0 0
86.635 -23.131 -3.198 41
0.0 -0.0 3.0 0
0.0 -0.0 3.0 0
98.619 -22.884 -4.435 11
98.928 -21.986 -4.571 10
52.97 -11.327 -1.123 12
51.867 -10.691 -1.104 14
52.939 -10.586 -1.277 21
0.0 -0.0 3.0 0
0.0 -0.0 3.0 0
53.791 -10.167 -1.741 19
57.772 -10.868 -2.301 29
58.718 -11.06 -2.635 29
53.639 -10.181 -2.413 9
49.07 -9.446 -2.236 11
44.689 -8.761 -2.058 19
0.0 -0.0 3.0 0
35.381 -7.283 -1.551 8
0.0 -0.0 3.0 0
26.691 -5.824 -0.929 2
7.344 -1.654 1.842 58
7.343 -1.706 1.761 58
7.344 -1.761 1.673 58
7.358 -1.82 1.578 21
7.369 -1.879 1.478 8
7.366 -1.936 1.375 19
7.369 -1.994 1.266 17
0.0 -0.0 3.0 0
0.0 -0.0 3.0 0
0.0 -0.0 3.0 0
73.334 -21.75 -2.021 10
0.0 -0.0 3.0 0
86.042 -23.187 -3.213 14
0.0 -0.0 3.0 0
99.304 -24.365 -4.449 19
0.0 -0.0 3.0 0
98.668 -22.204 -4.645 12
100.479 -21.773 -4.925 15
51.575 -10.781 -1.139 15
0.0 -0.0 3.0 0
0.0 -0.0 3.0 0
0.0 -0.0 3.0 0
53.747 -10.318 -1.812 7
66.58 -12.721 -3.204 3
58.711 -11.228 -2.721 10
53.154 -10.238 -2.444 10
48.729 -9.513 -2.273 11
44.422 -8.826 -2.095 11
0.0 -0.0 3.0 0
35.377 -7.368 -1.604 10
29.292 -6.273 -1.074 1
26.658 -5.876 -0.963 8
7.331 -1.666 1.834 0
7.346 -1.721 1.75 58
7.347 -1.776 1.662 58
7.353 -1.832 1.568 48
7.38 -1.895 1.466 17
7.365 -1.948 1.365 24
7.371 -2.006 1.256 26
0.0 -0.0 3.0 0
0.0 -0.0 3.0 0
70.442 -22.072 -1.692 16
72.501 -21.672 -2.003 7
75.628 -21.556 -2.375 15
85.099 -23.146 -3.202 9
0.0 -0.0 3.0 0
125.318 -31.081 -6.502 22
96.423 -22.901 -4.441 11
98.629 -22.472 -4.738 13
0.0 -0.0 3.0 0
51.763 -10.972 -1.212 15
0.0 -0.0 3.0 0
0.0 -0.0 3.0 0
0.0 -0.0 3.0 0
0.0 -0.0 3.0 0
0.0 -0.0 3.0 0
56.338 -10.937 -2.573 15
52.701 -10.299 -2.476 10
48.411 -9.583 -2.312 13
44.049 -8.868 -2.12 6
0.0 -0.0 3.0 0
35.392 -7.457 -1.659 12
0.0 -0.0 3.0 0
26.652 -5.934 -1.002 7
26.497 -6.078 -1.256 1
7.349 -1.737 1.738 59
7.35 -1.791 1.651 59
7.341 -1.843 1.56 59
7.378 -1.907 1.456 20
7.364 -1.96 1.355 19
7.37 -2.017 1.246 16
66.396 -22.989 -1.054 43
68.395 -22.62 -1.397 36
69.644 -21.982 -1.672 10
71.744 -21.616 -1.991 9
75.672 -21.754 -2.424 8
84.263 -23.132 -3.198 10
0.0 -0.0 3.0 0
125.325 -31.418 -6.605 18
0.0 -0.0 3.0 0
0.0 -0.0 3.0 0
0.0 -0.0 3.0 0
51.739 -11.119 -1.268 20
0.0 -0.0 3.0 0
0.0 -0.0 3.0 0
0.0 -0.0 3.0 0
0.0 -0.0 3.0 0
53.737 -10.583 -2.162 31
56.327 -11.098 -2.655 11
52.224 -10.354 -2.505 11
48.016 -9.637 -2.342 10
43.696 -8.913 -2.146 15
0.0 -0.0 3.0 0
35.387 -7.543 -1.713 3
0.0 -0.0 3.0 0
26.622 -5.987 -1.038 2
0.0 -0.0 3.0 0
7.352 -1.752 1.727 57
7.352 -1.805 1.64 57
7.339 -1.856 1.55 57
7.374 -1.919 1.446 16
7.371 -1.974 1.343 24
7.365 -2.028 1.238 27
0.0 -0.0 3.0 0
0.0 -0.0 3.0 0
68.945 -21.922 -1.66 11
71.007 -21.565 -1.979 11
75.831 -21.987 -2.482 20
83.389 -23.104 -3.191 15
121.579 -32.194 -6.232 12
125.331 -31.757 -6.709 25
89.558 -21.765 -4.072 9
96.784 -22.599 -4.782 11
99.756 -22.479 -5.182 15
0.0 -0.0 3.0 0
0.0 -0.0 3.0 0
0.0 -0.0 3.0 0
0.0 -0.0 3.0 0
0.0 -0.0 3.0 0
64.441 -12.882 -3.283 4
55.566 -11.109 -2.661 4
51.747 -10.406 -2.533 10
47.593 -9.684 -2.368 8
43.452 -8.979 -2.184 22
0.0 -0.0 3.0 0
35.468 -7.647 -1.778 1
0.0 -0.0 3.0 0
26.577 -6.037 -1.072 0
26.426 -6.174 -1.323 1
7.35 -1.767 1.717 2
7.355 -1.82 1.628 59
7.342 -1.87 1.539 58
7.357 -1.927 1.439 59
7.362 -1.984 1.335 17
7.368 -2.04 1.227 16
0.0 -0.0 3.0 0
0.0 -0.0 3.0 0
68.261 -21.865 -1.647 11
70.9 -21.703 -2.01 11
75.812 -22.17 -2.528 11
82.608 -23.099 -3.189 10
0.0 -0.0 3.0 0
85.913 -22.001 -3.726 13
89.41 -21.977 -4.141 11
0.0 -0.0 3.0 0
100.063 -22.839 -5.313 9
0.0 -0.0 3.0 0
0.0 -0.0 3.0 0
0.0 -0.0 3.0 0
0.0 -0.0 3.0 0
0.0 -0.0 3.0 0
63.76 -12.935 -3.309 3
53.749 -10.902 -2.555 17
51.216 -10.444 -2.553 10
46.96 -9.685 -2.368 15
43.169 -9.036 -2.217 7
39.89 -8.512 -2.115 9
35.447 -7.73 -1.83 1
0.0 -0.0 3.0 0
26.635 -6.109 -1.121 0
26.427 -6.232 -1.363 2
0.0 -0.0 3.0 0
7.346 -1.833 1.619 58
7.341 -1.884 1.528 58
7.341 -1.936 1.432 59
7.368 -1.998 1.323 24
7.363 -2.05 1.218 26
64.448 -22.741 -1.01 57
66.393 -22.41 -1.356 41
67.62 -21.818 -1.638 10
70.365 -21.71 -2.012 12
77.166 -22.759 -2.675 23
81.635 -23.037 -3.173 41
0.0 -0.0 3.0 0
85.519 -22.133 -3.767 21
90.445 -22.484 -4.306 18
91.339 -21.848 -4.523 15
100.22 -23.167 -5.432 15
51.805 -11.591 -1.449 9
0.0 -0.0 3.0 0
0.0 -0.0 3.0 0
0.0 -0.0 3.0 0
0.0 -0.0 3.0 0
63.071 -12.981 -3.331 4
53.742 -11.057 -2.634 24
50.778 -10.499 -2.583 11
46.666 -9.753 -2.406 14
42.808 -9.075 -2.239 8
39.548 -8.542 -2.132 13
36.707 -8.096 -2.059 6
0.0 -0.0 3.0 0
26.566 -6.155 -1.151 1
26.4 -6.283 -1.399 2
26.443 -6.466 -1.698 1
7.356 -1.849 1.606 57
7.343 -1.898 1.517 57
7.343 -1.95 1.421 59
7.363 -2.01 1.314 17
7.365 -2.063 1.207 15
0.0 -0.0 3.0 0
0.0 -0.0 3.0 0
66.982 -21.773 -1.628 11
69.662 -21.664 -2.002 12
77.171 -22.955 -2.723 26
80.924 -23.046 -3.175 15
0.0 -0.0 3.0 0
0.0 -0.0 3.0 0
85.109 -21.396 -3.952 11
0.0 -0.0 3.0 0
0.0 -0.0 3.0 0
110.87 -25.134 -6.648 12
0.0 -0.0 3.0 0
0.0 -0.0 3.0 0
0.0 -0.0 3.0 0
0.0 -0.0 3.0 0
62.332 -13.014 -3.347 3
54.182 -11.306 -2.76 17
50.391 -10.563 -2.616 11
46.197 -9.782 -2.423 8
42.506 -9.125 -2.268 25
39.221 -8.573 -2.151 13
36.53 -8.148 -2.092 14
0.0 -0.0 3.0 0
26.532 -6.207 -1.187 2
0.0 -0.0 3.0 0
0.0 -0.0 3.0 0
7.347 -1.862 1.597 12
7.342 -1.911 1.507 57
7.345 -1.964 1.41 58
7.369 -2.024 1.302 52
7.367 -2.076 1.195 25
0.0 -0.0 3.0 0
64.441 -22.051 -1.286 7
66.273 -21.701 -1.613 10
68.891 -21.594 -1.985 7
77.168 -23.15 -2.772 33
80.109 -23.023 -3.169 10
0.0 -0.0 3.0 0
85.067 -22.483 -3.874 10
84.988 -21.605 -4.02 8
95.159 -23.308 -5.025 7
0.0 -0.0 3.0 0
0.0 -0.0 3.0 0
0.0 -0.0 3.0 0
0.0 -0.0 3.0 0
0.0 -0.0 3.0 0
0.0 -0.0 3.0 0
61.707 -13.067 -3.373 3
54.092 -11.444 -2.831 17
50.032 -10.631 -2.652 11
45.822 -9.83 -2.449 18
42.249 -9.184 -2.303 18
38.941 -8.613 -2.175 13
36.279 -8.183 -2.113 14
0.0 -0.0 3.0 0
26.512 -6.264 -1.225 8
0.0 -0.0 3.0 0
0.0 -0.0 3.0 0
20.878 -5.333 -1.019 0
7.348 -1.927 1.494 57
7.344 -1.977 1.399 58
7.344 -2.03 1.296 47
7.369 -2.089 1.184 16
62.465 -22.466 -0.961 12
63.804 -21.983 -1.273 13
65.64 -21.652 -1.602 11
71.442 -22.572 -2.211 41
75.861 -22.952 -2.723 21
0.0 -0.0 3.0 0
0.0 -0.0 3.0 0
84.93 -22.681 -3.934 11
84.28 -21.664 -4.039 7
89.779 -22.249 -4.661 12
0.0 -0.0 3.0 0
101.349 -23.578 -6.051 30
0.0 -0.0 3.0 0
0.0 -0.0 3.0 0
0.0 -0.0 3.0 0
0.0 -0.0 3.0 0
61.097 -13.119 -3.399 4
0.0 -0.0 3.0 0
49.726 -10.708 -2.694 12
45.481 -9.884 -2.479 10
41.861 -9.213 -2.319 5
38.645 -8.648 -2.196 12
36.024 -8.216 -2.134 14
0.0 -0.0 3.0 0
26.493 -6.321 -1.263 11
0.0 -0.0 3.0 0
26.431 -6.63 -1.817 3
20.794 -5.354 -1.035 0
7.346 -1.941 1.483 56
7.346 -1.991 1.387 58
7.347 -2.044 1.285 58
7.364 -2.1 1.174 23
62.417 -22.594 -0.984 22
63.243 -21.94 -1.265 14
64.999 -21.6 -1.591 12
71.449 -22.753 -2.253 42
75.85 -23.145 -2.771 37
78.029 -22.837 -3.119 10
85.79 -24.093 -3.909 7
84.97 -22.928 -4.01 14
83.842 -21.789 -4.08 12
89.746 -22.501 -4.748 14
0.0 -0.0 3.0 0
35.697 -8.411 -0.229 8
0.0 -0.0 3.0 0
0.0 -0.0 3.0 0
0.0 -0.0 3.0 0
66.779 -14.62 -3.817 3
60.409 -13.151 -3.414 3
55.216 -12.005 -3.117 5
49.468 -10.794 -2.74 13
45.043 -9.915 -2.496 8
41.508 -9.248 -2.339 17
38.333 -8.679 -2.215 10
35.777 -8.25 -2.155 14
29.387 -6.922 -1.495 0
26.492 -6.382 -1.305 8
0.0 -0.0 3.0 0
26.407 -6.681 -1.854 8
20.714 -5.376 -1.051 0
7.348 -1.956 1.472 25
7.344 -2.005 1.377 58
7.349 -2.057 1.274 57
7.362 -2.112 1.164 30
0.0 -0.0 3.0 0
62.644 -21.883 -1.254 11
64.427 -21.568 -1.584 10
67.99 -21.824 -2.038 6
75.445 -23.216 -2.788 30
78.034 -23.046 -3.175 34
0.0 -0.0 3.0 0
82.72 -22.552 -3.895 10
85.401 -22.438 -4.291 7
0.0 -0.0 3.0 0
0.0 -0.0 3.0 0
0.0 -0.0 3.0 0
0.0 -0.0 3.0 0
0.0 -0.0 3.0 0
0.0 -0.0 3.0 0
66.064 -14.662 -3.837 3
59.757 -13.187 -3.432 3
54.607 -12.033 -3.131 7
49.166 -10.87 -2.78 10
44.672 -9.959 -2.52 17
41.279 -9.309 -2.375 27
38.064 -8.718 -2.238 10
35.537 -8.285 -2.177 14
0.0 -0.0 3.0 0
26.464 -6.437 -1.342 12
0.0 -0.0 3.0 0
26.406 -6.737 -1.895 5
20.591 -5.387 -1.059 0
20.528 -5.505 -1.301 0
7.346 -2.019 1.365 57
7.354 -2.072 1.261 56
7.36 -2.124 1.153 47
0.0 -0.0 3.0 0
62.06 -21.828 -1.243 16
64.494 -21.75 -1.623 16
71.429 -23.11 -2.335 34
74.891 -23.241 -2.795 12
0.0 -0.0 3.0 0
82.652 -23.664 -3.786 9
82.61 -22.753 -3.956 13
85.759 -22.777 -4.401 11
88.581 -22.725 -4.825 10
35.999 -8.957 -0.26 7
100.988 -24.401 -6.367 9
0.0 -0.0 3.0 0
0.0 -0.0 3.0 0
0.0 -0.0 3.0 0
65.353 -14.702 -3.856 4
59.191 -13.24 -3.457 4
54.01 -12.061 -3.145 9
49.054 -10.987 -2.842 13
44.405 -10.024 -2.557 11
41.031 -9.365 -2.407 9
37.8 -8.757 -2.262 12
35.31 -8.322 -2.2 16
0.0 -0.0 3.0 0
26.444 -6.495 -1.381 43
0.0 -0.0 3.0 0
26.412 -6.796 -1.938 3
20.564 -5.423 -1.086 0
20.433 -5.52 -1.312 0
7.344 -2.033 1.354 57
7.352 -2.085 1.251 57
7.347 -2.133 1.146 57
60.459 -22.311 -0.934 59
61.507 -21.784 -1.234 17
63.903 -21.71 -1.615 14
71.43 -23.293 -2.378 45
74.143 -23.204 -2.785 9
76.258 -22.931 -3.144 18
82.495 -23.846 -3.838 8
83.674 -23.283 -4.118 22
84.659 -22.729 -4.385 8
35.723 -9.269 -0.192 3
36.087 -9.087 -0.307 5
35.823 -8.764 -0.364 8
0.0 -0.0 3.0 0
0.0 -0.0 3.0 0
0.0 -0.0 3.0 0
64.662 -14.742 -3.874 4
58.586 -13.279 -3.477 3
53.514 -12.108 -3.169 10
48.392 -10.978 -2.837 8
44.076 -10.074 -2.584 7
40.693 -9.4 -2.427 8
37.546 -8.799 -2.287 11
35.097 -8.362 -2.225 13
0.0 -0.0 3.0 0
0.0 -0.0 3.0 0
0.0 -0.0 3.0 0
26.495 -6.875 -1.995 2
20.541 -5.459 -1.114 2
20.405 -5.553 -1.339 0
7.35 -2.048 1.341 43
7.354 -2.099 1.239 57
7.345 -2.145 1.135 56
59.325 -22.035 -0.885 8
60.928 -21.728 -1.223 12
63.331 -21.675 -1.607 17
71.403 -23.468 -2.418 32
73.414 -23.17 -2.777 10
75.663 -22.958 -3.152 10
77.717 -22.681 -3.504 23
84.056 -23.627 -4.223 15
82.534 -22.397 -4.277 16
84.352 -22.135 -4.622 13
35.981 -9.167 -0.336 3
36.092 -8.938 -0.431 12
35.852 -8.674 -0.505 17
0.0 -0.0 3.0 0
0.0 -0.0 3.0 0
63.947 -14.773 -3.889 3
58.016 -13.325 -3.499 3
53.181 -12.19 -3.211 22
47.905 -11.006 -2.852 8
43.685 -10.108 -2.603 15
40.426 -9.449 -2.455 7
37.312 -8.843 -2.314 10
34.877 -8.399 -2.248 13
0.0 -0.0 3.0 0
0.0 -0.0 3.0 0
0.0 -0.0 3.0 0
27.14 -7.102 -2.16 14
20.521 -5.497 -1.142 7
20.382 -5.588 -1.366 0
18.736 -5.257 -1.257 0
7.352 -2.112 1.228 58
7.347 -2.159 1.123 56
58.813 -21.987 -0.877 13
60.386 -21.684 -1.215 12
62.601 -21.584 -1.588 7
70.705 -23.422 -2.407 14
72.693 -23.137 -2.769 10
75.041 -22.974 -3.156 47
77.18 -22.739 -3.52 16
0.0 -0.0 3.0 0
82.367 -22.59 -4.34 20
35.227 -9.348 -0.219 1
35.273 -9.092 -0.309 2
35.831 -8.982 -0.448 8
35.842 -8.78 -0.547 10
0.0 -0.0 3.0 0
0.0 -0.0 3.0 0
63.249 -14.804 -3.903 4
57.411 -13.358 -3.515 3
52.813 -12.262 -3.248 8
47.433 -11.035 -2.868 6
43.426 -10.171 -2.638 21
40.077 -9.477 -2.472 8
37.055 -8.882 -2.337 11
34.622 -8.427 -2.266 13
0.0 -0.0 3.0 0
0.0 -0.0 3.0 0
0.0 -0.0 3.0 0
27.008 -7.127 -2.178 15
20.504 -5.536 -1.171 4
0.0 -0.0 3.0 0
18.638 -5.267 -1.265 0
7.354 -2.126 1.216 57
7.348 -2.172 1.112 56
58.342 -21.953 -0.871 15
59.83 -21.634 -1.205 16
66.458 -23.084 -1.907 43
70.068 -23.395 -2.401 12
72.011 -23.112 -2.762 11
75.025 -23.174 -3.21 25
77.044 -22.915 -3.571 12
84.011 -24.094 -4.366 7
82.68 -22.917 -4.446 10
34.671 -9.303 -0.203 5
36.666 -9.561 -0.48 7
36.462 -9.251 -0.551 7
37.231 -9.234 -0.731 21
0.0 -0.0 3.0 0
0.0 -0.0 3.0 0
62.598 -14.841 -3.92 4
56.807 -13.389 -3.53 4
52.062 -12.242 -3.237 7
47.0 -11.071 -2.887 7
43.105 -10.218 -2.664 6
39.878 -9.541 -2.508 16
36.797 -8.918 -2.359 11
34.41 -8.465 -2.289 13
0.0 -0.0 3.0 0
0.0 -0.0 3.0 0
26.283 -6.847 -1.794 4
24.265 -6.458 -1.692 1
20.499 -5.579 -1.204 1
0.0 -0.0 3.0 0
18.544 -5.276 -1.272 0
7.355 -2.14 1.204 55
7.346 -2.185 1.101 57
57.809 -21.893 -0.86 14
59.327 -21.601 -1.199 17
66.448 -23.251 -1.942 43
69.424 -23.363 -2.394 12
0.0 -0.0 3.0 0
75.032 -23.382 -3.265 17
76.889 -23.085 -3.62 13
81.737 -23.676 -4.238 8
80.678 -22.599 -4.343 9
34.654 -9.401 -0.237 3
35.419 -9.343 -0.4 1
35.629 -9.148 -0.512 3
37.227 -9.348 -0.777 19
0.0 -0.0 3.0 0
0.0 -0.0 3.0 0
61.892 -14.863 -3.931 3
56.227 -13.421 -3.546 3
51.551 -12.274 -3.254 6
46.606 -11.114 -2.909 7
42.718 -10.249 -2.681 9
39.56 -9.574 -2.528 16
36.544 -8.955 -2.381 11
34.22 -8.507 -2.316 14
0.0 -0.0 3.0 0
0.0 -0.0 3.0 0
26.375 -6.933 -1.855 3
24.237 -6.504 -1.725 1
0.0 -0.0 3.0 0
20.377 -5.712 -1.462 0
18.454 -5.287 -1.281 0
8.526 -2.497 0.904 3
7.351 -2.2 1.088 57
57.335 -21.855 -0.854 16
59.288 -21.737 -1.225 10
61.993 -21.853 -1.645 7
68.776 -23.327 -2.385 13
0.0 -0.0 3.0 0
75.033 -23.591 -3.321 18
77.11 -23.37 -3.701 10
81.19 -23.752 -4.262 9
35.371 -10.011 -0.253 9
35.297 -9.681 -0.334 9
35.305 -9.419 -0.428 8
35.545 -9.235 -0.545 8
35.973 -9.143 -0.694 2
0.0 -0.0 3.0 0
0.0 -0.0 3.0 0
61.238 -14.892 -3.944 4
55.685 -13.46 -3.565 3
51.083 -12.315 -3.275 7
46.204 -11.153 -2.93 7
42.424 -10.299 -2.709 24
39.223 -9.601 -2.543 11
36.302 -8.993 -2.404 11
34.015 -8.545 -2.34 13
27.677 -7.07 -1.591 0
0.0 -0.0 3.0 0
26.285 -6.971 -1.881 3
24.213 -6.552 -1.761 255
0.0 -0.0 3.0 0
20.345 -5.745 -1.488 2
18.382 -5.303 -1.294 0
0.0 -0.0 3.0 0
7.349 -2.213 1.077 56
56.839 -21.808 -0.845 15
58.953 -21.764 -1.23 18
66.4 -23.579 -2.012 11
68.144 -23.295 -2.378 14
0.0 -0.0 3.0 0
75.03 -23.799 -3.377 30
76.976 -23.548 -3.752 17
80.758 -23.859 -4.294 7
34.919 -9.987 -0.245 11
35.478 -9.837 -0.387 3
35.525 -9.585 -0.489 3
35.353 -9.293 -0.567 8
36.802 -9.467 -0.825 11
0.0 -0.0 3.0 0
66.851 -16.64 -4.409 3
60.557 -14.911 -3.953 4
55.164 -13.501 -3.585 4
50.538 -12.335 -3.285 10
45.799 -11.189 -2.949 7
42.161 -10.355 -2.74 11
38.828 -9.614 -2.55 9
36.068 -9.033 -2.428 11
33.779 -8.574 -2.358 12
27.569 -7.112 -1.619 0
0.0 -0.0 3.0 0
26.293 -7.035 -1.926 10
24.201 -6.603 -1.798 188
0.0 -0.0 3.0 0
20.332 -5.783 -1.519 5
18.303 -5.316 -1.305 0
0.0 -0.0 3.0 0
7.354 -2.228 1.063 53
56.384 -21.775 -0.839 15
58.427 -21.719 -1.222 19
65.805 -23.542 -2.004 15
67.542 -23.27 -2.372 16
0.0 -0.0 3.0 0
75.034 -24.01 -3.434 26
76.875 -23.736 -3.806 8
81.891 -24.432 -4.47 12
80.924 -23.382 -4.597 6
35.102 -9.838 -0.387 6
35.513 -9.69 -0.527 2
35.285 -9.383 -0.602 9
0.0 -0.0 3.0 0
0.0 -0.0 3.0 0
66.08 -16.652 -4.414 3
59.945 -14.944 -3.969 4
54.596 -13.527 -3.598 4
50.017 -12.356 -3.296 8
45.448 -11.236 -2.974 8
41.771 -10.379 -2.753 7
38.638 -9.674 -2.585 14
35.811 -9.066 -2.447 11
33.524 -8.598 -2.372 11
27.469 -7.156 -1.647 1
0.0 -0.0 3.0 0
26.297 -7.098 -1.97 3
24.184 -6.654 -1.834 0
0.0 -0.0 3.0 0
20.326 -5.824 -1.55 6
18.246 -5.337 -1.322 0
17.963 -5.365 -1.502 0
7.362 -2.244 1.049 16
55.873 -21.719 -0.83 14
57.935 -21.686 -1.215 22
65.226 -23.506 -1.996 16
66.455 -23.075 -2.327 33
0.0 -0.0 3.0 0
74.217 -23.958 -3.42 9
0.0 -0.0 3.0 0
80.649 -24.297 -4.428 9
35.471 -10.355 -0.364 9
34.961 -9.904 -0.41 5
36.565 -10.088 -0.672 8
35.8 -9.63 -0.696 5
0.0 -0.0 3.0 0
0.0 -0.0 3.0 0
0.0 -0.0 3.0 0
59.327 -14.972 -3.982 4
54.063 -13.559 -3.613 4
49.504 -12.377 -3.307 8
45.12 -11.288 -3.002 9
41.466 -10.423 -2.778 22
38.305 -9.698 -2.599 12
35.569 -9.102 -2.469 12
33.262 -8.619 -2.386 11
27.358 -7.197 -1.674 0
0.0 -0.0 3.0 0
26.297 -7.161 -2.014 5
26.198 -7.268 -2.281 18
0.0 -0.0 3.0 0
19.163 -5.532 -1.322 1
18.163 -5.349 -1.332 0
17.962 -5.4 -1.531 0
7.764 -2.381 0.93 3
55.426 -21.686 -0.824 19
57.14 -21.538 -1.187 16
64.681 -23.482 -1.991 14
0.0 -0.0 3.0 0
0.0 -0.0 3.0 0
74.834 -24.369 -3.53 11
77.737 -24.45 -4.011 12
35.61 -10.833 -0.312 8
35.501 -10.469 -0.401 8
34.884 -9.987 -0.439 4
35.497 -9.902 -0.604 2
35.472 -9.651 -0.705 6
0.0 -0.0 3.0 0
36.82 -9.637 -1.091 14
0.0 -0.0 3.0 0
58.751 -15.007 -3.998 4
53.519 -13.585 -3.626 4
49.037 -12.407 -3.322 6
44.807 -11.342 -3.031 9
41.241 -10.485 -2.812 31
38.068 -9.745 -2.627 17
35.335 -9.139 -2.491 12
33.03 -8.646 -2.403 11
0.0 -0.0 3.0 0
0.0 -0.0 3.0 0
26.282 -7.219 -2.055 8
26.066 -7.292 -2.298 19
0.0 -0.0 3.0 0
19.007 -5.528 -1.319 1
18.114 -5.372 -1.35 0
17.988 -5.443 -1.567 0
7.812 -2.411 0.905 3
54.942 -21.638 -0.815 18
61.454 -23.325 -1.534 49
64.091 -23.439 -1.982 14
28.344 -9.996 0.692 2
75.028 -25.52 -3.363 7
75.047 -24.652 -3.605 26
77.637 -24.643 -4.066 10
79.744 -24.493 -4.488 8
35.4 -10.545 -0.426 5
34.895 -10.096 -0.476 5
34.412 -9.704 -0.532 26
35.909 -9.88 -0.793 4
36.727 -9.902 -1.001 11
36.711 -9.723 -1.127 2
63.979 -16.716 -4.442 3
58.095 -15.018 -4.003 4
52.932 -13.597 -3.632 8
48.551 -12.43 -3.334 6
44.468 -11.387 -3.055 9
41.035 -10.551 -2.849 11
37.819 -9.788 -2.651 15
35.104 -9.175 -2.513 12
32.829 -8.681 -2.424 11
0.0 -0.0 3.0 0
0.0 -0.0 3.0 0
26.433 -7.324 -2.129 3
25.91 -7.308 -2.31 20
0.0 -0.0 3.0 0
18.919 -5.542 -1.33 1
18.075 -5.398 -1.371 1
17.949 -5.467 -1.587 0
7.909 -2.455 0.866 5
54.506 -21.607 -0.81 19
61.477 -23.495 -1.567 53
63.55 -23.412 -1.976 14
28.383 -10.088 0.671 6
75.031 -25.732 -3.416 17
75.055 -24.869 -3.664 26
77.077 -24.69 -4.08 9
81.654 -25.321 -4.742 13
35.166 -10.581 -0.438 8
36.128 -10.562 -0.637 8
34.538 -9.846 -0.584 11
35.8 -9.961 -0.824 1
36.675 -10.001 -1.041 8
0.0 -0.0 3.0 0
63.329 -16.743 -4.454 3
57.528 -15.048 -4.017 4
52.57 -13.664 -3.665 7
48.108 -12.462 -3.35 7
44.121 -11.429 -3.077 6
40.738 -10.593 -2.872 7
37.513 -9.814 -2.666 15
34.866 -9.209 -2.533 10
32.609 -8.709 -2.442 12
0.0 -0.0 3.0 0
0.0 -0.0 3.0 0
26.25 -7.337 -2.137 8
25.778 -7.331 -2.326 19
0.0 -0.0 3.0 0
18.827 -5.556 -1.341 1
18.055 -5.43 -1.397 2
17.918 -5.493 -1.609 0
7.876 -2.461 0.861 2
54.549 -21.765 -0.838 12
56.881 -21.89 -1.255 7
63.017 -23.387 -1.971 14
28.375 -10.164 0.654 9
28.391 -9.817 0.552 1
75.035 -25.078 -3.72 28
0.0 -0.0 3.0 0
79.261 -24.814 -4.586 15
35.504 -10.789 -0.505 12
35.385 -10.453 -0.599 6
34.445 -9.926 -0.613 20
35.591 -10.014 -0.844 7
36.898 -10.177 -1.112 15
0.0 -0.0 3.0 0
0.0 -0.0 3.0 0
56.911 -15.063 -4.024 3
52.042 -13.686 -3.675 5
47.669 -12.492 -3.365 5
43.747 -11.461 -3.094 6
40.467 -10.64 -2.898 6
37.257 -9.854 -2.689 14
34.632 -9.242 -2.553 11
32.415 -8.745 -2.465 11
0.0 -0.0 3.0 0
0.0 -0.0 3.0 0
26.234 -7.396 -2.179 4
25.645 -7.353 -2.342 19
0.0 -0.0 3.0 0
18.743 -5.572 -1.353 1
18.035 -5.462 -1.423 1
17.921 -5.529 -1.64 1
17.769 -5.585 -1.855 1
54.198 -21.767 -0.838 19
56.46 -21.879 -1.253 5
62.458 -23.349 -1.963 17
0.0 -0.0 3.0 0
28.339 -9.879 0.537 0
75.049 -25.299 -3.779 27
0.0 -0.0 3.0 0
0.0 -0.0 3.0 0
35.014 -10.747 -0.492 17
35.051 -10.462 -0.602 11
36.69 -10.686 -0.889 7
35.03 -9.964 -0.825 18
37.055 -10.336 -1.176 17
0.0 -0.0 3.0 0
61.944 -16.761 -4.463 4
56.333 -15.085 -4.034 4
51.595 -13.727 -3.695 6
47.261 -12.527 -3.383 6
43.423 -11.506 -3.118 7
40.208 -10.688 -2.925 3
36.948 -9.876 -2.702 10
34.39 -9.273 -2.572 10
32.203 -8.774 -2.483 11
30.328 -8.371 -2.436 12
0.0 -0.0 3.0 0
26.886 -7.646 -2.354 22
21.881 -6.326 -1.596 2
20.313 -5.977 -1.504 0
18.666 -5.59 -1.367 1
0.0 -0.0 3.0 0
17.882 -5.554 -1.66 14
17.763 -5.618 -1.884 1
53.759 -21.733 -0.832 21
60.414 -23.574 -1.582 16
61.485 -23.155 -1.922 44
0.0 -0.0 3.0 0
75.068 -26.382 -3.578 15
75.024 -25.508 -3.835 28
70.929 -23.345 -3.694 6
0.0 -0.0 3.0 0
34.43 -10.671 -0.467 16
33.555 -10.118 -0.484 3
37.35 -10.994 -1.001 1
35.024 -10.072 -0.866 12
35.796 -10.097 -1.079 1
0.0 -0.0 3.0 0
61.3 -16.778 -4.47 3
55.786 -15.111 -4.046 5
51.102 -13.753 -3.708 9
46.857 -12.562 -3.401 7
43.107 -11.55 -3.141 7
39.91 -10.726 -2.946 7
36.7 -9.915 -2.725 11
34.168 -9.308 -2.593 10
32.009 -8.808 -2.504 11
30.136 -8.397 -2.453 14
26.451 -7.471 -2.039 4
26.717 -7.664 -2.366 22
21.823 -6.36 -1.621 1
20.31 -6.022 -1.538 1
18.603 -5.612 -1.384 0
0.0 -0.0 3.0 0
17.88 -5.59 -1.691 10
17.751 -5.649 -1.91 1
53.331 -21.701 -0.827 22
59.937 -23.549 -1.578 17
61.419 -23.299 -1.952 25
76.928 -28.2 -3.51 15
75.042 -26.588 -3.629 21
28.358 -9.724 0.394 35
68.734 -22.826 -3.545 16
0.0 -0.0 3.0 0
35.18 -11.012 -0.578 12
33.839 -10.308 -0.549 7
33.658 -10.011 -0.644 7
34.938 -10.156 -0.899 1
35.636 -10.163 -1.106 3
0.0 -0.0 3.0 0
60.637 -16.787 -4.474 3
55.224 -15.13 -4.055 5
50.621 -13.779 -3.721 13
46.464 -12.598 -3.419 8
42.814 -11.599 -3.167 7
39.678 -10.779 -2.975 12
36.444 -9.95 -2.745 11
33.934 -9.339 -2.612 10
31.827 -8.844 -2.527 11
29.971 -8.43 -2.474 14
26.464 -7.542 -2.087 1
26.564 -7.685 -2.381 21
21.694 -6.374 -1.631 1
20.395 -6.094 -1.592 3
18.552 -5.638 -1.405 0
0.0 -0.0 3.0 0
17.86 -5.62 -1.716 5
17.756 -5.685 -1.942 0
52.884 -21.661 -0.819 18
59.442 -23.517 -1.571 19
60.894 -23.269 -1.946 16
75.893 -28.035 -3.472 33
75.063 -26.811 -3.685 16
28.327 -9.797 0.375 0
0.0 -0.0 3.0 0
69.127 -22.471 -3.87 5
33.651 -10.635 -0.456 3
33.811 -10.403 -0.582 5
34.022 -10.226 -0.722 6
34.919 -10.26 -0.938 11
0.0 -0.0 3.0 0
0.0 -0.0 3.0 0
60.055 -16.813 -4.486 4
54.701 -15.157 -4.068 7
50.149 -13.805 -3.733 17
46.064 -12.63 -3.435 7
42.456 -11.629 -3.183 6
39.4 -10.82 -2.998 14
36.177 -9.981 -2.763 10
33.719 -9.375 -2.633 10
31.626 -8.875 -2.545 11
29.791 -8.457 -2.492 14
0.0 -0.0 3.0 0
26.418 -7.708 -2.397 22
21.508 -6.371 -1.629 1
20.387 -6.139 -1.626 4
18.486 -5.659 -1.421 0
0.0 -0.0 3.0 0
17.843 -5.652 -1.742 2
17.75 -5.719 -1.971 0
56.482 -23.287 -1.106 47
58.954 -23.486 -1.565 18
60.392 -23.246 -1.941 15
75.222 -28.001 -3.465 5
75.051 -27.025 -3.738 24
67.894 -23.681 -3.345 17
0.0 -0.0 3.0 0
67.256 -22.067 -3.746 7
33.607 -10.724 -0.485 11
33.782 -10.5 -0.615 14
33.806 -10.267 -0.737 19
34.924 -10.371 -0.981 6
35.106 -10.233 -1.134 2
0.0 -0.0 3.0 0
59.382 -16.811 -4.485 4
54.212 -15.191 -4.084 11
49.642 -13.819 -3.74 21
45.661 -12.658 -3.45 8
42.125 -11.665 -3.203 6
38.736 -10.751 -2.959 7
35.887 -10.004 -2.776 10
33.508 -9.409 -2.654 11
31.421 -8.902 -2.563 11
29.592 -8.479 -2.507 11
27.81 -8.069 -2.442 21
26.269 -7.73 -2.412 22
21.408 -6.393 -1.645 1
20.375 -6.182 -1.659 3
18.439 -5.685 -1.442 0
0.0 -0.0 3.0 0
17.822 -5.682 -1.768 0
17.748 -5.754 -2.002 0
56.478 -23.439 -1.133 55
58.437 -23.441 -1.557 17
0.0 -0.0 3.0 0
77.119 -28.928 -3.678 17
75.056 -27.245 -3.793 21
64.824 -22.801 -3.109 6
28.356 -9.671 0.227 255
66.064 -21.876 -3.688 12
33.623 -10.833 -0.52 11
33.999 -10.672 -0.675 8
34.511 -10.589 -0.854 10
34.97 -10.494 -1.028 14
35.064 -10.331 -1.174 6
0.0 -0.0 3.0 0
58.774 -16.824 -4.491 4
53.651 -15.201 -4.088 13
49.231 -13.856 -3.758 14
45.284 -12.692 -3.467 9
41.786 -11.697 -3.219 7
38.44 -10.782 -2.977 13
35.646 -10.04 -2.796 12
33.312 -9.449 -2.677 10
31.223 -8.932 -2.581 11
29.408 -8.505 -2.523 11
27.655 -8.095 -2.46 21
26.126 -7.753 -2.428 20
21.32 -6.418 -1.663 1
20.355 -6.224 -1.69 1
18.398 -5.715 -1.465 1
0.0 -0.0 3.0 0
17.801 -5.713 -1.794 1
17.756 -5.792 -2.035 0
56.489 -23.596 -1.161 36
58.017 -23.433 -1.555 17
28.381 -11.085 0.644 1
75.894 -28.686 -3.623 6
75.026 -27.453 -3.845 19
75.003 -26.603 -4.128 10
28.328 -9.747 0.205 8
65.953 -22.04 -3.738 21
35.062 -11.405 -0.706 3
33.727 -10.692 -0.681 11
34.382 -10.657 -0.879 9
35.011 -10.617 -1.076 2
0.0 -0.0 3.0 0
0.0 -0.0 3.0 0
58.186 -16.839 -4.497 4
53.152 -15.226 -4.1 18
48.721 -13.864 -3.762 4
44.901 -12.722 -3.482 8
41.452 -11.728 -3.236 9
38.097 -10.799 -2.986 11
35.391 -10.07 -2.814 12
33.101 -9.482 -2.697 11
31.018 -8.959 -2.598 12
29.221 -8.529 -2.539 13
27.522 -8.127 -2.481 20
25.98 -7.775 -2.444 21
21.224 -6.441 -1.68 1
20.343 -6.267 -1.723 4
18.377 -5.75 -1.492 0
0.0 -0.0 3.0 0
17.78 -5.743 -1.819 3
17.728 -5.819 -2.059 0
52.032 -21.878 -0.858 8
57.552 -23.407 -1.55 23
0.0 -0.0 3.0 0
75.3 -28.679 -3.621 8
0.0 -0.0 3.0 0
65.408 -23.396 -3.269 11
64.481 -22.38 -3.417 9
0.0 -0.0 3.0 0
34.46 -11.315 -0.677 12
33.61 -10.76 -0.705 12
34.245 -10.722 -0.903 12
36.793 -11.274 -1.328 3
0.0 -0.0 3.0 0
0.0 -0.0 3.0 0
57.599 -16.851 -4.502 3
52.676 -15.254 -4.113 11
48.268 -13.885 -3.772 4
44.555 -12.76 -3.502 7
41.163 -11.77 -3.258 6
37.751 -10.813 -2.993 9
35.15 -10.103 -2.833 11
32.871 -9.509 -2.713 11
30.836 -8.991 -2.618 11
29.037 -8.554 -2.555 11
27.408 -8.165 -2.507 16
25.816 -7.791 -2.455 21
21.136 -6.466 -1.698 1
20.337 -6.314 -1.758 2
18.351 -5.783 -1.518 0
0.0 -0.0 3.0 0
17.769 -5.778 -1.848 4
17.743 -5.861 -2.095 0
55.776 -23.605 -1.162 15
56.482 -23.13 -1.496 39
0.0 -0.0 3.0 0
74.081 -28.43 -3.564 25
75.073 -27.912 -3.959 16
64.457 -23.249 -3.23 11
64.318 -22.519 -3.457 9
28.347 -9.647 0.051 6
36.019 -11.94 -0.88 10
33.954 -10.977 -0.78 14
34.157 -10.803 -0.932 7
36.82 -11.4 -1.376 10
35.563 -10.816 -1.37 5
35.376 -10.592 -1.496 10
57.027 -16.864 -4.508 4
52.071 -15.243 -4.108 5
47.789 -13.896 -3.778 22
44.149 -12.78 -3.511 5
40.84 -11.801 -3.275 7
37.436 -10.833 -3.005 10
34.933 -10.143 -2.856 11
32.644 -9.536 -2.73 13
30.662 -9.025 -2.64 12
28.887 -8.587 -2.576 12
27.287 -8.2 -2.531 16
25.677 -7.814 -2.472 20
21.058 -6.493 -1.718 1
20.309 -6.353 -1.788 2
18.347 -5.824 -1.55 0
0.0 -0.0 3.0 0
17.759 -5.812 -1.877 4
17.747 -5.898 -2.127 0
55.355 -23.581 -1.158 19
56.487 -23.291 -1.527 53
70.738 -28.233 -3.001 13
74.845 -28.942 -3.682 22
75.064 -28.131 -4.014 24
63.919 -23.246 -3.229 6
64.497 -22.778 -3.532 12
64.733 -22.23 -3.796 11
34.288 -11.472 -0.728 2
33.817 -11.039 -0.801 4
34.009 -10.864 -0.954 5
77.335 -24.188 -6.285 5
0.0 -0.0 3.0 0
34.96 -10.578 -1.49 16
56.425 -16.865 -4.509 4
51.569 -15.259 -4.115 6
47.395 -13.929 -3.794 25
43.743 -12.797 -3.52 5
40.533 -11.835 -3.293 6
37.151 -10.861 -3.021 11
34.685 -10.172 -2.873 10
32.43 -9.566 -2.748 13
30.461 -9.05 -2.655 11
28.718 -8.614 -2.594 12
27.127 -8.223 -2.546 12
25.524 -7.832 -2.484 21
20.955 -6.513 -1.732 1
20.293 -6.396 -1.82 2
18.332 -5.861 -1.579 0
0.0 -0.0 3.0 0
17.745 -5.846 -1.905 3
17.751 -5.936 -2.16 0
54.927 -23.552 -1.153 20
56.215 -23.339 -1.537 20
70.18 -28.213 -2.997 13
74.827 -29.154 -3.731 25
74.964 -28.317 -4.06 27
63.932 -23.444 -3.282 8
64.089 -22.831 -3.547 13
64.801 -22.454 -3.865 4
28.38 -9.585 -0.114 2
34.141 -11.253 -0.875 2
36.107 -11.648 -1.24 2
37.006 -11.692 -1.488 2
0.0 -0.0 3.0 0
61.469 -18.795 -4.978 3
55.877 -16.878 -4.515 4
51.098 -15.28 -4.125 5
46.879 -13.923 -3.791 14
43.398 -12.829 -3.537 7
40.207 -11.862 -3.307 5
36.882 -10.893 -3.038 11
34.441 -10.201 -2.89 11
32.222 -9.597 -2.766 16
30.282 -9.082 -2.675 12
28.553 -8.642 -2.612 12
26.965 -8.245 -2.561 12
25.4 -7.859 -2.503 19
20.866 -6.537 -1.75 1
20.283 -6.442 -1.855 3
18.314 -5.898 -1.608 0
17.888 -5.843 -1.732 0
17.741 -5.883 -1.936 2
17.755 -5.974 -2.193 0
54.504 -23.524 -1.148 19
55.744 -23.303 -1.53 21
69.593 -28.179 -2.99 10
74.838 -29.379 -3.783 14
74.87 -28.505 -4.107 20
63.809 -23.593 -3.322 15
63.568 -22.84 -3.549 11
64.617 -22.591 -3.907 10
0.0 -0.0 3.0 0
33.57 -11.17 -0.846 5
36.432 -11.87 -1.32 9
75.858 -24.211 -6.294 6
0.0 -0.0 3.0 0
60.863 -18.804 -4.982 3
34.854 -10.639 -1.737 20
50.616 -15.296 -4.133 5
46.564 -13.976 -3.817 5
43.057 -12.862 -3.553 5
39.922 -11.9 -3.327 5
36.586 -10.915 -3.05 10
34.217 -10.235 -2.909 10
31.978 -9.616 -2.778 13
30.1 -9.111 -2.693 11
28.377 -8.666 -2.628 12
26.787 -8.262 -2.573 12
25.295 -7.892 -2.526 17
20.8 -6.568 -1.772 1
20.262 -6.484 -1.886 3
18.298 -5.935 -1.637 0
0.0 -0.0 3.0 0
17.734 -5.919 -1.967 2
17.773 -6.018 -2.231 0
54.087 -23.497 -1.143 20
55.306 -23.279 -1.525 18
0.0 -0.0 3.0 0
74.711 -29.551 -3.822 45
63.331 -24.303 -3.059 11
63.921 -23.829 -3.385 12
62.169 -22.53 -3.46 6
65.074 -22.954 -4.018 5
35.918 -12.357 -1.015 13
34.695 -11.655 -1.013 11
35.733 -11.756 -1.279 16
75.112 -24.213 -6.294 6
0.0 -0.0 3.0 0
28.369 -8.856 -0.759 4
54.771 -16.893 -4.521 3
34.722 -10.603 -1.944 16
46.14 -13.994 -3.825 5
42.701 -12.888 -3.567 5
39.631 -11.934 -3.345 6
36.332 -10.948 -3.069 11
33.969 -10.26 -2.924 10
31.767 -9.644 -2.795 15
29.918 -9.14 -2.711 11
28.19 -8.686 -2.641 12
26.642 -8.288 -2.59 12
25.217 -7.933 -2.555 19
20.726 -6.597 -1.793 0
20.259 -6.532 -1.922 2
18.298 -5.978 -1.671 0
17.718 -5.868 -1.752 0
17.73 -5.957 -1.998 2
17.766 -6.053 -2.262 0
53.679 -23.472 -1.139 21
0.0 -0.0 3.0 0
0.0 -0.0 3.0 0
74.953 -29.87 -3.896 17
63.379 -24.513 -3.112 5
63.998 -24.053 -3.445 5
0.0 -0.0 3.0 0
63.187 -22.486 -3.875 22
65.087 -22.596 -4.342 15
28.367 -9.619 -0.312 11
36.721 -12.198 -1.44 13
74.292 -24.187 -6.285 6
0.0 -0.0 3.0 0
28.297 -8.925 -0.788 9
54.25 -16.906 -4.527 4
34.719 -10.712 -1.995 3
34.801 -10.664 -2.201 14
42.349 -12.913 -3.579 5
39.365 -11.975 -3.367 6
36.052 -10.972 -3.082 10
33.718 -10.284 -2.938 10
31.582 -9.678 -2.815 14
29.736 -9.168 -2.729 11
28.014 -8.709 -2.655 11
26.494 -8.312 -2.607 12
25.097 -7.959 -2.573 16
20.678 -6.633 -1.819 0
20.271 -6.586 -1.963 2
18.323 -6.03 -1.711 0
17.685 -5.898 -1.776 1
17.726 -5.994 -2.03 1
17.794 -6.1 -2.303 0
53.274 -23.448 -1.134 21
0.0 -0.0 3.0 0
0.0 -0.0 3.0 0
75.072 -30.143 -3.959 17
74.824 -29.165 -4.272 13
63.27 -23.975 -3.424 4
60.631 -22.349 -3.408 6
62.864 -22.568 -3.9 10
65.081 -22.801 -4.408 17
34.625 -11.852 -1.081 7
0.0 -0.0 3.0 0
73.469 -24.155 -6.272 6
0.0 -0.0 3.0 0
28.271 -9.007 -0.823 2
53.716 -16.911 -4.529 4
49.177 -15.329 -4.148 6
34.783 -10.768 -2.252 5
41.997 -12.937 -3.592 5
39.115 -12.018 -3.39 6
35.779 -10.997 -3.096 10
33.501 -10.317 -2.957 10
31.394 -9.711 -2.835 14
29.55 -9.194 -2.745 10
27.856 -8.736 -2.673 11
26.343 -8.335 -2.622 12
24.947 -7.977 -2.585 12
20.652 -6.677 -1.851 0
20.264 -6.633 -1.998 2
18.31 -6.069 -1.742 0
17.713 -5.948 -1.816 5
17.732 -6.036 -2.064 1
17.779 -6.133 -2.332 1
52.865 -23.42 -1.13 23
28.362 -12.185 0.631 6
79.374 -33.074 -4.03 8
74.07 -29.963 -3.918 16
74.368 -29.215 -4.284 33
63.684 -24.328 -3.519 5
61.677 -22.926 -3.574 16
61.722 -22.353 -3.834 3
62.764 -22.189 -4.21 4
34.79 -12.019 -1.139 1
0.0 -0.0 3.0 0
72.567 -24.093 -6.249 5
0.0 -0.0 3.0 0
58.326 -18.77 -4.968 3
53.151 -16.904 -4.526 5
48.711 -15.339 -4.153 6
44.975 -14.065 -3.86 5
34.776 -10.821 -2.513 28
38.858 -12.059 -3.412 6
35.488 -11.014 -3.105 12
33.265 -10.343 -2.971 10
31.199 -9.742 -2.853 14
29.364 -9.22 -2.761 11
27.672 -8.755 -2.685 11
26.187 -8.356 -2.636 12
24.816 -8.0 -2.601 15
20.592 -6.71 -1.875 0
20.397 -6.726 -2.069 1
18.305 -6.111 -1.774 0
17.72 -5.991 -1.851 0
17.72 -6.071 -2.094 1
17.785 -6.174 -2.367 2
52.479 -23.4 -1.126 26
28.335 -12.256 0.618 29
78.772 -33.058 -4.027 13
75.096 -30.604 -4.066 17
74.931 -29.665 -4.396 12
60.675 -23.367 -3.261 6
60.596 -22.714 -3.513 8
61.774 -22.567 -3.9 18
66.463 -23.708 -4.703 11
34.707 -12.103 -1.167 9
28.362 -9.696 -0.529 5
71.656 -24.023 -6.222 6
0.0 -0.0 3.0 0
57.742 -18.768 -4.967 3
52.659 -16.917 -4.532 21
48.262 -15.352 -4.159 5
44.56 -14.077 -3.866 5
34.757 -10.923 -2.566 7
38.612 -12.101 -3.434 6
35.389 -11.091 -3.148 21
33.007 -10.36 -2.981 10
30.999 -9.769 -2.87 12
29.193 -9.249 -2.779 10
27.489 -8.773 -2.697 12
26.05 -8.383 -2.654 12
24.677 -8.02 -2.615 15
0.0 -0.0 3.0 0
20.523 -6.818 -2.138 3
18.293 -6.15 -1.805 0
17.796 -6.057 -1.905 0
17.727 -6.113 -2.129 0
17.769 -6.207 -2.395 3
51.525 -23.125 -1.078 20
28.263 -12.309 0.607 26
78.174 -33.041 -4.023 15
75.038 -30.809 -4.113 22
61.204 -24.419 -3.088 4
62.423 -24.234 -3.493 10
61.262 -23.157 -3.64 15
61.776 -22.764 -3.96 18
64.627 -23.26 -4.558 12
76.238 -26.83 -6.238 19
0.0 -0.0 3.0 0
70.783 -23.96 -6.197 6
0.0 -0.0 3.0 0
57.207 -18.781 -4.972 3
52.069 -16.895 -4.522 14
47.85 -15.374 -4.169 5
44.179 -14.096 -3.875 4
40.981 -13.008 -3.628 5
34.86 -11.033 -2.867 30
35.139 -11.119 -3.163 18
32.775 -10.386 -2.996 11
30.834 -9.807 -2.893 12
29.023 -9.277 -2.797 11
27.335 -8.8 -2.715 12
25.91 -8.408 -2.671 13
24.564 -8.048 -2.635 12
20.558 -6.804 -1.943 0
20.364 -6.816 -2.136 1
18.276 -6.189 -1.835 0
17.78 -6.093 -1.934 0
17.722 -6.152 -2.162 0
17.768 -6.244 -2.428 4
51.511 -23.27 -1.103 55
28.228 -12.377 0.594 12
0.0 -0.0 3.0 0
74.24 -30.707 -4.089 6
61.157 -24.59 -3.131 5
59.242 -23.185 -3.212 6
61.007 -23.253 -3.668 7
61.394 -22.819 -3.977 14
65.134 -23.652 -4.685 7
76.014 -26.997 -6.296 22
76.839 -26.765 -6.742 12
28.386 -9.701 -0.724 0
0.0 -0.0 3.0 0
56.62 -18.771 -4.968 3
51.574 -16.901 -4.525 15
47.386 -15.377 -4.171 6
43.76 -14.101 -3.878 5
40.664 -13.035 -3.642 5
34.84 -11.135 -2.92 12
34.885 -11.145 -3.178 18
32.543 -10.409 -3.01 10
30.638 -9.835 -2.909 11
28.863 -9.309 -2.817 13
27.185 -8.827 -2.732 12
25.762 -8.43 -2.686 12
24.448 -8.074 -2.654 15
20.569 -6.86 -1.984 0
20.289 -6.842 -2.156 0
18.278 -6.233 -1.87 0
17.76 -6.128 -1.963 2
17.716 -6.19 -2.194 0
17.762 -6.282 -2.461 4
51.337 -23.342 -1.116 26
28.24 -12.467 0.577 9
0.0 -0.0 3.0 0
75.057 -31.275 -4.22 17
63.388 -25.683 -3.403 5
59.127 -23.325 -3.25 13
61.272 -23.549 -3.753 10
60.617 -22.724 -3.947 13
65.646 -24.049 -4.814 17
12.362 -4.43 1.475 19
76.074 -26.746 -6.735 11
13.061 -4.506 1.27 2
61.715 -20.957 -5.467 4
56.063 -18.77 -4.967 3
51.132 -16.922 -4.534 16
46.892 -15.367 -4.166 8
43.429 -14.133 -3.893 4
40.374 -13.069 -3.659 4
37.893 -12.228 -3.502 8
34.523 -11.135 -3.172 13
32.327 -10.437 -3.026 10
30.435 -9.859 -2.924 12
28.689 -9.335 -2.833 11
27.024 -8.851 -2.748 11
25.614 -8.451 -2.701 12
24.331 -8.1 -2.672 15
0.0 -0.0 3.0 0
19.251 -6.54 -1.928 1
18.235 -6.263 -1.894 0
17.751 -6.167 -1.994 2
17.718 -6.231 -2.228 0
17.931 -6.381 -2.547 1
50.948 -23.316 -1.111 23
28.269 -12.564 0.558 8
0.0 -0.0 3.0 0
75.099 -31.525 -4.278 21
59.256 -24.194 -3.032 4
59.285 -23.575 -3.317 12
59.544 -23.074 -3.616 13
60.388 -22.832 -3.98 17
62.01 -22.919 -4.447 15
12.299 -4.447 1.469 19
73.023 -25.912 -6.431 9
13.031 -4.538 1.258 5
61.145 -20.964 -5.47 10
55.481 -18.755 -4.961 4
50.811 -16.981 -4.56 9
46.508 -15.392 -4.177 20
43.004 -14.132 -3.893 14
40.076 -13.099 -3.674 4
34.074 -11.102 -2.903 10
34.345 -11.183 -3.199 16
32.103 -10.46 -3.039 11
30.259 -9.891 -2.943 12
28.496 -9.355 -2.845 13
26.875 -8.877 -2.765 11
25.474 -8.475 -2.716 13
24.204 -8.122 -2.687 12
20.755 -7.029 -2.107 1
19.166 -6.559 -1.943 2
18.284 -6.324 -1.941 2
17.76 -6.212 -2.03 2
17.738 -6.278 -2.268 0
18.102 -6.482 -2.635 17
50.501 -23.262 -1.102 17
0.0 -0.0 3.0 0
75.099 -32.652 -3.94 11
75.1 -31.757 -4.332 23
64.048 -26.35 -3.57 5
59.124 -23.698 -3.35 12
59.575 -23.277 -3.674 9
60.411 -23.036 -4.043 15
61.902 -23.079 -4.499 14
75.276 -27.469 -6.458 17
72.344 -25.908 -6.43 17
67.695 -23.799 -6.136 4
28.368 -9.819 -0.967 6
54.963 -18.76 -4.963 3
50.246 -16.956 -4.549 4
46.102 -15.406 -4.184 18
42.721 -14.176 -3.914 25
39.798 -13.134 -3.692 4
34.072 -11.208 -2.959 20
34.089 -11.204 -3.211 18
31.89 -10.488 -3.055 12
30.059 -9.915 -2.957 12
28.31 -9.375 -2.858 15
26.721 -8.902 -2.781 11
25.333 -8.498 -2.732 13
24.076 -8.144 -2.702 14
22.828 -7.791 -2.66 15
19.049 -6.568 -1.949 1
18.058 -6.29 -1.914 0
17.743 -6.248 -2.06 1
17.747 -6.323 -2.305 0
18.016 -6.492 -2.643 17
0.0 -0.0 3.0 0
14.054 -6.332 1.769 2
74.241 -32.508 -3.91 13
75.108 -31.995 -4.387 24
57.625 -23.889 -2.956 6
55.852 -22.563 -3.046 4
60.101 -23.675 -3.789 16
60.166 -23.136 -4.073 13
62.841 -23.633 -4.679 11
13.187 -4.855 1.328 12
71.681 -25.906 -6.429 21
0.0 -0.0 3.0 0
28.346 -9.904 -1.002 0
54.427 -18.755 -4.961 4
49.779 -16.96 -4.551 5
45.703 -15.421 -4.191 16
42.421 -14.212 -3.932 7
39.504 -13.162 -3.707 4
33.741 -11.204 -2.957 18
33.854 -11.231 -3.225 17
31.685 -10.516 -3.071 11
29.875 -9.943 -2.974 11
28.14 -9.4 -2.874 13
26.575 -8.929 -2.799 11
25.207 -8.525 -2.75 13
23.948 -8.165 -2.717 15
22.706 -7.809 -2.673 14
18.953 -6.583 -1.961 1
17.997 -6.314 -1.933 0
17.716 -6.281 -2.086 1
17.737 -6.36 -2.337 0
17.938 -6.503 -2.653 18
0.0 -0.0 3.0 0
13.958 -6.331 1.769 26
75.105 -33.117 -4.039 15
75.096 -32.224 -4.44 18
0.0 -0.0 3.0 0
59.439 -24.202 -3.485 7
57.28 -22.747 -3.523 11
58.041 -22.508 -3.881 10
12.342 -4.682 1.479 0
12.364 -4.593 1.418 18
69.457 -25.33 -6.219 34
12.974 -4.647 1.216 0
59.365 -20.939 -5.46 8
0.0 -0.0 3.0 0
49.219 -16.931 -4.538 9
45.287 -15.427 -4.194 16
42.068 -14.229 -3.94 9
39.218 -13.192 -3.722 4
33.23 -11.138 -2.922 16
33.594 -11.249 -3.235 19
31.484 -10.545 -3.088 12
29.669 -9.962 -2.986 11
27.958 -9.42 -2.887 14
26.444 -8.959 -2.818 12
25.078 -8.55 -2.767 13
23.799 -8.179 -2.727 14
22.594 -7.83 -2.689 14
18.862 -6.599 -1.973 1
17.954 -6.343 -1.956 0
17.728 -6.328 -2.124 1
17.749 -6.405 -2.375 1
17.852 -6.512 -2.661 18
0.0 -0.0 3.0 0
13.923 -6.358 1.764 18
75.114 -33.354 -4.09 21
75.102 -32.463 -4.495 16
75.121 -31.618 -4.883 10
58.871 -24.159 -3.473 8
13.197 -5.283 1.485 1
57.713 -22.568 -3.9 7
12.305 -4.708 1.47 1
12.387 -4.642 1.402 19
12.913 -4.752 1.271 5
12.895 -4.661 1.211 1
58.66 -20.884 -5.438 3
28.362 -9.96 -1.228 5
48.921 -16.989 -4.564 7
28.636 -9.848 -1.592 3
41.707 -14.242 -3.946 10
38.936 -13.221 -3.736 4
32.903 -11.132 -2.919 15
33.357 -11.272 -3.248 28
31.282 -10.573 -3.104 11
29.489 -9.989 -3.002 11
27.791 -9.446 -2.903 12
26.316 -8.992 -2.839 12
24.956 -8.578 -2.786 12
23.667 -8.197 -2.74 11
22.48 -7.849 -2.703 15
18.781 -6.619 -1.988 1
17.926 -6.378 -1.983 0
17.717 -6.367 -2.156 2
17.721 -6.437 -2.401 1
17.762 -6.52 -2.668 24
0.0 -0.0 3.0 0
13.906 -6.393 1.757 24
75.119 -33.59 -4.14 18
75.107 -32.701 -4.55 19
63.885 -27.092 -3.755 10
55.859 -23.103 -3.191 8
13.067 -5.274 1.488 23
56.997 -22.474 -3.871 18
64.078 -24.728 -5.035 9
12.413 -4.692 1.384 32
12.894 -4.788 1.257 17
0.0 -0.0 3.0 0
58.064 -20.864 -5.429 3
52.845 -18.732 -4.951 3
28.535 -10.003 -1.454 33
28.62 -9.936 -1.633 35
41.321 -14.244 -3.947 22
38.669 -13.254 -3.753 4
32.468 -11.087 -2.895 19
33.108 -11.291 -3.259 29
31.092 -10.603 -3.122 11
29.312 -10.017 -3.019 11
27.628 -9.471 -2.918 12
26.162 -9.014 -2.854 12
24.823 -8.602 -2.802 12
23.547 -8.22 -2.755 15
22.379 -7.874 -2.721 14
18.703 -6.64 -2.003 1
17.871 -6.403 -2.003 0
17.693 -6.401 -2.183 2
17.721 -6.479 -2.436 1
17.684 -6.532 -2.678 17
59.627 -28.368 -2.002 21
13.893 -6.43 1.75 15
13.393 -6.031 1.718 22
12.562 -5.509 1.728 0
63.906 -27.306 -3.808 10
55.494 -23.131 -3.198 2
13.058 -5.313 1.477 20
60.374 -24.004 -4.339 4
61.253 -23.84 -4.746 13
13.099 -4.996 1.28 23
12.863 -4.819 1.246 28
0.0 -0.0 3.0 0
57.521 -20.86 -5.428 3
52.401 -18.748 -4.958 4
28.497 -10.084 -1.49 5
28.582 -10.017 -1.671 19
40.992 -14.263 -3.956 23
38.399 -13.284 -3.769 5
32.142 -11.078 -2.89 25
32.878 -11.315 -3.272 26
30.891 -10.629 -3.136 13
29.117 -10.037 -3.031 11
27.473 -9.499 -2.935 12
26.013 -9.037 -2.868 13
24.701 -8.629 -2.82 12
23.427 -8.242 -2.771 15
22.254 -7.888 -2.731 15
18.633 -6.663 -2.021 1
17.843 -6.437 -2.029 0
17.737 -6.46 -2.232 1
0.0 -0.0 3.0 0
17.598 -6.541 -2.686 15
59.172 -28.333 -1.996 18
13.829 -6.444 1.747 25
13.348 -6.052 1.714 26
12.521 -5.531 1.723 24
61.144 -26.323 -3.563 6
59.123 -24.835 -3.655 13
13.035 -5.346 1.467 22
57.877 -23.201 -4.093 8
75.037 -29.453 -6.57 19
13.046 -5.018 1.272 23
12.837 -4.851 1.234 24
63.217 -23.479 -6.013 3
56.855 -20.808 -5.407 3
51.864 -18.728 -4.949 4
28.38 -10.136 -1.513 5
43.769 -15.482 -4.219 10
40.673 -14.284 -3.967 22
38.121 -13.311 -3.782 5
31.895 -11.093 -2.898 31
32.623 -11.328 -3.279 20
30.672 -10.647 -3.147 10
28.949 -10.067 -3.049 11
27.317 -9.525 -2.952 13
25.878 -9.065 -2.887 13
24.553 -8.646 -2.832 11
23.31 -8.265 -2.787 15
22.157 -7.913 -2.749 14
18.578 -6.691 -2.042 1
17.843 -6.483 -2.065 0
17.733 -6.502 -2.265 2
17.725 -6.564 -2.508 2
17.526 -6.554 -2.698 14
58.629 -28.254 -1.982 6
13.827 -6.486 1.739 27
13.32 -6.082 1.707 21
12.524 -5.573 1.713 6
56.917 -24.686 -3.155 11
58.68 -24.841 -3.656 12
12.975 -5.364 1.462 23
59.673 -24.119 -4.374 11
75.217 -29.774 -6.674 16
13.018 -5.051 1.261 23
12.813 -4.886 1.222 30
0.0 -0.0 3.0 0
56.287 -20.788 -5.399 3
51.324 -18.704 -4.939 4
28.438 -10.251 -1.564 25
28.415 -10.144 -1.73 9
40.352 -14.303 -3.976 23
37.855 -13.34 -3.797 4
31.729 -11.137 -2.922 28
32.341 -11.332 -3.282 28
30.449 -10.664 -3.157 10
28.757 -10.086 -3.061 11
27.154 -9.548 -2.966 12
25.743 -9.092 -2.904 12
24.431 -8.672 -2.849 13
23.19 -8.286 -2.802 14
22.035 -7.929 -2.761 14
18.511 -6.715 -2.06 0
17.81 -6.516 -2.091 0
17.708 -6.537 -2.294 2
17.736 -6.611 -2.547 5
17.487 -6.581 -2.72 18
0.0 -0.0 3.0 0
12.998 -6.137 1.807 29
13.296 -6.114 1.7 23
12.501 -5.602 1.707 25
0.0 -0.0 3.0 0
55.211 -23.553 -3.311 11
13.043 -5.435 1.442 25
56.055 -22.842 -3.984 4
12.485 -4.983 1.381 2
12.999 -5.087 1.248 18
12.805 -4.926 1.207 18
61.841 -23.382 -5.975 3
55.761 -20.78 -5.396 3
50.856 -18.703 -4.939 4
28.399 -10.331 -1.6 28
28.35 -10.214 -1.763 29
28.684 -10.26 -2.004 4
37.581 -13.365 -3.81 5
31.597 -11.19 -2.95 26
32.067 -11.336 -3.284 26
30.248 -10.687 -3.17 13
28.585 -10.112 -3.076 11
27.013 -9.579 -2.986 12
25.593 -9.113 -2.918 12
24.287 -8.689 -2.861 11
23.055 -8.301 -2.813 14
21.931 -7.951 -2.777 14
18.456 -6.744 -2.082 0
17.788 -6.553 -2.12 0
17.708 -6.58 -2.329 15
17.728 -6.65 -2.58 13
17.444 -6.605 -2.741 18
0.0 -0.0 3.0 0
12.978 -6.17 1.801 22
12.661 -5.862 1.754 18
12.504 -5.644 1.697 31
56.053 -24.675 -3.152 6
12.714 -5.465 1.536 13
12.965 -5.445 1.439 25
12.646 -5.196 1.412 8
12.285 -4.945 1.393 30
12.753 -5.034 1.267 29
12.833 -4.979 1.188 15
61.219 -23.353 -5.964 3
55.175 -20.747 -5.382 3
50.387 -18.699 -4.937 4
46.35 -17.014 -4.575 8
28.337 -10.303 -1.804 25
28.64 -10.339 -2.042 21
37.315 -13.391 -3.823 4
31.713 -11.333 -3.026 14
31.861 -11.364 -3.299 30
30.051 -10.71 -3.183 13
28.394 -10.131 -3.088 10
26.858 -9.604 -3.001 12
25.45 -9.137 -2.933 16
24.15 -8.71 -2.875 13
22.924 -8.318 -2.824 11
21.823 -7.971 -2.791 14
18.396 -6.771 -2.102 0
17.751 -6.585 -2.145 0
18.01 -6.738 -2.456 14
17.756 -6.704 -2.626 13
17.397 -6.628 -2.762 18
68.047 -33.431 -2.895 11
12.894 -6.17 1.801 19
12.591 -5.87 1.752 20
12.495 -5.68 1.689 31
55.109 -24.439 -3.093 4
12.771 -5.532 1.518 18
12.963 -5.488 1.426 28
12.627 -5.229 1.401 13
12.166 -4.938 1.396 29
12.656 -5.038 1.265 23
12.776 -5.001 1.18 0
0.0 -0.0 3.0 0
54.683 -20.745 -5.382 4
49.909 -18.688 -4.933 4
45.913 -17.008 -4.572 7
28.46 -10.442 -1.869 4
28.4 -10.346 -2.046 21
37.057 -13.418 -3.837 4
31.236 -11.263 -2.989 11
30.57 -11.0 -3.098 9
29.832 -10.724 -3.192 11
28.225 -10.158 -3.103 12
26.706 -9.63 -3.017 12
25.33 -9.167 -2.953 11
24.028 -8.734 -2.891 12
22.789 -8.333 -2.835 11
21.705 -7.986 -2.802 15
18.351 -6.803 -2.126 0
17.758 -6.634 -2.183 0
17.71 -6.67 -2.401 21
17.741 -6.742 -2.657 10
17.339 -6.647 -2.778 17
67.57 -33.41 -2.891 20
12.374 -5.961 1.841 25
12.561 -5.896 1.747 25
12.508 -5.726 1.678 18
54.639 -24.411 -3.086 17
12.714 -5.549 1.513 26
13.041 -5.564 1.404 25
12.6 -5.26 1.392 1
12.111 -4.956 1.39 22
12.323 -4.947 1.296 35
14.316 -5.651 0.943 0
59.944 -23.271 -5.933 3
54.129 -20.718 -5.371 3
49.445 -18.681 -4.929 4
45.518 -17.013 -4.575 7
28.409 -10.518 -1.904 1
28.334 -10.415 -2.08 33
36.791 -13.442 -3.849 5
30.83 -11.215 -2.963 26
30.317 -11.005 -3.1 15
29.613 -10.738 -3.199 15
28.042 -10.177 -3.115 12
26.551 -9.653 -3.032 11
25.199 -9.193 -2.97 11
23.88 -8.749 -2.901 17
22.669 -8.352 -2.848 13
21.59 -8.003 -2.814 14
18.295 -6.831 -2.147 0
17.746 -6.675 -2.215 0
17.777 -6.74 -2.458 5
17.722 -6.778 -2.687 13
17.296 -6.671 -2.799 17
12.481 -6.211 1.905 7
12.301 -5.965 1.841 19
12.588 -5.949 1.735 20
12.521 -5.774 1.667 28
55.305 -24.89 -3.206 10
12.778 -5.619 1.494 25
13.043 -5.608 1.392 15
59.94 -25.227 -4.713 17
12.205 -5.035 1.364 22
12.333 -4.993 1.281 41
14.264 -5.679 0.933 6
0.0 -0.0 3.0 0
53.554 -20.679 -5.355 3
49.005 -18.679 -4.929 4
45.119 -17.015 -4.576 6
28.38 -10.601 -1.943 19
28.401 -10.532 -2.137 19
36.526 -13.463 -3.86 4
30.661 -11.252 -2.983 17
30.193 -11.055 -3.128 13
29.42 -10.759 -3.212 10
27.877 -10.202 -3.13 12
26.396 -9.676 -3.046 12
25.071 -9.221 -2.988 12
23.758 -8.773 -2.917 13
22.545 -8.369 -2.86 13
21.478 -8.02 -2.827 14
18.268 -6.869 -2.176 0
17.752 -6.724 -2.253 0
17.69 -6.751 -2.467 18
17.717 -6.819 -2.722 31
17.249 -6.694 -2.819 16
12.536 -6.278 1.893 21
12.271 -5.99 1.836 27
12.589 -5.991 1.727 21
12.526 -5.817 1.657 12
67.38 -30.548 -4.616 6
12.841 -5.69 1.475 20
13.022 -5.644 1.382 27
12.099 -5.132 1.431 2
12.196 -5.073 1.352 26
12.703 -5.185 1.215 20
14.253 -5.723 0.917 3
0.0 -0.0 3.0 0
53.063 -20.669 -5.351 3
13.043 -5.016 0.871 7
44.684 -17.001 -4.569 5
28.328 -10.676 -1.978 17
28.464 -10.65 -2.194 1
28.409 -10.564 -2.383 44
30.426 -11.264 -2.989 23
29.759 -10.991 -3.092 28
29.257 -10.792 -3.231 12
27.72 -10.23 -3.147 12
26.251 -9.702 -3.062 12
24.936 -9.244 -3.003 11
23.592 -8.779 -2.922 12
22.417 -8.385 -2.871 13
21.353 -8.032 -2.835 13
18.227 -6.902 -2.201 0
17.787 -6.783 -2.299 0
17.685 -6.794 -2.502 2
17.698 -6.856 -2.753 3
17.184 -6.71 -2.833 16
12.495 -6.298 1.889 5
12.329 -6.059 1.822 23
12.562 -6.019 1.721 28
12.564 -5.876 1.643 28
50.9 -23.245 -2.796 16
12.759 -5.697 1.474 25
13.059 -5.703 1.365 31
12.05 -5.152 1.425 23
12.1 -5.074 1.351 26
12.627 -5.197 1.21 23
14.253 -5.771 0.899 17
14.355 -5.72 0.804 23
52.556 -20.65 -5.343 3
13.034 -5.057 0.854 27
44.286 -16.999 -4.569 6
41.039 -15.604 -4.276 6
38.296 -14.456 -4.05 4
28.398 -10.653 -2.428 74
30.098 -11.24 -2.977 25
29.941 -11.154 -3.183 10
29.13 -10.836 -3.256 29
27.548 -10.251 -3.159 11
26.104 -9.726 -3.078 13
24.787 -9.263 -3.015 11
23.441 -8.791 -2.929 16
22.304 -8.406 -2.886 14
21.249 -8.052 -2.85 14
18.199 -6.941 -2.231 0
17.774 -6.825 -2.332 0
17.69 -6.842 -2.54 1
17.775 -6.929 -2.814 14
17.112 -6.724 -2.845 16
12.467 -6.324 1.885 11
12.352 -6.11 1.812 10
12.541 -6.051 1.714 25
12.59 -5.93 1.631 1
51.639 -23.754 -2.923 11
12.753 -5.736 1.463 23
12.988 -5.716 1.361 33
12.052 -5.195 1.412 25
12.226 -5.169 1.32 25
12.394 -5.144 1.229 24
14.307 -5.843 0.873 2
14.3 -5.746 0.794 27
52.034 -20.623 -5.332 3
12.991 -5.084 0.842 16
43.892 -16.996 -4.567 15
40.708 -15.615 -4.281 6
38.028 -14.481 -4.063 4
28.43 -10.759 -2.482 255
28.44 -10.713 -2.696 4
29.369 -11.035 -3.117 3
28.964 -10.865 -3.273 27
27.372 -10.271 -3.171 12
25.967 -9.754 -3.095 13
24.648 -9.284 -3.029 11
23.297 -8.804 -2.939 16
22.192 -8.426 -2.9 14
21.145 -8.071 -2.864 12
18.186 -6.986 -2.264 2
17.776 -6.872 -2.369 0
17.85 -6.949 -2.627 1
17.719 -6.952 -2.833 14
17.047 -6.739 -2.858 17
0.0 -0.0 3.0 0
12.521 -6.235 1.788 21
12.331 -5.99 1.727 21
0.0 -0.0 3.0 0
51.905 -24.051 -2.997 10
12.725 -5.767 1.455 24
12.93 -5.735 1.356 24
11.985 -5.207 1.408 26
12.466 -5.313 1.274 73
11.968 -5.008 1.276 20
14.244 -5.865 0.865 7
14.171 -5.743 0.796 25
12.783 -5.11 0.935 1
12.992 -5.129 0.823 17
43.579 -17.022 -4.579 25
40.374 -15.623 -4.285 6
37.742 -14.497 -4.071 4
28.421 -10.85 -2.528 255
28.358 -10.775 -2.729 35
28.922 -10.959 -3.075 14
28.646 -10.837 -3.257 25
27.204 -10.292 -3.184 11
25.83 -9.781 -3.112 17
24.51 -9.305 -3.043 11
23.172 -8.825 -2.952 15
22.079 -8.447 -2.915 13
21.041 -8.09 -2.877 12
18.212 -7.045 -2.309 0
17.785 -6.922 -2.408 0
17.733 -6.95 -2.628 0
17.667 -6.976 -2.853 15
16.982 -6.755 -2.872 17
12.53 -6.437 1.865 11
12.291 -6.161 1.802 9
12.282 -6.006 1.723 21
12.556 -5.998 1.615 18
51.813 -24.183 -3.03 6
12.889 -5.885 1.423 16
12.884 -5.758 1.349 26
12.024 -5.264 1.391 25
