# .PCD v0.7 - Point Cloud Data file format
VERSION 0.7
FIELDS x y z intensity
SIZE 4 4 4 4
TYPE F F F F
COUNT 1 1 1 1
WIDTH 2240
HEIGHT 1
VIEWPOINT 0 0 0 1 0 0 0
POINTS 2240
DATA ascii
4.223 -1.122 2.699 19
4.208 -1.066 2.694 21
4.235 -1.024 2.687 20
4.272 -0.987 2.679 16
4.405 -0.976 2.664 11
7.358 -1.567 2.43 29
7.359 -1.515 2.419 24
6.542 -1.306 2.472 21
6.566 -1.28 2.457 59
5.461 -1.045 2.535 9
5.239 -0.992 2.538 10
5.168 -0.974 2.525 12
4.876 -0.921 2.531 0
4.77 -0.909 2.516 8
4.511 -0.872 2.516 16
4.516 -0.891 2.486 245
4.47 -0.902 2.458 2
4.197 -0.869 2.457 0
5.966 -1.272 2.174 2
3.867 -0.849 2.427 0
3.77 -0.854 2.402 0
3.631 -0.849 2.383 0
6.418 -1.549 1.833 0
6.438 -1.603 1.748 0
6.373 -1.637 1.675 0
0.0 -0.0 3.0 0
0.0 -0.0 3.0 0
4.758 -1.599 2.718 8
5.027 -1.61 2.687 6
5.293 -1.615 2.657 13
5.624 -1.633 2.623 15
5.947 -1.644 2.59 16
4.23 -1.113 2.702 20
4.219 -1.058 2.697 24
4.245 -1.016 2.69 19
4.321 -0.987 2.679 16
4.404 -0.963 2.668 12
7.358 -1.546 2.437 24
7.364 -1.495 2.426 31
7.294 -1.434 2.42 31
6.532 -1.254 2.468 60
5.516 -1.039 2.537 2
5.317 -0.991 2.538 10
5.167 -0.959 2.532 32
4.949 -0.921 2.531 0
4.859 -0.913 2.514 7
4.537 -0.865 2.52 8
4.512 -0.878 2.493 255
4.512 -0.899 2.46 10
4.242 -0.868 2.457 0
4.077 -0.859 2.442 0
3.912 -0.851 2.426 0
3.785 -0.849 2.405 0
6.16 -1.428 1.962 2
6.127 -1.467 1.895 2
6.507 -1.608 1.744 0
6.374 -1.626 1.683 0
7.347 -1.932 1.379 1
0.0 -0.0 3.0 0
4.784 -1.598 2.718 8
5.065 -1.612 2.687 13
5.326 -1.613 2.657 5
5.623 -1.62 2.626 16
5.966 -1.636 2.592 8
4.252 -1.109 2.703 14
4.225 -1.049 2.699 22
4.26 -1.008 2.692 18
4.339 -0.98 2.682 14
4.391 -0.949 2.673 10
7.359 -1.525 2.445 29
7.357 -1.471 2.435 24
7.349 -1.424 2.425 30
6.524 -1.233 2.477 61
6.57 -1.218 2.458 63
5.391 -0.989 2.539 10
5.21 -0.951 2.536 16
5.117 -0.937 2.522 1
4.921 -0.911 2.515 8
4.595 -0.864 2.521 7
4.518 -0.867 2.499 37
4.511 -0.887 2.467 167
4.315 -0.873 2.454 0
4.13 -0.861 2.441 0
3.976 -0.856 2.423 0
3.841 -0.854 2.402 0
6.329 -1.455 1.943 1
6.138 -1.458 1.902 2
6.527 -1.602 1.749 0
6.435 -1.63 1.68 0
7.352 -1.921 1.388 0
0.0 -0.0 3.0 0
4.829 -1.603 2.717 10
5.064 -1.6 2.689 20
5.357 -1.611 2.657 4
5.658 -1.617 2.627 5
6.009 -1.634 2.593 4
4.27 -1.103 2.704 14
4.236 -1.041 2.702 29
4.278 -1.001 2.694 33
4.358 -0.972 2.684 12
4.347 -0.927 2.681 26
4.339 -0.887 2.677 4
7.362 -1.451 2.443 30
7.358 -1.404 2.433 26
6.559 -1.22 2.482 24
6.562 -1.197 2.467 64
5.473 -0.988 2.539 9
5.244 -0.942 2.541 11
5.167 -0.932 2.525 1
5.026 -0.916 2.513 10
4.829 -0.894 2.504 2
4.517 -0.856 2.506 22
4.514 -0.877 2.473 255
4.434 -0.887 2.446 1
4.179 -0.862 2.44 0
4.017 -0.856 2.423 0
3.897 -0.859 2.398 0
5.737 -1.307 2.05 1
6.269 -1.477 1.887 2
6.508 -1.585 1.761 0
6.465 -1.627 1.682 0
6.376 -1.656 1.611 0
0.0 -0.0 3.0 0
4.836 -1.596 2.719 24
5.086 -1.597 2.69 6
5.394 -1.611 2.658 16
5.692 -1.615 2.627 5
6.047 -1.63 2.594 14
4.284 -1.096 2.706 14
4.242 -1.032 2.704 16
4.296 -0.994 2.696 22
4.368 -0.962 2.687 11
4.346 -0.915 2.685 18
4.349 -0.877 2.681 3
7.366 -1.431 2.451 27
7.358 -1.382 2.442 31
7.317 -1.34 2.431 31
6.527 -1.171 2.478 67
5.519 -0.98 2.543 1
5.322 -0.94 2.541 10
5.198 -0.923 2.53 13
5.123 -0.92 2.511 24
4.973 -0.908 2.497 4
4.559 -0.851 2.509 5
4.52 -0.867 2.479 255
4.503 -0.89 2.444 4
5.919 -1.207 2.216 1
6.241 -1.317 2.112 1
3.942 -0.86 2.397 0
5.736 -1.296 2.058 2
6.104 -1.427 1.925 1
6.382 -1.544 1.794 0
6.5 -1.625 1.684 0
6.372 -1.644 1.62 0
7.348 -1.956 1.299 1
4.839 -1.587 2.72 16
5.127 -1.6 2.689 6
5.401 -1.601 2.66 15
5.734 -1.614 2.627 28
6.062 -1.62 2.596 17
4.298 -1.09 2.708 14
4.264 -1.027 2.706 16
4.322 -0.989 2.698 26
4.359 -0.949 2.692 8
4.356 -0.905 2.688 3
4.34 -0.863 2.686 22
7.363 -1.409 2.459 22
7.359 -1.361 2.45 26
7.353 -1.324 2.438 32
6.523 -1.151 2.487 66
6.567 -1.146 2.465 69
5.404 -0.94 2.542 10
5.209 -0.91 2.537 18
5.162 -0.912 2.515 134
5.054 -0.909 2.496 7
4.644 -0.856 2.506 4
4.519 -0.856 2.486 47
4.514 -0.881 2.449 43
4.294 -0.866 2.437 0
4.154 -0.868 2.415 0
3.968 -0.858 2.399 0
3.855 -0.864 2.372 0
5.962 -1.383 1.958 2
6.176 -1.483 1.841 2
6.534 -1.623 1.685 0
6.422 -1.648 1.618 0
7.353 -1.947 1.308 0
4.868 -1.587 2.72 7
5.157 -1.598 2.689 8
5.435 -1.6 2.66 5
5.733 -1.601 2.63 10
6.093 -1.614 2.598 7
4.324 -1.086 2.709 18
4.278 -1.02 2.708 14
4.348 -0.984 2.699 15
4.42 -0.951 2.691 5
4.359 -0.894 2.692 2
4.35 -0.852 2.69 18
7.375 -1.391 2.466 28
7.356 -1.339 2.459 33
7.361 -1.304 2.447 29
6.586 -1.143 2.491 25
6.563 -1.127 2.475 69
5.474 -0.935 2.544 10
5.247 -0.901 2.541 11
5.157 -0.897 2.523 41
5.081 -0.901 2.501 43
3.155 -0.573 2.669 1
4.518 -0.844 2.493 27
4.521 -0.872 2.455 190
4.44 -0.886 2.425 0
5.969 -1.233 2.168 1
4.032 -0.864 2.395 0
3.892 -0.865 2.372 0
5.961 -1.372 1.966 1
6.16 -1.469 1.852 3
6.535 -1.613 1.694 0
6.452 -1.645 1.619 0
0.0 -0.0 3.0 0
4.909 -1.591 2.719 8
5.168 -1.591 2.691 30
5.469 -1.599 2.66 4
5.779 -1.601 2.63 4
6.124 -1.608 2.599 6
4.362 -1.085 2.709 2
4.304 -1.015 2.709 17
4.382 -0.98 2.7 18
4.419 -0.939 2.695 1
7.361 -1.491 2.487 26
4.341 -0.839 2.695 4
7.372 -1.368 2.475 32
7.36 -1.319 2.467 25
7.357 -1.282 2.456 34
7.325 -1.25 2.444 30
6.524 -1.1 2.487 82
5.552 -0.933 2.545 1
5.333 -0.901 2.541 9
5.183 -0.887 2.528 30
5.088 -0.888 2.508 61
3.153 -0.564 2.674 2
4.568 -0.842 2.494 5
4.523 -0.862 2.461 66
4.501 -0.888 2.423 4
5.946 -1.217 2.179 2
5.855 -1.243 2.13 2
3.956 -0.871 2.367 0
6.015 -1.374 1.965 1
6.122 -1.449 1.868 2
6.527 -1.6 1.704 0
6.509 -1.649 1.616 0
6.371 -1.668 1.55 1
4.946 -1.594 2.719 11
5.19 -1.587 2.691 10
5.507 -1.598 2.66 19
5.828 -1.602 2.63 9
6.154 -1.603 2.6 6
4.341 -1.07 2.713 0
4.322 -1.009 2.711 12
4.372 -0.968 2.704 1
4.422 -0.928 2.698 0
7.358 -1.47 2.494 32
4.363 -0.831 2.697 0
4.369 -0.799 2.693 2
7.352 -1.295 2.477 34
7.362 -1.26 2.465 29
7.353 -1.233 2.451 33
6.52 -1.08 2.496 77
6.574 -1.085 2.471 69
5.415 -0.899 2.542 10
5.206 -0.877 2.534 15
5.157 -0.887 2.509 94
3.151 -0.556 2.679 4
4.66 -0.847 2.491 4
4.518 -0.85 2.469 20
4.512 -0.88 2.428 15
4.29 -0.869 2.414 0
5.866 -1.234 2.136 2
3.962 -0.866 2.371 0
6.276 -1.422 1.928 1
6.121 -1.439 1.876 3
6.474 -1.577 1.723 0
6.543 -1.649 1.616 1
6.375 -1.66 1.557 1
4.937 -1.582 2.721 28
5.223 -1.587 2.691 5
5.518 -1.59 2.662 11
5.839 -1.593 2.632 16
6.192 -1.599 2.601 5
6.589 -1.609 2.569 21
4.371 -1.01 2.71 9
4.41 -0.966 2.705 0
7.367 -1.528 2.503 32
7.358 -1.45 2.501 27
7.359 -1.381 2.497 31
7.36 -1.325 2.492 27
7.364 -1.277 2.484 27
7.362 -1.239 2.474 35
7.361 -1.213 2.46 29
6.598 -1.074 2.499 21
6.546 -1.062 2.482 69
5.485 -0.896 2.544 9
5.26 -0.871 2.537 11
5.156 -0.872 2.516 42
3.145 -0.547 2.684 9
4.816 -0.864 2.481 2
4.521 -0.841 2.475 25
4.526 -0.873 2.433 65
4.421 -0.886 2.402 0
5.865 -1.222 2.144 2
4.019 -0.87 2.368 0
6.218 -1.398 1.946 2
6.133 -1.432 1.881 3
6.508 -1.575 1.725 0
6.524 -1.634 1.629 0
6.243 -1.617 1.595 1
4.959 -1.579 2.722 10
5.264 -1.59 2.691 7
5.551 -1.589 2.662 5
5.866 -1.588 2.633 6
6.231 -1.596 2.602 4
6.596 -1.596 2.572 13
4.358 -0.997 2.714 0
7.362 -1.593 2.513 28
7.363 -1.508 2.51 26
7.362 -1.432 2.507 35
7.363 -1.362 2.504 27
7.365 -1.305 2.499 33
7.357 -1.254 2.493 34
7.358 -1.217 2.483 30
7.358 -1.19 2.47 34
7.339 -1.173 2.453 31
6.526 -1.04 2.493 92
5.504 -0.882 2.55 0
5.342 -0.87 2.537 10
3.21 -0.535 2.704 3
3.155 -0.541 2.688 16
3.385 -0.599 2.64 0
4.578 -0.841 2.474 4
4.517 -0.862 2.44 35
4.489 -0.891 2.399 2
5.865 -1.21 2.153 3
4.079 -0.876 2.364 0
6.133 -1.369 1.969 2
6.52 -1.511 1.819 0
6.141 -1.477 1.804 2
6.535 -1.628 1.634 0
6.254 -1.611 1.6 0
4.988 -1.579 2.722 7
5.279 -1.584 2.692 23
5.585 -1.587 2.663 5
5.908 -1.587 2.634 6
6.269 -1.591 2.603 4
6.604 -1.584 2.576 7
7.37 -1.669 2.521 24
7.362 -1.575 2.518 30
7.359 -1.489 2.516 33
7.362 -1.412 2.514 27
7.363 -1.342 2.512 36
7.369 -1.285 2.507 32
7.361 -1.233 2.502 32
7.358 -1.195 2.493 35
7.358 -1.168 2.48 31
7.363 -1.155 2.462 32
6.526 -1.021 2.502 89
6.57 -1.035 2.473 77
5.42 -0.868 2.538 9
3.204 -0.525 2.709 13
3.164 -0.534 2.692 26
3.375 -0.59 2.646 0
4.682 -0.85 2.469 3
4.523 -0.853 2.446 12
4.511 -0.886 2.402 7
5.988 -1.225 2.143 0
4.158 -0.885 2.357 0
6.002 -1.329 1.999 2
6.527 -1.503 1.826 0
6.137 -1.466 1.813 4
6.535 -1.618 1.642 0
6.257 -1.603 1.607 1
5.025 -1.582 2.721 8
5.285 -1.576 2.694 15
5.611 -1.584 2.663 28
5.942 -1.585 2.634 30
6.323 -1.592 2.603 5
6.654 -1.58 2.577 3
7.374 -1.653 2.526 17
7.362 -1.557 2.524 28
7.363 -1.471 2.522 29
7.358 -1.392 2.521 37
7.363 -1.321 2.519 25
7.361 -1.263 2.515 35
7.361 -1.213 2.51 35
7.358 -1.175 2.501 33
7.358 -1.146 2.49 35
7.37 -1.135 2.471 16
6.703 -1.029 2.498 65
6.542 -1.012 2.484 82
5.489 -0.864 2.541 8
3.206 -0.517 2.713 17
3.166 -0.526 2.696 31
3.384 -0.583 2.649 0
3.256 -0.583 2.636 0
4.522 -0.843 2.453 19
4.517 -0.878 2.408 38
4.403 -0.892 2.375 0
4.168 -0.88 2.36 0
5.993 -1.317 2.008 3
6.527 -1.492 1.834 0
6.209 -1.475 1.806 1
6.451 -1.588 1.667 0
6.325 -1.612 1.599 1
5.051 -1.581 2.721 20
5.323 -1.577 2.693 5
5.626 -1.576 2.665 12
5.964 -1.578 2.636 8
6.338 -1.583 2.605 5
6.739 -1.586 2.575 3
7.374 -1.636 2.531 24
7.362 -1.539 2.529 32
7.363 -1.452 2.528 33
7.362 -1.374 2.527 29
7.359 -1.301 2.526 33
7.365 -1.242 2.523 32
7.357 -1.19 2.519 35
7.358 -1.153 2.511 35
7.358 -1.125 2.499 34
7.359 -1.111 2.482 26
7.334 -1.105 2.461 35
3.162 -0.48 2.755 0
3.176 -0.491 2.739 0
3.212 -0.509 2.718 19
3.168 -0.52 2.7 36
5.089 -0.865 2.48 91
3.254 -0.576 2.64 4
4.633 -0.854 2.446 3
4.508 -0.867 2.415 27
4.491 -0.901 2.369 2
4.233 -0.886 2.356 0
5.969 -1.302 2.019 3
6.527 -1.482 1.842 0
6.537 -1.543 1.751 0
6.131 -1.5 1.741 2
6.241 -1.583 1.624 2
5.05 -1.572 2.723 21
5.364 -1.58 2.693 6
5.663 -1.577 2.665 5
6.01 -1.578 2.636 4
6.376 -1.579 2.606 4
7.147 -1.666 2.553 22
7.374 -1.618 2.536 28
7.362 -1.522 2.535 26
7.363 -1.434 2.534 33
7.362 -1.355 2.534 37
7.363 -1.282 2.533 30
7.365 -1.223 2.531 38
7.357 -1.169 2.528 33
7.354 -1.13 2.52 36
7.354 -1.103 2.509 33
7.362 -1.09 2.492 34
7.349 -1.086 2.47 35
3.156 -0.47 2.76 1
3.169 -0.482 2.744 5
3.217 -0.502 2.722 27
3.173 -0.512 2.704 40
5.154 -0.864 2.481 184
3.232 -0.564 2.647 11
4.737 -0.863 2.439 4
4.526 -0.862 2.419 11
4.505 -0.896 2.373 5
4.297 -0.892 2.352 0
5.922 -1.282 2.034 3
6.538 -1.474 1.848 0
6.529 -1.531 1.76 0
6.13 -1.492 1.748 3
6.165 -1.555 1.648 3
5.068 -1.569 2.723 7
5.378 -1.575 2.694 22
5.708 -1.578 2.665 6
6.055 -1.578 2.636 27
6.398 -1.571 2.608 4
7.357 -1.699 2.545 23
7.382 -1.604 2.54 17
7.366 -1.506 2.54 34
7.363 -1.416 2.54 31
7.362 -1.336 2.54 33
7.359 -1.261 2.541 25
7.372 -1.203 2.538 31
7.36 -1.149 2.536 38
7.358 -1.11 2.529 35
7.353 -1.081 2.519 35
7.358 -1.069 2.502 36
7.361 -1.066 2.48 35
3.158 -0.462 2.765 3
3.171 -0.473 2.748 16
3.211 -0.492 2.727 39
3.175 -0.504 2.709 40
5.161 -0.852 2.488 163
3.261 -0.563 2.648 15
4.806 -0.866 2.438 12
4.513 -0.851 2.426 55
4.511 -0.889 2.377 34
4.485 -0.923 2.329 0
5.925 -1.273 2.041 3
6.537 -1.464 1.856 1
6.533 -1.522 1.767 0
6.152 -1.489 1.751 1
6.179 -1.551 1.652 2
5.101 -1.57 2.723 5
5.392 -1.569 2.695 16
5.715 -1.569 2.666 32
6.058 -1.567 2.638 13
6.44 -1.569 2.609 4
7.36 -1.684 2.549 31
7.366 -1.585 2.546 20
7.365 -1.489 2.545 27
7.363 -1.398 2.546 35
7.361 -1.316 2.547 35
7.37 -1.244 2.547 33
7.36 -1.181 2.547 41
7.356 -1.128 2.544 33
7.358 -1.088 2.538 38
7.357 -1.06 2.528 34
7.362 -1.047 2.512 37
7.357 -1.045 2.49 35
3.151 -0.452 2.77 9
3.173 -0.465 2.753 19
3.213 -0.484 2.732 42
3.184 -0.499 2.712 39
5.187 -0.845 2.492 33
3.251 -0.554 2.654 11
4.848 -0.863 2.439 8
4.609 -0.859 2.42 9
4.514 -0.881 2.383 24
4.499 -0.918 2.333 1
5.924 -1.263 2.048 3
6.533 -1.453 1.865 1
6.532 -1.513 1.775 0
6.384 -1.536 1.711 0
6.141 -1.533 1.667 4
5.134 -1.572 2.723 6
5.433 -1.571 2.695 5
5.745 -1.568 2.667 8
6.107 -1.568 2.638 4
6.486 -1.566 2.609 4
7.36 -1.67 2.553 24
7.362 -1.567 2.551 27
7.369 -1.472 2.55 36
7.366 -1.381 2.551 30
7.361 -1.298 2.553 38
7.366 -1.223 2.555 39
7.368 -1.162 2.554 32
7.364 -1.107 2.553 41
7.365 -1.068 2.547 35
7.357 -1.039 2.537 39
7.358 -1.025 2.522 35
7.352 -1.022 2.501 38
3.161 -0.444 2.774 10
3.182 -0.458 2.757 23
3.226 -0.478 2.735 40
3.19 -0.491 2.716 30
5.217 -0.838 2.496 12
3.257 -0.548 2.658 11
4.893 -0.862 2.44 5
4.701 -0.868 2.415 12
4.516 -0.873 2.388 9
4.513 -0.914 2.336 3
5.916 -1.252 2.057 2
6.524 -1.441 1.874 1
6.535 -1.504 1.782 0
6.544 -1.566 1.686 1
6.129 -1.522 1.677 6
5.132 -1.563 2.724 3
5.466 -1.572 2.695 6
5.778 -1.566 2.667 4
6.157 -1.57 2.638 14
6.582 -1.577 2.607 11
7.363 -1.655 2.557 30
7.361 -1.551 2.555 28
7.361 -1.454 2.556 28
7.362 -1.362 2.557 39
7.361 -1.279 2.56 34
7.373 -1.206 2.561 18
7.363 -1.141 2.562 43
7.359 -1.086 2.561 33
7.357 -1.046 2.556 42
7.364 -1.018 2.547 31
7.357 -1.003 2.532 39
3.421 -0.466 2.773 1
3.186 -0.439 2.776 14
3.18 -0.449 2.761 28
3.231 -0.471 2.739 40
3.199 -0.485 2.72 20
5.294 -0.839 2.496 10
3.25 -0.54 2.663 16
4.97 -0.865 2.438 2
4.703 -0.859 2.42 6
4.518 -0.866 2.394 19
4.519 -0.907 2.341 28
4.483 -0.942 2.29 0
6.531 -1.433 1.88 0
6.531 -1.494 1.79 1
6.532 -1.555 1.695 1
6.124 -1.514 1.684 2
5.158 -1.562 2.725 3
5.488 -1.569 2.695 23
5.831 -1.571 2.666 12
6.16 -1.559 2.64 22
6.582 -1.564 2.61 8
7.355 -1.638 2.561 23
7.373 -1.537 2.559 31
7.364 -1.438 2.56 35
7.369 -1.346 2.563 29
7.364 -1.262 2.566 40
7.361 -1.184 2.569 31
7.367 -1.122 2.569 34
7.363 -1.066 2.569 41
7.36 -1.025 2.565 36
7.368 -0.997 2.556 17
7.361 -0.982 2.542 36
3.399 -0.454 2.779 10
3.199 -0.432 2.78 19
3.181 -0.441 2.766 37
3.233 -0.463 2.743 40
3.213 -0.479 2.723 19
3.498 -0.546 2.672 5
3.268 -0.536 2.665 22
5.082 -0.874 2.432 2
4.764 -0.862 2.419 5
4.555 -0.865 2.394 1
4.517 -0.9 2.346 33
4.497 -0.938 2.294 1
6.531 -1.424 1.888 0
6.538 -1.487 1.796 0
6.52 -1.543 1.705 1
6.02 -1.481 1.713 3
5.179 -1.561 2.725 3
5.498 -1.562 2.696 13
5.834 -1.561 2.668 14
6.197 -1.557 2.64 5
6.6 -1.556 2.612 22
7.362 -1.624 2.565 30
7.368 -1.521 2.564 27
7.364 -1.421 2.566 29
7.365 -1.328 2.568 42
7.36 -1.243 2.572 31
7.364 -1.166 2.576 40
7.358 -1.101 2.578 42
7.362 -1.045 2.578 35
7.364 -1.005 2.574 43
7.367 -0.976 2.566 33
7.36 -0.962 2.552 39
3.396 -0.443 2.784 14
3.185 -0.422 2.785 17
3.187 -0.433 2.77 41
3.242 -0.456 2.747 40
3.226 -0.474 2.726 18
3.5 -0.538 2.677 1
3.277 -0.53 2.669 12
5.139 -0.874 2.432 10
6.526 -1.168 2.212 7
4.569 -0.859 2.398 2
4.527 -0.894 2.35 5
4.511 -0.934 2.296 3
6.534 -1.415 1.894 0
6.545 -1.48 1.802 0
6.312 -1.486 1.753 1
6.008 -1.471 1.722 3
5.204 -1.56 2.725 3
5.512 -1.558 2.697 3
5.871 -1.561 2.668 5
6.258 -1.561 2.64 8
6.607 -1.545 2.615 11
7.366 -1.61 2.568 25
7.363 -1.505 2.569 33
7.363 -1.405 2.571 35
7.364 -1.31 2.574 30
7.359 -1.224 2.578 41
7.364 -1.147 2.583 40
7.362 -1.081 2.585 39
7.357 -1.024 2.586 42
7.359 -0.983 2.583 39
7.366 -0.955 2.575 41
3.319 -0.424 2.802 8
3.251 -0.415 2.798 16
3.186 -0.413 2.789 18
3.188 -0.424 2.774 40
3.248 -0.449 2.751 38
3.251 -0.47 2.729 16
3.462 -0.525 2.684 4
3.286 -0.525 2.672 5
5.185 -0.872 2.434 25
6.525 -1.156 2.22 10
4.891 -0.912 2.362 0
4.521 -0.886 2.356 12
4.521 -0.93 2.299 29
6.529 -1.405 1.903 0
6.532 -1.469 1.811 0
6.312 -1.478 1.76 1
6.014 -1.465 1.726 3
5.241 -1.563 2.724 3
5.538 -1.555 2.698 3
5.916 -1.562 2.668 6
6.272 -1.554 2.641 22
6.629 -1.538 2.616 4
7.361 -1.595 2.573 21
7.371 -1.49 2.573 26
7.366 -1.389 2.575 32
7.363 -1.294 2.58 44
7.358 -1.206 2.585 28
7.359 -1.127 2.59 44
7.365 -1.061 2.593 41
7.361 -1.004 2.594 41
7.362 -0.962 2.592 44
7.37 -0.933 2.585 21
3.317 -0.414 2.807 1
3.253 -0.406 2.802 22
3.172 -0.402 2.795 20
3.197 -0.417 2.778 41
3.225 -0.437 2.758 35
3.292 -0.468 2.73 13
3.105 -0.463 2.722 8
3.288 -0.518 2.676 14
5.207 -0.866 2.438 19
5.17 -0.907 2.388 0
5.123 -0.947 2.337 1
4.652 -0.904 2.343 0
4.523 -0.924 2.304 31
4.49 -0.96 2.25 1
6.535 -1.461 1.817 0
6.257 -1.458 1.776 4
6.036 -1.464 1.727 3
5.262 -1.561 2.725 2
5.575 -1.557 2.697 3
5.93 -1.556 2.669 26
6.306 -1.551 2.642 5
6.694 -1.541 2.616 3
7.372 -1.583 2.576 25
7.37 -1.476 2.577 34
7.365 -1.373 2.58 33
7.367 -1.278 2.585 33
7.361 -1.189 2.59 37
7.362 -1.109 2.596 37
7.364 -1.042 2.6 45
7.356 -0.984 2.603 41
7.361 -0.941 2.601 44
7.369 -0.912 2.594 27
3.318 -0.404 2.812 3
3.254 -0.397 2.806 38
3.185 -0.395 2.799 31
3.214 -0.411 2.782 38
3.219 -0.428 2.763 34
3.297 -0.46 2.734 15
3.146 -0.463 2.722 15
3.277 -0.51 2.682 22
3.242 -0.533 2.654 9
5.191 -0.902 2.392 1
5.141 -0.942 2.341 3
4.564 -0.88 2.36 3
4.532 -0.918 2.308 5
4.507 -0.958 2.252 4
6.538 -1.453 1.823 0
6.252 -1.45 1.783 3
6.05 -1.46 1.731 3
5.288 -1.561 2.725 2
5.612 -1.559 2.697 3
5.94 -1.55 2.671 3
6.367 -1.556 2.641 9
6.88 -1.571 2.608 9
7.375 -1.57 2.579 30
7.365 -1.459 2.582 26
7.368 -1.358 2.585 36
7.362 -1.26 2.591 41
7.357 -1.171 2.597 32
7.361 -1.09 2.603 46
7.363 -1.022 2.608 39
7.359 -0.964 2.611 44
7.357 -0.92 2.61 42
7.36 -0.89 2.604 41
3.323 -0.395 2.816 2
3.315 -0.394 2.808 34
3.183 -0.386 2.804 27
3.216 -0.403 2.786 34
3.228 -0.422 2.766 28
3.295 -0.453 2.739 18
3.124 -0.453 2.728 9
3.271 -0.502 2.686 31
3.252 -0.528 2.657 4
5.17 -0.889 2.401 14
5.155 -0.936 2.345 6
4.905 -0.939 2.318 0
4.523 -0.91 2.314 10
4.513 -0.953 2.256 28
6.537 -1.445 1.83 0
6.389 -1.474 1.763 1
6.083 -1.462 1.729 2
5.32 -1.563 2.724 3
5.637 -1.558 2.697 3
5.97 -1.547 2.671 2
6.381 -1.548 2.643 17
7.307 -1.656 2.587 22
7.366 -1.554 2.584 20
7.368 -1.445 2.586 36
7.367 -1.343 2.589 32
7.369 -1.245 2.595 37
7.359 -1.154 2.603 28
7.364 -1.072 2.61 36
7.362 -1.002 2.615 48
7.362 -0.943 2.619 39
7.36 -0.898 2.619 45
7.355 -0.868 2.614 41
3.321 -0.385 2.82 10
3.281 -0.381 2.814 38
3.176 -0.376 2.808 23
3.213 -0.394 2.79 36
3.245 -0.416 2.769 26
3.241 -0.438 2.747 24
3.208 -0.459 2.724 12
3.264 -0.494 2.691 31
3.253 -0.522 2.661 4
5.211 -0.887 2.402 21
5.161 -0.929 2.349 43
5.125 -0.973 2.293 1
4.606 -0.92 2.306 1
4.519 -0.948 2.259 30
4.507 -0.991 2.198 2
6.495 -1.491 1.749 1
6.124 -1.465 1.727 1
5.349 -1.564 2.724 2
5.662 -1.556 2.697 2
6.003 -1.546 2.671 2
6.422 -1.548 2.643 5
7.365 -1.656 2.587 34
7.365 -1.541 2.587 17
7.363 -1.43 2.59 28
7.366 -1.327 2.594 38
7.36 -1.227 2.601 40
7.37 -1.139 2.608 38
7.363 -1.054 2.616 53
7.361 -0.984 2.622 38
7.357 -0.923 2.627 47
7.358 -0.878 2.627 41
7.358 -0.847 2.623 46
3.326 -0.376 2.825 5
3.226 -0.366 2.822 29
3.169 -0.367 2.813 31
3.218 -0.386 2.795 35
3.235 -0.406 2.775 22
3.246 -0.431 2.751 30
3.162 -0.445 2.732 16
3.266 -0.488 2.695 43
3.238 -0.514 2.666 4
5.225 -0.88 2.406 10
5.163 -0.921 2.355 10
5.15 -0.971 2.295 3
4.627 -0.918 2.308 1
4.513 -0.941 2.265 5
4.521 -0.988 2.2 6
0.0 -0.0 3.0 0
6.454 -1.537 1.664 0
5.374 -1.564 2.724 3
5.703 -1.559 2.697 2
6.048 -1.549 2.671 2
6.433 -1.54 2.645 3
7.364 -1.644 2.59 26
7.36 -1.526 2.591 30
7.37 -1.418 2.593 37
7.369 -1.312 2.599 31
7.363 -1.212 2.606 42
7.369 -1.121 2.614 47
7.362 -1.036 2.623 36
7.36 -0.964 2.63 52
7.36 -0.903 2.635 39
7.361 -0.858 2.636 49
7.361 -0.826 2.632 42
7.358 -0.812 2.621 45
3.252 -0.36 2.825 38
3.198 -0.362 2.816 34
3.224 -0.379 2.799 34
3.204 -0.395 2.781 27
3.232 -0.422 2.756 25
3.135 -0.434 2.739 23
3.267 -0.482 2.699 33
3.185 -0.5 2.675 23
5.306 -0.886 2.403 9
5.165 -0.913 2.36 20
5.152 -0.964 2.3 5
4.905 -0.967 2.272 0
4.514 -0.936 2.269 6
4.515 -0.982 2.205 26
6.55 -1.489 1.751 0
6.529 -1.548 1.655 1
6.635 -1.922 2.661 62
5.732 -1.559 2.697 2
6.089 -1.55 2.67 2
6.474 -1.54 2.645 3
7.363 -1.631 2.593 30
7.363 -1.514 2.594 27
7.369 -1.404 2.598 30
7.368 -1.298 2.603 42
7.361 -1.195 2.612 37
7.372 -1.105 2.62 22
7.361 -1.017 2.63 54
7.359 -0.945 2.637 39
7.359 -0.883 2.643 49
7.36 -0.836 2.645 40
7.356 -0.804 2.642 49
7.356 -0.79 2.631 43
3.32 -0.358 2.825 34
3.211 -0.354 2.82 42
3.245 -0.373 2.802 31
3.225 -0.389 2.784 28
3.221 -0.413 2.762 19
3.125 -0.427 2.744 18
3.221 -0.469 2.707 42
3.178 -0.493 2.68 8
5.386 -0.89 2.4 9
5.202 -0.912 2.361 20
5.162 -0.958 2.304 39
5.085 -0.996 2.249 1
4.512 -0.93 2.274 2
4.52 -0.977 2.208 33
4.511 -1.02 2.144 1
6.536 -1.543 1.659 0
6.657 -1.919 2.662 13
5.773 -1.562 2.696 2
6.126 -1.551 2.67 2
6.523 -1.541 2.644 3
7.369 -1.62 2.596 26
7.362 -1.501 2.598 33
7.371 -1.391 2.601 33
7.367 -1.283 2.608 31
7.36 -1.18 2.616 45
7.363 -1.087 2.626 34
7.363 -1.0 2.636 41
7.361 -0.927 2.644 53
7.357 -0.863 2.651 41
7.363 -0.816 2.654 22
7.358 -0.783 2.652 45
7.359 -0.769 2.641 47
3.306 -0.346 2.831 31
3.177 -0.342 2.826 37
3.202 -0.36 2.809 32
3.246 -0.385 2.787 30
3.21 -0.405 2.766 24
3.149 -0.424 2.746 20
3.21 -0.462 2.711 35
3.14 -0.482 2.687 12
5.459 -0.892 2.398 8
5.22 -0.908 2.364 10
5.168 -0.952 2.308 12
5.157 -1.003 2.244 3
4.746 -0.972 2.24 0
4.526 -0.974 2.212 6
4.525 -1.019 2.145 12
0.0 -0.0 3.0 0
6.663 -1.912 2.663 13
6.585 -1.773 2.655 40
6.175 -1.554 2.67 2
6.564 -1.541 2.644 3
7.364 -1.607 2.599 31
7.36 -1.489 2.601 28
7.374 -1.378 2.605 33
7.369 -1.269 2.612 43
7.363 -1.166 2.621 33
7.361 -1.071 2.631 48
7.358 -0.982 2.643 49
7.368 -0.909 2.651 45
7.36 -0.844 2.659 52
7.369 -0.796 2.662 42
7.353 -0.761 2.661 52
3.327 -0.338 2.842 5
3.311 -0.338 2.835 23
3.198 -0.335 2.829 40
3.199 -0.351 2.813 38
3.271 -0.38 2.79 36
3.199 -0.397 2.771 22
3.17 -0.42 2.748 20
3.203 -0.455 2.716 35
3.153 -0.479 2.689 11
5.578 -0.904 2.39 1
5.296 -0.913 2.361 9
5.166 -0.945 2.313 24
5.163 -0.998 2.248 5
4.895 -0.997 2.221 0
4.524 -0.968 2.216 5
4.526 -1.015 2.148 26
6.525 -1.527 1.672 0
6.692 -1.912 2.663 8
6.641 -1.778 2.654 75
6.235 -1.561 2.668 2
6.598 -1.539 2.645 3
7.363 -1.595 2.602 30
7.363 -1.477 2.604 37
7.369 -1.364 2.609 32
7.368 -1.255 2.616 34
7.365 -1.151 2.626 50
7.368 -1.055 2.637 43
7.365 -0.965 2.649 50
7.363 -0.89 2.658 50
7.359 -0.824 2.667 47
7.372 -0.776 2.671 51
7.355 -0.74 2.67 48
3.336 -0.33 2.846 11
3.284 -0.326 2.841 22
3.199 -0.327 2.834 33
3.197 -0.343 2.818 37
3.241 -0.368 2.796 27
3.212 -0.391 2.774 20
3.179 -0.415 2.751 26
3.173 -0.445 2.722 23
3.146 -0.472 2.693 17
6.468 -1.038 2.3 12
5.384 -0.92 2.356 9
5.214 -0.947 2.312 22
5.161 -0.992 2.253 45
5.118 -1.037 2.19 1
4.51 -0.96 2.222 3
4.528 -1.011 2.152 45
4.491 -1.047 2.09 1
7.367 -2.096 2.63 22
6.659 -1.775 2.655 17
6.377 -1.588 2.662 8
6.639 -1.539 2.645 3
7.361 -1.584 2.605 25
7.369 -1.466 2.607 28
7.371 -1.351 2.613 39
7.367 -1.241 2.621 44
7.368 -1.136 2.631 32
7.363 -1.038 2.642 52
7.359 -0.947 2.655 46
7.369 -0.872 2.665 51
7.361 -0.804 2.675 51
7.37 -0.756 2.679 29
7.354 -0.72 2.68 51
3.333 -0.32 2.851 18
3.353 -0.323 2.842 26
3.268 -0.325 2.834 33
3.202 -0.335 2.822 38
3.218 -0.359 2.801 29
3.221 -0.385 2.778 21
3.161 -0.406 2.756 26
3.158 -0.437 2.727 30
3.147 -0.467 2.697 6
6.521 -1.037 2.301 14
3.494 -0.593 2.585 10
5.224 -0.941 2.316 10
5.174 -0.988 2.256 8
5.146 -1.037 2.19 3
4.669 -0.99 2.198 0
4.518 -1.003 2.158 8
4.519 -1.049 2.088 14
7.377 -2.091 2.631 15
6.657 -1.766 2.657 13
6.642 -1.645 2.65 77
6.684 -1.54 2.644 3
7.375 -1.576 2.607 22
7.36 -1.452 2.611 38
7.37 -1.338 2.616 31
7.365 -1.227 2.625 39
7.362 -1.121 2.636 42
7.369 -1.024 2.647 37
7.358 -0.931 2.661 58
7.364 -0.853 2.672 49
7.359 -0.785 2.683 54
7.361 -0.734 2.689 30
7.36 -0.699 2.689 52
3.299 -0.307 2.857 18
3.322 -0.311 2.848 22
3.257 -0.315 2.839 37
3.211 -0.328 2.826 34
3.211 -0.351 2.806 26
3.25 -0.381 2.78 22
3.154 -0.399 2.76 24
3.155 -0.43 2.731 31
3.14 -0.461 2.7 8
6.531 -1.028 2.306 13
3.487 -0.586 2.589 11
5.296 -0.948 2.311 9
5.164 -0.98 2.261 23
5.152 -1.032 2.193 4
4.922 -1.038 2.159 0
4.527 -1.002 2.159 5
4.517 -1.045 2.092 12
7.379 -2.083 2.633 10
6.679 -1.764 2.657 9
6.641 -1.636 2.652 75
6.729 -1.541 2.644 4
7.374 -1.565 2.61 34
7.366 -1.442 2.614 28
7.364 -1.325 2.62 42
7.367 -1.214 2.629 39
7.361 -1.106 2.641 35
7.359 -1.007 2.653 57
7.364 -0.915 2.667 44
7.366 -0.836 2.679 59
7.358 -0.765 2.691 48
7.359 -0.714 2.697 49
7.359 -0.678 2.698 44
3.22 -0.29 2.865 26
3.283 -0.298 2.854 21
3.218 -0.303 2.846 33
3.196 -0.318 2.831 38
3.236 -0.345 2.809 36
3.255 -0.375 2.784 21
3.167 -0.395 2.763 21
3.164 -0.426 2.734 20
3.153 -0.458 2.703 2
6.525 -1.018 2.313 14
3.481 -0.581 2.593 14
5.384 -0.957 2.305 9
5.213 -0.983 2.259 23
5.161 -1.029 2.196 44
5.147 -1.081 2.125 1
4.505 -0.992 2.167 2
4.518 -1.041 2.095 57
7.366 -2.071 2.635 12
7.337 -1.929 2.625 22
6.658 -1.632 2.653 29
6.976 -1.588 2.633 30
7.372 -1.554 2.613 27
7.357 -1.429 2.617 37
7.37 -1.315 2.623 30
7.366 -1.201 2.633 44
7.367 -1.093 2.645 33
7.366 -0.993 2.658 38
7.358 -0.898 2.673 60
7.364 -0.817 2.686 45
7.36 -0.746 2.698 59
7.366 -0.694 2.706 49
7.357 -0.657 2.708 49
3.213 -0.28 2.869 37
3.3 -0.291 2.858 26
3.223 -0.295 2.85 42
3.201 -0.311 2.835 38
3.217 -0.336 2.814 30
3.252 -0.368 2.787 27
3.207 -0.394 2.763 25
3.157 -0.42 2.738 16
6.533 -0.938 2.391 14
3.366 -0.521 2.649 0
3.478 -0.576 2.597 17
5.46 -0.963 2.3 9
5.226 -0.98 2.262 11
5.171 -1.025 2.199 7
5.153 -1.077 2.128 4
6.541 -1.435 1.796 1
4.535 -1.042 2.094 10
7.372 -2.064 2.636 19
7.359 -1.926 2.626 31
6.668 -1.627 2.654 13
7.364 -1.668 2.615 31
7.378 -1.545 2.615 14
7.367 -1.42 2.62 33
7.368 -1.302 2.627 44
7.368 -1.189 2.637 37
7.369 -1.08 2.649 37
7.364 -0.978 2.663 61
7.368 -0.883 2.679 41
7.362 -0.8 2.693 63
7.358 -0.728 2.706 46
7.36 -0.673 2.714 59
3.377 -0.292 2.87 0
3.25 -0.275 2.872 25
3.285 -0.28 2.863 34
3.256 -0.289 2.853 36
3.186 -0.302 2.839 38
3.162 -0.324 2.821 26
3.241 -0.361 2.792 34
3.216 -0.389 2.766 31
3.194 -0.42 2.738 30
3.332 -0.474 2.692 0
3.355 -0.514 2.653 6
3.487 -0.572 2.599 20
5.532 -0.97 2.295 1
5.294 -0.987 2.257 8
5.165 -1.019 2.204 9
5.166 -1.075 2.13 4
5.016 -1.096 2.08 0
4.578 -1.048 2.089 8
7.366 -2.055 2.638 22
7.369 -1.92 2.627 21
6.681 -1.622 2.655 11
7.362 -1.658 2.617 31
7.365 -1.532 2.618 29
7.357 -1.407 2.623 34
7.371 -1.292 2.63 32
7.366 -1.176 2.641 50
7.371 -1.067 2.653 49
7.366 -0.963 2.668 44
7.359 -0.866 2.685 64
7.364 -0.783 2.7 46
7.36 -0.709 2.714 62
7.362 -0.653 2.723 53
7.357 -0.615 2.726 57
3.239 -0.264 2.877 23
3.262 -0.268 2.869 33
3.269 -0.282 2.856 37
3.199 -0.295 2.843 31
3.159 -0.316 2.825 27
3.215 -0.351 2.797 28
3.229 -0.385 2.769 28
3.183 -0.413 2.742 18
3.353 -0.472 2.694 7
3.352 -0.509 2.657 12
3.472 -0.566 2.604 17
3.445 -0.6 2.564 1
5.385 -0.998 2.248 9
5.209 -1.023 2.201 22
5.164 -1.07 2.134 52
5.083 -1.107 2.071 2
4.614 -1.052 2.085 4
7.361 -2.045 2.639 28
7.363 -1.911 2.629 34
7.13 -1.723 2.634 30
7.368 -1.65 2.619 27
7.367 -1.523 2.62 27
7.363 -1.398 2.625 37
7.365 -1.28 2.633 44
7.364 -1.164 2.644 36
7.373 -1.055 2.657 29
7.364 -0.949 2.673 55
7.365 -0.851 2.69 45
7.363 -0.765 2.706 64
7.362 -0.69 2.721 46
7.36 -0.633 2.731 64
7.355 -0.594 2.736 51
3.156 -0.248 2.884 12
3.255 -0.259 2.873 32
3.262 -0.273 2.861 35
3.199 -0.288 2.847 26
3.172 -0.31 2.828 31
3.184 -0.342 2.803 26
3.238 -0.381 2.771 24
3.204 -0.411 2.743 9
3.157 -0.439 2.715 11
3.361 -0.506 2.659 18
3.477 -0.562 2.606 11
6.528 -1.13 2.179 12
3.356 -0.618 2.534 4
5.21 -1.018 2.204 12
5.169 -1.066 2.137 11
5.05 -1.095 2.081 7
4.688 -1.066 2.074 7
7.37 -2.041 2.64 22
7.365 -1.903 2.63 20
7.365 -1.771 2.624 23
7.37 -1.642 2.621 30
7.361 -1.513 2.623 35
7.361 -1.388 2.628 30
7.371 -1.269 2.636 35
7.366 -1.153 2.648 50
7.367 -1.041 2.662 25
7.366 -0.935 2.678 52
7.359 -0.835 2.696 60
7.364 -0.749 2.713 52
7.36 -0.672 2.728 25
7.362 -0.613 2.74 55
7.357 -0.573 2.745 60
3.169 -0.24 2.888 21
3.236 -0.249 2.879 26
3.235 -0.262 2.867 33
3.212 -0.281 2.85 28
3.181 -0.304 2.831 36
3.189 -0.336 2.806 22
3.239 -0.375 2.775 26
3.157 -0.4 2.75 15
3.181 -0.439 2.715 12
3.358 -0.501 2.662 24
3.474 -0.558 2.609 4
3.443 -0.593 2.569 0
3.361 -0.616 2.536 11
5.282 -1.027 2.198 8
5.178 -1.064 2.139 11
5.055 -1.092 2.084 17
4.697 -1.064 2.075 7
7.364 -2.031 2.642 33
7.363 -1.896 2.631 33
7.37 -1.765 2.625 28
7.368 -1.633 2.623 23
7.367 -1.505 2.625 29
7.363 -1.379 2.631 39
7.369 -1.259 2.639 40
7.368 -1.142 2.651 34
7.365 -1.028 2.666 52
7.368 -0.922 2.683 46
7.364 -0.82 2.701 56
7.362 -0.732 2.719 60
7.374 -0.656 2.735 46
7.364 -0.594 2.748 64
7.359 -0.553 2.754 60
3.206 -0.234 2.891 12
3.229 -0.239 2.883 29
3.243 -0.255 2.87 40
3.197 -0.272 2.855 26
3.134 -0.293 2.837 29
3.189 -0.33 2.81 22
3.239 -0.369 2.778 32
3.193 -0.399 2.751 32
3.241 -0.442 2.713 4
3.363 -0.498 2.664 33
3.428 -0.546 2.617 8
6.536 -1.118 2.188 10
3.362 -0.613 2.538 16
5.365 -1.039 2.189 8
5.214 -1.066 2.136 21
5.037 -1.084 2.09 12
4.775 -1.078 2.063 4
7.37 -2.026 2.643 21
7.365 -1.89 2.633 21
7.368 -1.756 2.627 25
7.37 -1.625 2.625 31
7.36 -1.495 2.627 33
7.365 -1.37 2.633 31
7.37 -1.249 2.642 42
7.366 -1.13 2.655 46
7.367 -1.016 2.67 40
7.362 -0.908 2.687 57
7.362 -0.806 2.707 54
7.368 -0.716 2.725 59
7.368 -0.636 2.743 63
7.362 -0.574 2.756 59
7.361 -0.532 2.763 61
3.25 -0.227 2.894 12
3.242 -0.231 2.887 26
3.224 -0.244 2.875 31
3.182 -0.263 2.86 19
3.139 -0.287 2.841 29
3.154 -0.32 2.815 17
3.256 -0.365 2.78 34
3.238 -0.401 2.75 20
3.305 -0.447 2.71 12
3.368 -0.494 2.667 39
3.425 -0.543 2.62 12
3.441 -0.585 2.575 0
3.362 -0.61 2.54 25
5.444 -1.049 2.18 8
5.216 -1.062 2.14 14
5.077 -1.089 2.086 3
4.814 -1.084 2.058 9
7.36 -2.017 2.644 30
7.363 -1.882 2.634 29
7.37 -1.749 2.628 27
7.371 -1.618 2.627 26
7.366 -1.488 2.629 32
7.362 -1.361 2.635 41
7.368 -1.239 2.645 35
7.364 -1.119 2.658 36
7.365 -1.004 2.674 59
7.363 -0.895 2.692 45
7.36 -0.791 2.712 66
7.362 -0.699 2.732 56
7.37 -0.619 2.75 41
7.363 -0.555 2.764 58
7.363 -0.512 2.772 62
3.239 -0.218 2.899 12
3.215 -0.22 2.893 30
3.225 -0.236 2.88 44
3.171 -0.255 2.864 21
3.156 -0.282 2.844 28
3.155 -0.315 2.818 21
3.249 -0.36 2.784 29
3.254 -0.398 2.751 30
3.211 -0.43 2.721 20
3.368 -0.491 2.669 41
3.359 -0.529 2.63 11
6.531 -1.104 2.198 13
3.34 -0.603 2.546 40
5.511 -1.057 2.174 3
5.283 -1.072 2.132 9
5.128 -1.096 2.08 14
4.842 -1.087 2.055 9
7.373 -2.014 2.645 20
7.368 -1.877 2.635 22
7.368 -1.742 2.63 29
7.369 -1.61 2.628 19
7.36 -1.478 2.631 33
7.364 -1.352 2.638 30
7.374 -1.23 2.647 44
7.365 -1.109 2.661 37
7.362 -0.992 2.678 38
7.357 -0.881 2.697 69
7.366 -0.778 2.717 49
7.368 -0.684 2.737 69
7.364 -0.601 2.757 28
7.361 -0.535 2.773 65
7.36 -0.49 2.782 57
3.252 -0.209 2.902 22
3.227 -0.212 2.897 29
3.226 -0.228 2.884 33
3.164 -0.248 2.868 21
3.14 -0.275 2.848 28
3.172 -0.311 2.821 22
3.226 -0.352 2.788 22
3.216 -0.388 2.757 34
3.216 -0.426 2.723 22
3.373 -0.488 2.671 43
3.355 -0.524 2.633 18
3.399 -0.571 2.585 1
3.337 -0.599 2.548 39
3.324 -0.635 2.504 7
5.365 -1.085 2.121 9
5.168 -1.101 2.076 11
4.874 -1.091 2.052 8
7.36 -2.005 2.647 29
7.362 -1.869 2.637 28
7.369 -1.736 2.631 24
7.378 -1.605 2.63 29
7.365 -1.472 2.633 36
7.358 -1.342 2.64 39
7.371 -1.22 2.65 33
7.367 -1.099 2.664 39
7.36 -0.981 2.681 57
7.367 -0.871 2.7 44
7.355 -0.763 2.722 70
7.361 -0.669 2.743 53
7.361 -0.584 2.764 57
7.367 -0.516 2.781 58
7.362 -0.47 2.791 63
3.217 -0.198 2.908 15
3.224 -0.203 2.901 24
3.243 -0.22 2.888 37
3.172 -0.241 2.872 20
3.125 -0.267 2.852 25
3.2 -0.309 2.822 22
3.231 -0.348 2.791 21
3.208 -0.383 2.76 38
3.28 -0.431 2.72 17
3.378 -0.484 2.673 32
3.344 -0.519 2.636 24
3.369 -0.563 2.591 6
3.326 -0.595 2.552 44
3.332 -0.634 2.505 2
5.44 -1.097 2.112 9
5.192 -1.103 2.074 11
4.937 -1.102 2.042 7
7.365 -2.0 2.647 21
7.367 -1.864 2.638 26
7.367 -1.728 2.633 31
7.38 -1.598 2.631 31
7.359 -1.463 2.635 30
7.359 -1.335 2.642 33
7.365 -1.211 2.653 45
7.368 -1.09 2.667 35
7.366 -0.971 2.684 43
7.36 -0.858 2.705 67
7.365 -0.751 2.727 47
7.363 -0.654 2.749 75
7.363 -0.567 2.771 52
7.364 -0.498 2.789 71
7.36 -0.45 2.8 52
3.213 -0.189 2.912 10
3.289 -0.198 2.903 29
3.235 -0.212 2.892 35
3.133 -0.232 2.877 16
3.142 -0.262 2.855 29
3.209 -0.303 2.825 21
3.243 -0.344 2.793 24
3.276 -0.387 2.758 34
3.281 -0.427 2.723 26
3.382 -0.482 2.675 28
3.345 -0.516 2.638 32
3.37 -0.56 2.593 10
3.319 -0.591 2.555 31
3.337 -0.633 2.506 3
5.511 -1.107 2.104 6
5.266 -1.116 2.064 9
5.014 -1.116 2.03 8
7.37 -1.996 2.648 36
7.365 -1.858 2.639 24
7.368 -1.722 2.634 24
7.377 -1.591 2.633 18
7.361 -1.456 2.637 38
7.361 -1.327 2.644 37
7.37 -1.204 2.655 32
7.374 -1.081 2.669 27
7.363 -0.961 2.688 57
7.366 -0.848 2.708 47
7.366 -0.739 2.731 74
7.364 -0.639 2.755 53
7.356 -0.55 2.778 69
7.366 -0.479 2.797 59
7.357 -0.429 2.809 60
3.226 -0.179 2.916 9
3.269 -0.188 2.908 26
3.224 -0.204 2.896 37
3.118 -0.224 2.881 16
3.13 -0.256 2.858 24
3.221 -0.299 2.827 19
3.307 -0.346 2.792 27
3.297 -0.386 2.759 38
3.281 -0.424 2.725 33
3.387 -0.479 2.677 39
3.322 -0.51 2.643 29
3.374 -0.558 2.594 10
3.311 -0.587 2.558 31
3.322 -0.627 2.51 1
6.531 -1.308 1.941 11
5.345 -1.129 2.053 9
5.077 -1.127 2.02 8
7.356 -1.987 2.65 44
7.366 -1.853 2.64 29
7.366 -1.716 2.635 32
7.371 -1.583 2.635 20
7.362 -1.449 2.639 28
7.358 -1.32 2.646 38
7.368 -1.195 2.657 46
7.379 -1.074 2.672 34
7.364 -0.952 2.691 52
7.363 -0.836 2.712 59
7.36 -0.725 2.736 54
7.366 -0.625 2.76 70
7.365 -0.534 2.784 54
7.359 -0.46 2.805 69
7.362 -0.408 2.818 60
3.219 -0.17 2.921 6
3.242 -0.177 2.913 37
3.229 -0.196 2.9 36
3.126 -0.218 2.884 21
3.119 -0.249 2.862 19
3.198 -0.292 2.831 22
3.225 -0.334 2.799 20
3.333 -0.386 2.759 31
3.294 -0.422 2.726 39
3.4 -0.477 2.678 35
3.319 -0.506 2.645 31
3.367 -0.555 2.597 14
3.312 -0.585 2.559 27
3.33 -0.627 2.511 6
6.532 -1.304 1.944 12
5.423 -1.143 2.041 8
5.17 -1.145 2.005 8
7.342 -1.979 2.651 54
7.367 -1.848 2.641 21
7.371 -1.712 2.636 24
7.368 -1.576 2.636 29
7.359 -1.443 2.64 39
7.363 -1.314 2.648 32
7.369 -1.188 2.659 36
7.376 -1.064 2.675 30
7.366 -0.942 2.694 47
7.36 -0.825 2.716 54
7.365 -0.714 2.74 69
7.367 -0.612 2.765 59
7.363 -0.518 2.791 67
7.364 -0.442 2.812 62
7.36 -0.388 2.827 65
3.255 -0.163 2.924 4
3.243 -0.169 2.918 37
3.253 -0.19 2.903 38
3.167 -0.214 2.886 25
3.167 -0.248 2.863 30
3.239 -0.291 2.832 22
3.245 -0.332 2.801 23
3.29 -0.377 2.764 41
3.271 -0.415 2.73 36
3.325 -0.463 2.687 27
3.327 -0.505 2.646 30
3.371 -0.553 2.599 24
3.324 -0.585 2.559 22
3.327 -0.624 2.513 1
6.529 -1.3 1.947 12
5.493 -1.154 2.032 6
5.244 -1.159 1.993 8
7.339 -1.973 2.652 55
7.365 -1.842 2.642 32
7.365 -1.705 2.638 30
7.37 -1.571 2.637 27
7.368 -1.438 2.641 30
7.361 -1.307 2.65 41
7.366 -1.18 2.662 43
7.378 -1.057 2.677 13
7.367 -0.934 2.697 58
7.362 -0.816 2.719 52
7.362 -0.703 2.744 63
7.364 -0.599 2.77 35
7.36 -0.503 2.797 65
7.362 -0.424 2.82 67
7.361 -0.368 2.836 65
3.415 -0.161 2.925 5
3.251 -0.16 2.922 39
3.25 -0.182 2.907 29
3.167 -0.207 2.89 20
3.18 -0.244 2.865 20
3.259 -0.289 2.833 26
3.273 -0.33 2.801 22
3.322 -0.377 2.764 32
3.279 -0.413 2.732 45
3.302 -0.458 2.691 32
3.332 -0.503 2.648 33
3.368 -0.55 2.6 24
3.333 -0.584 2.56 21
6.535 -1.222 2.045 12
6.534 -1.297 1.95 12
6.536 -1.37 1.85 12
5.329 -1.175 1.979 8
7.344 -1.97 2.653 54
7.362 -1.837 2.643 57
7.37 -1.701 2.638 24
7.363 -1.565 2.639 33
7.366 -1.432 2.643 35
7.366 -1.301 2.651 31
7.368 -1.173 2.664 40
7.371 -1.048 2.68 38
7.368 -0.925 2.699 41
7.367 -0.806 2.722 62
7.363 -0.692 2.748 59
7.377 -0.586 2.775 44
7.361 -0.487 2.803 65
7.359 -0.406 2.827 71
7.362 -0.348 2.845 64
3.436 -0.152 2.929 8
3.272 -0.153 2.926 35
3.234 -0.174 2.911 24
3.212 -0.204 2.891 23
3.184 -0.239 2.868 20
3.279 -0.285 2.835 23
3.294 -0.329 2.803 29
3.295 -0.37 2.769 34
3.264 -0.408 2.735 55
3.322 -0.458 2.691 32
3.344 -0.502 2.648 37
3.377 -0.549 2.601 22
3.353 -0.586 2.559 24
6.524 -1.216 2.05 12
6.532 -1.293 1.953 11
6.537 -1.367 1.853 11
5.395 -1.187 1.968 8
7.338 -1.965 2.654 53
7.34 -1.827 2.645 57
7.367 -1.695 2.64 26
7.368 -1.561 2.64 27
7.363 -1.427 2.644 33
7.359 -1.294 2.653 46
7.373 -1.168 2.665 37
7.368 -1.041 2.682 33
7.361 -0.917 2.702 57
7.368 -0.798 2.725 47
7.356 -0.68 2.752 71
7.378 -0.574 2.78 69
7.358 -0.473 2.809 73
7.36 -0.389 2.835 68
7.359 -0.328 2.854 72
3.432 -0.142 2.934 12
3.22 -0.141 2.931 20
3.259 -0.168 2.914 18
3.188 -0.196 2.896 17
3.173 -0.232 2.871 25
3.268 -0.28 2.838 25
3.263 -0.321 2.807 26
3.323 -0.371 2.768 31
3.28 -0.407 2.736 41
3.319 -0.455 2.693 33
3.349 -0.501 2.649 35
3.373 -0.546 2.603 24
3.385 -0.589 2.556 18
6.529 -1.213 2.052 13
6.525 -1.288 1.957 11
6.538 -1.364 1.855 12
5.469 -1.201 1.956 6
7.339 -1.961 2.654 56
7.337 -1.822 2.646 57
7.368 -1.691 2.64 28
7.369 -1.556 2.641 34
7.364 -1.422 2.646 32
7.36 -1.289 2.655 33
7.366 -1.161 2.667 44
7.369 -1.035 2.684 51
7.37 -0.91 2.704 41
7.365 -0.789 2.728 69
7.361 -0.672 2.755 55
7.371 -0.563 2.784 52
7.363 -0.46 2.814 60
7.361 -0.372 2.842 75
3.444 -0.144 2.936 3
3.437 -0.132 2.938 7
3.221 -0.133 2.935 20
3.327 -0.163 2.917 20
3.257 -0.195 2.896 25
3.189 -0.229 2.873 31
3.272 -0.277 2.84 28
3.255 -0.317 2.81 27
3.328 -0.368 2.77 33
3.281 -0.405 2.737 33
3.28 -0.447 2.698 34
3.31 -0.493 2.655 36
3.374 -0.544 2.605 26
3.405 -0.59 2.555 23
6.53 -1.21 2.054 13
6.53 -1.286 1.958 11
6.535 -1.361 1.858 11
6.538 -1.433 1.754 11
7.336 -1.957 2.655 53
7.338 -1.818 2.647 57
7.365 -1.688 2.641 58
7.37 -1.552 2.642 26
7.365 -1.417 2.647 35
7.361 -1.284 2.656 41
7.371 -1.155 2.669 28
7.37 -1.029 2.685 43
7.363 -0.902 2.707 63
7.366 -0.781 2.731 46
7.362 -0.663 2.759 80
7.372 -0.552 2.788 23
7.364 -0.447 2.82 75
7.362 -0.356 2.849 65
3.437 -0.135 2.94 5
3.417 -0.122 2.943 12
3.217 -0.125 2.939 14
3.363 -0.158 2.919 20
3.293 -0.192 2.898 26
3.202 -0.225 2.875 31
3.305 -0.275 2.841 35
3.335 -0.322 2.807 33
3.304 -0.362 2.774 37
3.289 -0.404 2.738 35
3.276 -0.444 2.701 57
3.302 -0.49 2.657 39
3.378 -0.543 2.606 27
3.401 -0.589 2.556 31
6.531 -1.207 2.057 13
6.53 -1.284 1.961 10
6.54 -1.359 1.86 11
6.543 -1.432 1.755 11
7.337 -1.953 2.656 54
7.335 -1.814 2.647 57
7.346 -1.679 2.643 60
7.363 -1.546 2.643 34
7.365 -1.413 2.648 30
7.362 -1.28 2.657 34
7.367 -1.15 2.67 37
7.363 -1.021 2.688 42
7.368 -0.896 2.709 47
7.367 -0.774 2.733 67
7.363 -0.654 2.762 55
7.365 -0.541 2.792 62
7.361 -0.434 2.825 58
7.363 -0.34 2.855 79
3.433 -0.126 2.944 13
3.43 -0.113 2.947 10
3.329 -0.121 2.941 8
3.5 -0.158 2.92 15
3.321 -0.188 2.9 20
3.146 -0.217 2.88 25
3.325 -0.274 2.842 28
3.232 -0.309 2.814 31
3.293 -0.359 2.776 40
3.293 -0.402 2.739 39
3.285 -0.444 2.701 35
3.326 -0.491 2.656 33
3.374 -0.54 2.607 19
3.398 -0.586 2.558 39
6.528 -1.204 2.059 13
6.531 -1.281 1.963 11
6.537 -1.356 1.862 12
6.54 -1.429 1.758 12
7.337 -1.951 2.656 54
7.343 -1.813 2.648 57
7.343 -1.675 2.644 58
7.368 -1.544 2.644 28
7.362 -1.408 2.649 40
7.359 -1.274 2.659 38
7.372 -1.146 2.671 31
7.364 -1.016 2.689 49
7.361 -0.889 2.711 53
7.367 -0.767 2.736 52
7.364 -0.646 2.765 71
7.366 -0.531 2.796 54
7.362 -0.422 2.829 75
7.36 -0.326 2.862 67
3.442 -0.118 2.948 15
3.398 -0.102 2.952 12
3.346 -0.113 2.945 0
3.356 -0.144 2.926 14
3.242 -0.178 2.905 18
3.151 -0.214 2.882 26
3.333 -0.271 2.844 33
3.216 -0.304 2.817 24
3.281 -0.354 2.778 39
3.294 -0.4 2.741 33
3.305 -0.444 2.7 35
3.295 -0.485 2.661 39
3.375 -0.539 2.609 27
3.422 -0.589 2.556 37
6.528 -1.201 2.061 13
6.532 -1.279 1.964 11
6.537 -1.354 1.864 11
6.544 -1.428 1.759 11
7.338 -1.948 2.656 32
7.336 -1.808 2.649 58
7.344 -1.672 2.645 59
7.368 -1.541 2.644 61
7.367 -1.406 2.65 29
7.359 -1.271 2.66 38
7.365 -1.141 2.673 27
7.364 -1.011 2.691 39
7.365 -0.885 2.712 52
7.364 -0.76 2.738 58
7.365 -0.639 2.767 58
7.367 -0.522 2.799 70
7.363 -0.411 2.834 64
7.364 -0.311 2.868 73
3.442 -0.109 2.952 24
3.37 -0.092 2.957 8
7.364 -0.23 2.888 63
3.312 -0.136 2.93 25
3.218 -0.172 2.908 19
3.167 -0.212 2.883 25
3.298 -0.265 2.847 23
3.205 -0.301 2.819 27
3.298 -0.354 2.779 35
3.318 -0.401 2.74 40
3.305 -0.443 2.701 35
3.284 -0.481 2.663 54
3.32 -0.529 2.615 28
3.418 -0.587 2.558 22
6.533 -1.2 2.063 12
6.533 -1.277 1.966 11
6.542 -1.353 1.865 11
6.541 -1.425 1.761 12
8.239 -2.184 2.615 2
7.333 -1.805 2.649 58
7.34 -1.668 2.645 57
7.342 -1.532 2.646 61
7.368 -1.403 2.65 39
7.36 -1.267 2.66 34
7.385 -1.14 2.673 19
7.365 -1.007 2.692 53
7.366 -0.88 2.714 45
7.365 -0.754 2.74 58
7.361 -0.632 2.77 61
7.363 -0.514 2.803 64
7.359 -0.401 2.838 70
7.361 -0.298 2.873 73
3.442 -0.1 2.955 18
3.363 -0.082 2.962 8
3.382 -0.097 2.952 0
3.341 -0.132 2.933 23
3.206 -0.167 2.911 22
3.159 -0.207 2.885 24
3.306 -0.262 2.849 23
3.205 -0.299 2.821 35
3.29 -0.351 2.781 38
3.314 -0.398 2.741 46
3.306 -0.441 2.703 49
3.276 -0.479 2.664 42
3.305 -0.525 2.618 26
3.418 -0.586 2.559 12
6.53 -1.197 2.065 13
6.533 -1.275 1.968 11
6.542 -1.351 1.866 11
6.545 -1.424 1.762 12
8.247 -2.184 2.615 3
7.334 -1.803 2.65 58
7.337 -1.665 2.646 59
7.342 -1.529 2.647 62
7.364 -1.399 2.651 30
7.361 -1.264 2.661 42
7.386 -1.136 2.674 20
7.37 -1.004 2.693 36
7.363 -0.875 2.716 55
7.369 -0.75 2.742 50
7.366 -0.627 2.772 62
7.368 -0.507 2.805 64
7.36 -0.392 2.842 70
7.361 -0.285 2.879 74
3.443 -0.092 2.959 23
3.363 -0.073 2.966 12
3.379 -0.089 2.956 11
3.333 -0.126 2.936 21
3.291 -0.167 2.911 21
3.139 -0.204 2.887 25
3.31 -0.261 2.85 13
3.17 -0.293 2.824 31
3.29 -0.349 2.782 42
3.338 -0.399 2.741 28
3.322 -0.441 2.702 42
3.316 -0.484 2.661 35
3.301 -0.524 2.62 30
3.352 -0.573 2.568 9
6.526 -1.194 2.067 14
6.538 -1.274 1.968 11
6.547 -1.35 1.867 11
6.538 -1.421 1.765 11
8.213 -2.173 2.617 1
7.338 -1.802 2.65 54
7.345 -1.665 2.646 58
7.339 -1.526 2.648 63
7.361 -1.396 2.652 58
7.357 -1.261 2.662 32
7.383 -1.133 2.675 14
7.37 -1.001 2.694 53
7.367 -0.872 2.717 42
7.362 -0.745 2.743 63
7.362 -0.621 2.774 43
7.368 -0.501 2.808 70
7.364 -0.384 2.845 66
7.358 -0.274 2.884 80
3.443 -0.084 2.963 18
3.363 -0.063 2.971 18
3.355 -0.082 2.96 9
3.281 -0.119 2.939 16
3.251 -0.162 2.914 25
3.156 -0.202 2.888 28
3.37 -0.263 2.848 5
3.206 -0.295 2.823 31
3.295 -0.349 2.782 38
3.327 -0.397 2.742 27
3.338 -0.443 2.701 50
3.304 -0.481 2.663 35
3.286 -0.52 2.622 48
3.317 -0.566 2.574 12
6.527 -1.193 2.068 13
6.534 -1.272 1.97 11
6.544 -1.348 1.869 11
6.527 -1.417 1.768 7
8.217 -2.172 2.617 2
7.358 -1.805 2.649 0
7.342 -1.662 2.647 59
7.339 -1.524 2.648 62
7.342 -1.389 2.654 55
7.361 -1.259 2.663 43
7.371 -1.129 2.676 19
7.367 -0.997 2.695 39
7.368 -0.869 2.718 59
7.366 -0.741 2.745 47
7.379 -0.618 2.775 26
7.365 -0.495 2.81 60
7.357 -0.376 2.848 77
7.362 -0.264 2.888 71
3.443 -0.077 2.966 13
3.359 -0.053 2.975 25
3.287 -0.072 2.965 13
3.238 -0.113 2.943 16
3.239 -0.159 2.916 18
3.212 -0.203 2.887 21
3.327 -0.257 2.851 5
3.226 -0.295 2.823 34
3.315 -0.349 2.782 37
3.279 -0.39 2.747 35
3.33 -0.44 2.703 40
3.308 -0.48 2.664 50
3.294 -0.52 2.622 57
3.298 -0.562 2.577 23
6.535 -1.193 2.068 13
6.539 -1.271 1.971 11
6.548 -1.348 1.869 11
6.512 -1.413 1.772 7
8.21 -2.169 2.618 1
8.747 -2.144 2.583 1
7.342 -1.661 2.647 58
7.339 -1.523 2.648 63
7.338 -1.387 2.654 63
7.358 -1.256 2.663 30
7.371 -1.127 2.677 36
7.367 -0.994 2.696 46
7.372 -0.866 2.719 42
7.367 -0.738 2.746 63
7.371 -0.613 2.777 62
7.361 -0.49 2.812 73
7.365 -0.37 2.85 61
7.359 -0.255 2.892 79
3.451 -0.071 2.968 3
3.364 -0.044 2.98 18
3.307 -0.067 2.967 18
3.234 -0.109 2.944 21
3.227 -0.155 2.918 21
3.216 -0.201 2.889 25
3.435 -0.264 2.847 1
3.23 -0.294 2.823 38
3.339 -0.35 2.781 36
3.287 -0.39 2.747 40
3.318 -0.438 2.705 44
3.324 -0.482 2.663 41
3.298 -0.52 2.622 49
3.302 -0.562 2.576 28
3.316 -0.605 2.527 1
6.539 -1.27 1.972 12
6.548 -1.347 1.87 12
6.486 -1.406 1.778 6
0.0 -0.0 3.0 0
0.0 -0.0 3.0 0
7.339 -1.659 2.647 55
7.34 -1.522 2.649 64
7.342 -1.386 2.654 64
7.354 -1.255 2.664 58
7.372 -1.125 2.677 32
7.367 -0.993 2.697 45
7.364 -0.863 2.72 54
7.367 -0.736 2.747 47
7.375 -0.61 2.778 60
7.37 -0.487 2.813 58
7.361 -0.365 2.852 75
7.363 -0.248 2.895 71
7.362 -0.139 2.938 78
3.368 -0.034 2.984 13
3.335 -0.062 2.97 20
3.222 -0.106 2.946 13
3.311 -0.157 2.916 28
3.22 -0.199 2.889 29
3.351 -0.256 2.852 5
3.25 -0.295 2.823 42
3.351 -0.35 2.781 28
3.295 -0.39 2.747 24
3.314 -0.437 2.706 38
3.332 -0.483 2.662 52
3.302 -0.52 2.622 28
3.29 -0.559 2.579 42
3.305 -0.602 2.53 13
6.539 -1.269 1.972 11
6.545 -1.345 1.871 12
6.471 -1.402 1.781 6
0.0 -0.0 3.0 0
0.0 -0.0 3.0 0
7.335 -1.657 2.648 0
7.34 -1.521 2.649 64
7.342 -1.385 2.655 62
7.339 -1.251 2.665 58
7.372 -1.124 2.678 47
7.371 -0.992 2.697 42
7.364 -0.861 2.72 46
7.359 -0.734 2.747 60
7.376 -0.608 2.779 24
7.37 -0.484 2.814 71
7.358 -0.362 2.854 64
7.359 -0.243 2.897 79
7.359 -0.128 2.943 82
3.368 -0.024 2.989 12
3.367 -0.058 2.972 27
3.23 -0.103 2.947 17
3.391 -0.159 2.915 27
3.208 -0.197 2.891 29
3.363 -0.256 2.852 12
3.385 -0.306 2.816 37
3.386 -0.354 2.779 35
3.331 -0.393 2.745 26
3.303 -0.434 2.707 48
3.325 -0.481 2.663 38
3.314 -0.522 2.621 35
3.294 -0.56 2.578 51
3.293 -0.599 2.532 14
6.536 -1.268 1.973 12
6.545 -1.344 1.872 11
6.456 -1.398 1.785 7
0.0 -0.0 3.0 0
0.0 -0.0 3.0 0
0.0 -0.0 3.0 0
7.34 -1.52 2.649 62
7.343 -1.385 2.655 62
7.339 -1.25 2.665 65
7.372 -1.123 2.678 32
7.364 -0.99 2.697 50
7.369 -0.861 2.72 47
7.367 -0.732 2.748 56
7.36 -0.606 2.779 44
7.366 -0.482 2.815 61
7.362 -0.359 2.855 71
7.363 -0.239 2.899 72
7.363 -0.122 2.946 54
3.368 -0.015 2.993 12
3.323 -0.054 2.974 21
3.234 -0.102 2.948 11
3.391 -0.158 2.916 16
3.212 -0.197 2.891 28
3.331 -0.252 2.854 11
3.405 -0.307 2.815 33
3.406 -0.355 2.778 20
3.307 -0.39 2.747 20
3.303 -0.434 2.707 34
3.329 -0.481 2.663 42
3.302 -0.52 2.622 24
3.29 -0.558 2.579 41
3.305 -0.601 2.53 27
6.54 -1.268 1.973 11
6.545 -1.344 1.872 11
6.436 -1.394 1.789 8
0.0 -0.0 3.0 0
0.0 -0.0 3.0 0
0.0 -0.0 3.0 0
7.344 -1.521 2.649 60
7.339 -1.384 2.655 63
7.335 -1.249 2.665 66
7.368 -1.122 2.678 58
7.372 -0.991 2.697 38
7.369 -0.861 2.72 51
7.363 -0.732 2.748 53
7.36 -0.605 2.78 54
7.366 -0.481 2.815 66
7.366 -0.358 2.855 65
7.364 -0.237 2.899 79
7.375 -0.118 2.947 68
3.36 -0.005 2.997 8
3.359 -0.053 2.974 27
3.238 -0.101 2.949 13
3.399 -0.157 2.916 9
3.204 -0.196 2.891 28
3.335 -0.253 2.854 13
3.409 -0.307 2.816 26
3.446 -0.359 2.776 20
3.339 -0.393 2.745 22
3.299 -0.433 2.708 35
3.329 -0.481 2.663 40
3.345 -0.526 2.618 30
3.294 -0.559 2.579 36
3.297 -0.6 2.531 29
3.326 -0.644 2.478 11
6.545 -1.344 1.872 12
6.421 -1.39 1.792 11
0.0 -0.0 3.0 0
0.0 -0.0 3.0 0
0.0 -0.0 3.0 0
7.344 -1.521 2.649 1
7.339 -1.384 2.655 62
7.339 -1.25 2.665 64
7.348 -1.119 2.679 57
7.368 -0.99 2.697 52
7.361 -0.86 2.721 43
7.367 -0.732 2.748 56
7.368 -0.606 2.779 56
7.37 -0.481 2.815 65
7.358 -0.358 2.855 66
7.36 -0.237 2.899 80
7.375 -0.118 2.947 99
3.348 -0.005 2.998 0
3.451 -0.054 2.974 35
3.234 -0.101 2.949 14
3.387 -0.157 2.916 10
3.208 -0.196 2.891 28
3.331 -0.252 2.854 11
3.405 -0.307 2.816 19
3.426 -0.357 2.777 18
3.343 -0.394 2.744 22
3.319 -0.436 2.706 26
3.325 -0.48 2.664 41
3.334 -0.524 2.619 23
3.287 -0.558 2.579 35
3.293 -0.599 2.532 53
3.318 -0.643 2.48 13
6.549 -1.344 1.872 11
6.421 -1.389 1.792 12
0.0 -0.0 3.0 0
0.0 -0.0 3.0 0
0.0 -0.0 3.0 0
0.0 -0.0 3.0 0
7.339 -1.384 2.655 63
7.335 -1.25 2.665 65
7.348 -1.12 2.679 66
7.371 -0.991 2.697 37
7.365 -0.861 2.72 53
7.367 -0.733 2.748 45
7.364 -0.606 2.779 62
7.37 -0.482 2.815 61
7.362 -0.359 2.855 71
7.359 -0.239 2.899 77
7.367 -0.122 2.946 54
7.36 -0.03 2.986 64
3.515 -0.057 2.972 33
3.242 -0.101 2.948 11
3.391 -0.158 2.916 11
3.204 -0.196 2.891 26
3.351 -0.254 2.853 22
3.401 -0.306 2.816 25
3.434 -0.358 2.776 34
3.383 -0.399 2.741 34
3.327 -0.437 2.705 24
3.348 -0.483 2.662 37
3.338 -0.525 2.618 26
3.302 -0.561 2.577 39
3.286 -0.598 2.533 53
3.307 -0.64 2.481 23
6.541 -1.343 1.873 12
6.425 -1.39 1.791 12
0.0 -0.0 3.0 0
0.0 -0.0 3.0 0
0.0 -0.0 3.0 0
0.0 -0.0 3.0 0
7.338 -1.385 2.655 61
7.335 -1.25 2.665 65
7.34 -1.12 2.679 67
7.359 -0.991 2.697 61
7.368 -0.863 2.72 40
7.363 -0.734 2.747 57
7.368 -0.609 2.778 52
7.37 -0.484 2.814 67
7.362 -0.362 2.854 63
7.363 -0.243 2.897 78
7.371 -0.129 2.942 34
7.364 -0.052 2.976 70
3.543 -0.061 2.97 37
3.238 -0.103 2.948 8
3.403 -0.159 2.916 3
3.204 -0.197 2.891 25
3.359 -0.255 2.853 25
3.385 -0.306 2.816 18
3.394 -0.354 2.779 23
3.363 -0.397 2.742 24
3.307 -0.435 2.707 18
3.368 -0.487 2.659 43
3.341 -0.526 2.618 35
3.318 -0.563 2.576 33
3.282 -0.598 2.533 55
3.311 -0.641 2.481 25
3.334 -0.684 2.426 5
6.425 -1.39 1.791 13
0.0 -0.0 3.0 0
0.0 -0.0 3.0 0
0.0 -0.0 3.0 0
0.0 -0.0 3.0 0
7.338 -1.386 2.654 8
7.334 -1.252 2.665 65
7.34 -1.121 2.679 66
7.351 -0.991 2.697 60
7.368 -0.864 2.719 54
7.367 -0.736 2.747 43
7.363 -0.61 2.778 62
7.366 -0.487 2.813 57
7.357 -0.366 2.852 69
7.363 -0.248 2.895 69
7.37 -0.139 2.938 66
7.364 -0.073 2.966 74
3.555 -0.065 2.968 45
7.367 -0.239 2.878 71
3.415 -0.161 2.914 3
3.212 -0.199 2.89 24
3.351 -0.256 2.852 11
3.341 -0.302 2.818 9
3.331 -0.348 2.783 19
3.351 -0.396 2.743 27
3.326 -0.438 2.705 15
3.376 -0.488 2.658 37
3.349 -0.527 2.617 38
3.326 -0.565 2.574 38
3.278 -0.597 2.534 45
3.311 -0.642 2.48 47
3.33 -0.684 2.426 17
6.425 -1.391 1.791 13
0.0 -0.0 3.0 0
0.0 -0.0 3.0 0
0.0 -0.0 3.0 0
0.0 -0.0 3.0 0
0.0 -0.0 3.0 0
