# .PCD v0.7 - Point Cloud Data file format
VERSION 0.7
FIELDS x y z intensity
SIZE 4 4 4 4
TYPE F F F F
COUNT 1 1 1 1
WIDTH 2406
HEIGHT 1
VIEWPOINT 0 0 0 1 0 0 0
POINTS 2406
DATA ascii
0.0 -0.0 3.0 0
0.0 -0.0 3.0 0
3.514 -1.831 2.677 13
3.655 -1.858 2.639 96
2.571 -1.278 2.728 5
2.639 -1.281 2.704 4
4.06 -1.929 2.519 0
4.314 -2.006 2.463 1
4.507 -2.054 2.411 0
4.733 -2.115 2.353 0
2.942 -1.291 2.58 0
0.0 -0.0 3.0 0
0.0 -0.0 3.0 0
0.0 -0.0 3.0 0
4.194 -1.732 2.3 0
4.19 -1.711 2.274 0
0.0 -0.0 3.0 0
0.0 -0.0 3.0 0
0.0 -0.0 3.0 0
0.0 -0.0 3.0 0
0.0 -0.0 3.0 0
0.0 -0.0 3.0 0
0.0 -0.0 3.0 0
0.0 -0.0 3.0 0
0.0 -0.0 3.0 0
0.0 -0.0 3.0 0
0.0 -0.0 3.0 0
2.161 -0.856 2.401 0
3.23 -1.286 2.066 0
0.0 -0.0 3.0 0
0.0 -0.0 3.0 0
0.0 -0.0 3.0 0
0.0 -0.0 3.0 0
0.0 -0.0 3.0 0
3.533 -1.829 2.677 12
3.674 -1.856 2.639 14
2.564 -1.266 2.731 5
2.603 -1.255 2.71 2
0.0 -0.0 3.0 0
4.32 -1.993 2.466 0
4.528 -2.048 2.413 1
4.732 -2.099 2.358 0
2.968 -1.292 2.58 0
3.061 -1.31 2.549 0
5.49 -2.311 2.159 0
0.0 -0.0 3.0 0
4.178 -1.712 2.308 0
4.192 -1.698 2.279 0
7.344 -2.943 1.689 0
0.0 -0.0 3.0 0
0.0 -0.0 3.0 0
0.0 -0.0 3.0 0
0.0 -0.0 3.0 0
0.0 -0.0 3.0 0
0.0 -0.0 3.0 0
0.0 -0.0 3.0 0
0.0 -0.0 3.0 0
0.0 -0.0 3.0 0
0.0 -0.0 3.0 0
3.292 -1.294 2.094 0
0.0 -0.0 3.0 0
0.0 -0.0 3.0 0
0.0 -0.0 3.0 0
0.0 -0.0 3.0 0
0.0 -0.0 3.0 0
0.0 -0.0 3.0 0
3.545 -1.824 2.678 12
2.586 -1.298 2.748 1
2.561 -1.255 2.733 6
2.567 -1.229 2.716 11
2.644 -1.238 2.691 9
4.37 -2.001 2.464 0
4.545 -2.04 2.415 0
4.771 -2.1 2.358 0
3.012 -1.301 2.577 0
3.087 -1.31 2.549 1
0.0 -0.0 3.0 0
0.0 -0.0 3.0 0
4.184 -1.7 2.313 0
4.194 -1.685 2.285 0
0.0 -0.0 3.0 0
0.0 -0.0 3.0 0
0.0 -0.0 3.0 0
0.0 -0.0 3.0 0
0.0 -0.0 3.0 0
0.0 -0.0 3.0 0
0.0 -0.0 3.0 0
0.0 -0.0 3.0 0
0.0 -0.0 3.0 0
0.0 -0.0 3.0 0
0.0 -0.0 3.0 0
0.0 -0.0 3.0 0
0.0 -0.0 3.0 0
2.098 -0.828 2.376 0
0.0 -0.0 3.0 0
0.0 -0.0 3.0 0
0.0 -0.0 3.0 0
0.0 -0.0 3.0 0
3.55 -1.815 2.68 10
2.561 -1.277 2.752 4
2.557 -1.244 2.736 6
2.57 -1.222 2.718 7
2.637 -1.225 2.694 3
4.386 -1.994 2.466 0
4.595 -2.046 2.413 0
4.807 -2.099 2.358 0
3.012 -1.291 2.581 0
3.113 -1.311 2.549 2
0.0 -0.0 3.0 0
4.244 -1.733 2.335 0
4.19 -1.687 2.318 0
4.189 -1.668 2.292 0
4.297 -1.694 2.246 0
7.306 -2.855 1.669 1
0.0 -0.0 3.0 0
0.0 -0.0 3.0 0
0.0 -0.0 3.0 0
0.0 -0.0 3.0 0
0.0 -0.0 3.0 0
0.0 -0.0 3.0 0
0.0 -0.0 3.0 0
0.0 -0.0 3.0 0
0.0 -0.0 3.0 0
2.195 -0.85 2.405 0
0.0 -0.0 3.0 0
2.09 -0.819 2.383 0
0.0 -0.0 3.0 0
0.0 -0.0 3.0 0
0.0 -0.0 3.0 0
0.0 -0.0 3.0 0
2.624 -1.333 2.765 1
2.546 -1.261 2.755 6
2.56 -1.237 2.737 11
2.595 -1.225 2.717 12
2.633 -1.215 2.697 5
4.403 -1.987 2.468 0
4.63 -2.046 2.413 0
4.824 -2.09 2.361 0
3.057 -1.299 2.578 0
3.136 -1.31 2.549 4
5.597 -2.298 2.164 0
4.25 -1.72 2.34 0
4.192 -1.674 2.324 0
4.187 -1.653 2.298 1
0.0 -0.0 3.0 0
7.32 -2.835 1.678 1
0.0 -0.0 3.0 0
0.0 -0.0 3.0 0
0.0 -0.0 3.0 0
0.0 -0.0 3.0 0
0.0 -0.0 3.0 0
0.0 -0.0 3.0 0
2.336 -0.888 2.445 0
0.0 -0.0 3.0 0
0.0 -0.0 3.0 0
0.0 -0.0 3.0 0
0.0 -0.0 3.0 0
0.0 -0.0 3.0 0
0.0 -0.0 3.0 0
0.0 -0.0 3.0 0
0.0 -0.0 3.0 0
0.0 -0.0 3.0 0
2.616 -1.321 2.767 3
2.542 -1.251 2.757 6
2.553 -1.226 2.739 11
2.57 -1.205 2.722 11
2.615 -1.199 2.701 5
4.427 -1.983 2.469 1
4.651 -2.04 2.415 1
4.838 -2.08 2.364 1
3.09 -1.303 2.577 0
3.158 -1.308 2.55 5
0.0 -0.0 3.0 0
4.241 -1.703 2.346 0
4.179 -1.655 2.331 0
4.193 -1.64 2.304 1
4.309 -1.669 2.257 0
7.311 -2.807 1.691 1
0.0 -0.0 3.0 0
0.0 -0.0 3.0 0
0.0 -0.0 3.0 0
0.0 -0.0 3.0 0
0.0 -0.0 3.0 0
0.0 -0.0 3.0 0
0.0 -0.0 3.0 0
0.0 -0.0 3.0 0
0.0 -0.0 3.0 0
0.0 -0.0 3.0 0
3.303 -1.268 2.079 0
3.252 -1.256 2.053 0
0.0 -0.0 3.0 0
0.0 -0.0 3.0 0
0.0 -0.0 3.0 0
0.0 -0.0 3.0 0
2.598 -1.303 2.77 4
2.539 -1.241 2.759 11
2.545 -1.214 2.742 12
2.559 -1.191 2.725 14
2.622 -1.193 2.703 13
4.444 -1.976 2.471 0
4.65 -2.024 2.42 0
4.87 -2.077 2.365 0
3.131 -1.309 2.575 0
3.181 -1.307 2.55 6
0.0 -0.0 3.0 0
4.22 -1.68 2.355 0
4.184 -1.643 2.336 0
4.195 -1.628 2.309 0
4.304 -1.652 2.265 0
7.317 -2.785 1.701 2
7.316 -2.764 1.652 1
0.0 -0.0 3.0 0
0.0 -0.0 3.0 0
0.0 -0.0 3.0 0
0.0 -0.0 3.0 0
0.0 -0.0 3.0 0
0.0 -0.0 3.0 0
0.0 -0.0 3.0 0
0.0 -0.0 3.0 0
0.0 -0.0 3.0 0
3.315 -1.263 2.082 0
3.27 -1.254 2.055 0
0.0 -0.0 3.0 0
0.0 -0.0 3.0 0
0.0 -0.0 3.0 0
0.0 -0.0 3.0 0
2.598 -1.295 2.772 6
2.52 -1.224 2.762 19
2.538 -1.202 2.744 12
2.559 -1.182 2.727 17
2.618 -1.182 2.705 11
4.486 -1.98 2.47 0
4.681 -2.022 2.42 0
4.909 -2.077 2.365 0
3.146 -1.305 2.576 0
3.189 -1.299 2.553 8
5.711 -2.287 2.168 0
4.226 -1.667 2.36 0
4.19 -1.63 2.341 1
4.204 -1.617 2.314 0
0.0 -0.0 3.0 0
7.319 -2.762 1.712 1
7.322 -2.742 1.662 1
0.0 -0.0 3.0 0
0.0 -0.0 3.0 0
0.0 -0.0 3.0 0
0.0 -0.0 3.0 0
0.0 -0.0 3.0 0
2.349 -0.872 2.455 0
0.0 -0.0 3.0 0
0.0 -0.0 3.0 0
0.0 -0.0 3.0 0
3.276 -1.24 2.099 0
0.0 -0.0 3.0 0
0.0 -0.0 3.0 0
0.0 -0.0 3.0 0
0.0 -0.0 3.0 0
0.0 -0.0 3.0 0
2.58 -1.277 2.775 7
2.527 -1.219 2.763 13
2.541 -1.196 2.746 11
2.555 -1.172 2.729 14
2.604 -1.167 2.709 11
4.521 -1.98 2.469 0
4.717 -2.021 2.42 0
4.956 -2.08 2.364 0
3.19 -1.313 2.573 0
3.196 -1.292 2.555 9
5.726 -2.274 2.172 0
4.228 -1.654 2.365 0
4.177 -1.612 2.349 1
4.209 -1.605 2.319 0
4.27 -1.61 2.283 0
7.321 -2.738 1.723 1
7.317 -2.716 1.675 1
7.316 -2.702 1.623 0
0.0 -0.0 3.0 0
0.0 -0.0 3.0 0
0.0 -0.0 3.0 0
0.0 -0.0 3.0 0
0.0 -0.0 3.0 0
0.0 -0.0 3.0 0
0.0 -0.0 3.0 0
0.0 -0.0 3.0 0
3.294 -1.237 2.101 0
0.0 -0.0 3.0 0
0.0 -0.0 3.0 0
0.0 -0.0 3.0 0
0.0 -0.0 3.0 0
0.0 -0.0 3.0 0
2.569 -1.264 2.777 9
2.523 -1.209 2.765 13
2.53 -1.182 2.749 19
2.558 -1.165 2.731 15
2.6 -1.157 2.712 13
2.725 -1.184 2.683 1
4.745 -2.017 2.422 1
4.962 -2.066 2.368 0
3.213 -1.311 2.574 0
3.208 -1.286 2.557 9
0.0 -0.0 3.0 0
4.237 -1.643 2.369 0
4.19 -1.602 2.353 1
4.226 -1.596 2.322 0
4.265 -1.594 2.29 0
7.323 -2.714 1.734 1
7.322 -2.694 1.686 1
7.318 -2.679 1.635 1
0.0 -0.0 3.0 0
0.0 -0.0 3.0 0
0.0 -0.0 3.0 0
0.0 -0.0 3.0 0
0.0 -0.0 3.0 0
0.0 -0.0 3.0 0
0.0 -0.0 3.0 0
0.0 -0.0 3.0 0
3.273 -1.22 2.114 0
0.0 -0.0 3.0 0
0.0 -0.0 3.0 0
0.0 -0.0 3.0 0
0.0 -0.0 3.0 0
0.0 -0.0 3.0 0
2.558 -1.251 2.779 11
2.519 -1.199 2.767 16
2.523 -1.171 2.751 24
2.558 -1.157 2.733 14
2.599 -1.148 2.714 17
2.714 -1.17 2.686 4
4.765 -2.01 2.424 0
5.001 -2.066 2.368 0
3.287 -1.33 2.568 0
3.234 -1.285 2.557 6
5.815 -2.27 2.174 0
4.239 -1.63 2.374 0
4.202 -1.593 2.357 1
4.231 -1.585 2.327 0
4.281 -1.586 2.294 0
7.322 -2.689 1.746 2
7.321 -2.67 1.698 1
7.317 -2.655 1.647 1
0.0 -0.0 3.0 0
0.0 -0.0 3.0 0
0.0 -0.0 3.0 0
0.0 -0.0 3.0 0
0.0 -0.0 3.0 0
2.371 -0.862 2.44 0
0.0 -0.0 3.0 0
2.27 -0.834 2.416 0
3.277 -1.213 2.119 0
0.0 -0.0 3.0 0
0.0 -0.0 3.0 0
0.0 -0.0 3.0 0
0.0 -0.0 3.0 0
0.0 -0.0 3.0 0
2.554 -1.241 2.781 13
2.515 -1.189 2.769 20
2.526 -1.164 2.753 16
2.55 -1.145 2.736 15
2.595 -1.138 2.716 20
2.717 -1.163 2.688 5
4.823 -2.019 2.421 0
5.045 -2.067 2.368 0
3.324 -1.334 2.567 0
3.257 -1.283 2.558 4
5.848 -2.263 2.176 0
4.24 -1.616 2.38 0
4.215 -1.583 2.36 1
4.237 -1.573 2.332 1
4.291 -1.575 2.299 0
7.335 -2.67 1.755 2
7.322 -2.646 1.709 1
7.315 -2.63 1.66 1
7.32 -2.624 1.605 0
0.0 -0.0 3.0 0
0.0 -0.0 3.0 0
0.0 -0.0 3.0 0
0.0 -0.0 3.0 0
0.0 -0.0 3.0 0
2.375 -0.861 2.419 0
0.0 -0.0 3.0 0
2.258 -0.83 2.397 0
3.335 -1.234 2.07 0
0.0 -0.0 3.0 0
0.0 -0.0 3.0 0
0.0 -0.0 3.0 0
0.0 -0.0 3.0 0
2.539 -1.225 2.784 13
2.522 -1.185 2.77 16
2.529 -1.158 2.754 19
2.553 -1.138 2.737 16
2.599 -1.131 2.718 21
2.721 -1.155 2.69 6
4.851 -2.014 2.423 0
5.073 -2.062 2.37 1
3.321 -1.322 2.57 0
3.279 -1.281 2.559 2
5.907 -2.266 2.175 0
4.235 -1.599 2.386 0
4.224 -1.572 2.365 1
4.257 -1.565 2.336 0
4.322 -1.572 2.3 0
7.355 -2.653 1.763 0
7.324 -2.623 1.721 1
7.324 -2.61 1.67 1
7.314 -2.599 1.618 1
0.0 -0.0 3.0 0
0.0 -0.0 3.0 0
0.0 -0.0 3.0 0
0.0 -0.0 3.0 0
0.0 -0.0 3.0 0
2.341 -0.842 2.432 0
2.305 -0.835 2.416 0
3.293 -1.2 2.128 0
3.325 -1.222 2.079 0
0.0 -0.0 3.0 0
0.0 -0.0 3.0 0
0.0 -0.0 3.0 0
0.0 -0.0 3.0 0
2.532 -1.214 2.786 13
2.522 -1.176 2.771 16
2.525 -1.147 2.756 23
2.556 -1.132 2.739 16
2.598 -1.122 2.72 22
2.72 -1.146 2.693 9
4.86 -2.002 2.426 2
5.101 -2.056 2.372 0
3.388 -1.337 2.566 0
3.324 -1.287 2.557 0
5.933 -2.256 2.179 0
4.262 -1.596 2.387 0
4.222 -1.558 2.371 1
4.273 -1.557 2.339 1
4.335 -1.562 2.305 0
7.349 -2.626 1.775 0
7.33 -2.6 1.732 1
7.318 -2.584 1.683 1
7.323 -2.579 1.629 1
0.0 -0.0 3.0 0
0.0 -0.0 3.0 0
0.0 -0.0 3.0 0
0.0 -0.0 3.0 0
0.0 -0.0 3.0 0
0.0 -0.0 3.0 0
2.323 -0.834 2.416 0
2.319 -0.839 2.39 0
3.344 -1.219 2.081 0
0.0 -0.0 3.0 0
0.0 -0.0 3.0 0
0.0 -0.0 3.0 0
0.0 -0.0 3.0 0
2.528 -1.204 2.788 14
2.521 -1.168 2.773 17
2.531 -1.142 2.757 33
2.556 -1.124 2.741 18
2.598 -1.114 2.722 25
2.713 -1.135 2.696 13
4.885 -1.997 2.427 0
5.1 -2.039 2.377 0
3.44 -1.346 2.563 0
0.0 -0.0 3.0 0
5.985 -2.255 2.179 0
4.267 -1.583 2.392 0
4.235 -1.548 2.374 1
4.29 -1.549 2.343 1
4.31 -1.539 2.315 1
7.358 -2.606 1.785 0
7.346 -2.583 1.74 1
7.327 -2.564 1.694 1
7.318 -2.553 1.643 1
7.31 -2.546 1.589 1
0.0 -0.0 3.0 0
0.0 -0.0 3.0 0
0.0 -0.0 3.0 0
0.0 -0.0 3.0 0
0.0 -0.0 3.0 0
0.0 -0.0 3.0 0
2.307 -0.829 2.398 0
2.251 -0.815 2.386 0
0.0 -0.0 3.0 0
0.0 -0.0 3.0 0
0.0 -0.0 3.0 0
0.0 -0.0 3.0 0
2.524 -1.195 2.789 14
2.521 -1.161 2.774 17
2.524 -1.131 2.76 24
2.548 -1.112 2.743 24
2.601 -1.107 2.724 33
2.72 -1.128 2.698 13
4.92 -1.995 2.428 0
5.162 -2.047 2.374 0
3.441 -1.335 2.566 0
0.0 -0.0 3.0 0
6.044 -2.258 2.178 0
4.276 -1.573 2.396 0
4.255 -1.541 2.377 1
4.302 -1.539 2.347 0
4.327 -1.531 2.318 0
4.342 -1.524 2.29 1
7.351 -2.56 1.751 0
7.314 -2.535 1.708 1
7.312 -2.528 1.656 1
7.319 -2.526 1.6 1
0.0 -0.0 3.0 0
0.0 -0.0 3.0 0
0.0 -0.0 3.0 0
0.0 -0.0 3.0 0
2.387 -0.838 2.435 0
2.365 -0.836 2.414 0
3.324 -1.185 2.139 0
2.254 -0.81 2.389 0
0.0 -0.0 3.0 0
0.0 -0.0 3.0 0
0.0 -0.0 3.0 0
0.0 -0.0 3.0 0
2.519 -1.185 2.791 20
2.524 -1.155 2.776 18
2.527 -1.124 2.761 27
2.551 -1.105 2.745 22
2.604 -1.099 2.726 28
2.727 -1.123 2.699 11
4.963 -1.996 2.428 0
5.179 -2.037 2.377 1
0.0 -0.0 3.0 0
5.725 -2.16 2.256 0
6.059 -2.243 2.184 0
4.3 -1.567 2.399 0
4.275 -1.535 2.38 0
4.364 -1.546 2.344 0
4.328 -1.517 2.324 0
4.336 -1.507 2.297 1
7.345 -2.535 1.764 0
7.334 -2.519 1.716 1
7.309 -2.504 1.669 1
7.309 -2.5 1.614 1
0.0 -0.0 3.0 0
0.0 -0.0 3.0 0
0.0 -0.0 3.0 0
0.0 -0.0 3.0 0
2.393 -0.834 2.438 0
2.379 -0.835 2.415 0
2.323 -0.822 2.402 0
2.319 -0.828 2.376 0
0.0 -0.0 3.0 0
0.0 -0.0 3.0 0
0.0 -0.0 3.0 0
0.0 -0.0 3.0 0
2.515 -1.175 2.793 19
2.516 -1.143 2.778 18
2.533 -1.12 2.762 21
2.558 -1.1 2.746 18
2.615 -1.096 2.727 25
2.715 -1.109 2.703 11
4.976 -1.985 2.431 1
5.219 -2.035 2.378 0
5.517 -2.104 2.316 0
5.739 -2.147 2.261 0
6.092 -2.235 2.187 0
4.324 -1.561 2.401 0
4.287 -1.525 2.384 0
4.369 -1.534 2.349 0
4.375 -1.519 2.324 0
4.353 -1.498 2.301 0
7.35 -2.512 1.775 0
7.339 -2.497 1.728 1
7.322 -2.485 1.679 1
7.314 -2.479 1.626 1
7.318 -2.483 1.566 1
0.0 -0.0 3.0 0
0.0 -0.0 3.0 0
0.0 -0.0 3.0 0
0.0 -0.0 3.0 0
2.389 -0.832 2.417 0
2.341 -0.822 2.403 0
2.289 -0.811 2.389 0
0.0 -0.0 3.0 0
0.0 -0.0 3.0 0
0.0 -0.0 3.0 0
0.0 -0.0 3.0 0
2.518 -1.17 2.794 15
2.522 -1.138 2.779 22
2.536 -1.113 2.763 20
2.565 -1.095 2.747 18
2.621 -1.09 2.728 23
2.711 -1.099 2.705 11
5.012 -1.983 2.431 0
5.269 -2.038 2.377 0
5.512 -2.085 2.322 0
5.794 -2.148 2.26 1
6.152 -2.237 2.186 0
4.333 -1.551 2.405 0
4.311 -1.519 2.386 0
0.0 -0.0 3.0 0
0.0 -0.0 3.0 0
7.345 -2.505 1.832 0
4.342 -1.47 2.283 0
7.348 -2.477 1.738 0
7.312 -2.458 1.693 1
7.315 -2.457 1.638 1
7.316 -2.46 1.58 1
0.0 -0.0 3.0 0
0.0 -0.0 3.0 0
0.0 -0.0 3.0 0
0.0 -0.0 3.0 0
2.388 -0.825 2.422 0
2.344 -0.817 2.406 0
2.31 -0.813 2.387 0
2.286 -0.812 2.365 0
0.0 -0.0 3.0 0
2.212 -0.804 2.326 0
0.0 -0.0 3.0 0
2.521 -1.164 2.795 13
2.518 -1.128 2.781 27
2.539 -1.107 2.765 19
2.56 -1.085 2.749 23
2.624 -1.083 2.73 22
2.718 -1.093 2.707 9
5.047 -1.981 2.432 0
5.298 -2.031 2.379 1
5.559 -2.085 2.323 0
3.501 -1.287 2.557 0
0.0 -0.0 3.0 0
4.364 -1.547 2.406 0
4.327 -1.51 2.39 0
7.346 -2.531 1.926 0
7.353 -2.505 1.885 0
7.346 -2.481 1.843 0
4.347 -1.458 2.289 1
7.341 -2.452 1.751 0
7.339 -2.445 1.7 1
7.316 -2.435 1.65 1
7.313 -2.437 1.593 1
7.32 -2.445 1.531 0
0.0 -0.0 3.0 0
0.0 -0.0 3.0 0
0.0 -0.0 3.0 0
2.387 -0.818 2.427 0
2.343 -0.81 2.411 0
2.349 -0.82 2.382 0
3.263 -1.152 2.1 0
0.0 -0.0 3.0 0
0.0 -0.0 3.0 0
0.0 -0.0 3.0 0
2.524 -1.157 2.796 18
2.517 -1.121 2.782 29
2.546 -1.101 2.766 18
2.574 -1.084 2.75 30
2.613 -1.07 2.733 16
2.732 -1.09 2.708 4
5.068 -1.973 2.434 0
5.312 -2.019 2.383 0
5.618 -2.088 2.321 0
3.539 -1.289 2.556 0
6.267 -2.237 2.186 0
0.0 -0.0 3.0 0
4.351 -1.504 2.392 0
7.343 -2.506 1.936 0
7.351 -2.481 1.896 0
7.347 -2.458 1.854 0
4.341 -1.442 2.297 0
7.35 -2.43 1.762 0
7.348 -2.425 1.711 0
7.317 -2.413 1.663 2
7.322 -2.418 1.604 1
7.317 -2.423 1.544 1
0.0 -0.0 3.0 0
0.0 -0.0 3.0 0
0.0 -0.0 3.0 0
2.423 -0.824 2.423 0
2.379 -0.817 2.407 0
2.337 -0.81 2.389 0
2.27 -0.796 2.378 0
3.286 -1.165 2.057 0
0.0 -0.0 3.0 0
0.0 -0.0 3.0 0
2.52 -1.147 2.798 21
2.527 -1.118 2.783 22
2.549 -1.095 2.767 18
2.577 -1.077 2.751 26
2.63 -1.069 2.733 12
2.687 -1.064 2.715 5
5.085 -1.963 2.437 1
5.351 -2.018 2.383 0
5.625 -2.073 2.326 1
3.546 -1.28 2.559 0
6.282 -2.222 2.191 0
6.604 -2.298 2.118 0
4.401 -1.507 2.391 0
7.359 -2.488 1.944 0
7.344 -2.454 1.907 0
7.348 -2.434 1.865 0
7.332 -2.412 1.824 0
7.343 -2.406 1.774 0
7.352 -2.403 1.722 0
7.326 -2.393 1.674 2
7.315 -2.393 1.618 1
7.318 -2.401 1.557 1
0.0 -0.0 3.0 0
0.0 -0.0 3.0 0
0.0 -0.0 3.0 0
2.426 -0.818 2.427 0
2.381 -0.811 2.411 0
2.362 -0.813 2.387 0
2.294 -0.799 2.376 0
3.235 -1.139 2.077 0
0.0 -0.0 3.0 0
0.0 -0.0 3.0 0
2.53 -1.145 2.798 16
2.527 -1.11 2.784 24
2.552 -1.088 2.769 29
2.587 -1.073 2.752 20
2.615 -1.055 2.737 12
2.66 -1.045 2.72 6
4.218 -1.615 2.537 0
5.391 -2.015 2.384 0
5.665 -2.069 2.328 0
3.622 -1.296 2.554 0
0.0 -0.0 3.0 0
0.0 -0.0 3.0 0
7.351 -2.494 1.993 0
7.345 -2.46 1.956 0
7.345 -2.43 1.918 0
7.346 -2.41 1.876 0
7.356 -2.397 1.831 0
7.337 -2.38 1.787 0
7.346 -2.378 1.736 0
7.338 -2.374 1.684 2
7.312 -2.37 1.631 1
7.319 -2.381 1.57 1
7.326 -2.396 1.503 1
0.0 -0.0 3.0 0
0.0 -0.0 3.0 0
0.0 -0.0 3.0 0
2.377 -0.804 2.416 0
2.372 -0.81 2.39 0
0.0 -0.0 3.0 0
0.0 -0.0 3.0 0
0.0 -0.0 3.0 0
0.0 -0.0 3.0 0
2.536 -1.14 2.799 15
2.526 -1.102 2.786 26
2.555 -1.082 2.77 19
2.594 -1.067 2.754 16
2.614 -1.047 2.739 11
2.663 -1.038 2.722 8
5.156 -1.958 2.439 0
5.416 -2.007 2.386 1
5.712 -2.068 2.328 0
3.652 -1.295 2.554 0
3.745 -1.3 2.527 0
0.0 -0.0 3.0 0
7.367 -2.475 2.0 0
7.354 -2.438 1.965 1
7.357 -2.411 1.926 0
7.339 -2.384 1.888 0
7.349 -2.371 1.844 0
7.341 -2.359 1.798 0
7.347 -2.355 1.748 0
7.335 -2.351 1.697 0
7.313 -2.349 1.644 2
7.32 -2.359 1.583 1
7.323 -2.374 1.517 1
0.0 -0.0 3.0 0
0.0 -0.0 3.0 0
0.0 -0.0 3.0 0
2.424 -0.814 2.409 0
2.364 -0.802 2.396 0
2.332 -0.8 2.375 0
0.0 -0.0 3.0 0
0.0 -0.0 3.0 0
0.0 -0.0 3.0 0
2.543 -1.135 2.8 14
2.529 -1.095 2.787 28
2.558 -1.076 2.771 19
2.597 -1.061 2.755 19
2.617 -1.04 2.741 11
2.707 -1.047 2.72 6
5.196 -1.957 2.439 2
5.44 -1.998 2.389 0
5.733 -2.057 2.332 1
3.701 -1.3 2.553 0
3.801 -1.308 2.524 1
7.345 -2.484 2.047 0
7.36 -2.449 2.011 0
7.351 -2.413 1.976 1
7.35 -2.385 1.938 0
7.366 -2.369 1.895 0
7.365 -2.353 1.853 0
7.338 -2.335 1.81 0
7.329 -2.327 1.763 0
7.347 -2.332 1.707 0
7.329 -2.332 1.654 1
7.32 -2.338 1.595 1
7.313 -2.349 1.532 1
0.0 -0.0 3.0 0
0.0 -0.0 3.0 0
2.498 -0.823 2.424 0
2.445 -0.814 2.409 0
2.363 -0.795 2.401 0
2.35 -0.801 2.374 0
2.343 -0.808 2.345 0
0.0 -0.0 3.0 0
0.0 -0.0 3.0 0
2.546 -1.129 2.801 15
2.535 -1.091 2.788 19
2.564 -1.07 2.772 18
2.6 -1.054 2.757 20
2.62 -1.033 2.742 12
2.725 -1.044 2.72 9
4.459 -1.665 2.523 0
4.149 -1.512 2.538 0
5.751 -2.045 2.336 0
3.765 -1.31 2.549 0
3.832 -1.305 2.525 3
7.365 -2.467 2.053 1
7.354 -2.423 2.021 0
7.347 -2.388 1.986 1
7.351 -2.361 1.949 1
7.355 -2.342 1.908 1
7.365 -2.329 1.864 0
7.354 -2.316 1.82 0
7.348 -2.311 1.771 0
7.344 -2.309 1.72 0
7.337 -2.313 1.665 1
7.31 -2.313 1.61 2
7.325 -2.332 1.543 1
7.33 -2.35 1.474 1
0.0 -0.0 3.0 0
0.0 -0.0 3.0 0
2.47 -0.816 2.407 0
2.38 -0.795 2.401 0
2.349 -0.794 2.379 0
2.309 -0.792 2.359 0
0.0 -0.0 3.0 0
0.0 -0.0 3.0 0
2.552 -1.125 2.802 18
2.545 -1.088 2.789 19
2.567 -1.064 2.774 22
2.614 -1.052 2.757 13
2.623 -1.026 2.744 11
2.713 -1.032 2.723 11
4.498 -1.666 2.522 2
4.247 -1.534 2.531 0
5.817 -2.05 2.334 0
6.159 -2.124 2.269 6
3.862 -1.303 2.526 4
7.346 -2.436 2.065 1
7.354 -2.399 2.031 1
7.352 -2.366 1.996 1
7.34 -2.335 1.961 1
7.352 -2.317 1.919 0
7.358 -2.304 1.876 0
7.358 -2.295 1.831 1
7.333 -2.284 1.786 0
7.344 -2.287 1.732 0
7.349 -2.295 1.675 0
7.322 -2.296 1.621 2
7.322 -2.311 1.556 1
7.323 -2.328 1.488 1
0.0 -0.0 3.0 0
0.0 -0.0 3.0 0
0.0 -0.0 3.0 0
2.438 -0.809 2.391 0
0.0 -0.0 3.0 0
0.0 -0.0 3.0 0
0.0 -0.0 3.0 0
0.0 -0.0 3.0 0
2.555 -1.119 2.803 18
2.544 -1.08 2.79 19
2.57 -1.058 2.775 16
2.628 -1.049 2.758 11
2.659 -1.032 2.743 10
2.724 -1.028 2.725 12
4.506 -1.655 2.526 3
4.312 -1.543 2.528 0
5.839 -2.039 2.337 1
3.875 -1.324 2.544 0
3.878 -1.296 2.528 5
7.347 -2.413 2.074 1
7.358 -2.377 2.04 1
7.36 -2.345 2.005 1
7.355 -2.316 1.969 1
7.349 -2.293 1.931 1
7.34 -2.275 1.891 0
7.347 -2.268 1.844 0
7.345 -2.264 1.796 0
7.352 -2.268 1.743 1
7.349 -2.273 1.688 0
7.33 -2.277 1.632 1
7.322 -2.29 1.569 1
7.324 -2.309 1.501 1
7.316 -2.328 1.43 0
2.573 -0.827 2.421 0
0.0 -0.0 3.0 0
2.463 -0.811 2.389 0
2.409 -0.803 2.372 0
2.351 -0.795 2.357 0
0.0 -0.0 3.0 0
0.0 -0.0 3.0 0
2.558 -1.113 2.804 21
2.551 -1.075 2.791 19
2.583 -1.056 2.775 15
2.653 -1.051 2.757 10
2.647 -1.019 2.746 12
2.734 -1.023 2.726 13
4.522 -1.647 2.528 28
4.425 -1.57 2.52 0
5.879 -2.035 2.339 0
3.902 -1.32 2.546 0
3.893 -1.289 2.531 7
7.362 -2.394 2.081 0
7.355 -2.352 2.05 1
7.356 -2.32 2.015 1
7.36 -2.294 1.979 1
7.353 -2.271 1.941 1
7.359 -2.257 1.899 0
7.348 -2.246 1.856 1
7.346 -2.242 1.808 0
7.341 -2.242 1.757 1
7.357 -2.254 1.699 0
7.341 -2.259 1.643 1
7.315 -2.267 1.583 1
7.328 -2.289 1.514 1
7.312 -2.307 1.444 1
0.0 -0.0 3.0 0
0.0 -0.0 3.0 0
2.462 -0.805 2.394 0
0.0 -0.0 3.0 0
2.346 -0.787 2.362 0
0.0 -0.0 3.0 0
0.0 -0.0 3.0 0
2.564 -1.108 2.805 21
2.564 -1.073 2.791 18
2.594 -1.053 2.776 18
2.648 -1.043 2.759 13
2.643 -1.009 2.748 12
2.688 -0.998 2.733 18
4.535 -1.637 2.531 7
4.494 -1.58 2.517 4
5.896 -2.022 2.343 0
3.97 -1.331 2.542 0
3.92 -1.285 2.532 9
7.355 -2.368 2.091 1
7.351 -2.327 2.06 1
7.356 -2.296 2.025 1
7.348 -2.266 1.991 1
7.353 -2.248 1.952 1
7.352 -2.232 1.911 1
7.333 -2.218 1.87 0
7.342 -2.218 1.821 0
7.357 -2.224 1.767 1
7.35 -2.23 1.712 0
7.342 -2.238 1.655 0
7.327 -2.25 1.594 1
7.321 -2.267 1.528 1
7.324 -2.292 1.454 1
0.0 -0.0 3.0 0
0.0 -0.0 3.0 0
2.479 -0.804 2.394 0
2.447 -0.805 2.371 0
2.378 -0.793 2.358 0
0.0 -0.0 3.0 0
0.0 -0.0 3.0 0
2.57 -1.104 2.805 18
2.571 -1.069 2.792 28
2.607 -1.051 2.777 21
2.64 -1.031 2.762 12
2.642 -1.001 2.75 13
2.736 -1.007 2.73 15
4.547 -1.627 2.533 3
4.506 -1.571 2.52 5
4.339 -1.475 2.521 0
4.008 -1.331 2.542 0
3.955 -1.284 2.533 6
7.347 -2.343 2.101 1
7.355 -2.304 2.069 1
7.357 -2.273 2.035 1
7.356 -2.245 2.0 1
7.346 -2.222 1.964 1
7.356 -2.211 1.922 1
7.348 -2.2 1.879 1
7.342 -2.196 1.832 0
7.357 -2.202 1.779 0
7.343 -2.205 1.727 1
7.346 -2.218 1.667 0
7.342 -2.234 1.604 1
7.321 -2.247 1.541 1
7.317 -2.27 1.469 1
7.321 -2.297 1.392 0
0.0 -0.0 3.0 0
0.0 -0.0 3.0 0
0.0 -0.0 3.0 0
0.0 -0.0 3.0 0
0.0 -0.0 3.0 0
0.0 -0.0 3.0 0
2.58 -1.101 2.806 17
2.577 -1.064 2.793 19
2.618 -1.047 2.777 13
2.646 -1.026 2.763 13
2.644 -0.994 2.752 12
2.735 -0.998 2.733 17
2.645 -0.938 2.731 7
4.526 -1.563 2.522 32
4.446 -1.497 2.514 1
4.08 -1.342 2.538 0
3.985 -1.281 2.534 4
7.355 -2.322 2.109 0
7.359 -2.282 2.078 1
7.357 -2.25 2.045 1
7.345 -2.219 2.012 1
7.342 -2.198 1.975 1
7.348 -2.185 1.934 1
7.348 -2.178 1.89 1
7.357 -2.178 1.842 0
7.338 -2.175 1.795 1
7.347 -2.185 1.738 1
7.357 -2.201 1.678 0
7.346 -2.214 1.616 0
7.329 -2.23 1.552 1
7.317 -2.25 1.482 1
7.318 -2.276 1.406 1
0.0 -0.0 3.0 0
2.514 -0.803 2.395 0
0.0 -0.0 3.0 0
0.0 -0.0 3.0 0
0.0 -0.0 3.0 0
0.0 -0.0 3.0 0
2.587 -1.096 2.807 19
2.584 -1.059 2.794 17
2.62 -1.041 2.779 14
2.63 -1.012 2.766 12
2.632 -0.982 2.755 13
2.734 -0.99 2.735 14
2.652 -0.933 2.732 7
2.64 -0.904 2.724 2
4.496 -1.5 2.513 4
4.179 -1.361 2.531 0
4.02 -1.28 2.534 2
7.366 -2.302 2.117 1
7.34 -2.253 2.09 1
7.353 -2.225 2.056 1
7.349 -2.197 2.022 1
7.353 -2.178 1.984 1
7.348 -2.162 1.945 1
7.337 -2.151 1.904 1
7.346 -2.153 1.855 1
7.346 -2.155 1.805 1
7.339 -2.162 1.752 0
7.338 -2.174 1.694 0
7.35 -2.195 1.628 0
7.329 -2.209 1.565 1
7.313 -2.229 1.496 1
7.322 -2.259 1.418 1
0.0 -0.0 3.0 0
2.535 -0.804 2.394 0
0.0 -0.0 3.0 0
0.0 -0.0 3.0 0
0.0 -0.0 3.0 0
0.0 -0.0 3.0 0
2.589 -1.09 2.808 20
2.597 -1.058 2.794 18
2.627 -1.036 2.78 16
2.629 -1.004 2.768 12
2.642 -0.978 2.756 12
2.692 -0.966 2.741 16
2.651 -0.925 2.735 2
2.646 -0.898 2.725 10
4.515 -1.493 2.515 10
4.331 -1.397 2.519 0
7.342 -2.315 2.158 0
7.366 -2.278 2.126 1
7.355 -2.235 2.097 1
3.743 -1.121 2.524 0
7.352 -2.174 2.032 1
7.345 -2.152 1.996 1
7.352 -2.14 1.956 1
7.344 -2.131 1.914 1
7.357 -2.133 1.866 1
7.346 -2.133 1.818 1
7.347 -2.143 1.763 0
7.342 -2.154 1.706 1
7.342 -2.173 1.642 0
7.348 -2.196 1.574 1
7.309 -2.209 1.51 1
7.314 -2.238 1.433 1
7.328 -2.273 1.348 0
2.568 -0.808 2.391 0
0.0 -0.0 3.0 0
0.0 -0.0 3.0 0
0.0 -0.0 3.0 0
0.0 -0.0 3.0 0
2.61 -1.092 2.807 14
2.596 -1.05 2.796 23
2.644 -1.035 2.78 22
2.628 -0.996 2.77 11
2.649 -0.972 2.758 12
2.729 -0.972 2.74 11
2.65 -0.916 2.737 1
2.649 -0.89 2.728 11
4.52 -1.479 2.519 33
4.479 -1.43 2.507 1
7.365 -2.298 2.164 0
7.37 -2.256 2.134 0
7.359 -2.212 2.106 1
7.356 -2.179 2.075 1
7.352 -2.151 2.042 1
7.349 -2.131 2.006 1
7.356 -2.118 1.967 1
7.348 -2.109 1.925 1
7.342 -2.107 1.88 1
7.338 -2.109 1.831 1
7.335 -2.118 1.777 0
7.342 -2.133 1.718 1
7.346 -2.153 1.654 0
7.344 -2.174 1.588 0
7.321 -2.194 1.52 1
7.318 -2.221 1.445 1
7.324 -2.254 1.362 1
0.0 -0.0 3.0 0
0.0 -0.0 3.0 0
0.0 -0.0 3.0 0
0.0 -0.0 3.0 0
0.0 -0.0 3.0 0
2.62 -1.089 2.808 15
2.614 -1.05 2.796 16
2.654 -1.031 2.781 15
2.646 -0.995 2.77 11
2.67 -0.973 2.757 11
2.746 -0.97 2.74 9
2.652 -0.909 2.739 7
2.648 -0.882 2.73 9
2.665 -0.864 2.719 0
4.503 -1.424 2.51 3
7.368 -2.276 2.172 0
7.362 -2.23 2.144 1
3.98 -1.184 2.522 0
3.815 -1.118 2.525 0
7.356 -2.128 2.052 1
7.36 -2.111 2.016 1
7.348 -2.093 1.979 1
7.344 -2.085 1.937 1
7.346 -2.085 1.891 1
7.345 -2.089 1.842 0
7.346 -2.1 1.788 0
7.341 -2.112 1.731 0
7.342 -2.132 1.668 0
7.351 -2.157 1.599 0
7.324 -2.176 1.533 1
7.318 -2.203 1.458 1
7.32 -2.235 1.376 1
0.0 -0.0 3.0 0
0.0 -0.0 3.0 0
0.0 -0.0 3.0 0
0.0 -0.0 3.0 0
0.0 -0.0 3.0 0
2.634 -1.087 2.808 17
2.631 -1.049 2.796 15
2.668 -1.029 2.781 13
2.66 -0.993 2.771 12
2.691 -0.972 2.758 10
2.749 -0.962 2.742 5
2.659 -0.903 2.741 7
2.651 -0.875 2.732 4
2.645 -0.85 2.724 6
4.515 -1.414 2.513 14
7.356 -2.249 2.181 1
7.362 -2.206 2.153 1
7.358 -2.165 2.125 1
3.892 -1.128 2.521 0
7.352 -2.105 2.063 1
7.341 -2.083 2.029 0
7.351 -2.072 1.99 1
7.351 -2.065 1.948 1
7.341 -2.063 1.903 1
7.353 -2.07 1.853 0
7.334 -2.075 1.802 1
7.349 -2.093 1.742 0
7.349 -2.114 1.679 0
7.34 -2.134 1.614 0
7.343 -2.162 1.542 1
7.318 -2.183 1.471 1
7.323 -2.219 1.388 1
2.632 -0.809 2.39 0
0.0 -0.0 3.0 0
0.0 -0.0 3.0 0
0.0 -0.0 3.0 0
0.0 -0.0 3.0 0
2.64 -1.083 2.809 13
2.641 -1.046 2.797 21
2.678 -1.026 2.782 12
2.662 -0.986 2.772 6
2.687 -0.963 2.76 6
2.755 -0.956 2.744 4
2.665 -0.897 2.743 1
2.646 -0.865 2.735 9
2.648 -0.842 2.726 3
4.519 -1.401 2.518 31
4.245 -1.285 2.532 0
7.354 -2.182 2.163 1
7.346 -2.139 2.136 1
3.953 -1.134 2.519 0
7.359 -2.084 2.072 1
7.356 -2.064 2.038 1
7.351 -2.048 2.001 1
7.347 -2.042 1.96 1
7.345 -2.041 1.915 1
7.352 -2.048 1.865 1
7.349 -2.058 1.812 1
7.341 -2.071 1.756 1
7.345 -2.092 1.693 0
7.358 -2.119 1.624 0
7.346 -2.144 1.554 0
2.784 -0.824 2.423 0
7.319 -2.199 1.402 1
7.32 -2.234 1.317 1
0.0 -0.0 3.0 0
0.0 -0.0 3.0 0
0.0 -0.0 3.0 0
0.0 -0.0 3.0 0
2.669 -1.087 2.808 12
2.662 -1.048 2.796 12
2.699 -1.026 2.782 22
2.661 -0.978 2.774 5
2.682 -0.954 2.762 6
2.739 -0.943 2.747 1
5.181 -1.729 2.504 7
2.656 -0.861 2.737 11
2.643 -0.832 2.73 1
4.524 -1.389 2.522 5
4.268 -1.278 2.535 0
4.369 -1.282 2.508 0
4.133 -1.191 2.519 0
3.979 -1.128 2.521 0
7.354 -2.059 2.083 1
7.347 -2.038 2.05 1
7.354 -2.027 2.011 1
7.343 -2.018 1.972 1
7.352 -2.021 1.925 1
7.355 -2.027 1.877 0
7.345 -2.036 1.824 1
7.348 -2.052 1.767 1
7.352 -2.074 1.704 0
7.369 -2.103 1.635 0
7.342 -2.123 1.568 0
7.328 -2.15 1.494 1
7.319 -2.182 1.415 1
7.319 -2.217 1.329 1
0.0 -0.0 3.0 0
0.0 -0.0 3.0 0
0.0 -0.0 3.0 0
0.0 -0.0 3.0 0
2.656 -1.075 2.81 7
2.665 -1.041 2.798 11
2.698 -1.019 2.783 11
2.671 -0.974 2.775 4
2.695 -0.951 2.763 4
5.284 -1.803 2.517 7
5.182 -1.713 2.509 5
2.658 -0.854 2.739 8
2.642 -0.825 2.732 1
4.532 -1.377 2.526 4
4.345 -1.288 2.531 0
4.45 -1.292 2.504 1
4.195 -1.195 2.517 0
4.01 -1.125 2.523 0
3.889 -1.076 2.521 0
7.354 -2.017 2.059 1
7.353 -2.004 2.022 1
7.35 -1.998 1.982 1
7.347 -1.998 1.938 1
7.347 -2.004 1.889 0
7.341 -2.013 1.838 1
7.347 -2.031 1.78 1
7.34 -2.051 1.719 0
7.365 -2.083 1.648 0
7.338 -2.104 1.581 0
7.335 -2.134 1.506 1
7.326 -2.166 1.426 1
7.326 -2.202 1.34 1
0.0 -0.0 3.0 0
0.0 -0.0 3.0 0
0.0 -0.0 3.0 0
0.0 -0.0 3.0 0
2.666 -1.072 2.811 8
2.697 -1.047 2.796 21
2.712 -1.016 2.784 5
2.689 -0.973 2.775 4
2.754 -0.964 2.76 2
5.372 -1.817 2.513 7
5.217 -1.71 2.51 13
2.672 -0.85 2.74 0
2.648 -0.818 2.734 2
4.589 -1.381 2.525 1
4.448 -1.305 2.525 2
4.5 -1.292 2.504 5
4.256 -1.199 2.516 0
7.357 -2.04 2.134 1
7.353 -2.013 2.104 1
7.35 -1.993 2.071 1
7.353 -1.981 2.034 1
7.349 -1.976 1.993 1
7.354 -1.978 1.948 1
7.35 -1.982 1.901 1
7.34 -1.992 1.85 1
7.35 -2.012 1.791 1
7.347 -2.033 1.73 0
7.364 -2.063 1.661 0
7.345 -2.087 1.592 0
7.346 -2.119 1.516 0
7.322 -2.147 1.44 1
7.314 -2.181 1.356 1
0.0 -0.0 3.0 0
0.0 -0.0 3.0 0
0.0 -0.0 3.0 0
0.0 -0.0 3.0 0
2.658 -1.062 2.813 7
2.673 -1.031 2.8 11
2.726 -1.014 2.784 4
4.872 -1.749 2.596 9
2.746 -0.952 2.763 1
5.43 -1.821 2.512 9
5.222 -1.696 2.514 9
2.656 -0.837 2.744 0
2.658 -0.813 2.736 2
4.773 -1.421 2.511 0
4.475 -1.299 2.527 6
4.516 -1.283 2.508 9
4.325 -1.205 2.513 0
4.159 -1.141 2.516 0
4.008 -1.085 2.517 0
3.855 -1.033 2.518 0
7.348 -1.958 2.045 1
7.348 -1.953 2.005 1
7.346 -1.954 1.961 1
7.35 -1.961 1.913 1
7.354 -1.975 1.86 1
7.346 -1.99 1.805 1
7.346 -2.013 1.742 0
7.363 -2.043 1.673 0
7.344 -2.068 1.605 0
7.334 -2.098 1.531 0
7.336 -2.135 1.449 1
7.321 -2.167 1.367 1
0.0 -0.0 3.0 0
0.0 -0.0 3.0 0
0.0 -0.0 3.0 0
0.0 -0.0 3.0 0
2.708 -1.075 2.81 2
2.706 -1.036 2.799 4
2.736 -1.01 2.785 7
4.906 -1.748 2.596 5
2.748 -0.946 2.764 0
5.461 -1.817 2.513 5
5.303 -1.708 2.51 8
5.183 -1.618 2.505 5
2.679 -0.811 2.736 0
4.911 -1.447 2.502 0
4.506 -1.294 2.529 3
4.524 -1.271 2.512 38
4.433 -1.221 2.507 1
4.194 -1.137 2.517 0
4.046 -1.082 2.518 0
3.92 -1.039 2.516 0
7.355 -1.937 2.055 1
7.351 -1.931 2.016 1
7.345 -1.932 1.973 1
7.353 -1.941 1.924 1
7.346 -1.952 1.873 1
7.345 -1.969 1.817 1
7.345 -1.992 1.755 1
7.351 -2.02 1.688 0
7.343 -2.049 1.618 0
2.948 -0.836 2.415 0
7.343 -2.119 1.46 0
7.321 -2.15 1.38 1
7.322 -2.191 1.288 0
7.324 -2.233 1.192 1
0.0 -0.0 3.0 0
0.0 -0.0 3.0 0
2.729 -1.077 2.81 1
2.719 -1.034 2.799 2
2.734 -1.003 2.787 0
4.933 -1.744 2.597 5
5.192 -1.773 2.558 17
5.493 -1.811 2.515 5
5.383 -1.718 2.508 8
5.207 -1.61 2.508 14
5.165 -1.549 2.497 34
5.08 -1.482 2.49 1
4.579 -1.301 2.527 1
4.52 -1.256 2.518 13
4.502 -1.226 2.505 6
4.286 -1.149 2.512 0
4.096 -1.083 2.518 0
7.347 -1.924 2.103 1
7.354 -1.914 2.067 1
7.346 -1.908 2.028 1
7.344 -1.909 1.985 1
7.344 -1.917 1.938 1
7.345 -1.931 1.885 1
7.344 -1.949 1.829 1
7.348 -1.973 1.767 0
7.362 -2.004 1.699 0
7.346 -2.031 1.63 0
7.332 -2.061 1.557 0
7.35 -2.103 1.472 0
7.32 -2.133 1.392 1
5.24 -1.556 1.784 0
7.324 -2.218 1.204 1
0.0 -0.0 3.0 0
0.0 -0.0 3.0 0
4.285 -1.679 2.704 11
2.74 -1.035 2.799 7
4.712 -1.715 2.635 5
4.964 -1.741 2.598 10
5.219 -1.767 2.559 6
5.524 -1.806 2.516 21
5.472 -1.73 2.504 9
5.227 -1.6 2.511 9
5.174 -1.536 2.501 7
5.126 -1.479 2.491 3
4.656 -1.308 2.524 1
4.536 -1.247 2.521 9
4.51 -1.214 2.51 9
4.359 -1.154 2.51 0
4.169 -1.089 2.515 0
7.354 -1.903 2.113 1
3.88 -0.998 2.513 0
7.349 -1.886 2.039 1
7.347 -1.888 1.996 1
7.343 -1.895 1.949 1
7.352 -1.912 1.896 1
7.347 -1.93 1.841 1
7.359 -1.957 1.777 1
7.357 -1.984 1.711 0
7.341 -2.012 1.643 0
7.339 -2.045 1.568 0
7.353 -2.087 1.484 0
7.342 -2.123 1.4 1
5.241 -1.546 1.792 0
7.319 -2.201 1.217 1
0.0 -0.0 3.0 0
0.0 -0.0 3.0 0
4.297 -1.673 2.705 16
4.499 -1.687 2.672 7
4.743 -1.713 2.636 8
4.972 -1.731 2.6 14
5.258 -1.766 2.56 5
5.548 -1.797 2.518 10
5.731 -1.795 2.485 6
5.308 -1.61 2.508 8
5.186 -1.525 2.505 7
5.162 -1.475 2.492 10
4.714 -1.31 2.523 1
4.547 -1.236 2.526 5
4.514 -1.201 2.515 39
4.452 -1.165 2.506 1
4.188 -1.081 2.519 0
7.349 -1.88 2.123 2
7.352 -1.869 2.089 1
7.348 -1.864 2.05 1
7.35 -1.868 2.007 1
7.353 -1.877 1.96 1
7.335 -1.887 1.911 1
7.346 -1.908 1.853 1
7.354 -1.936 1.79 0
7.352 -1.963 1.725 0
7.344 -1.995 1.655 0
7.345 -2.029 1.579 0
7.344 -2.068 1.498 0
7.341 -2.107 1.413 0
7.319 -2.142 1.326 0
5.246 -1.567 1.731 0
0.0 -0.0 3.0 0
0.0 -0.0 3.0 0
4.3 -1.664 2.707 21
4.439 -1.653 2.679 9
4.747 -1.702 2.638 20
4.995 -1.725 2.602 6
5.293 -1.763 2.56 10
5.568 -1.789 2.521 8
5.862 -1.82 2.478 5
5.396 -1.621 2.504 8
5.21 -1.516 2.507 14
5.159 -1.458 2.498 37
4.868 -1.338 2.513 1
4.74 -1.273 2.511 2
4.525 -1.19 2.519 9
4.498 -1.163 2.506 5
4.276 -1.091 2.514 0
4.111 -1.039 2.516 0
3.949 -0.992 2.516 0
7.347 -1.842 2.062 1
7.36 -1.849 2.017 1
7.348 -1.854 1.972 1
7.349 -1.87 1.921 1
7.356 -1.891 1.864 1
7.353 -1.916 1.803 1
7.343 -1.942 1.739 0
7.335 -1.973 1.669 0
7.341 -2.011 1.592 0
7.354 -2.053 1.508 0
7.377 -2.1 1.417 0
7.311 -2.124 1.34 1
5.251 -1.557 1.739 0
7.336 -2.22 1.137 0
0.0 -0.0 3.0 0
4.315 -1.658 2.708 10
4.526 -1.674 2.675 10
4.751 -1.691 2.641 6
5.034 -1.725 2.602 5
5.301 -1.751 2.563 17
5.603 -1.784 2.522 7
5.894 -1.812 2.48 5
5.473 -1.628 2.502 9
5.241 -1.509 2.51 9
5.178 -1.447 2.502 6
4.991 -1.357 2.506 2
4.863 -1.292 2.504 4
4.529 -1.178 2.524 9
4.509 -1.152 2.511 13
4.365 -1.1 2.51 0
4.138 -1.033 2.518 0
7.353 -1.824 2.11 1
7.345 -1.82 2.073 2
7.359 -1.827 2.029 1
7.351 -1.834 1.983 1
7.344 -1.848 1.933 1
7.343 -1.868 1.877 1
7.348 -1.895 1.816 1
7.354 -1.926 1.749 0
7.349 -1.959 1.679 0
7.339 -1.992 1.605 0
7.342 -2.034 1.523 0
0.0 -0.0 3.0 0
7.336 -2.116 1.347 1
5.225 -1.539 1.754 0
0.0 -0.0 3.0 0
5.169 -1.586 1.621 2
4.338 -1.656 2.708 8
4.552 -1.672 2.675 5
4.782 -1.69 2.641 5
5.064 -1.722 2.602 7
5.329 -1.746 2.565 6
5.627 -1.776 2.524 8
5.933 -1.808 2.482 5
4.297 -1.266 2.613 1
5.318 -1.516 2.507 9
5.179 -1.432 2.507 9
5.134 -1.38 2.498 13
4.925 -1.293 2.504 6
4.537 -1.166 2.529 4
4.513 -1.139 2.516 43
4.469 -1.112 2.505 2
4.215 -1.04 2.515 0
4.087 -1.002 2.511 0
7.348 -1.799 2.084 1
7.357 -1.804 2.041 1
7.342 -1.81 1.997 1
7.343 -1.827 1.945 1
7.35 -1.85 1.888 1
7.35 -1.876 1.828 0
7.356 -1.908 1.761 0
7.341 -1.939 1.692 0
7.342 -1.976 1.617 0
7.344 -2.017 1.535 0
0.0 -0.0 3.0 0
2.85 -0.816 2.363 0
0.0 -0.0 3.0 0
0.0 -0.0 3.0 0
0.0 -0.0 3.0 0
4.39 -1.665 2.706 10
4.593 -1.674 2.675 7
4.447 -1.56 2.668 6
5.076 -1.713 2.605 19
5.367 -1.743 2.565 5
5.659 -1.77 2.526 7
5.961 -1.799 2.484 5
4.251 -1.239 2.621 2
5.407 -1.525 2.504 8
5.21 -1.426 2.509 15
5.158 -1.371 2.501 22
4.983 -1.293 2.504 11
4.657 -1.182 2.523 1
4.525 -1.129 2.521 9
4.508 -1.108 2.507 6
4.296 -1.046 2.512 0
4.113 -0.995 2.515 0
7.343 -1.775 2.096 2
7.364 -1.784 2.051 0
7.352 -1.791 2.007 1
7.349 -1.808 1.956 1
7.352 -1.83 1.9 1
7.353 -1.858 1.839 0
7.351 -1.888 1.774 1
7.347 -1.922 1.703 0
7.348 -1.96 1.628 0
7.351 -2.002 1.546 0
0.0 -0.0 3.0 0
7.33 -2.083 1.372 0
0.0 -0.0 3.0 0
0.0 -0.0 3.0 0
7.323 -2.22 1.07 0
4.397 -1.657 2.708 11
4.612 -1.67 2.675 9
4.827 -1.681 2.643 14
5.099 -1.707 2.606 7
5.406 -1.741 2.566 14
5.686 -1.763 2.528 5
4.266 -1.276 2.634 0
4.296 -1.241 2.621 13
4.31 -1.203 2.609 1
5.245 -1.42 2.511 9
5.177 -1.361 2.505 4
5.107 -1.309 2.497 35
4.827 -1.21 2.511 1
4.533 -1.117 2.526 10
4.515 -1.096 2.512 26
4.388 -1.055 2.508 0
4.148 -0.992 2.516 0
7.349 -1.754 2.106 1
7.343 -1.758 2.065 1
7.35 -1.77 2.019 1
7.34 -1.786 1.969 1
7.343 -1.808 1.914 1
7.363 -1.841 1.85 1
7.365 -1.873 1.784 1
7.342 -1.903 1.716 0
5.957 -1.575 1.897 0
7.353 -1.986 1.557 0
7.342 -2.026 1.473 0
7.344 -2.072 1.381 0
0.0 -0.0 3.0 0
0.0 -0.0 3.0 0
0.0 -0.0 3.0 0
4.404 -1.649 2.709 20
4.627 -1.664 2.677 24
4.858 -1.679 2.643 12
5.126 -1.702 2.607 4
5.418 -1.73 2.569 14
5.721 -1.758 2.529 5
4.243 -1.257 2.639 1
4.243 -1.212 2.629 16
4.314 -1.191 2.613 3
5.334 -1.428 2.508 8
5.182 -1.347 2.51 10
5.134 -1.301 2.501 31
4.939 -1.223 2.506 1
4.548 -1.107 2.53 3
4.515 -1.082 2.518 41
4.489 -1.066 2.503 3
4.225 -0.997 2.514 0
4.072 -0.96 2.511 0
7.345 -1.737 2.076 1
7.341 -1.747 2.031 1
7.35 -1.768 1.979 1
7.349 -1.79 1.925 1
7.361 -1.821 1.862 0
7.356 -1.852 1.797 1
7.348 -1.887 1.727 1
5.947 -1.559 1.909 1
5.882 -1.576 1.855 0
7.352 -2.013 1.483 0
7.338 -2.055 1.394 0
0.0 -0.0 3.0 0
0.0 -0.0 3.0 0
0.0 -0.0 3.0 0
4.416 -1.642 2.71 11
4.646 -1.66 2.677 11
4.888 -1.677 2.644 5
4.384 -1.445 2.667 6
5.445 -1.725 2.57 5
5.76 -1.755 2.53 5
4.258 -1.249 2.642 10
4.234 -1.199 2.634 14
4.313 -1.179 2.617 14
5.416 -1.434 2.506 8
5.213 -1.338 2.513 14
5.169 -1.294 2.503 107
5.098 -1.247 2.496 2
4.644 -1.115 2.527 2
4.519 -1.07 2.524 12
4.504 -1.056 2.508 9
4.313 -1.006 2.51 0
4.095 -0.954 2.514 0
7.351 -1.717 2.087 1
7.347 -1.728 2.042 1
7.348 -1.746 1.992 1
7.34 -1.768 1.938 1
7.356 -1.801 1.875 0
7.354 -1.833 1.81 1
7.354 -1.871 1.738 1
5.933 -1.541 1.921 1
5.792 -1.538 1.882 1
7.343 -1.995 1.497 0
7.337 -2.04 1.407 0
0.0 -0.0 3.0 0
0.0 -0.0 3.0 0
0.0 -0.0 3.0 0
4.427 -1.636 2.712 8
4.672 -1.658 2.678 6
4.926 -1.677 2.643 5
5.15 -1.684 2.611 21
4.392 -1.38 2.656 0
4.28 -1.293 2.654 0
4.231 -1.229 2.648 14
4.223 -1.183 2.638 16
4.294 -1.161 2.623 12
5.486 -1.436 2.506 9
5.263 -1.336 2.514 10
5.174 -1.28 2.509 38
5.133 -1.24 2.499 3
4.838 -1.147 2.513 1
4.522 -1.057 2.529 12
4.511 -1.044 2.513 40
4.402 -1.013 2.506 1
4.191 -0.964 2.509 0
3.998 -0.922 2.51 0
7.345 -1.707 2.054 2
7.35 -1.727 2.003 1
7.35 -1.75 1.948 1
7.354 -1.782 1.887 1
7.356 -1.815 1.821 1
7.34 -1.85 1.752 1
5.93 -1.526 1.931 1
5.793 -1.525 1.892 0
6.019 -1.622 1.778 0
7.335 -2.024 1.419 0
0.0 -0.0 3.0 0
0.0 -0.0 3.0 0
0.0 -0.0 3.0 0
4.475 -1.643 2.71 8
4.702 -1.657 2.678 7
4.964 -1.678 2.643 9
5.199 -1.686 2.611 8
5.515 -1.718 2.572 20
4.268 -1.277 2.658 1
4.211 -1.212 2.652 14
4.214 -1.169 2.643 13
4.278 -1.145 2.628 13
5.502 -1.424 2.51 0
5.345 -1.341 2.512 9
5.185 -1.266 2.514 14
5.164 -1.232 2.502 28
4.97 -1.163 2.506 1
4.557 -1.051 2.532 2
4.519 -1.031 2.519 32
4.503 -1.022 2.502 5
4.214 -0.956 2.513 0
4.075 -0.928 2.506 0
7.347 -1.687 2.065 2
7.345 -1.705 2.016 1
7.348 -1.731 1.96 1
7.348 -1.762 1.899 1
7.358 -1.798 1.833 1
7.346 -1.834 1.763 1
5.927 -1.512 1.941 1
5.778 -1.509 1.903 0
6.012 -1.607 1.789 0
7.33 -2.008 1.431 0
0.0 -0.0 3.0 0
0.0 -0.0 3.0 0
0.0 -0.0 3.0 0
4.501 -1.642 2.711 11
4.732 -1.655 2.678 8
4.964 -1.667 2.646 22
5.245 -1.688 2.61 5
4.376 -1.352 2.663 4
4.275 -1.268 2.66 6
4.195 -1.196 2.657 22
4.198 -1.153 2.648 20
4.27 -1.13 2.633 15
6.575 -1.683 2.421 35
5.426 -1.345 2.511 9
5.213 -1.258 2.517 13
5.16 -1.216 2.509 16
5.121 -1.183 2.498 3
4.681 -1.065 2.526 1
4.518 -1.018 2.525 13
4.51 -1.01 2.507 11
4.337 -0.971 2.505 0
7.349 -1.653 2.121 2
7.341 -1.664 2.077 2
7.347 -1.685 2.027 1
7.346 -1.711 1.972 1
7.346 -1.742 1.911 1
7.364 -1.781 1.843 1
7.341 -1.815 1.776 1
5.924 -1.498 1.951 1
5.749 -1.489 1.918 0
7.345 -1.948 1.532 0
0.0 -0.0 3.0 0
0.0 -0.0 3.0 0
0.0 -0.0 3.0 0
0.0 -0.0 3.0 0
4.512 -1.635 2.712 19
4.74 -1.646 2.68 23
4.991 -1.662 2.647 7
5.276 -1.684 2.611 6
4.368 -1.338 2.667 2
4.263 -1.253 2.664 13
4.191 -1.183 2.661 16
4.194 -1.139 2.652 20
4.254 -1.114 2.638 21
6.542 -1.655 2.43 36
5.496 -1.346 2.51 9
5.279 -1.258 2.517 10
5.172 -1.203 2.514 9
5.148 -1.174 2.502 4
4.863 -1.092 2.514 1
4.518 -1.004 2.532 16
4.517 -0.999 2.513 54
4.434 -0.98 2.501 1
4.193 -0.931 2.505 0
7.339 -1.643 2.089 2
7.348 -1.666 2.038 2
7.355 -1.693 1.983 1
7.352 -1.725 1.922 1
7.35 -1.759 1.857 1
7.354 -1.8 1.786 1
5.913 -1.482 1.962 1
5.982 -1.537 1.884 0
7.351 -1.935 1.542 0
0.0 -0.0 3.0 0
0.0 -0.0 3.0 0
0.0 -0.0 3.0 0
0.0 -0.0 3.0 0
4.519 -1.628 2.713 18
4.755 -1.64 2.681 9
5.025 -1.661 2.647 5
5.288 -1.675 2.613 25
5.592 -1.699 2.577 5
4.274 -1.244 2.667 9
4.19 -1.172 2.664 17
4.19 -1.126 2.656 28
4.253 -1.101 2.642 21
6.528 -1.633 2.438 38
6.589 -1.594 2.42 19
5.356 -1.26 2.516 9
5.191 -1.191 2.519 15
5.16 -1.16 2.507 39
5.003 -1.108 2.507 1
4.576 -1.003 2.532 2
4.521 -0.986 2.519 22
4.499 -0.981 2.5 7
4.278 -0.938 2.501 0
7.345 -1.624 2.1 2
7.35 -1.646 2.05 1
7.342 -1.671 1.996 1
7.338 -1.703 1.936 1
3.561 -0.844 2.452 0
5.981 -1.451 2.022 0
5.918 -1.47 1.971 1
5.964 -1.518 1.897 0
5.874 -1.534 1.844 0
6.362 -1.705 1.668 0
0.0 -0.0 3.0 0
0.0 -0.0 3.0 0
0.0 -0.0 3.0 0
4.538 -1.624 2.714 8
4.777 -1.637 2.682 6
5.055 -1.659 2.647 5
5.314 -1.67 2.614 8
5.623 -1.693 2.578 25
4.273 -1.233 2.67 13
4.186 -1.159 2.668 16
4.197 -1.117 2.659 36
4.268 -1.093 2.645 17
6.529 -1.613 2.444 33
6.579 -1.572 2.428 40
5.442 -1.264 2.515 9
5.219 -1.182 2.523 11
5.176 -1.149 2.512 12
5.12 -1.119 2.502 4
4.684 -1.013 2.528 1
4.52 -0.973 2.526 15
4.51 -0.97 2.506 17
4.347 -0.94 2.5 0
4.172 -0.911 2.495 0
7.344 -1.625 2.062 1
7.347 -1.653 2.007 1
7.352 -1.687 1.946 1
6.283 -1.473 2.043 0
5.971 -1.433 2.033 1
5.903 -1.453 1.983 1
5.8 -1.464 1.936 0
6.365 -1.649 1.757 0
6.363 -1.693 1.677 0
0.0 -0.0 3.0 0
0.0 -0.0 3.0 0
0.0 -0.0 3.0 0
4.567 -1.624 2.714 7
4.819 -1.64 2.681 6
5.074 -1.653 2.649 24
5.345 -1.667 2.615 5
5.647 -1.686 2.58 8
4.277 -1.222 2.673 13
4.181 -1.147 2.671 17
4.196 -1.105 2.662 28
4.263 -1.08 2.649 18
6.843 -1.672 2.424 53
6.541 -1.544 2.438 44
5.516 -1.265 2.514 8
5.281 -1.18 2.523 9
5.172 -1.132 2.519 11
5.151 -1.109 2.506 8
4.879 -1.04 2.515 1
4.52 -0.958 2.533 20
4.518 -0.959 2.511 78
4.467 -0.954 2.493 1
4.183 -0.902 2.5 0
7.342 -1.604 2.074 1
7.357 -1.636 2.017 1
7.342 -1.666 1.959 1
6.288 -1.459 2.052 0
5.806 -1.38 2.069 0
5.915 -1.442 1.99 1
5.766 -1.444 1.951 1
6.26 -1.609 1.788 0
6.353 -1.677 1.69 0
0.0 -0.0 3.0 0
0.0 -0.0 3.0 0
0.0 -0.0 3.0 0
4.601 -1.625 2.713 10
4.849 -1.64 2.681 13
5.085 -1.645 2.65 9
5.383 -1.665 2.616 7
5.685 -1.683 2.58 5
4.245 -1.203 2.678 16
4.184 -1.136 2.674 19
4.199 -1.095 2.665 24
4.27 -1.069 2.653 17
7.352 -1.775 2.389 26
6.534 -1.523 2.446 43
6.577 -1.489 2.429 25
5.366 -1.183 2.522 9
5.203 -1.123 2.523 17
5.162 -1.097 2.512 53
5.023 -1.056 2.508 1
4.586 -0.959 2.532 2
4.521 -0.947 2.518 17
4.506 -0.949 2.496 11
4.318 -0.918 2.491 0
4.122 -0.889 2.487 0
7.358 -1.617 2.029 1
3.817 -0.856 2.465 0
6.285 -1.443 2.063 0
5.802 -1.366 2.078 1
6.522 -1.576 1.896 0
5.759 -1.429 1.962 1
6.226 -1.588 1.804 0
6.255 -1.639 1.719 0
0.0 -0.0 3.0 0
0.0 -0.0 3.0 0
0.0 -0.0 3.0 0
4.627 -1.624 2.714 21
4.844 -1.627 2.684 22
5.119 -1.644 2.651 5
5.399 -1.657 2.617 25
5.724 -1.681 2.581 10
4.237 -1.189 2.681 14
4.183 -1.125 2.677 22
4.202 -1.084 2.669 24
4.277 -1.06 2.656 25
4.367 -1.042 2.641 0
6.531 -1.504 2.453 28
6.574 -1.469 2.436 45
5.444 -1.184 2.522 9
5.222 -1.112 2.528 10
5.17 -1.082 2.518 11
5.139 -1.065 2.503 5
4.686 -0.966 2.529 1
4.516 -0.933 2.525 17
4.505 -0.936 2.502 30
4.384 -0.92 2.49 0
7.349 -1.566 2.096 2
7.363 -1.599 2.039 1
3.893 -0.864 2.46 0
6.297 -1.431 2.071 0
5.807 -1.354 2.087 1
6.515 -1.56 1.907 0
3.383 -0.833 2.395 0
6.368 -1.611 1.786 1
6.298 -1.638 1.72 0
0.0 -0.0 3.0 0
0.0 -0.0 3.0 0
0.0 -0.0 3.0 0
4.63 -1.615 2.715 19
4.871 -1.624 2.684 7
5.153 -1.643 2.651 5
5.425 -1.652 2.619 7
5.736 -1.669 2.584 18
4.22 -1.174 2.685 15
4.186 -1.115 2.68 26
4.205 -1.074 2.672 23
4.308 -1.055 2.657 17
4.378 -1.032 2.645 1
6.952 -1.58 2.425 51
6.532 -1.44 2.447 51
5.503 -1.18 2.523 4
5.288 -1.11 2.529 10
5.166 -1.066 2.525 12
5.151 -1.052 2.509 12
4.904 -0.996 2.514 0
4.524 -0.92 2.531 19
4.516 -0.925 2.508 97
4.476 -0.927 2.486 2
7.346 -1.547 2.107 2
7.353 -1.577 2.052 1
7.342 -1.611 1.993 1
6.286 -1.413 2.082 0
5.811 -1.342 2.095 1
6.516 -1.546 1.918 0
5.748 -1.403 1.98 1
6.354 -1.595 1.798 2
7.34 -1.896 1.519 1
0.0 -0.0 3.0 0
0.0 -0.0 3.0 0
0.0 -0.0 3.0 0
4.645 -1.61 2.716 8
4.897 -1.622 2.685 6
5.18 -1.639 2.652 20
5.467 -1.652 2.619 5
5.77 -1.665 2.585 5
4.227 -1.165 2.688 15
4.182 -1.102 2.684 41
4.208 -1.062 2.675 25
4.338 -1.05 2.659 17
4.389 -1.022 2.648 4
7.353 -1.65 2.4 27
6.525 -1.42 2.455 46
6.571 -1.39 2.438 40
5.374 -1.111 2.528 9
5.205 -1.059 2.529 20
5.162 -1.039 2.516 64
5.052 -1.012 2.507 1
4.55 -0.912 2.535 4
4.519 -0.913 2.515 16
4.503 -0.921 2.49 21
4.321 -0.898 2.482 0
7.347 -1.557 2.065 1
3.976 -0.863 2.461 0
6.271 -1.395 2.094 0
5.827 -1.332 2.102 0
6.475 -1.522 1.934 0
5.737 -1.388 1.991 1
6.305 -1.57 1.817 1
6.364 -1.631 1.726 0
0.0 -0.0 3.0 0
0.0 -0.0 3.0 0
0.0 -0.0 3.0 0
4.674 -1.611 2.716 7
4.938 -1.625 2.684 7
5.187 -1.63 2.654 12
5.502 -1.649 2.619 10
5.809 -1.662 2.586 4
4.222 -1.153 2.691 15
4.192 -1.094 2.686 22
4.211 -1.052 2.678 22
4.337 -1.038 2.663 16
4.396 -1.011 2.652 3
7.358 -1.63 2.407 22
6.538 -1.403 2.461 27
6.572 -1.37 2.446 47
5.452 -1.112 2.528 9
5.228 -1.048 2.534 10
5.166 -1.024 2.522 11
5.146 -1.015 2.505 8
4.6 -0.909 2.537 2
4.518 -0.9 2.522 18
4.51 -0.909 2.496 65
4.418 -0.907 2.477 1
7.352 -1.539 2.075 1
7.345 -1.575 2.016 1
3.869 -0.852 2.447 0
5.834 -1.321 2.109 0
5.998 -1.397 2.022 1
5.867 -1.408 1.977 1
5.927 -1.464 1.897 1
6.361 -1.619 1.735 0
0.0 -0.0 3.0 0
0.0 -0.0 3.0 0
0.0 -0.0 3.0 0
4.711 -1.613 2.716 10
4.957 -1.62 2.685 22
5.229 -1.631 2.653 5
5.513 -1.639 2.622 20
5.84 -1.657 2.587 20
4.221 -1.142 2.694 16
4.195 -1.084 2.689 22
4.21 -1.04 2.682 30
4.305 -1.018 2.669 16
4.375 -0.994 2.658 6
7.359 -1.609 2.414 28
7.279 -1.541 2.409 28
6.526 -1.342 2.458 52
5.51 -1.107 2.53 4
5.306 -1.047 2.534 10
5.169 -1.01 2.529 20
5.161 -1.003 2.511 21
4.693 -0.914 2.534 0
4.533 -0.89 2.527 14
4.521 -0.899 2.502 123
4.487 -0.909 2.475 4
4.234 -0.876 2.474 0
7.354 -1.56 2.025 1
5.978 -1.302 2.155 1
5.831 -1.307 2.118 1
5.96 -1.376 2.037 0
3.546 -0.843 2.387 0
6.39 -1.567 1.82 0
6.361 -1.607 1.744 0
7.355 -1.914 1.45 1
0.0 -0.0 3.0 0
0.0 -0.0 3.0 0
4.733 -1.61 2.716 19
4.967 -1.613 2.687 14
5.263 -1.629 2.654 5
5.54 -1.634 2.623 7
5.855 -1.647 2.589 7
4.228 -1.134 2.696 16
4.206 -1.076 2.691 21
4.216 -1.031 2.685 20
4.273 -1.0 2.675 16
4.394 -0.986 2.66 9
7.36 -1.588 2.422 23
7.358 -1.536 2.41 30
6.526 -1.322 2.466 52
6.57 -1.3 2.448 56
5.38 -1.046 2.534 10
5.212 -1.002 2.533 17
5.168 -0.989 2.517 62
4.806 -0.923 2.53 0
4.622 -0.894 2.525 14
4.516 -0.886 2.509 18
4.513 -0.902 2.479 72
4.358 -0.89 2.465 0
4.104 -0.86 2.462 0
3.979 -0.857 2.443 0
3.825 -0.848 2.428 0
5.833 -1.334 2.066 0
6.252 -1.475 1.929 0
6.291 -1.53 1.847 1
6.438 -1.615 1.739 0
6.369 -1.647 1.667 0
0.0 -0.0 3.0 0
0.0 -0.0 3.0 0
4.725 -1.598 2.718 19
4.99 -1.609 2.687 6
5.289 -1.625 2.655 16
5.578 -1.633 2.623 5
5.905 -1.646 2.59 4
4.235 -1.125 2.699 19
4.208 -1.066 2.694 21
4.239 -1.024 2.687 21
4.283 -0.99 2.678 17
4.412 -0.978 2.663 11
7.358 -1.567 2.43 30
7.355 -1.514 2.419 25
6.542 -1.306 2.472 21
6.574 -1.281 2.456 59
5.465 -1.046 2.534 9
5.231 -0.991 2.538 10
5.168 -0.974 2.525 12
4.876 -0.921 2.531 0
4.77 -0.909 2.516 8
4.519 -0.874 2.515 16
4.512 -0.89 2.486 239
4.47 -0.902 2.458 2
4.169 -0.864 2.46 0
4.024 -0.858 2.443 0
3.867 -0.849 2.427 0
5.802 -1.314 2.08 1
3.639 -0.851 2.382 0
6.414 -1.548 1.834 0
6.431 -1.601 1.749 0
6.373 -1.637 1.675 0
0.0 -0.0 3.0 0
0.0 -0.0 3.0 0
4.751 -1.597 2.718 8
5.027 -1.61 2.687 6
5.296 -1.616 2.657 14
5.62 -1.632 2.623 15
5.94 -1.642 2.591 16
4.238 -1.116 2.701 21
4.219 -1.058 2.697 24
4.249 -1.017 2.689 20
4.325 -0.988 2.679 17
4.396 -0.963 2.669 14
7.362 -1.547 2.437 24
7.36 -1.493 2.427 31
7.278 -1.431 2.422 31
6.528 -1.253 2.468 60
5.508 -1.038 2.538 2
5.309 -0.99 2.539 10
5.171 -0.959 2.532 32
4.937 -0.919 2.532 0
4.851 -0.911 2.515 8
4.537 -0.865 2.52 8
4.519 -0.88 2.492 255
4.508 -0.898 2.46 10
7.349 -1.505 2.06 2
4.073 -0.859 2.442 0
3.927 -0.854 2.424 0
3.781 -0.849 2.406 0
6.172 -1.431 1.96 2
6.131 -1.468 1.894 2
6.5 -1.606 1.745 0
6.374 -1.626 1.683 0
7.351 -1.933 1.378 1
0.0 -0.0 3.0 0
4.788 -1.6 2.718 8
5.065 -1.612 2.687 12
5.323 -1.612 2.657 5
5.623 -1.62 2.626 16
5.963 -1.634 2.593 8
4.256 -1.11 2.703 14
4.225 -1.049 2.699 22
4.26 -1.008 2.692 18
4.32 -0.975 2.683 15
4.395 -0.95 2.673 9
7.363 -1.526 2.445 29
7.361 -1.472 2.435 24
7.349 -1.424 2.425 29
6.524 -1.233 2.477 62
6.57 -1.218 2.458 63
5.395 -0.99 2.539 10
5.21 -0.951 2.536 16
5.117 -0.937 2.522 1
4.925 -0.911 2.515 8
4.595 -0.864 2.521 7
4.526 -0.869 2.499 37
4.511 -0.887 2.467 168
4.365 -0.884 2.448 0
6.16 -1.284 2.166 0
3.964 -0.854 2.424 0
3.845 -0.855 2.401 0
6.333 -1.456 1.942 1
6.142 -1.459 1.901 2
6.527 -1.602 1.749 0
6.431 -1.629 1.681 0
7.36 -1.923 1.386 0
0.0 -0.0 3.0 0
4.814 -1.598 2.718 10
5.056 -1.598 2.689 20
5.36 -1.612 2.657 4
5.658 -1.617 2.627 5
6.009 -1.634 2.593 4
4.27 -1.103 2.704 14
4.236 -1.041 2.702 27
4.282 -1.001 2.694 32
4.362 -0.973 2.684 13
4.347 -0.927 2.681 26
4.342 -0.887 2.677 4
7.362 -1.451 2.443 31
7.358 -1.404 2.433 26
6.555 -1.219 2.482 24
6.566 -1.198 2.467 65
5.465 -0.986 2.54 9
5.248 -0.943 2.54 11
5.183 -0.935 2.524 1
5.03 -0.917 2.512 10
4.821 -0.894 2.505 2
4.517 -0.856 2.506 23
4.51 -0.876 2.474 255
4.442 -0.889 2.445 1
4.183 -0.863 2.44 0
4.017 -0.856 2.423 0
3.878 -0.854 2.402 0
5.729 -1.306 2.051 1
6.269 -1.477 1.887 2
6.512 -1.586 1.761 0
6.469 -1.628 1.682 0
6.376 -1.656 1.611 0
0.0 -0.0 3.0 0
4.84 -1.597 2.718 23
5.086 -1.597 2.69 6
5.39 -1.61 2.658 16
5.696 -1.615 2.627 5
6.055 -1.632 2.593 14
4.288 -1.097 2.706 14
4.242 -1.032 2.704 17
4.3 -0.995 2.696 22
4.364 -0.962 2.688 10
4.342 -0.914 2.685 22
4.341 -0.875 2.682 4
7.362 -1.43 2.451 27
7.355 -1.382 2.442 31
7.313 -1.339 2.432 31
6.527 -1.171 2.478 66
5.523 -0.981 2.543 1
5.322 -0.94 2.541 10
5.206 -0.924 2.529 12
5.127 -0.921 2.511 23
4.981 -0.909 2.496 4
4.551 -0.85 2.509 6
4.512 -0.865 2.48 255
4.503 -0.89 2.444 4
5.923 -1.208 2.216 1
4.078 -0.86 2.42 0
3.935 -0.859 2.399 0
5.733 -1.296 2.059 1
6.1 -1.426 1.926 1
6.378 -1.543 1.795 0
6.523 -1.631 1.679 0
6.376 -1.645 1.619 0
7.344 -1.955 1.3 1
4.85 -1.591 2.719 17
5.124 -1.598 2.689 6
5.405 -1.603 2.659 15
5.726 -1.611 2.628 28
6.062 -1.62 2.596 17
4.302 -1.091 2.708 14
4.26 -1.026 2.706 16
4.326 -0.99 2.697 27
4.363 -0.95 2.691 8
4.348 -0.904 2.689 4
4.348 -0.864 2.686 20
7.359 -1.408 2.46 22
7.359 -1.361 2.45 26
7.349 -1.324 2.438 33
6.523 -1.151 2.487 66
6.571 -1.146 2.465 70
5.404 -0.94 2.542 10
5.213 -0.911 2.536 19
5.162 -0.912 2.515 131
5.054 -0.909 2.496 7
4.648 -0.856 2.506 5
4.515 -0.854 2.487 48
4.514 -0.881 2.449 44
4.329 -0.874 2.433 0
6.226 -1.3 2.123 1
3.976 -0.86 2.398 0
3.836 -0.859 2.376 0
5.969 -1.385 1.957 2
6.172 -1.482 1.842 2
6.523 -1.621 1.688 0
6.422 -1.648 1.618 0
7.368 -1.95 1.305 0
4.872 -1.588 2.72 7
5.165 -1.6 2.689 8
5.435 -1.6 2.66 5
5.745 -1.604 2.63 10
6.093 -1.614 2.598 7
4.316 -1.084 2.71 19
4.286 -1.022 2.707 13
4.356 -0.986 2.699 16
4.42 -0.951 2.691 6
4.347 -0.892 2.693 2
4.346 -0.852 2.69 20
7.371 -1.39 2.467 29
7.356 -1.339 2.459 34
7.357 -1.303 2.447 28
6.59 -1.143 2.491 25
6.559 -1.126 2.475 69
5.474 -0.935 2.544 9
5.259 -0.904 2.539 11
5.157 -0.897 2.523 41
5.077 -0.899 2.501 44
3.163 -0.575 2.668 1
4.514 -0.843 2.493 27
4.517 -0.871 2.456 192
4.432 -0.884 2.426 0
4.188 -0.866 2.416 0
4.025 -0.862 2.396 0
3.888 -0.863 2.373 0
5.973 -1.374 1.964 1
6.153 -1.467 1.854 4
6.535 -1.613 1.694 0
6.463 -1.648 1.617 0
0.0 -0.0 3.0 0
4.909 -1.591 2.719 8
5.168 -1.591 2.691 31
5.473 -1.599 2.66 5
5.783 -1.603 2.63 4
6.124 -1.608 2.599 6
4.369 -1.087 2.709 3
4.308 -1.017 2.708 17
4.385 -0.982 2.7 18
4.411 -0.938 2.695 1
7.357 -1.489 2.487 25
4.353 -0.841 2.694 4
7.372 -1.368 2.475 33
7.356 -1.318 2.468 25
7.357 -1.282 2.456 33
7.325 -1.25 2.444 30
6.52 -1.099 2.487 81
5.56 -0.934 2.545 1
5.329 -0.9 2.542 10
5.183 -0.887 2.528 30
5.084 -0.888 2.508 61
3.157 -0.565 2.674 2
4.568 -0.842 2.494 5
4.519 -0.861 2.462 66
4.505 -0.888 2.423 4
5.938 -1.215 2.18 2
4.073 -0.865 2.394 0
3.937 -0.868 2.37 0
6.026 -1.376 1.963 1
6.122 -1.449 1.868 2
6.538 -1.603 1.702 0
6.509 -1.649 1.616 0
6.375 -1.669 1.549 1
4.942 -1.592 2.719 11
5.19 -1.587 2.691 11
5.514 -1.6 2.66 19
5.825 -1.601 2.63 9
