# .PCD v0.7 - Point Cloud Data file format
VERSION 0.7
FIELDS x y z intensity
SIZE 4 4 4 4
TYPE F F F F
COUNT 1 1 1 1
WIDTH 2082
HEIGHT 1
VIEWPOINT 0 0 0 1 0 0 0
POINTS 2082
DATA ascii
10.099 -6.286 0.46 21
9.676 -5.963 0.469 35
9.564 -5.84 0.4 30
10.035 -6.075 0.167 32
25.233 -15.155 -4.392 4
24.0 -14.306 -4.289 27
22.912 -13.562 -4.211 27
21.915 -12.894 -4.147 5
20.989 -12.277 -4.088 6
20.13 -11.716 -4.04 7
19.309 -11.185 -3.989 8
18.537 -10.696 -3.946 16
17.856 -10.263 -3.923 17
17.129 -9.815 -3.873 5
16.425 -9.384 -3.818 13
15.788 -8.999 -3.781 13
15.164 -8.623 -3.737 12
14.592 -8.28 -3.705 11
14.047 -7.959 -3.678 16
13.53 -7.653 -3.653 14
10.18 -7.498 1.678 27
10.988 -7.966 1.451 16
9.998 -7.134 1.484 22
9.946 -6.991 1.386 24
9.801 -6.786 1.308 29
9.698 -6.621 1.226 21
12.49 -8.408 0.589 32
10.313 -6.849 0.906 2
11.433 -7.498 0.564 3
10.207 -6.612 0.723 21
11.703 -7.497 0.271 14
10.024 -6.347 0.564 36
10.137 -6.353 0.433 28
9.642 -5.983 0.46 31
9.491 -5.836 0.402 24
10.001 -6.095 0.158 30
25.073 -15.162 -4.395 4
23.847 -14.312 -4.292 30
22.768 -13.568 -4.214 27
21.793 -12.908 -4.155 6
20.876 -12.292 -4.097 6
20.015 -11.727 -4.046 7
19.2 -11.195 -3.996 14
18.439 -10.708 -3.954 14
17.77 -10.28 -3.934 17
17.041 -9.827 -3.881 5
16.365 -9.408 -3.835 14
15.719 -9.015 -3.794 13
15.106 -8.643 -3.752 13
14.529 -8.294 -3.717 11
13.992 -7.975 -3.692 14
13.466 -7.661 -3.66 13
10.011 -7.417 1.692 23
10.856 -7.917 1.461 27
10.042 -7.209 1.468 25
9.873 -6.982 1.388 26
9.825 -6.846 1.293 31
9.697 -6.662 1.215 18
9.518 -6.448 1.151 2
10.353 -6.921 0.884 4
40.418 -26.681 -5.669 14
10.162 -6.626 0.718 23
11.711 -7.552 0.251 13
9.97 -6.355 0.56 26
9.97 -6.291 0.458 21
9.612 -6.004 0.451 29
9.457 -5.854 0.394 27
9.983 -6.126 0.144 25
24.921 -15.173 -4.4 5
23.707 -14.324 -4.298 29
22.63 -13.577 -4.219 28
21.667 -12.92 -4.162 6
20.762 -12.307 -4.106 6
19.907 -11.741 -4.055 7
19.106 -11.214 -4.008 7
18.337 -10.719 -3.961 20
17.676 -10.291 -3.942 19
16.952 -9.839 -3.889 5
16.291 -9.425 -3.848 13
15.647 -9.03 -3.804 12
15.039 -8.656 -3.763 11
14.466 -8.308 -3.728 14
13.94 -7.993 -3.707 15
13.393 -7.664 -3.663 14
9.974 -7.434 1.689 14
10.121 -7.426 1.556 8
9.943 -7.181 1.474 23
9.749 -6.938 1.398 18
9.746 -6.833 1.296 23
9.589 -6.63 1.224 22
9.39 -6.402 1.164 9
12.006 -8.078 0.53 6
40.197 -26.71 -5.678 14
10.167 -6.673 0.702 12
11.591 -7.525 0.261 17
9.807 -6.294 0.584 24
9.893 -6.285 0.461 28
9.641 -6.063 0.426 26
9.45 -5.89 0.378 29
9.982 -6.167 0.125 5
24.765 -15.18 -4.404 5
23.561 -14.332 -4.302 29
22.499 -13.59 -4.226 28
21.535 -12.928 -4.166 5
20.645 -12.32 -4.113 6
19.802 -11.757 -4.064 7
19.0 -11.225 -4.014 7
18.252 -10.739 -3.974 24
17.59 -10.307 -3.952 16
16.923 -9.884 -3.921 9
16.224 -9.445 -3.862 13
15.578 -9.046 -3.816 12
14.975 -8.673 -3.776 11
14.397 -8.318 -3.736 12
13.872 -8.0 -3.713 14
13.311 -7.661 -3.66 12
10.016 -7.509 1.676 10
10.796 -7.969 1.451 43
9.867 -7.17 1.476 22
9.663 -6.919 1.403 17
9.411 -6.64 1.345 13
9.39 -6.533 1.25 24
9.35 -6.416 1.16 0
42.359 -28.685 -5.77 19
10.215 -6.832 0.78 2
10.092 -6.668 0.704 26
11.553 -7.55 0.252 12
9.72 -6.279 0.59 31
9.793 -6.262 0.47 28
9.637 -6.102 0.41 27
9.4 -5.898 0.374 30
10.039 -6.244 0.088 18
9.919 -6.121 0.015 0
23.425 -14.345 -4.309 27
22.365 -13.6 -4.231 27
21.407 -12.937 -4.171 6
20.526 -12.33 -4.119 6
19.697 -11.772 -4.073 7
18.894 -11.236 -4.021 8
18.145 -10.745 -3.978 18
17.5 -10.321 -3.961 17
16.861 -9.91 -3.939 20
16.163 -9.469 -3.879 13
15.506 -9.059 -3.827 18
14.907 -8.686 -3.786 12
14.344 -8.337 -3.751 13
13.82 -8.018 -3.728 19
13.241 -7.666 -3.664 12
9.95 -7.504 1.677 26
10.02 -7.44 1.554 14
9.881 -7.224 1.465 20
9.659 -6.958 1.394 22
9.623 -6.832 1.297 7
9.288 -6.504 1.257 26
9.391 -6.486 1.14 0
41.925 -28.575 -5.736 18
10.18 -6.853 0.773 1
10.048 -6.682 0.699 26
11.518 -7.577 0.242 14
9.695 -6.305 0.58 25
9.864 -6.35 0.434 33
9.622 -6.133 0.397 25
9.331 -5.894 0.376 35
10.001 -6.263 0.08 35
24.451 -15.19 -4.409 4
23.292 -14.36 -4.317 22
22.245 -13.617 -4.24 23
21.285 -12.95 -4.178 6
20.406 -12.339 -4.124 6
19.579 -11.779 -4.077 8
18.788 -11.246 -4.027 7
18.063 -10.766 -3.992 7
17.41 -10.334 -3.97 11
16.785 -9.928 -3.952 19
16.093 -9.487 -3.893 14
15.44 -9.076 -3.84 12
14.846 -8.703 -3.8 15
14.281 -8.351 -3.762 12
13.771 -8.037 -3.744 20
13.165 -7.666 -3.664 12
9.922 -7.526 1.673 18
10.1 -7.545 1.533 4
9.651 -7.099 1.491 27
9.593 -6.953 1.395 30
9.592 -6.853 1.291 19
9.21 -6.489 1.261 27
9.338 -6.491 1.139 29
41.512 -28.476 -5.706 24
39.145 -26.524 -5.618 25
10.026 -6.711 0.689 23
34.623 -22.927 -5.345 3
9.56 -6.258 0.598 26
9.944 -6.444 0.396 31
9.565 -6.137 0.395 30
9.297 -5.912 0.368 26
9.776 -6.162 0.127 38
24.303 -15.2 -4.414 5
23.159 -14.374 -4.324 15
22.118 -13.63 -4.247 17
21.154 -12.955 -4.181 5
20.296 -12.355 -4.133 6
19.475 -11.793 -4.086 13
18.695 -11.263 -4.038 8
17.969 -10.779 -4.0 7
17.314 -10.342 -3.976 10
16.723 -9.955 -3.97 16
16.029 -9.508 -3.908 13
15.381 -9.098 -3.856 12
14.779 -8.716 -3.81 12
14.224 -8.367 -3.776 14
13.706 -8.046 -3.751 13
13.095 -7.67 -3.668 12
9.843 -7.512 1.676 22
12.327 -9.263 1.199 14
9.582 -7.091 1.493 25
9.556 -6.969 1.391 21
9.543 -6.86 1.29 24
9.283 -6.583 1.236 24
9.25 -6.471 1.145 27
41.269 -28.493 -5.711 33
38.877 -26.515 -5.615 15
9.991 -6.732 0.682 19
9.872 -6.581 0.605 10
9.536 -6.284 0.588 24
9.968 -6.503 0.372 23
9.59 -6.195 0.37 25
9.287 -5.945 0.353 32
9.365 -5.943 0.229 21
9.92 -6.246 -0.046 5
23.02 -14.383 -4.329 7
22.001 -13.649 -4.257 10
21.032 -12.966 -4.187 6
20.18 -12.365 -4.139 6
19.377 -11.811 -4.097 7
18.595 -11.276 -4.046 7
17.884 -10.798 -4.012 7
17.231 -10.359 -3.987 10
16.641 -9.969 -3.98 18
15.962 -9.528 -3.922 13
15.305 -9.109 -3.864 11
14.718 -8.733 -3.823 13
14.162 -8.381 -3.787 13
13.651 -8.061 -3.764 15
13.026 -7.673 -3.67 13
9.853 -7.563 1.666 9
9.289 -7.022 1.635 0
9.443 -7.031 1.505 23
9.493 -6.966 1.392 24
9.553 -6.91 1.277 23
9.179 -6.55 1.245 26
9.204 -6.48 1.142 27
40.88 -28.406 -5.684 22
38.567 -26.475 -5.602 18
9.969 -6.761 0.672 25
9.821 -6.589 0.602 14
9.485 -6.292 0.585 28
9.92 -6.515 0.368 41
9.654 -6.278 0.335 29
9.269 -5.974 0.34 28
9.314 -5.951 0.225 25
9.895 -6.272 -0.059 33
22.875 -14.388 -4.331 5
21.864 -13.654 -4.26 6
20.908 -12.975 -4.192 5
20.073 -12.381 -4.148 6
19.269 -11.822 -4.104 7
18.493 -11.287 -4.053 7
17.786 -10.808 -4.019 7
17.144 -10.373 -3.996 10
16.56 -9.982 -3.989 20
15.895 -9.546 -3.936 11
15.237 -9.124 -3.875 12
14.657 -8.75 -3.836 15
14.108 -8.399 -3.801 13
13.593 -8.074 -3.775 19
12.953 -7.675 -3.672 12
9.846 -7.603 1.659 14
9.24 -7.027 1.634 23
9.47 -7.094 1.492 19
9.459 -6.984 1.388 23
9.526 -6.934 1.271 25
9.261 -6.65 1.218 15
9.245 -6.549 1.122 30
40.55 -28.358 -5.67 25
11.265 -7.783 0.471 1
9.946 -6.79 0.662 25
9.796 -6.616 0.592 22
9.48 -6.331 0.57 33
9.836 -6.503 0.373 28
9.685 -6.34 0.309 32
9.229 -5.988 0.334 30
9.167 -5.896 0.251 21
9.847 -6.283 -0.064 25
22.723 -14.387 -4.331 5
21.724 -13.657 -4.261 5
20.79 -12.988 -4.199 5
19.954 -12.388 -4.152 6
19.155 -11.828 -4.107 6
18.39 -11.297 -4.059 7
17.698 -10.823 -4.029 7
17.058 -10.386 -4.005 10
16.478 -9.995 -3.999 18
15.827 -9.565 -3.949 6
15.161 -9.135 -3.884 12
14.589 -8.763 -3.846 13
14.042 -8.41 -3.81 12
13.506 -8.07 -3.771 11
12.89 -7.682 -3.677 14
10.531 -8.179 1.558 13
9.184 -7.026 1.634 16
9.427 -7.104 1.49 22
9.556 -7.099 1.361 22
9.619 -7.045 1.243 26
9.606 -6.941 1.14 32
9.195 -6.555 1.12 24
11.108 -7.818 0.61 5
11.211 -7.796 0.467 33
9.911 -6.81 0.655 9
9.833 -6.684 0.567 13
9.602 -6.454 0.522 22
9.83 -6.542 0.357 22
9.653 -6.361 0.3 28
9.202 -6.01 0.324 22
9.114 -5.9 0.249 28
9.828 -6.313 -0.079 30
22.587 -14.397 -4.336 5
21.594 -13.666 -4.266 5
20.675 -13.001 -4.206 6
19.845 -12.401 -4.16 6
19.05 -11.842 -4.115 7
18.291 -11.309 -4.067 7
17.61 -10.839 -4.039 7
16.962 -10.393 -4.01 17
16.399 -10.01 -4.009 18
15.754 -9.58 -3.96 7
15.099 -9.153 -3.897 13
14.525 -8.777 -3.857 11
13.982 -8.424 -3.822 12
13.422 -8.067 -3.769 12
12.82 -7.685 -3.68 12
10.501 -8.204 1.553 6
9.186 -7.069 1.626 24
9.421 -7.142 1.482 22
9.607 -7.18 1.342 17
9.528 -7.022 1.249 28
9.645 -7.013 1.121 26
9.219 -6.615 1.103 1
11.093 -7.857 0.598 14
11.182 -7.826 0.457 35
35.872 -24.809 -5.542 4
33.27 -22.766 -5.286 5
9.642 -6.524 0.496 34
9.837 -6.59 0.338 18
9.638 -6.393 0.286 22
9.168 -6.028 0.316 22
9.08 -5.917 0.241 27
9.813 -6.345 -0.095 31
11.835 -7.593 -0.869 15
21.478 -13.681 -4.275 5
20.551 -13.008 -4.21 5
19.735 -12.414 -4.167 6
18.949 -11.856 -4.124 7
18.192 -11.321 -4.074 7
17.516 -10.85 -4.046 7
16.879 -10.408 -4.02 21
16.315 -10.021 -4.017 16
15.671 -9.589 -3.967 6
15.033 -9.17 -3.91 13
14.464 -8.793 -3.87 11
13.926 -8.44 -3.835 11
13.342 -8.066 -3.768 11
12.754 -7.689 -3.684 14
10.477 -8.234 1.548 20
9.202 -7.124 1.615 15
9.438 -7.198 1.47 25
9.49 -7.136 1.352 25
9.662 -7.164 1.214 24
9.629 -7.046 1.112 19
10.893 -7.865 0.745 13
10.888 -7.761 0.627 32
11.25 -7.925 0.425 16
35.578 -24.766 -5.528 5
9.837 -6.775 0.534 0
9.546 -6.501 0.504 24
9.854 -6.645 0.315 18
9.613 -6.419 0.275 31
9.2 -6.089 0.289 24
9.04 -5.931 0.234 30
9.797 -6.377 -0.11 3
11.782 -7.61 -0.878 29
21.348 -13.689 -4.279 5
20.443 -13.025 -4.22 6
19.626 -12.426 -4.174 6
18.836 -11.861 -4.127 7
18.102 -11.338 -4.085 6
17.428 -10.865 -4.056 7
16.799 -10.424 -4.031 11
16.233 -10.034 -4.026 17
15.603 -9.607 -3.98 5
14.977 -9.191 -3.926 14
14.4 -8.807 -3.881 12
13.872 -8.458 -3.849 11
13.262 -8.064 -3.767 15
12.682 -7.69 -3.685 12
11.894 -9.402 1.342 23
9.194 -7.16 1.608 16
9.416 -7.226 1.464 21
9.336 -7.064 1.369 17
9.44 -7.043 1.244 27
9.598 -7.066 1.107 13
10.865 -7.895 0.736 16
10.908 -7.826 0.607 13
37.144 -26.333 -5.556 17
35.275 -24.715 -5.51 5
9.866 -6.84 0.51 1
9.498 -6.511 0.501 31
10.031 -6.809 0.249 33
9.607 -6.458 0.259 36
9.579 -6.382 0.159 34
9.013 -5.953 0.224 29
10.159 -6.657 -0.247 5
11.749 -7.639 -0.892 22
11.88 -7.668 -1.077 1
20.325 -13.035 -4.226 6
19.514 -12.436 -4.18 6
18.735 -11.874 -4.135 7
18.007 -11.35 -4.093 7
17.338 -10.877 -4.064 7
16.71 -10.435 -4.039 18
16.151 -10.047 -4.035 19
15.523 -9.617 -3.987 5
14.911 -9.207 -3.938 12
14.332 -8.819 -3.89 12
13.816 -8.474 -3.862 16
13.188 -8.066 -3.768 11
12.619 -7.696 -3.69 12
11.898 -9.46 1.332 23
9.207 -7.213 1.598 0
9.398 -7.255 1.458 26
9.415 -7.168 1.345 29
9.387 -7.047 1.243 22
9.792 -7.254 1.056 3
10.77 -7.875 0.742 23
10.876 -7.852 0.599 24
36.886 -26.317 -5.551 17
34.986 -24.67 -5.495 5
9.869 -6.886 0.494 0
9.48 -6.541 0.489 30
10.079 -6.886 0.218 33
9.572 -6.477 0.251 26
9.573 -6.42 0.141 39
8.96 -5.956 0.223 19
10.149 -6.694 -0.265 34
11.754 -7.692 -0.919 16
11.798 -7.666 -1.076 20
20.211 -13.047 -4.232 6
19.411 -12.452 -4.189 6
18.644 -11.893 -4.146 7
17.905 -11.359 -4.098 7
17.256 -10.896 -4.076 9
16.627 -10.449 -4.048 23
16.076 -10.062 -4.045 20
15.5 -9.663 -4.02 12
14.849 -9.224 -3.951 11
14.274 -8.836 -3.903 13
13.753 -8.485 -3.871 17
13.117 -8.07 -3.772 13
12.562 -7.706 -3.699 14
11.868 -9.491 1.326 24
10.546 -8.311 1.384 20
9.439 -7.331 1.442 17
9.871 -7.561 1.254 29
9.324 -7.043 1.244 32
9.709 -7.238 1.061 0
10.742 -7.904 0.733 26
10.822 -7.863 0.596 21
10.784 -7.744 0.484 3
34.71 -24.635 -5.482 5
32.248 -22.648 -5.243 5
9.503 -6.6 0.467 27
10.168 -6.993 0.175 18
9.582 -6.527 0.23 13
9.526 -6.43 0.137 36
9.126 -6.107 0.152 52
10.135 -6.729 -0.282 36
21.9 -14.427 -4.351 31
11.752 -7.685 -1.086 28
20.1 -13.06 -4.239 6
19.293 -12.456 -4.191 7
18.534 -11.899 -4.15 6
17.815 -11.375 -4.108 6
17.169 -10.91 -4.085 7
16.541 -10.461 -4.056 22
15.998 -10.075 -4.055 19
15.443 -9.686 -4.037 16
14.786 -9.241 -3.964 11
14.213 -8.851 -3.915 11
13.696 -8.501 -3.884 13
13.015 -8.055 -3.759 23
12.493 -7.708 -3.701 12
11.824 -9.513 1.323 2
10.481 -8.309 1.385 21
9.388 -7.335 1.441 21
9.754 -7.517 1.265 27
9.308 -7.074 1.236 31
11.193 -8.396 0.75 16
10.441 -7.731 0.783 30
10.794 -7.893 0.587 33
36.346 -26.266 -5.534 14
34.441 -24.602 -5.471 4
31.998 -22.619 -5.233 5
9.513 -6.65 0.447 25
9.494 -6.572 0.345 70
9.791 -6.712 0.151 27
9.446 -6.419 0.142 30
8.964 -6.038 0.185 1
10.14 -6.776 -0.305 29
21.772 -14.437 -4.356 31
11.734 -7.724 -1.107 23
11.821 -7.731 -1.285 5
19.19 -12.47 -4.2 6
18.43 -11.909 -4.156 6
17.729 -11.392 -4.119 6
17.078 -10.921 -4.092 7
16.461 -10.476 -4.066 12
15.926 -10.093 -4.067 11
15.382 -9.707 -4.053 16
14.724 -9.259 -3.977 11
14.158 -8.871 -3.931 14
13.63 -8.51 -3.891 18
12.966 -8.072 -3.773 11
12.43 -7.714 -3.705 12
10.434 -8.443 1.511 22
10.49 -8.367 1.374 19
9.572 -7.524 1.401 28
9.7 -7.52 1.264 34
9.243 -7.067 1.238 24
11.318 -8.544 0.711 18
0.0 -0.0 3.0 0
10.782 -7.933 0.575 11
36.051 -26.22 -5.519 6
34.159 -24.557 -5.456 4
31.757 -22.594 -5.224 5
9.398 -6.612 0.462 0
9.356 -6.52 0.366 48
9.835 -6.786 0.119 31
9.411 -6.437 0.134 34
9.698 -6.575 -0.066 6
10.12 -6.808 -0.32 33
21.645 -14.446 -4.361 31
11.738 -7.777 -1.135 17
11.764 -7.744 -1.292 21
19.085 -12.482 -4.207 6
18.329 -11.92 -4.162 6
17.634 -11.404 -4.126 7
16.994 -10.936 -4.102 7
16.385 -10.493 -4.077 10
15.845 -10.104 -4.075 10
15.308 -9.72 -4.062 13
14.661 -9.276 -3.99 12
14.085 -8.878 -3.936 11
13.533 -8.5 -3.883 12
12.899 -8.077 -3.778 12
12.37 -7.721 -3.712 16
10.307 -8.389 1.521 23
10.472 -8.401 1.367 14
9.584 -7.579 1.389 28
9.59 -7.481 1.273 28
9.196 -7.076 1.236 30
10.471 -7.953 0.869 23
10.698 -8.021 0.7 21
11.291 -8.361 0.444 0
10.711 -7.84 0.453 1
33.91 -24.536 -5.448 4
31.513 -22.565 -5.213 5
9.226 -6.534 0.492 4
9.216 -6.464 0.389 2
9.812 -6.815 0.107 25
9.363 -6.446 0.13 26
9.647 -6.583 -0.07 2
10.089 -6.831 -0.332 32
21.504 -14.447 -4.361 20
11.781 -7.857 -1.178 1
11.718 -7.763 -1.303 23
11.856 -7.805 -1.506 0
18.229 -11.932 -4.169 6
17.548 -11.421 -4.137 7
16.906 -10.949 -4.11 7
16.302 -10.505 -4.086 9
15.757 -10.111 -4.08 10
15.237 -9.735 -4.073 14
14.595 -9.29 -4.0 12
14.027 -8.894 -3.949 12
13.445 -8.495 -3.879 12
12.819 -8.074 -3.775 13
12.304 -7.724 -3.714 14
10.335 -8.461 1.508 25
9.48 -7.65 1.513 0
9.604 -7.641 1.376 23
9.243 -7.253 1.326 28
9.199 -7.121 1.225 29
9.699 -7.412 1.014 30
10.865 -8.198 0.649 9
10.213 -7.611 0.673 20
35.457 -26.118 -5.486 6
33.627 -24.487 -5.432 5
31.28 -22.544 -5.205 5
9.232 -6.581 0.474 30
9.443 -6.665 0.307 66
9.782 -6.839 0.097 17
9.51 -6.589 0.066 27
9.646 -6.626 -0.09 3
10.155 -6.921 -0.376 7
21.39 -14.464 -4.37 5
20.497 -13.758 -4.316 4
11.674 -7.785 -1.315 18
11.805 -7.821 -1.516 22
18.135 -11.946 -4.178 6
17.453 -11.431 -4.143 7
16.819 -10.961 -4.118 7
16.22 -10.518 -4.094 7
15.679 -10.123 -4.088 10
15.167 -9.75 -4.084 10
14.536 -9.309 -4.015 13
13.969 -8.911 -3.962 12
13.373 -8.5 -3.883 13
12.746 -8.075 -3.776 13
12.244 -7.731 -3.72 14
10.221 -8.417 1.516 19
10.243 -8.316 1.384 5
9.622 -7.701 1.363 26
9.196 -7.26 1.324 26
9.115 -7.1 1.23 18
9.47 -7.282 1.049 28
10.506 -7.977 0.713 9
10.17 -7.627 0.668 33
35.239 -26.124 -5.488 4
33.37 -24.455 -5.421 5
31.04 -22.515 -5.195 5
9.109 -6.535 0.491 22
9.468 -6.727 0.282 60
9.915 -6.977 0.038 9
9.525 -6.643 0.042 21
11.477 -7.936 -0.7 0
11.587 -7.949 -0.877 2
11.631 -7.916 -1.034 10
11.681 -7.892 -1.196 11
11.668 -7.831 -1.341 20
11.762 -7.843 -1.528 20
11.928 -7.908 -1.752 1
17.36 -11.443 -4.151 6
16.735 -10.975 -4.127 7
16.137 -10.531 -4.103 8
15.595 -10.132 -4.094 10
15.087 -9.758 -4.09 12
14.473 -9.325 -4.027 11
13.904 -8.923 -3.972 18
13.289 -8.496 -3.88 12
12.645 -8.058 -3.761 14
12.188 -7.74 -3.728 12
10.151 -8.408 1.517 24
10.394 -8.488 1.35 8
9.605 -7.733 1.356 28
9.267 -7.361 1.301 31
9.142 -7.164 1.214 14
9.437 -7.302 1.043 27
11.204 -8.56 0.545 10
10.142 -7.654 0.66 10
35.044 -26.145 -5.495 4
33.113 -24.423 -5.409 4
30.811 -22.492 -5.186 5
9.245 -6.676 0.437 1
9.353 -6.688 0.298 65
25.752 -18.238 -4.742 6
9.544 -6.7 0.017 26
9.594 -6.677 -0.113 4
11.537 -7.966 -0.885 21
11.584 -7.936 -1.044 27
11.649 -7.922 -1.212 16
11.681 -7.891 -1.374 30
11.74 -7.879 -1.549 21
11.837 -7.897 -1.745 21
17.272 -11.457 -4.159 7
16.644 -10.985 -4.134 7
16.064 -10.548 -4.115 9
15.51 -10.14 -4.1 10
15.02 -9.774 -4.101 17
14.407 -9.339 -4.037 12
13.843 -8.937 -3.983 18
13.196 -8.486 -3.872 15
12.562 -8.052 -3.757 15
12.134 -7.75 -3.737 12
10.114 -8.427 1.514 16
10.602 -8.708 1.307 23
9.871 -7.996 1.3 19
9.161 -7.321 1.31 28
9.244 -7.289 1.183 25
9.405 -7.323 1.038 30
10.143 -7.798 0.764 0
10.089 -7.662 0.657 17
34.847 -26.162 -5.501 5
32.853 -24.387 -5.397 5
30.572 -22.462 -5.175 5
9.283 -6.747 0.41 25
10.004 -7.2 0.091 10
25.588 -18.241 -4.743 6
9.619 -6.797 -0.026 21
9.548 -6.689 -0.119 25
11.512 -8.001 -0.902 21
11.565 -7.975 -1.063 13
11.65 -7.973 -1.239 1
11.691 -7.948 -1.406 0
11.724 -7.918 -1.572 20
11.796 -7.921 -1.759 20
17.18 -11.469 -4.167 7
16.566 -11.002 -4.145 7
15.981 -10.559 -4.122 7
15.429 -10.149 -4.107 20
14.943 -9.784 -4.108 19
14.336 -9.349 -4.045 11
13.791 -8.957 -3.998 14
13.115 -8.484 -3.871 11
12.498 -8.058 -3.762 15
12.074 -7.757 -3.743 13
9.663 -8.098 1.572 16
10.291 -8.504 1.347 37
10.283 -8.379 1.219 29
9.456 -7.603 1.245 32
9.228 -7.321 1.175 19
9.376 -7.345 1.032 10
9.526 -7.37 0.887 57
10.081 -7.704 0.645 9
34.639 -26.172 -5.504 4
32.582 -24.34 -5.381 5
30.382 -22.466 -5.177 5
9.292 -6.796 0.391 0
10.358 -7.503 -0.031 29
11.171 -8.015 -0.402 14
9.579 -6.813 -0.033 25
9.468 -6.676 -0.113 6
11.519 -8.057 -0.93 2
20.891 -14.498 -4.387 5
20.032 -13.799 -4.337 5
19.217 -13.15 -4.289 6
11.739 -7.98 -1.607 15
11.77 -7.954 -1.779 26
11.883 -7.984 -1.989 18
16.476 -11.012 -4.151 9
15.905 -10.574 -4.133 9
15.351 -10.161 -4.115 21
14.873 -9.798 -4.119 17
14.276 -9.367 -4.059 13
13.73 -8.971 -4.009 14
13.034 -8.482 -3.869 10
12.438 -8.066 -3.768 17
12.018 -7.764 -3.75 13
9.603 -8.094 1.573 22
9.936 -8.259 1.395 22
10.096 -8.276 1.241 31
9.378 -7.585 1.249 32
9.187 -7.333 1.172 28
9.344 -7.365 1.026 17
9.54 -7.426 0.871 59
10.096 -7.765 0.626 4
34.448 -26.193 -5.511 4
32.33 -24.306 -5.369 5
10.853 -8.077 0.06 0
10.356 -7.624 0.074 15
10.461 -7.627 -0.082 24
11.125 -8.034 -0.41 19
9.524 -6.818 -0.035 27
22.774 -16.16 -4.536 7
21.728 -15.296 -4.461 5
20.761 -14.501 -4.389 5
19.917 -13.81 -4.343 5
19.12 -13.168 -4.299 5
11.752 -8.039 -1.642 1
11.751 -7.991 -1.802 26
11.829 -7.997 -1.997 23
16.392 -11.025 -4.159 7
15.822 -10.586 -4.14 9
15.273 -10.171 -4.122 19
14.815 -9.82 -4.135 17
14.22 -9.387 -4.073 12
13.657 -8.977 -4.013 19
12.953 -8.48 -3.867 8
12.386 -8.079 -3.779 16
11.961 -7.773 -3.757 13
9.57 -8.114 1.569 28
9.799 -8.193 1.407 14
9.701 -7.999 1.3 27
9.382 -7.635 1.237 18
9.17 -7.364 1.164 25
9.33 -7.399 1.017 21
9.393 -7.357 0.89 55
10.186 -7.883 0.59 5
34.254 -26.21 -5.516 2
32.088 -24.277 -5.359 3
10.798 -8.087 0.056 20
10.587 -7.844 -0.011 38
10.564 -7.752 -0.132 53
11.12 -8.082 -0.431 0
9.561 -6.888 -0.067 23
22.627 -16.16 -4.536 7
21.59 -15.298 -4.461 5
20.641 -14.511 -4.394 5
19.802 -13.818 -4.347 5
19.007 -13.175 -4.303 6
18.245 -12.562 -4.252 6
11.762 -8.05 -1.837 13
11.803 -8.03 -2.018 21
11.903 -8.056 -2.232 19
15.743 -10.598 -4.149 9
15.199 -10.184 -4.131 13
14.707 -9.808 -4.126 19
14.151 -9.398 -4.082 14
13.596 -8.99 -4.024 15
12.872 -8.477 -3.864 10
12.319 -8.083 -3.782 15
11.91 -7.785 -3.767 12
9.597 -8.185 1.557 22
9.787 -8.232 1.4 16
9.399 -7.797 1.343 22
9.301 -7.614 1.242 33
9.123 -7.372 1.162 10
9.319 -7.436 1.007 22
9.348 -7.367 0.888 50
9.243 -7.198 0.799 0
10.474 -8.064 0.38 26
10.655 -8.113 0.207 22
10.746 -8.1 0.052 21
10.842 -8.085 -0.104 13
26.297 -19.422 -4.847 5
24.902 -18.216 -4.732 6
9.499 -6.888 -0.067 20
22.486 -16.164 -4.537 7
21.455 -15.301 -4.463 5
20.521 -14.52 -4.398 5
19.691 -13.829 -4.353 5
18.904 -13.187 -4.31 6
18.152 -12.578 -4.262 6
17.464 -12.029 -4.228 6
11.758 -8.051 -2.031 27
11.831 -8.057 -2.232 23
15.661 -10.609 -4.156 9
15.124 -10.197 -4.14 12
14.619 -9.809 -4.126 17
14.085 -9.411 -4.092 26
13.51 -8.987 -4.022 23
12.795 -8.475 -3.863 9
12.261 -8.092 -3.79 15
11.854 -7.793 -3.774 13
9.637 -8.267 1.542 22
9.723 -8.226 1.401 17
9.296 -7.758 1.351 23
9.329 -7.684 1.226 20
9.275 -7.54 1.12 0
9.44 -7.58 0.969 53
9.188 -7.287 0.911 28
9.223 -7.227 0.79 7
10.116 -7.838 0.453 29
10.622 -8.139 0.197 26
10.722 -8.134 0.04 5
27.678 -20.772 -4.973 6
26.116 -19.412 -4.843 5
24.743 -18.217 -4.733 6
9.472 -6.913 -0.078 27
22.345 -16.167 -4.539 8
21.332 -15.312 -4.468 5
20.394 -14.524 -4.4 5
19.576 -13.837 -4.357 5
18.791 -13.193 -4.313 6
18.051 -12.589 -4.268 6
17.368 -12.039 -4.234 6
11.794 -8.127 -2.078 19
11.823 -8.102 -2.262 34
11.889 -8.104 -2.466 15
15.049 -10.209 -4.148 18
14.542 -9.817 -4.133 15
14.01 -9.417 -4.096 20
13.437 -8.991 -4.025 23
12.714 -8.472 -3.861 13
12.191 -8.092 -3.79 24
11.794 -7.798 -3.779 14
9.594 -8.279 1.54 4
9.707 -8.262 1.394 24
9.276 -7.787 1.345 27
9.303 -7.709 1.22 28
10.178 -8.325 0.924 79
9.88 -7.982 0.861 21
9.184 -7.329 0.899 23
10.082 -7.95 0.569 18
10.084 -7.863 0.445 27
9.96 -7.68 0.355 0
29.239 -22.321 -5.124 5
27.487 -20.76 -4.969 6
25.948 -19.41 -4.842 6
24.578 -18.212 -4.73 6
9.421 -6.92 -0.081 17
22.202 -16.167 -4.539 7
21.201 -15.316 -4.47 5
20.278 -14.533 -4.405 5
19.465 -13.847 -4.363 5
18.675 -13.196 -4.314 5
17.953 -12.6 -4.275 6
17.274 -12.05 -4.24 5
11.814 -8.191 -2.118 3
11.79 -8.131 -2.28 26
11.844 -8.124 -2.479 17
14.972 -10.219 -4.155 22
14.478 -9.833 -4.144 16
11.142 -7.535 -2.678 2
13.348 -8.986 -4.021 16
12.622 -8.46 -3.851 16
12.146 -8.11 -3.805 17
11.747 -7.812 -3.79 12
10.026 -8.702 1.466 28
9.698 -8.302 1.386 27
9.292 -7.847 1.332 22
9.285 -7.741 1.213 23
9.985 -8.216 0.951 19
9.852 -8.008 0.854 20
9.302 -7.469 0.858 55
10.054 -7.977 0.561 1
9.96 -7.815 0.461 24
9.87 -7.658 0.363 29
29.035 -22.307 -5.119 5
27.284 -20.739 -4.961 5
25.77 -19.402 -4.839 5
24.413 -18.206 -4.728 6
9.412 -6.958 -0.098 23
22.068 -16.173 -4.542 7
21.076 -15.323 -4.474 5
20.161 -14.543 -4.41 6
19.35 -13.854 -4.366 5
18.581 -13.213 -4.324 6
17.861 -12.616 -4.284 6
17.191 -12.068 -4.251 6
16.572 -11.562 -4.225 7
11.806 -8.193 -2.32 18
11.808 -8.149 -2.496 27
11.893 -8.168 -2.719 15
14.402 -9.842 -4.15 16
11.059 -7.524 -2.67 2
13.257 -8.978 -4.014 17
12.557 -8.467 -3.856 14
12.091 -8.12 -3.814 22
11.693 -7.821 -3.798 14
10.007 -8.735 1.46 26
9.694 -8.349 1.377 21
9.268 -7.874 1.326 25
9.234 -7.745 1.212 22
9.649 -7.988 1.008 2
9.863 -8.067 0.839 6
9.777 -7.899 0.735 28
34.267 -27.36 -5.365 22
9.891 -7.81 0.462 19
9.832 -7.678 0.356 29
28.816 -22.279 -5.109 5
27.088 -20.722 -4.954 5
25.581 -19.382 -4.831 6
24.252 -18.202 -4.726 6
9.413 -7.003 -0.118 22
21.925 -16.171 -4.541 7
20.935 -15.32 -4.472 5
20.048 -14.555 -4.416 5
19.239 -13.862 -4.371 5
18.475 -13.222 -4.329 5
17.763 -12.626 -4.29 6
17.097 -12.079 -4.258 6
16.474 -11.567 -4.228 7
11.819 -8.253 -2.36 1
11.793 -8.19 -2.524 21
11.832 -8.176 -2.725 32
11.177 -7.685 -2.583 2
10.98 -7.514 -2.663 2
11.184 -7.619 -2.953 0
12.45 -8.444 -3.838 55
12.027 -8.125 -3.818 21
11.64 -7.83 -3.806 17
9.933 -8.722 1.462 27
9.726 -8.425 1.362 10
9.413 -8.045 1.29 39
9.099 -7.677 1.228 20
9.454 -7.875 1.037 1
10.015 -8.241 0.792 21
9.752 -7.928 0.727 28
9.718 -7.808 0.613 9
9.814 -7.798 0.466 23
9.804 -7.705 0.347 27
28.616 -22.265 -5.104 6
26.901 -20.71 -4.95 6
25.41 -19.376 -4.829 6
24.094 -18.2 -4.726 6
22.871 -17.125 -4.625 6
21.794 -16.179 -4.544 7
20.813 -15.328 -4.476 5
19.922 -14.556 -4.417 5
19.131 -13.872 -4.376 5
18.366 -13.228 -4.332 6
17.662 -12.634 -4.294 6
17.008 -12.092 -4.265 6
16.395 -11.584 -4.239 6
15.809 -11.108 -4.214 7
11.791 -8.238 -2.557 17
11.808 -8.21 -2.749 43
11.127 -7.697 -2.592 5
10.9 -7.506 -2.656 3
11.104 -7.61 -2.945 2
12.415 -8.47 -3.859 34
11.97 -8.133 -3.824 20
11.571 -7.828 -3.805 22
9.833 -8.684 1.469 25
9.895 -8.623 1.324 20
9.404 -8.085 1.282 33
9.06 -7.69 1.225 32
10.441 -8.75 0.818 9
9.794 -8.109 0.827 26
9.785 -8.004 0.705 25
9.662 -7.811 0.612 30
9.828 -7.858 0.447 23
9.785 -7.737 0.336 21
28.416 -22.251 -5.099 5
26.715 -20.698 -4.945 5
25.233 -19.366 -4.824 6
23.933 -18.194 -4.723 6
22.722 -17.124 -4.624 6
21.661 -16.183 -4.546 7
20.673 -15.323 -4.474 5
19.809 -14.567 -4.422 5
19.026 -13.885 -4.383 5
18.267 -13.24 -4.339 6
17.567 -12.646 -4.301 6
16.915 -12.101 -4.271 6
16.307 -11.594 -4.245 9
15.735 -11.125 -4.225 6
11.797 -8.294 -2.594 2
11.778 -8.239 -2.769 32
11.068 -7.703 -2.597 4
10.821 -7.496 -2.649 4
11.024 -7.601 -2.938 2
12.329 -8.461 -3.852 36
11.912 -8.142 -3.832 23
11.53 -7.846 -3.82 15
9.816 -8.72 1.462 25
9.786 -8.578 1.333 25
9.589 -8.293 1.237 28
9.049 -7.728 1.216 31
10.459 -8.818 0.801 6
9.748 -8.12 0.824 32
35.589 -29.292 -5.399 28
9.634 -7.837 0.604 21
9.751 -7.846 0.451 29
9.811 -7.808 0.312 0
28.195 -22.218 -5.087 5
26.529 -20.685 -4.94 5
25.063 -19.358 -4.821 6
23.779 -18.193 -4.723 6
22.586 -17.131 -4.627 7
21.525 -16.185 -4.547 7
20.549 -15.328 -4.476 5
19.696 -14.576 -4.427 5
18.909 -13.888 -4.384 5
18.158 -13.245 -4.342 6
17.47 -12.656 -4.307 6
16.825 -12.113 -4.278 6
16.225 -11.609 -4.254 7
15.657 -11.139 -4.234 7
15.11 -10.69 -4.21 9
11.778 -8.29 -2.804 19
11.009 -7.708 -2.6 5
10.75 -7.492 -2.646 6
10.939 -7.586 -2.927 2
11.176 -7.715 -3.247 2
11.846 -8.143 -3.833 28
11.479 -7.856 -3.829 12
9.791 -8.749 1.457 26
9.54 -8.412 1.365 21
9.674 -8.418 1.211 26
9.037 -7.764 1.208 25
10.317 -8.752 0.818 21
9.701 -8.131 0.821 29
35.286 -29.222 -5.379 24
9.663 -7.91 0.582 27
9.774 -7.913 0.429 9
29.916 -23.957 -5.249 4
27.99 -22.195 -5.078 5
26.331 -20.661 -4.931 5
24.891 -19.347 -4.817 6
23.618 -18.186 -4.719 6
22.441 -17.13 -4.627 6
21.392 -16.188 -4.548 7
20.431 -15.338 -4.481 5
19.577 -14.581 -4.429 5
18.802 -13.897 -4.389 5
18.058 -13.256 -4.348 6
17.381 -12.671 -4.316 6
16.732 -12.122 -4.283 6
16.134 -11.616 -4.258 7
15.574 -11.149 -4.24 8
15.038 -10.704 -4.22 10
11.783 -8.344 -2.843 5
10.96 -7.72 -2.609 4
10.674 -7.484 -2.639 5
10.856 -7.575 -2.918 2
11.093 -7.703 -3.238 2
11.776 -8.143 -3.833 29
11.423 -7.863 -3.835 13
9.774 -8.784 1.451 23
9.572 -8.49 1.35 22
9.545 -8.354 1.224 19
9.136 -7.896 1.177 29
9.929 -8.474 0.887 12
9.696 -8.177 0.809 19
10.113 -8.427 0.584 5
9.614 -7.919 0.579 28
31.863 -25.959 -5.435 10
29.691 -23.927 -5.239 4
27.785 -22.173 -5.07 6
26.146 -20.646 -4.925 5
24.724 -19.34 -4.814 6
23.465 -18.183 -4.718 7
22.294 -17.126 -4.625 6
21.253 -16.186 -4.548 7
20.313 -15.347 -4.485 5
19.462 -14.588 -4.433 5
18.691 -13.904 -4.393 5
17.956 -13.265 -4.353 5
17.278 -12.676 -4.318 6
16.649 -12.138 -4.293 6
16.055 -11.631 -4.268 7
15.484 -11.154 -4.244 7
14.965 -10.718 -4.23 9
14.454 -10.298 -4.211 10
10.901 -7.725 -2.613 4
10.595 -7.473 -2.631 4
10.777 -7.564 -2.909 2
11.004 -7.686 -3.224 2
11.692 -8.132 -3.823 10
11.375 -7.875 -3.846 17
9.709 -8.777 1.452 22
9.546 -8.517 1.344 21
9.383 -8.261 1.244 26
9.123 -7.933 1.168 29
9.831 -8.442 0.895 22
9.644 -8.183 0.807 20
9.58 -8.032 0.697 2
9.603 -7.959 0.567 26
31.624 -25.926 -5.424 13
29.469 -23.899 -5.229 5
27.584 -22.151 -5.062 6
25.967 -20.635 -4.921 6
24.549 -19.325 -4.808 6
23.314 -18.182 -4.718 7
22.152 -17.126 -4.625 7
21.13 -16.194 -4.551 8
20.183 -15.346 -4.485 5
19.352 -14.598 -4.438 6
18.584 -13.911 -4.397 5
17.857 -13.275 -4.359 5
17.19 -12.691 -4.327 6
16.559 -12.148 -4.299 6
15.97 -11.642 -4.275 6
15.407 -11.168 -4.252 7
14.886 -10.727 -4.236 9
14.382 -10.31 -4.219 9
10.842 -7.731 -2.617 3
10.525 -7.469 -2.628 4
10.698 -7.553 -2.901 2
10.919 -7.672 -3.212 2
11.168 -7.813 -3.556 4
11.318 -7.881 -3.851 13
9.801 -8.912 1.429 18
9.341 -8.383 1.371 27
9.313 -8.249 1.247 21
9.108 -7.968 1.161 30
9.931 -8.578 0.861 24
9.576 -8.175 0.81 30
10.011 -8.445 0.578 22
9.596 -8.002 0.553 14
9.769 -8.059 0.381 0
29.249 -23.869 -5.219 4
27.38 -22.126 -5.053 6
25.776 -20.614 -4.913 5
24.38 -19.315 -4.804 6
23.164 -18.18 -4.717 6
21.993 -17.111 -4.618 7
21.0 -16.198 -4.553 7
20.065 -15.354 -4.489 5
19.237 -14.603 -4.441 5
18.479 -13.922 -4.402 5
17.764 -13.29 -4.367 5
17.092 -12.699 -4.331 6
16.469 -12.159 -4.306 6
15.889 -11.655 -4.283 6
15.33 -11.18 -4.261 7
14.808 -10.737 -4.242 9
11.159 -8.048 -2.636 4
10.786 -7.738 -2.622 4
10.459 -7.466 -2.626 4
10.619 -7.542 -2.893 2
10.839 -7.661 -3.204 2
11.076 -7.794 -3.54 4
11.183 -7.832 -3.808 14
9.71 -8.881 1.434 31
9.336 -8.428 1.362 18
9.25 -8.242 1.248 19
9.372 -8.248 1.096 26
9.782 -8.502 0.88 25
9.571 -8.221 0.797 26
9.721 -8.251 0.634 29
9.714 -8.152 0.508 23
9.746 -8.09 0.371 31
29.019 -23.83 -5.205 4
27.179 -22.103 -5.045 6
25.607 -20.608 -4.911 5
24.233 -19.32 -4.806 6
23.001 -18.167 -4.712 7
21.843 -17.103 -4.615 12
20.868 -16.198 -4.553 7
19.954 -15.366 -4.494 5
19.128 -14.613 -4.446 6
18.372 -13.929 -4.406 5
17.655 -13.293 -4.368 5
16.998 -12.708 -4.337 6
16.383 -12.171 -4.313 6
15.81 -11.67 -4.292 6
15.25 -11.192 -4.268 6
14.735 -10.75 -4.251 9
11.099 -8.055 -2.64 5
10.734 -7.747 -2.629 3
10.404 -7.472 -2.63 5
10.543 -7.534 -2.886 2
10.757 -7.648 -3.194 2
10.991 -7.779 -3.527 3
11.103 -7.821 -3.799 11
9.59 -8.823 1.444 18
9.267 -8.415 1.364 25
9.18 -8.229 1.251 28
9.317 -8.248 1.096 27
9.764 -8.538 0.871 19
9.596 -8.293 0.778 18
9.685 -8.272 0.628 31
9.649 -8.147 0.509 31
9.668 -8.076 0.376 28
28.817 -23.814 -5.2 4
26.997 -22.093 -5.041 6
25.42 -20.587 -4.902 6
24.059 -19.303 -4.799 6
22.852 -18.164 -4.71 6
21.705 -17.103 -4.615 23
20.736 -16.199 -4.554 8
19.83 -15.369 -4.496 5
19.009 -14.616 -4.447 5
18.265 -13.936 -4.41 5
17.56 -13.304 -4.375 5
16.91 -12.722 -4.345 5
16.297 -12.183 -4.32 6
15.719 -11.676 -4.296 6
15.176 -11.206 -4.277 6
14.653 -10.756 -4.255 9
11.045 -8.065 -2.647 4
10.675 -7.751 -2.632 3
10.355 -7.482 -2.638 5
10.468 -7.524 -2.878 3
10.678 -7.637 -3.184 2
10.912 -7.768 -3.518 3
11.033 -7.817 -3.795 9
9.532 -8.82 1.445 31
9.277 -8.474 1.353 17
9.185 -8.282 1.24 24
9.265 -8.252 1.095 29
9.779 -8.603 0.855 25
9.499 -8.259 0.787 28
9.665 -8.306 0.618 23
9.638 -8.188 0.497 31
9.651 -8.112 0.364 33
28.586 -23.77 -5.185 5
26.807 -22.076 -5.035 6
25.258 -20.585 -4.902 6
23.897 -19.295 -4.796 6
22.708 -18.164 -4.71 6
21.574 -17.109 -4.617 33
20.61 -16.203 -4.556 7
19.716 -15.378 -4.5 6
18.903 -14.626 -4.452 6
18.161 -13.945 -4.415 5
17.458 -13.311 -4.378 5
16.819 -12.734 -4.352 6
16.21 -12.195 -4.327 6
15.641 -11.69 -4.305 6
15.096 -11.216 -4.284 6
14.581 -10.769 -4.264 9
10.989 -8.072 -2.652 4
10.622 -7.76 -2.638 3
10.304 -7.489 -2.644 5
10.392 -7.514 -2.871 3
10.603 -7.627 -3.176 2
10.824 -7.751 -3.504 3
10.977 -7.822 -3.799 9
9.498 -8.839 1.441 26
8.974 -8.246 1.397 10
9.136 -8.287 1.239 23
9.289 -8.323 1.078 27
9.755 -8.634 0.847 25
9.431 -8.251 0.789 28
9.457 -8.177 0.655 30
9.615 -8.219 0.487 26
9.625 -8.14 0.355 32
28.382 -23.749 -5.177 5
26.604 -22.048 -5.025 6
25.059 -20.552 -4.889 6
23.735 -19.286 -4.792 6
22.553 -18.155 -4.706 6
21.433 -17.105 -4.616 36
20.482 -16.205 -4.556 7
19.593 -15.378 -4.501 5
18.789 -14.63 -4.454 5
18.058 -13.953 -4.419 5
17.359 -13.319 -4.383 6
16.728 -12.745 -4.358 6
16.13 -12.21 -4.337 6
15.556 -11.699 -4.311 7
15.016 -11.227 -4.291 6
14.505 -10.779 -4.271 9
10.929 -8.078 -2.656 3
10.573 -7.771 -2.646 4
10.252 -7.497 -2.649 4
10.323 -7.508 -2.866 4
10.521 -7.614 -3.166 2
10.742 -7.737 -3.492 3
10.929 -7.833 -3.809 8
9.495 -8.889 1.433 23
8.929 -8.253 1.396 22
9.058 -8.266 1.243 27
9.29 -8.374 1.067 22
9.634 -8.579 0.861 23
9.352 -8.231 0.795 24
9.292 -8.083 0.682 23
10.04 -8.636 0.36 5
9.655 -8.217 0.33 27
28.164 -23.713 -5.165 5
26.408 -22.023 -5.016 6
24.862 -20.519 -4.877 10
23.574 -19.276 -4.788 6
22.41 -18.154 -4.706 6
21.308 -17.113 -4.619 38
20.353 -16.206 -4.557 8
19.479 -15.386 -4.504 5
18.686 -14.642 -4.46 5
17.954 -13.961 -4.423 5
17.263 -13.329 -4.388 6
16.634 -12.753 -4.363 6
16.041 -12.219 -4.342 6
15.475 -11.711 -4.318 6
14.936 -11.236 -4.297 8
14.43 -10.79 -4.278 9
10.866 -8.081 -2.658 3
10.517 -7.777 -2.65 4
10.2 -7.503 -2.654 4
10.247 -7.498 -2.858 2
10.451 -7.608 -3.161 3
10.657 -7.72 -3.478 3
10.873 -7.837 -3.813 9
9.52 -8.965 1.419 17
8.971 -8.341 1.379 21
9.016 -8.276 1.241 33
9.267 -8.404 1.06 13
9.531 -8.538 0.871 26
9.314 -8.248 0.79 26
9.225 -8.075 0.685 28
9.636 -8.34 0.45 1
9.694 -8.301 0.303 26
27.954 -23.685 -5.156 4
26.225 -22.007 -5.01 6
24.685 -20.503 -4.87 26
23.413 -19.266 -4.784 6
22.261 -18.148 -4.703 6
21.175 -17.114 -4.62 40
20.234 -16.213 -4.56 7
19.362 -15.391 -4.507 6
18.574 -14.647 -4.463 5
17.854 -13.97 -4.428 5
17.171 -13.342 -4.395 5
16.543 -12.764 -4.369 6
15.958 -12.232 -4.35 6
15.39 -11.719 -4.323 6
14.862 -11.25 -4.306 8
14.36 -10.804 -4.287 9
10.813 -8.09 -2.665 3
10.467 -7.787 -2.658 4
10.146 -7.509 -2.658 4
10.167 -7.483 -2.847 2
10.37 -7.593 -3.149 2
10.584 -7.712 -3.472 3
10.809 -7.836 -3.812 18
9.474 -8.973 1.418 0
8.862 -8.288 1.389 7
9.028 -8.337 1.228 29
9.323 -8.506 1.036 6
9.695 -8.738 0.821 8
9.282 -8.27 0.784 30
9.184 -8.089 0.681 24
30.959 -26.96 -5.242 37
29.699 -25.591 -5.315 5
27.749 -23.659 -5.146 4
26.051 -21.998 -5.007 6
24.527 -20.499 -4.869 33
23.264 -19.264 -4.783 6
22.124 -18.151 -4.704 6
21.047 -17.118 -4.622 38
20.109 -16.215 -4.561 7
19.245 -15.395 -4.509 5
18.463 -14.651 -4.465 5
17.753 -13.98 -4.433 5
17.069 -13.347 -4.398 6
16.456 -12.776 -4.376 5
15.869 -12.24 -4.354 6
15.312 -11.732 -4.331 6
14.782 -11.258 -4.311 8
14.288 -10.816 -4.295 9
10.762 -8.101 -2.672 3
10.409 -7.791 -2.66 4
10.103 -7.522 -2.668 4
10.095 -7.475 -2.84 2
10.298 -7.584 -3.142 2
10.506 -7.7 -3.461 3
10.733 -7.826 -3.803 8
29.203 -27.822 -1.906 3
8.837 -8.314 1.384 18
8.997 -8.358 1.223 28
9.28 -8.516 1.034 7
9.668 -8.766 0.814 19
9.38 -8.408 0.747 33
9.147 -8.105 0.676 24
30.763 -26.956 -5.241 18
29.462 -25.545 -5.3 6
27.547 -23.633 -5.137 5
25.853 -21.968 -4.996 6
24.36 -20.489 -4.865 35
23.101 -19.25 -4.777 7
21.973 -18.141 -4.701 6
20.922 -17.126 -4.625 32
19.987 -16.219 -4.563 7
19.135 -15.404 -4.513 5
18.361 -14.663 -4.471 6
17.65 -13.986 -4.437 5
16.98 -13.36 -4.406 6
16.359 -12.78 -4.379 6
15.783 -12.25 -4.361 6
15.23 -11.743 -4.338 6
14.714 -11.276 -4.323 8
14.216 -10.827 -4.303 9
10.709 -8.11 -2.679 3
10.356 -7.798 -2.666 3
10.045 -7.524 -2.669 4
10.023 -7.466 -2.833 2
10.226 -7.576 -3.135 2
10.422 -7.683 -3.447 3
10.651 -7.812 -3.791 12
8.979 -8.604 1.483 18
8.947 -8.468 1.354 17
8.978 -8.389 1.217 27
0.0 -0.0 3.0 0
9.658 -8.811 0.803 17
9.359 -8.44 0.739 38
9.294 -8.286 0.624 30
30.556 -26.939 -5.236 20
29.246 -25.516 -5.291 5
27.336 -23.599 -5.126 5
25.659 -21.941 -4.986 6
24.206 -20.486 -4.864 32
22.95 -19.245 -4.775 6
21.828 -18.136 -4.698 6
20.801 -17.134 -4.628 23
19.871 -16.227 -4.567 7
19.019 -15.407 -4.514 6
18.247 -14.664 -4.471 5
17.55 -13.995 -4.441 5
16.879 -13.365 -4.408 5
16.269 -12.789 -4.384 6
15.703 -12.264 -4.369 6
15.152 -11.756 -4.346 7
14.629 -11.28 -4.325 8
14.132 -10.829 -4.304 9
10.658 -8.121 -2.686 4
10.313 -7.813 -2.676 4
9.994 -7.531 -2.675 4
9.954 -7.459 -2.828 2
10.145 -7.56 -3.122 2
10.349 -7.675 -3.44 3
10.57 -7.797 -3.778 9
8.89 -8.569 1.489 24
8.89 -8.463 1.355 29
8.984 -8.445 1.205 29
0.0 -0.0 3.0 0
9.628 -8.836 0.797 27
9.525 -8.643 0.684 18
9.267 -8.313 0.616 26
30.325 -26.902 -5.225 18
29.022 -25.478 -5.278 5
27.138 -23.574 -5.117 5
25.489 -21.932 -4.982 6
24.054 -20.486 -4.864 29
22.799 -19.239 -4.773 7
21.698 -18.141 -4.7 6
20.68 -17.142 -4.632 10
19.741 -16.223 -4.565 7
18.905 -15.412 -4.517 5
18.144 -14.674 -4.477 5
17.447 -14.001 -4.444 5
16.787 -13.375 -4.414 6
16.181 -12.801 -4.39 6
15.612 -12.269 -4.372 6
15.068 -11.763 -4.35 6
14.552 -11.29 -4.332 6
14.065 -10.845 -4.315 9
10.604 -8.13 -2.693 4
10.257 -7.817 -2.68 5
9.942 -7.536 -2.679 4
9.877 -7.445 -2.817 2
10.067 -7.547 -3.112 2
10.274 -7.663 -3.43 3
10.494 -7.786 -3.768 6
8.848 -8.578 1.487 27
8.845 -8.469 1.354 23
9.013 -8.523 1.188 27
0.0 -0.0 3.0 0
9.597 -8.862 0.791 23
9.538 -8.708 0.667 34
9.232 -8.333 0.611 21
30.113 -26.879 -5.218 19
28.805 -25.444 -5.267 5
26.94 -23.548 -5.108 5
25.301 -21.907 -4.973 6
23.915 -20.496 -4.868 13
22.642 -19.227 -4.768 7
21.562 -18.142 -4.701 6
20.535 -17.13 -4.627 7
19.628 -16.233 -4.57 7
18.789 -15.415 -4.518 6
18.04 -14.681 -4.48 5
17.344 -14.006 -4.447 5
16.689 -13.381 -4.417 6
16.094 -12.811 -4.397 6
15.526 -12.277 -4.377 6
14.984 -11.77 -4.355 6
14.478 -11.303 -4.34 8
13.993 -10.855 -4.322 9
10.551 -8.138 -2.699 4
10.208 -7.827 -2.687 4
9.894 -7.545 -2.685 4
9.811 -7.44 -2.813 1
9.998 -7.54 -3.106 2
10.199 -7.652 -3.421 3
10.416 -7.773 -3.757 5
8.837 -8.618 1.48 25
8.799 -8.476 1.353 23
9.053 -8.612 1.17 23
0.0 -0.0 3.0 0
9.552 -8.873 0.788 27
9.511 -8.736 0.659 30
9.287 -8.434 0.582 63
29.921 -26.873 -5.216 21
28.573 -25.396 -5.252 5
26.745 -23.524 -5.1 5
25.12 -21.887 -4.966 6
23.749 -20.482 -4.862 5
22.495 -19.223 -4.767 6
21.424 -18.139 -4.699 6
20.405 -17.129 -4.626 6
19.507 -16.235 -4.57 8
18.68 -15.422 -4.522 5
17.938 -14.691 -4.485 6
17.247 -14.015 -4.452 5
16.594 -13.389 -4.422 5
16.004 -12.819 -4.401 6
15.446 -12.291 -4.385 5
14.906 -11.781 -4.361 6
14.405 -11.315 -4.348 8
13.918 -10.863 -4.327 9
10.494 -8.144 -2.703 4
10.158 -7.836 -2.693 4
9.854 -7.56 -2.697 4
9.737 -7.428 -2.803 2
9.924 -7.528 -3.096 2
10.124 -7.64 -3.411 3
10.338 -7.759 -3.745 5
8.785 -8.618 1.48 25
8.788 -8.515 1.345 7
9.027 -8.638 1.164 20
0.0 -0.0 3.0 0
9.539 -8.914 0.777 29
9.521 -8.798 0.643 28
9.179 -8.387 0.595 7
29.718 -26.856 -5.211 18
28.359 -25.362 -5.241 5
26.554 -23.501 -5.092 5
24.945 -21.87 -4.96 6
23.572 -20.457 -4.853 5
22.36 -19.227 -4.768 6
21.282 -18.133 -4.697 6
20.282 -17.133 -4.628 6
19.389 -16.238 -4.572 7
18.576 -15.433 -4.527 6
17.836 -14.7 -4.49 5
17.144 -14.02 -4.455 5
16.505 -13.401 -4.428 6
15.914 -12.827 -4.406 6
15.364 -12.301 -4.391 6
14.825 -11.79 -4.367 6
14.325 -11.322 -4.353 8
13.846 -10.874 -4.334 9
10.441 -8.152 -2.708 4
10.106 -7.843 -2.698 4
9.808 -7.57 -2.705 4
9.692 -7.437 -2.811 4
9.853 -7.518 -3.088 2
10.047 -7.626 -3.399 3
10.26 -7.745 -3.733 4
8.76 -8.643 1.476 16
8.76 -8.538 1.34 19
9.012 -8.676 1.156 23
9.562 -9.097 0.9 2
9.474 -8.907 0.779 26
9.597 -8.923 0.609 15
9.806 -9.014 0.415 26
29.496 -26.819 -5.2 11
28.131 -25.315 -5.225 5
26.369 -23.483 -5.086 5
24.77 -21.853 -4.954 6
23.404 -20.439 -4.846 5
22.201 -19.211 -4.762 7
21.141 -18.126 -4.694 6
20.15 -17.129 -4.626 6
19.263 -16.234 -4.57 7
18.46 -15.434 -4.528 5
17.729 -14.703 -4.492 5
17.045 -14.026 -4.458 5
16.41 -13.407 -4.432 6
15.83 -12.84 -4.413 6
15.278 -12.309 -4.396 6
14.744 -11.799 -4.373 6
14.249 -11.332 -4.359 8
13.777 -10.886 -4.343 8
10.391 -8.162 -2.715 4
10.059 -7.855 -2.707 4
9.757 -7.576 -2.709 4
9.692 -7.482 -2.846 4
9.784 -7.51 -3.082 2
9.978 -7.619 -3.393 3
10.188 -7.736 -3.725 4
8.723 -8.657 1.473 26
8.754 -8.583 1.332 0
9.014 -8.729 1.145 13
9.616 -9.204 0.875 4
9.46 -8.948 0.769 23
9.425 -8.816 0.638 31
9.757 -9.024 0.412 26
29.233 -26.745 -5.177 8
27.93 -25.29 -5.217 5
26.158 -23.441 -5.071 4
24.59 -21.83 -4.945 6
23.248 -20.431 -4.843 5
22.054 -19.204 -4.759 7
21.007 -18.125 -4.694 6
20.029 -17.135 -4.629 7
19.151 -16.242 -4.574 8
18.351 -15.439 -4.53 5
17.624 -14.709 -4.495 5
16.954 -14.039 -4.465 5
16.324 -13.421 -4.439 4
15.737 -12.844 -4.416 6
15.199 -12.322 -4.404 6
14.666 -11.809 -4.379 6
14.178 -11.344 -4.367 8
13.708 -10.898 -4.351 9
10.34 -8.172 -2.722 4
10.01 -7.863 -2.712 4
9.708 -7.583 -2.714 8
9.69 -7.524 -2.879 4
9.716 -7.502 -3.075 2
9.904 -7.606 -3.382 3
10.108 -7.719 -3.71 3
8.781 -8.766 1.454 20
51.733 -51.02 -6.917 11
47.526 -46.299 -6.841 13
9.702 -9.342 0.843 21
9.387 -8.933 0.773 28
9.454 -8.898 0.616 29
9.711 -9.037 0.409 31
28.994 -26.69 -5.16 7
27.72 -25.257 -5.206 5
25.98 -23.427 -5.067 5
24.422 -21.816 -4.941 6
23.096 -20.424 -4.84 5
21.902 -19.192 -4.754 7
20.878 -18.127 -4.694 6
19.906 -17.136 -4.63 6
19.033 -16.244 -4.575 7
18.238 -15.442 -4.531 5
17.52 -14.714 -4.497 5
16.852 -14.043 -4.467 6
16.235 -13.432 -4.445 5
15.653 -12.856 -4.422 6
15.119 -12.334 -4.411 6
14.594 -11.824 -4.389 6
14.099 -11.351 -4.371 8
13.633 -10.905 -4.356 9
10.287 -8.179 -2.727 4
9.963 -7.874 -2.721 4
9.694 -7.618 -2.741 4
9.692 -7.572 -2.916 4
9.704 -7.537 -3.104 4
9.83 -7.594 -3.372 3
10.036 -7.709 -3.701 4
9.301 -9.34 1.353 23
33.792 -33.524 -3.516 18
8.977 -8.798 1.13 0
9.608 -9.307 0.851 25
9.37 -8.971 0.763 24
9.535 -9.029 0.581 33
9.676 -9.061 0.402 30
28.79 -26.666 -5.153 7
27.52 -25.23 -5.198 6
25.79 -23.4 -5.057 5
24.257 -21.805 -4.936 6
22.937 -20.411 -4.835 5
21.759 -19.187 -4.752 7
20.74 -18.121 -4.692 6
19.781 -17.135 -4.629 7
18.919 -16.248 -4.577 8
18.129 -15.446 -4.534 5
17.421 -14.724 -4.502 5
16.753 -14.048 -4.469 5
16.141 -13.437 -4.449 5
15.563 -12.862 -4.426 5
15.034 -12.341 -4.415 6
14.511 -11.83 -4.392 6
14.026 -11.362 -4.379 7
13.567 -10.919 -4.365 8
10.23 -8.185 -2.731 4
9.911 -7.88 -2.725 4
9.691 -7.661 -2.773 6
9.695 -7.619 -2.953 4
9.704 -7.582 -3.139 4
9.761 -7.585 -3.364 3
9.965 -7.699 -3.692 4
8.715 -8.803 1.448 7
33.301 -33.233 -3.46 25
46.947 -46.283 -6.838 19
9.506 -9.263 0.861 10
9.356 -9.012 0.753 19
9.737 -9.276 0.514 23
9.679 -9.118 0.385 25
28.618 -26.67 -5.154 7
27.309 -25.191 -5.185 5
25.612 -23.384 -5.052 4
24.075 -21.776 -4.926 6
22.788 -20.406 -4.833 5
21.622 -19.186 -4.751 7
20.609 -18.12 -4.692 6
19.658 -17.137 -4.63 7
18.807 -16.255 -4.58 7
18.026 -15.455 -4.538 5
17.312 -14.723 -4.502 6
16.659 -14.058 -4.475 5
16.052 -13.448 -4.454 5
15.479 -12.873 -4.432 6
14.949 -12.348 -4.419 6
14.436 -11.842 -4.399 6
13.952 -11.372 -4.385 7
13.489 -10.923 -4.368 8
10.18 -8.194 -2.737 4
9.862 -7.888 -2.731 4
9.693 -7.709 -2.809 4
9.694 -7.664 -2.988 4
9.7 -7.624 -3.174 4
9.71 -7.589 -3.368 4
9.885 -7.682 -3.678 3
9.235 -9.383 1.346 8
28.117 -28.226 -2.487 15
46.578 -46.195 -6.819 19
9.39 -9.206 0.875 6
9.444 -9.152 0.718 17
9.742 -9.337 0.498 23
9.769 -9.26 0.345 0
28.449 -26.677 -5.156 5
27.115 -25.168 -5.177 6
25.406 -23.34 -5.037 13
23.91 -21.763 -4.921 5
22.625 -20.387 -4.826 5
21.479 -19.179 -4.749 7
20.481 -18.121 -4.692 6
19.532 -17.135 -4.629 7
18.69 -16.256 -4.58 7
17.92 -15.461 -4.541 5
17.214 -14.732 -4.506 6
16.56 -14.062 -4.477 5
15.964 -13.458 -4.46 5
15.392 -12.881 -4.437 6
14.87 -12.359 -4.426 6
14.355 -11.849 -4.404 6
13.873 -11.378 -4.389 8
13.42 -10.934 -4.375 8
10.13 -8.203 -2.744 5
9.815 -7.899 -2.739 4
9.695 -7.757 -2.846 4
9.693 -7.709 -3.023 4
9.705 -7.672 -3.213 4
9.706 -7.631 -3.403 4
9.819 -7.675 -3.671 2
26.94 -27.531 -1.855 27
27.443 -27.713 -2.387 25
28.149 -28.084 -2.969 13
9.327 -9.199 0.876 26
9.382 -9.147 0.719 31
9.845 -9.495 0.456 21
30.003 -28.614 -5.205 12
28.298 -26.699 -5.163 6
26.91 -25.132 -5.166 5
25.221 -23.315 -5.028 25
23.735 -21.739 -4.912 6
22.47 -20.374 -4.821 4
21.337 -19.172 -4.746 7
20.356 -18.124 -4.693 6
19.413 -17.138 -4.63 7
18.573 -16.256 -4.58 7
17.811 -15.464 -4.542 5
17.116 -14.741 -4.511 6
16.464 -14.068 -4.48 6
15.867 -13.46 -4.461 5
15.306 -12.888 -4.441 6
14.79 -12.369 -4.432 6
14.283 -11.862 -4.412 6
13.806 -11.393 -4.398 6
13.351 -10.945 -4.382 8
10.076 -8.21 -2.749 4
9.768 -7.909 -2.746 4
9.694 -7.803 -2.88 4
9.695 -7.757 -3.06 4
9.701 -7.715 -3.247 3
9.705 -7.674 -3.439 4
9.745 -7.661 -3.66 3
26.73 -27.479 -1.845 42
27.204 -27.634 -2.371 20
28.018 -28.121 -2.977 18
9.307 -9.235 0.868 24
9.387 -9.207 0.704 27
32.026 -31.072 -5.326 14
29.806 -28.602 -5.201 16
28.132 -26.706 -5.165 5
26.712 -25.102 -5.156 5
25.039 -23.29 -5.019 26
23.583 -21.734 -4.911 6
22.322 -20.367 -4.818 5
21.194 -19.164 -4.743 7
20.214 -18.111 -4.687 6
19.291 -17.137 -4.63 6
18.462 -16.26 -4.582 7
17.708 -15.471 -4.546 5
17.012 -14.743 -4.512 5
16.374 -14.079 -4.486 5
15.776 -13.467 -4.465 5
15.225 -12.9 -4.448 6
14.706 -12.375 -4.436 6
14.203 -11.869 -4.417 6
13.73 -11.4 -4.403 7
13.28 -10.952 -4.388 8
10.026 -8.219 -2.755 4
9.719 -7.917 -2.752 5
9.693 -7.849 -2.915 4
9.694 -7.802 -3.095 4
9.699 -7.759 -3.283 4
9.703 -7.718 -3.477 4
9.71 -7.678 -3.675 4
26.632 -27.538 -1.856 36
27.046 -27.636 -2.372 18
27.487 -27.752 -2.899 21
9.206 -9.19 0.878 28
9.347 -9.224 0.7 20
31.824 -31.065 -5.324 13
29.656 -28.632 -5.21 13
27.972 -26.719 -5.169 5
26.516 -25.073 -5.147 5
24.854 -23.263 -5.01 29
23.411 -21.711 -4.902 5
22.162 -20.348 -4.811 5
21.055 -19.157 -4.74 7
20.086 -18.11 -4.687 6
19.172 -17.139 -4.631 7
18.354 -16.267 -4.586 7
17.605 -15.478 -4.549 6
16.917 -14.754 -4.517 5
16.279 -14.085 -4.489 5
15.682 -13.47 -4.467 5
15.139 -12.908 -4.452 6
14.629 -12.388 -4.443 6
14.126 -11.877 -4.422 7
13.66 -11.411 -4.41 7
13.211 -10.963 -4.394 8
9.976 -8.227 -2.761 4
9.687 -7.938 -2.768 5
9.686 -7.891 -2.946 6
9.692 -7.847 -3.131 4
9.7 -7.806 -3.322 4
9.709 -7.769 -3.519 4
9.719 -7.731 -3.72 4
26.544 -27.609 -1.868 25
26.802 -27.55 -2.355 23
27.094 -27.521 -2.85 35
9.172 -9.211 0.873 27
9.318 -9.251 0.693 18
31.616 -31.051 -5.32 12
29.424 -28.583 -5.196 18
27.827 -26.744 -5.177 5
26.316 -25.038 -5.135 5
24.675 -23.24 -5.002 25
23.254 -21.7 -4.898 5
22.014 -20.339 -4.808 5
20.922 -19.156 -4.74 7
19.962 -18.111 -4.688 6
19.05 -17.137 -4.63 6
18.238 -16.266 -4.585 8
17.5 -15.483 -4.552 6
16.817 -14.758 -4.52 5
16.183 -14.09 -4.492 5
15.597 -13.481 -4.473 5
15.052 -12.914 -4.456 6
14.548 -12.395 -4.448 6
14.057 -11.893 -4.432 6
13.587 -11.42 -4.416 7
13.142 -10.973 -4.401 8
9.914 -8.226 -2.76 1
9.688 -7.987 -2.803 6
9.69 -7.941 -2.984 6
9.693 -7.895 -3.168 4
9.654 -7.815 -3.329 2
9.704 -7.811 -3.554 4
9.714 -7.771 -3.755 4
26.303 -27.52 -1.853 35
26.595 -27.5 -2.345 36
26.888 -27.475 -2.84 24
9.133 -9.227 0.87 28
9.284 -9.273 0.688 25
31.275 -30.903 -5.28 10
28.78 -28.13 -5.066 4
27.654 -26.742 -5.176 7
26.124 -25.01 -5.126 5
24.5 -23.218 -4.995 26
23.088 -21.681 -4.891 5
21.853 -20.316 -4.799 8
20.784 -19.149 -4.737 7
19.835 -18.108 -4.687 6
18.932 -17.138 -4.63 7
18.125 -16.267 -4.586 7
17.397 -15.489 -4.555 6
16.711 -14.757 -4.519 6
16.09 -14.098 -4.496 5
15.514 -13.494 -4.48 5
14.969 -12.923 -4.461 6
14.469 -12.405 -4.454 6
13.971 -11.894 -4.432 6
13.511 -11.427 -4.421 7
13.073 -10.983 -4.408 8
9.872 -8.242 -2.771 0
9.683 -8.032 -2.836 4
9.69 -7.99 -3.021 4
9.693 -7.943 -3.206 4
9.315 -7.586 -3.143 3
9.707 -7.859 -3.595 4
9.714 -7.817 -3.795 4
26.163 -27.536 -1.855 32
26.383 -27.443 -2.334 24
26.689 -27.434 -2.831 34
9.165 -9.315 0.849 26
9.26 -9.306 0.68 23
30.985 -30.804 -5.254 11
28.617 -28.143 -5.07 9
27.503 -26.76 -5.181 8
25.945 -24.992 -5.12 5
24.325 -23.197 -4.987 26
22.926 -21.663 -4.885 6
21.702 -20.303 -4.794 18
20.648 -19.143 -4.734 7
19.705 -18.104 -4.685 6
18.81 -17.135 -4.629 7
18.017 -16.273 -4.588 8
17.292 -15.493 -4.556 6
16.613 -14.764 -4.523 5
15.998 -14.105 -4.5 5
15.421 -13.496 -4.481 6
14.888 -12.934 -4.467 6
14.39 -12.414 -4.459 6
13.896 -11.904 -4.438 6
13.441 -11.438 -4.428 7
13.005 -10.992 -4.414 8
12.592 -10.577 -4.406 8
9.683 -8.082 -2.872 4
9.682 -8.031 -3.052 6
9.649 -7.954 -3.214 3
9.253 -7.58 -3.138 3
9.705 -7.903 -3.632 4
9.714 -7.863 -3.835 4
26.029 -27.556 -1.859 41
26.286 -27.506 -2.347 37
26.679 -27.589 -2.864 22
9.109 -9.314 0.85 31
9.301 -9.403 0.656 24
30.768 -30.776 -5.246 16
28.355 -28.056 -5.045 17
27.361 -26.786 -5.189 7
25.754 -24.963 -5.111 5
24.153 -23.176 -4.98 25
22.775 -21.655 -4.882 6
21.567 -20.303 -4.794 25
20.513 -19.137 -4.732 7
19.581 -18.103 -4.684 6
18.689 -17.132 -4.628 7
17.91 -16.277 -4.59 7
17.19 -15.498 -4.559 6
16.519 -14.772 -4.527 5
15.902 -14.109 -4.502 5
15.342 -13.512 -4.49 5
14.802 -12.939 -4.47 6
14.314 -12.426 -4.466 6
13.825 -11.916 -4.446 6
13.368 -11.446 -4.433 7
12.936 -11.002 -4.421 8
12.52 -10.581 -4.409 8
9.686 -8.133 -2.909 4
9.685 -8.082 -3.09 6
9.396 -7.791 -3.087 5
9.188 -7.571 -3.131 4
9.341 -7.652 -3.421 3
9.716 -7.91 -3.876 3
25.933 -27.617 -1.87 31
26.176 -27.553 -2.356 41
26.458 -27.524 -2.85 38
9.264 -9.53 0.8 28
9.324 -9.484 0.635 27
30.698 -30.893 -5.278 15
28.201 -28.075 -5.051 21
27.202 -26.796 -5.192 9
25.572 -24.94 -5.104 5
23.979 -23.152 -4.972 24
22.608 -21.63 -4.873 6
21.417 -20.289 -4.788 28
20.378 -19.131 -4.73 8
19.46 -18.104 -4.685 6
18.577 -17.137 -4.63 7
17.794 -16.275 -4.589 7
17.085 -15.501 -4.56 6
16.419 -14.776 -4.529 6
15.816 -14.12 -4.508 5
15.248 -13.513 -4.49 5
14.725 -12.952 -4.478 6
14.232 -12.432 -4.47 6
13.751 -11.926 -4.452 6
13.298 -11.456 -4.44 7
12.867 -11.01 -4.427 8
12.458 -10.593 -4.417 8
9.686 -8.182 -2.944 4
9.688 -8.133 -3.129 5
9.353 -7.802 -3.096 4
9.129 -7.568 -3.128 3
9.273 -7.642 -3.412 3
9.713 -7.954 -3.914 4
25.859 -27.7 -1.884 43
26.011 -27.542 -2.354 35
26.294 -27.518 -2.849 38
9.303 -9.628 0.777 23
9.288 -9.506 0.63 19
27.983 -28.334 -4.592 19
28.053 -28.1 -5.058 17
27.035 -26.796 -5.192 9
25.388 -24.915 -5.095 5
23.811 -23.134 -4.966 24
22.458 -21.621 -4.869 6
21.274 -20.279 -4.784 29
20.243 -19.125 -4.727 8
19.331 -18.098 -4.682 6
