# .PCD v0.7 - Point Cloud Data file format
VERSION 0.7
FIELDS x y z intensity
SIZE 4 4 4 4
TYPE F F F F
COUNT 1 1 1 1
WIDTH 2010
HEIGHT 1
VIEWPOINT 0 0 0 1 0 0 0
POINTS 2010
DATA ascii
-2.68 -22.369 -3.839 1
-2.716 -22.499 -4.31 5
-2.601 -21.409 -4.372 18
-2.508 -20.448 -4.442 9
-2.412 -19.573 -4.513 9
-2.333 -18.779 -4.587 8
-2.252 -18.012 -4.645 8
-2.181 -17.302 -4.703 7
-2.11 -16.628 -4.754 7
-2.044 -15.979 -4.794 9
-1.982 -15.392 -4.843 8
-1.921 -14.814 -4.877 7
-1.869 -14.296 -4.924 8
-1.82 -13.826 -4.982 7
-1.773 -13.354 -5.024 8
-1.72 -12.862 -5.037 8
-1.68 -12.45 -5.085 10
-1.635 -12.031 -5.115 10
-1.596 -11.634 -5.146 10
-1.556 -11.259 -5.18 12
-1.519 -10.89 -5.206 11
-1.2 -8.537 -3.67 5
-1.182 -8.339 -3.753 12
-1.162 -8.121 -3.814 10
-1.378 -9.543 -5.296 27
-3.999 -34.104 -3.013 39
-3.915 -33.13 -3.44 46
0.0 -0.0 3.0 0
0.0 -0.0 3.0 0
-2.702 -22.404 -2.586 1
0.0 -0.0 3.0 0
0.0 -0.0 3.0 0
-2.755 -22.379 -3.842 1
-2.792 -22.502 -4.311 6
-2.673 -21.405 -4.37 17
-2.577 -20.444 -4.441 9
-2.479 -19.573 -4.513 9
-2.398 -18.783 -4.589 7
-2.315 -18.013 -4.646 8
-2.24 -17.295 -4.7 8
-2.168 -16.625 -4.753 8
-2.101 -15.985 -4.796 9
-2.038 -15.401 -4.847 7
-1.975 -14.82 -4.88 8
-1.92 -14.291 -4.921 9
-1.87 -13.82 -4.979 5
-1.823 -13.352 -5.023 8
-1.769 -12.868 -5.041 8
-1.727 -12.45 -5.085 9
-1.681 -12.03 -5.114 10
-1.64 -11.633 -5.146 10
-1.6 -11.258 -5.18 10
-1.562 -10.893 -5.208 10
-1.224 -8.468 -3.616 12
-1.202 -8.251 -3.681 8
-1.182 -8.033 -3.74 10
-1.417 -9.546 -5.299 37
-4.12 -34.225 -3.035 29
-4.028 -33.2 -3.453 41
-3.944 -32.304 -3.866 13
0.0 -0.0 3.0 0
-2.775 -22.407 -2.587 1
0.0 -0.0 3.0 0
0.0 -0.0 3.0 0
-2.83 -22.39 -3.845 1
-2.868 -22.516 -4.316 5
-2.746 -21.42 -4.375 15
-2.647 -20.452 -4.444 10
-2.546 -19.573 -4.513 9
-2.463 -18.788 -4.591 8
-2.376 -18.005 -4.643 7
-2.301 -17.3 -4.702 8
-2.226 -16.619 -4.75 8
-2.157 -15.975 -4.791 9
-2.093 -15.398 -4.846 7
-2.029 -14.825 -4.883 7
-1.973 -14.292 -4.922 8
-1.921 -13.822 -4.98 5
-1.872 -13.354 -5.024 8
-1.816 -12.859 -5.036 8
-1.774 -12.451 -5.086 10
-1.727 -12.032 -5.116 10
-1.685 -11.639 -5.149 10
-1.643 -11.261 -5.182 11
-1.604 -10.889 -5.205 11
-1.245 -8.387 -3.553 9
-1.223 -8.171 -3.616 9
-1.203 -7.96 -3.679 6
-1.455 -9.546 -5.298 39
-4.212 -34.111 -3.015 5
-4.137 -33.242 -3.462 40
-4.048 -32.315 -3.869 14
-3.22 -25.504 -2.888 4
0.0 -0.0 3.0 0
0.0 -0.0 3.0 0
0.0 -0.0 3.0 0
-2.906 -22.409 -3.851 1
-2.944 -22.519 -4.317 5
-2.816 -21.408 -4.372 30
-2.714 -20.439 -4.439 9
-2.612 -19.573 -4.513 9
-2.528 -18.791 -4.592 8
-2.439 -18.009 -4.644 8
-2.361 -17.296 -4.701 8
-2.284 -16.616 -4.748 8
-2.213 -15.972 -4.79 9
-2.149 -15.406 -4.85 7
-2.083 -14.826 -4.883 7
-2.025 -14.298 -4.925 9
-1.972 -13.824 -4.981 8
-1.921 -13.353 -5.023 8
-1.865 -12.865 -5.039 8
-1.821 -12.453 -5.087 8
-1.771 -12.025 -5.111 10
-1.729 -11.631 -5.144 10
-1.686 -11.257 -5.179 11
-1.287 -8.509 -3.412 10
-1.265 -8.297 -3.482 7
-1.242 -8.081 -3.544 8
-1.239 -7.982 -3.697 0
-1.494 -9.542 -5.295 39
-4.347 -34.332 -3.054 2
-4.255 -33.346 -3.482 32
-4.15 -32.314 -3.869 13
-3.299 -25.482 -2.883 2
-3.307 -25.386 -3.33 62
0.0 -0.0 3.0 0
0.0 -0.0 3.0 0
-2.981 -22.411 -3.852 1
-3.018 -22.518 -4.316 5
-2.888 -21.407 -4.371 32
-2.785 -20.45 -4.443 9
-2.68 -19.581 -4.516 9
-2.592 -18.788 -4.591 8
-2.5 -18.002 -4.642 7
-2.42 -17.286 -4.696 8
-2.343 -16.621 -4.75 8
-2.27 -15.977 -4.792 9
-2.204 -15.403 -4.848 8
-2.136 -14.823 -4.882 7
-2.077 -14.295 -4.924 8
-2.023 -13.822 -4.98 8
-1.971 -13.354 -5.024 8
-1.913 -12.87 -5.042 8
-1.866 -12.445 -5.082 9
-1.817 -12.023 -5.11 9
-1.774 -11.634 -5.146 10
-1.73 -11.256 -5.178 12
-1.318 -8.499 -3.405 9
-1.284 -8.209 -3.413 8
-1.261 -7.998 -3.477 12
-1.571 -9.867 -5.279 13
-1.533 -9.545 -5.297 38
-4.926 -37.965 -3.694 7
-4.363 -33.361 -3.485 23
-4.255 -32.325 -3.871 13
-3.38 -25.484 -2.883 51
-3.391 -25.396 -3.332 64
0.0 -0.0 3.0 0
0.0 -0.0 3.0 0
-3.059 -22.444 -3.862 1
-3.095 -22.531 -4.321 5
-2.96 -21.41 -4.372 33
-2.854 -20.453 -4.444 9
-2.747 -19.58 -4.516 9
-2.657 -18.787 -4.59 8
-2.564 -18.01 -4.645 8
-2.481 -17.29 -4.698 8
-2.4 -16.614 -4.747 8
-2.327 -15.978 -4.793 9
-2.259 -15.404 -4.849 8
-2.19 -14.828 -4.884 8
-2.13 -14.3 -4.926 8
-2.073 -13.82 -4.979 8
-2.02 -13.353 -5.023 7
-1.96 -12.861 -5.037 6
-1.914 -12.447 -5.083 9
-1.862 -12.021 -5.109 9
-1.817 -11.626 -5.14 9
-1.774 -11.258 -5.18 11
-1.351 -8.496 -3.402 4
-1.316 -8.212 -3.416 2
-1.285 -7.948 -3.437 5
-1.611 -9.87 -5.282 15
-1.571 -9.545 -5.297 39
-5.049 -37.996 -3.7 6
-4.471 -33.382 -3.489 28
-4.358 -32.328 -3.871 12
-3.467 -25.516 -2.891 50
-3.474 -25.405 -3.334 63
-3.102 -22.512 -3.032 0
0.0 -0.0 3.0 0
-3.134 -22.446 -3.862 1
-3.169 -22.522 -4.318 5
-3.033 -21.415 -4.374 16
-2.925 -20.459 -4.447 9
-2.814 -19.579 -4.516 9
-2.722 -18.791 -4.592 8
-2.625 -18.002 -4.641 8
-2.542 -17.293 -4.699 8
-2.459 -16.614 -4.747 8
-2.383 -15.97 -4.789 9
-2.315 -15.405 -4.849 8
-2.243 -14.825 -4.883 8
-2.182 -14.298 -4.925 9
-2.125 -13.828 -4.983 7
-2.069 -13.347 -5.02 7
-2.008 -12.863 -5.038 8
-1.96 -12.445 -5.082 9
-1.909 -12.03 -5.114 10
-1.863 -11.634 -5.146 8
-1.817 -11.26 -5.181 11
-1.773 -10.885 -5.202 11
-1.366 -8.315 -3.496 5
-1.316 -7.945 -3.434 4
-1.651 -9.869 -5.281 14
-1.611 -9.547 -5.299 36
-5.17 -38.013 -3.703 7
-4.579 -33.404 -3.493 27
-4.46 -32.323 -3.87 13
-3.553 -25.553 -2.899 24
-3.558 -25.421 -3.338 61
0.0 -0.0 3.0 0
0.0 -0.0 3.0 0
-3.209 -22.452 -3.864 1
-3.246 -22.535 -4.322 5
-3.107 -21.429 -4.379 14
-2.994 -20.462 -4.448 9
-2.88 -19.578 -4.515 9
-2.787 -18.79 -4.592 8
-2.688 -18.002 -4.641 8
-2.603 -17.293 -4.699 8
-2.518 -16.618 -4.749 8
-2.441 -15.974 -4.791 9
-2.37 -15.406 -4.85 8
-2.296 -14.822 -4.881 7
-2.233 -14.295 -4.924 8
-2.176 -13.829 -4.984 7
-2.119 -13.352 -5.023 7
-2.056 -12.861 -5.036 7
-2.008 -12.447 -5.083 9
-1.955 -12.028 -5.113 10
-1.908 -11.636 -5.148 8
-1.86 -11.255 -5.177 12
-1.816 -10.883 -5.201 12
-1.434 -8.527 -3.662 0
-1.348 -7.948 -3.436 1
-1.691 -9.871 -5.283 14
-1.649 -9.544 -5.296 38
-5.294 -38.044 -3.708 7
-4.686 -33.413 -3.495 28
-4.566 -32.347 -3.876 16
-3.647 -25.634 -2.918 20
-3.208 -22.401 -2.585 0
-3.235 -22.417 -3.007 1
0.0 -0.0 3.0 0
-3.285 -22.465 -3.868 2
-3.323 -22.548 -4.326 5
-3.181 -21.442 -4.383 12
-3.064 -20.46 -4.447 10
-2.948 -19.585 -4.518 9
-2.852 -18.796 -4.594 8
-2.752 -18.012 -4.646 8
-2.663 -17.293 -4.7 8
-2.576 -16.614 -4.747 7
-2.497 -15.975 -4.792 9
-2.427 -15.413 -4.853 8
-2.351 -14.827 -4.884 8
-2.286 -14.295 -4.924 8
-2.226 -13.823 -4.981 7
-2.168 -13.346 -5.019 7
-2.105 -12.865 -5.039 8
-2.055 -12.448 -5.084 10
-2.0 -12.027 -5.112 9
-1.952 -11.628 -5.142 9
-1.904 -11.254 -5.176 12
-1.859 -10.888 -5.205 12
-1.813 -10.529 -5.226 12
-1.482 -8.54 -3.915 3
-1.395 -7.96 -3.679 5
-1.687 -9.542 -5.295 39
-5.416 -38.063 -3.712 7
-4.794 -33.43 -3.498 21
-4.669 -32.341 -3.874 13
-3.746 -25.747 -2.944 16
-3.727 -25.446 -3.344 58
0.0 -0.0 3.0 0
0.0 -0.0 3.0 0
-3.346 -22.372 -3.84 2
-3.398 -22.545 -4.325 5
-3.255 -21.452 -4.386 12
-3.135 -20.47 -4.45 9
-3.016 -19.587 -4.519 9
-2.916 -18.792 -4.592 8
-2.814 -18.008 -4.644 8
-2.724 -17.296 -4.701 8
-2.635 -16.614 -4.747 8
-2.554 -15.975 -4.792 9
-2.481 -15.406 -4.85 8
-2.404 -14.823 -4.882 7
-2.338 -14.296 -4.925 8
-2.277 -13.823 -4.981 7
-2.217 -13.347 -5.02 8
-2.154 -12.869 -5.042 7
-2.101 -12.443 -5.08 9
-2.047 -12.028 -5.113 10
-1.997 -11.632 -5.145 9
-1.947 -11.252 -5.175 11
-1.901 -10.884 -5.201 12
-1.855 -10.534 -5.23 11
-1.811 -10.196 -5.256 13
-1.515 -8.448 -4.089 0
-1.488 -8.226 -4.151 1
-5.537 -38.074 -3.714 6
-4.902 -33.443 -3.501 22
-4.773 -32.351 -3.876 13
-3.846 -25.866 -2.972 11
-3.812 -25.465 -3.349 59
0.0 -0.0 3.0 0
0.0 -0.0 3.0 0
-3.449 -22.563 -3.898 2
-3.476 -22.558 -4.329 4
-3.327 -21.445 -4.384 11
-3.205 -20.472 -4.451 9
-3.083 -19.586 -4.518 9
-2.982 -18.793 -4.593 8
-2.876 -18.006 -4.643 7
-2.786 -17.299 -4.702 5
-2.694 -16.617 -4.749 8
-2.612 -15.978 -4.793 9
-2.537 -15.41 -4.852 7
-2.458 -14.828 -4.884 8
-2.39 -14.294 -4.923 8
-2.329 -13.828 -4.984 7
-2.267 -13.348 -5.02 7
-2.202 -12.868 -5.041 7
-2.148 -12.444 -5.081 9
-2.092 -12.026 -5.112 8
-2.042 -11.631 -5.144 7
-1.991 -11.25 -5.174 10
-1.943 -10.882 -5.2 12
-1.897 -10.533 -5.229 13
-1.851 -10.194 -5.255 13
-1.557 -8.493 -4.127 5
-1.476 -7.98 -3.937 4
-5.663 -38.116 -3.721 6
-5.009 -33.451 -3.502 22
-4.876 -32.348 -3.876 13
-3.956 -26.036 -3.011 7
-3.898 -25.484 -3.354 58
0.0 -0.0 3.0 0
0.0 -0.0 3.0 0
-3.572 -22.866 -3.991 4
-3.552 -22.563 -4.331 3
-3.4 -21.455 -4.387 9
-3.274 -20.47 -4.45 9
-3.151 -19.591 -4.52 9
-3.048 -18.804 -4.597 8
-2.94 -18.013 -4.646 7
-2.847 -17.302 -4.703 8
-2.753 -16.616 -4.748 7
-2.667 -15.967 -4.788 9
-2.592 -15.406 -4.85 7
-2.512 -14.824 -4.882 8
-2.442 -14.294 -4.923 9
-2.378 -13.815 -4.976 7
-2.317 -13.348 -5.02 7
-2.252 -12.875 -5.045 7
-2.196 -12.445 -5.082 9
-2.138 -12.024 -5.11 10
-2.086 -11.628 -5.142 7
-2.035 -11.255 -5.177 11
-1.987 -10.887 -5.204 11
-1.938 -10.531 -5.228 12
-1.892 -10.193 -5.254 12
-1.849 -9.864 -5.277 15
-1.548 -8.189 -4.118 4
-5.127 -33.794 -2.959 4
-5.115 -33.452 -3.502 20
-4.981 -32.356 -3.878 12
-4.079 -26.29 -3.069 3
-3.984 -25.511 -3.361 51
0.0 -0.0 3.0 0
-3.557 -22.446 -3.436 1
-3.582 -22.454 -3.865 1
-3.628 -22.563 -4.331 4
-3.473 -21.456 -4.388 10
-3.345 -20.479 -4.454 10
-3.219 -19.596 -4.522 10
-3.112 -18.794 -4.593 8
-3.003 -18.015 -4.647 8
-2.908 -17.301 -4.703 7
-2.812 -16.616 -4.748 8
-2.725 -15.97 -4.789 9
-2.646 -15.399 -4.846 7
-2.565 -14.821 -4.88 7
-2.494 -14.29 -4.921 9
-2.429 -13.818 -4.978 8
-2.366 -13.345 -5.019 7
-2.301 -12.879 -5.048 8
-2.243 -12.446 -5.082 9
-2.184 -12.028 -5.113 9
-2.131 -11.629 -5.143 6
-2.078 -11.25 -5.173 12
-2.029 -10.882 -5.2 10
-1.979 -10.526 -5.224 11
-1.933 -10.195 -5.256 13
-1.889 -9.865 -5.278 14
-1.656 -8.576 -4.455 2
-5.236 -33.81 -2.962 9
-5.224 -33.467 -3.505 23
-5.087 -32.372 -3.881 12
-4.797 -30.287 -3.992 6
-4.07 -25.53 -3.365 0
0.0 -0.0 3.0 0
-3.621 -22.383 -3.418 1
-3.639 -22.345 -3.832 3
-3.706 -22.578 -4.336 5
-3.546 -21.46 -4.389 10
-3.414 -20.472 -4.451 10
-3.287 -19.602 -4.524 19
-3.179 -18.804 -4.597 8
-3.066 -18.014 -4.646 7
-2.968 -17.296 -4.701 8
-2.871 -16.619 -4.75 8
-2.782 -15.97 -4.789 9
-2.702 -15.398 -4.846 7
-2.619 -14.82 -4.88 8
-2.546 -14.29 -4.921 9
-2.48 -13.815 -4.976 7
-2.416 -13.342 -5.017 7
-2.349 -12.877 -5.046 7
-2.29 -12.443 -5.081 9
-2.23 -12.026 -5.112 10
-2.176 -11.627 -5.141 5
-2.122 -11.251 -5.174 11
-2.073 -10.886 -5.203 11
-2.021 -10.528 -5.226 13
-1.973 -10.19 -5.252 12
-1.928 -9.861 -5.274 14
-1.881 -9.537 -5.29 38
-5.348 -33.844 -2.968 12
-5.333 -33.483 -3.508 20
-5.191 -32.372 -3.881 12
-4.895 -30.292 -3.994 6
0.0 -0.0 3.0 0
0.0 -0.0 3.0 0
-3.687 -22.333 -3.404 3
-3.711 -22.331 -3.827 2
-3.756 -22.421 -4.285 2
-3.62 -21.468 -4.392 10
-3.484 -20.473 -4.452 9
-3.351 -19.581 -4.517 35
-3.244 -18.806 -4.598 8
-3.129 -18.012 -4.646 7
-3.029 -17.298 -4.702 8
-2.93 -16.617 -4.749 8
-2.839 -15.969 -4.788 9
-2.757 -15.398 -4.846 7
-2.673 -14.82 -4.88 7
-2.599 -14.29 -4.921 9
-2.531 -13.815 -4.976 7
-2.465 -13.34 -5.015 8
-2.397 -12.873 -5.044 8
-2.338 -12.447 -5.083 10
-2.276 -12.023 -5.11 10
-2.221 -11.628 -5.142 6
-2.166 -11.249 -5.173 12
-2.115 -10.885 -5.202 10
-2.063 -10.529 -5.226 12
-2.014 -10.191 -5.253 12
-1.968 -9.862 -5.275 14
-1.92 -9.539 -5.292 36
-5.416 -33.602 -2.925 25
-5.44 -33.487 -3.509 21
-5.294 -32.368 -3.88 12
-4.995 -30.3 -3.995 7
-4.706 -28.359 -4.071 6
0.0 -0.0 3.0 0
-3.761 -22.334 -3.404 2
-3.79 -22.357 -3.835 15
-3.823 -22.372 -4.269 2
-3.693 -21.469 -4.392 10
-3.555 -20.482 -4.455 9
-3.419 -19.586 -4.518 41
-3.309 -18.803 -4.597 7
-3.192 -18.014 -4.646 7
-3.09 -17.301 -4.703 8
-2.99 -16.62 -4.75 8
-2.897 -15.971 -4.79 9
-2.811 -15.39 -4.842 7
-2.726 -14.816 -4.878 8
-2.652 -14.293 -4.923 9
-2.583 -13.819 -4.978 7
-2.515 -13.34 -5.015 8
-2.445 -12.87 -5.042 8
-2.384 -12.441 -5.079 9
-2.322 -12.024 -5.11 9
-2.266 -11.629 -5.143 10
-2.21 -11.25 -5.174 11
-2.157 -10.879 -5.198 11
-2.104 -10.524 -5.222 12
-2.055 -10.193 -5.254 11
-2.008 -9.861 -5.274 14
-1.959 -9.538 -5.291 30
-5.524 -33.618 -2.928 16
-5.552 -33.52 -3.516 29
-5.399 -32.375 -3.882 12
-5.095 -30.316 -3.999 6
-4.8 -28.368 -4.073 8
0.0 -0.0 3.0 0
-3.837 -22.345 -3.407 2
-3.868 -22.376 -3.841 4
-3.897 -22.364 -4.267 1
-3.767 -21.473 -4.394 9
-3.625 -20.482 -4.455 9
-3.488 -19.594 -4.522 32
-3.376 -18.811 -4.6 8
-3.255 -18.012 -4.646 7
-3.151 -17.299 -4.702 7
-3.049 -16.618 -4.749 8
-2.954 -15.97 -4.789 9
-2.868 -15.396 -4.845 7
-2.781 -14.819 -4.879 8
-2.704 -14.289 -4.921 9
-2.633 -13.812 -4.974 7
-2.566 -13.346 -5.019 8
-2.494 -12.874 -5.044 8
-2.432 -12.444 -5.082 9
-2.368 -12.021 -5.108 10
-2.31 -11.623 -5.139 10
-2.254 -11.25 -5.174 10
-2.201 -10.884 -5.201 11
-2.146 -10.525 -5.223 10
-2.096 -10.191 -5.253 12
-2.047 -9.859 -5.273 14
-1.998 -9.539 -5.292 36
-5.6 -33.437 -2.896 26
-5.657 -33.511 -3.514 21
-5.504 -32.382 -3.883 12
-5.197 -30.336 -4.004 6
-4.896 -28.388 -4.078 8
0.0 -0.0 3.0 0
-3.911 -22.345 -3.407 2
-3.947 -22.402 -3.849 2
-3.974 -22.375 -4.27 1
-3.84 -21.477 -4.395 10
-3.697 -20.489 -4.458 9
-3.555 -19.587 -4.519 15
-3.44 -18.806 -4.598 8
-3.318 -18.009 -4.644 7
-3.211 -17.293 -4.7 8
-3.109 -16.623 -4.752 8
-3.012 -15.976 -4.792 9
-2.923 -15.392 -4.843 7
-2.835 -14.822 -4.881 8
-2.756 -14.285 -4.918 8
-2.685 -13.814 -4.976 8
-2.615 -13.342 -5.017 8
-2.541 -12.867 -5.04 8
-2.479 -12.441 -5.079 9
-2.414 -12.025 -5.111 9
-2.356 -11.627 -5.141 10
-2.297 -11.248 -5.172 11
-2.242 -10.878 -5.197 11
-2.189 -10.529 -5.226 10
-2.136 -10.186 -5.248 12
-2.087 -9.858 -5.272 14
-2.037 -9.537 -5.29 36
-5.75 -33.697 -2.942 2
-5.764 -33.513 -3.514 21
-5.609 -32.389 -3.884 12
-5.3 -30.362 -4.01 7
-4.99 -28.392 -4.079 7
0.0 -0.0 3.0 0
-3.988 -22.364 -3.413 2
-4.023 -22.405 -3.85 2
-4.049 -22.374 -4.27 1
-3.914 -21.48 -4.396 10
-3.768 -20.493 -4.459 8
-3.625 -19.603 -4.525 10
-3.507 -18.81 -4.6 8
-3.381 -18.011 -4.645 7
-3.273 -17.294 -4.7 8
-3.167 -16.618 -4.749 8
-3.069 -15.974 -4.791 9
-2.979 -15.39 -4.842 7
-2.889 -14.817 -4.879 8
-2.809 -14.288 -4.92 9
-2.736 -13.814 -4.976 7
-2.666 -13.346 -5.019 8
-2.59 -12.867 -5.04 7
-2.525 -12.438 -5.077 9
-2.459 -12.018 -5.106 9
-2.401 -11.628 -5.142 10
-2.341 -11.246 -5.171 11
-2.286 -10.878 -5.197 11
-2.23 -10.527 -5.225 12
-2.177 -10.187 -5.249 13
-2.127 -9.859 -5.272 13
-2.076 -9.536 -5.289 34
-6.661 -38.322 -3.757 6
-5.876 -33.539 -3.519 22
-5.715 -32.399 -3.887 14
-5.401 -30.377 -4.013 7
-5.086 -28.412 -4.084 7
0.0 -0.0 3.0 0
-4.062 -22.363 -3.412 2
-4.116 -22.503 -3.88 1
-4.132 -22.411 -4.282 1
-3.991 -21.501 -4.404 8
-3.84 -20.505 -4.463 9
-3.695 -19.611 -4.528 8
-3.572 -18.81 -4.6 8
-3.445 -18.015 -4.647 7
-3.334 -17.296 -4.701 8
-3.228 -16.623 -4.752 8
-3.127 -15.972 -4.79 9
-3.035 -15.393 -4.843 7
-2.943 -14.819 -4.879 9
-2.861 -14.283 -4.917 8
-2.787 -13.814 -4.975 8
-2.715 -13.342 -5.017 7
-2.638 -12.864 -5.038 8
-2.574 -12.441 -5.08 10
-2.506 -12.022 -5.109 10
-2.445 -11.621 -5.137 11
-2.385 -11.246 -5.171 11
-2.328 -10.876 -5.196 12
-2.272 -10.525 -5.223 12
-2.218 -10.188 -5.25 11
-2.166 -9.854 -5.268 13
-2.115 -9.534 -5.287 34
-6.789 -38.358 -3.763 7
-5.988 -33.563 -3.524 28
-5.819 -32.397 -3.886 14
-5.503 -30.395 -4.017 6
-5.183 -28.431 -4.089 7
-4.915 -26.751 -4.168 0
-4.14 -22.381 -3.418 2
-4.171 -22.392 -3.846 4
-4.243 -22.601 -4.343 4
-4.064 -21.497 -4.402 9
-3.911 -20.508 -4.464 9
-3.762 -19.611 -4.528 9
-3.639 -18.815 -4.602 8
-3.509 -18.016 -4.648 5
-3.395 -17.293 -4.7 8
-3.287 -16.622 -4.751 8
-3.184 -15.97 -4.789 9
-3.091 -15.395 -4.844 8
-2.997 -14.815 -4.877 8
-2.914 -14.286 -4.919 9
-2.838 -13.813 -4.975 7
-2.764 -13.337 -5.014 7
-2.686 -12.863 -5.038 9
-2.621 -12.441 -5.079 9
-2.551 -12.015 -5.104 9
-2.491 -11.625 -5.14 10
-2.429 -11.246 -5.171 11
-2.371 -10.876 -5.196 11
-2.314 -10.525 -5.223 11
-2.258 -10.183 -5.246 12
-2.207 -9.855 -5.269 13
-2.153 -9.532 -5.286 28
-6.917 -38.391 -3.769 6
-6.091 -33.542 -3.52 31
-5.924 -32.399 -3.887 14
-5.604 -30.409 -4.021 6
-5.276 -28.431 -4.089 7
-4.993 -26.695 -4.153 5
-4.217 -22.391 -3.42 1
-4.246 -22.391 -3.846 3
-4.323 -22.618 -4.349 5
-4.138 -21.504 -4.404 8
-3.982 -20.508 -4.464 9
-3.83 -19.611 -4.528 9
-3.704 -18.811 -4.6 8
-3.573 -18.02 -4.649 7
-3.457 -17.294 -4.7 7
-3.345 -16.615 -4.748 7
-3.242 -15.972 -4.79 9
-3.147 -15.393 -4.843 7
-3.051 -14.817 -4.878 8
-2.967 -14.285 -4.918 8
-2.89 -13.812 -4.974 7
-2.814 -13.334 -5.012 7
-2.735 -12.863 -5.038 8
-2.669 -12.444 -5.081 9
-2.598 -12.015 -5.104 9
-2.535 -11.622 -5.138 10
-2.473 -11.243 -5.169 10
-2.415 -10.88 -5.199 12
-2.356 -10.526 -5.224 12
-2.3 -10.186 -5.249 15
-2.247 -9.855 -5.269 15
-2.193 -9.533 -5.287 34
-7.043 -38.417 -3.774 6
-6.207 -33.589 -3.529 24
-6.03 -32.404 -3.888 13
-5.706 -30.426 -4.024 7
-5.371 -28.441 -4.091 7
-5.083 -26.706 -4.156 5
-4.295 -22.409 -3.426 1
-4.34 -22.491 -3.876 1
-4.401 -22.624 -4.351 4
-4.212 -21.506 -4.405 9
-4.054 -20.518 -4.468 9
-3.9 -19.617 -4.53 8
-3.772 -18.823 -4.605 8
-3.637 -18.025 -4.651 7
-3.518 -17.292 -4.699 8
-3.406 -16.623 -4.752 8
-3.3 -15.973 -4.791 9
-3.201 -15.384 -4.839 8
-3.105 -14.815 -4.877 8
-3.02 -14.287 -4.919 8
-2.942 -13.814 -4.975 7
-2.864 -13.336 -5.013 8
-2.784 -12.862 -5.037 8
-2.716 -12.44 -5.079 9
-2.645 -12.018 -5.106 10
-2.582 -11.628 -5.142 11
-2.517 -11.244 -5.169 10
-2.457 -10.875 -5.195 11
-2.397 -10.52 -5.219 12
-2.34 -10.181 -5.244 13
-2.287 -9.853 -5.268 13
-2.231 -9.528 -5.283 34
-7.174 -38.461 -3.782 6
-6.322 -33.628 -3.537 23
-6.137 -32.417 -3.89 14
-5.81 -30.452 -4.03 6
-5.466 -28.452 -4.094 7
-5.174 -26.717 -4.159 4
-4.393 -22.528 -3.46 0
-4.677 -23.821 -4.283 4
-4.479 -22.633 -4.354 4
-4.288 -21.515 -4.408 10
-4.125 -20.517 -4.468 12
-3.967 -19.614 -4.529 9
-3.838 -18.823 -4.605 8
-3.7 -18.021 -4.649 7
-3.58 -17.295 -4.7 8
-3.465 -16.621 -4.75 8
-3.357 -15.971 -4.79 9
-3.258 -15.386 -4.839 6
-3.16 -14.817 -4.878 8
-3.072 -14.282 -4.917 9
-2.993 -13.813 -4.975 7
-2.915 -13.339 -5.015 8
-2.833 -12.861 -5.037 8
-2.764 -12.44 -5.078 9
-2.691 -12.018 -5.106 10
-2.627 -11.625 -5.14 10
-2.561 -11.241 -5.167 11
-2.5 -10.871 -5.192 11
-2.44 -10.524 -5.222 9
-2.381 -10.181 -5.245 12
-2.327 -9.854 -5.268 14
-2.27 -9.525 -5.28 35
-7.305 -38.506 -3.79 6
-6.432 -33.64 -3.539 22
-6.242 -32.417 -3.89 14
-5.911 -30.461 -4.032 6
-5.561 -28.454 -4.094 7
-5.265 -26.733 -4.163 5
-4.603 -23.21 -3.655 1
-4.76 -23.836 -4.288 5
-4.556 -22.635 -4.355 4
-4.362 -21.521 -4.41 8
-4.194 -20.509 -4.465 32
-4.04 -19.634 -4.537 9
-3.904 -18.822 -4.604 8
-3.763 -18.017 -4.648 6
-3.642 -17.296 -4.701 8
-3.525 -16.622 -4.751 7
-3.415 -15.972 -4.79 9
-3.314 -15.387 -4.84 7
-3.214 -14.815 -4.877 8
-3.125 -14.284 -4.918 9
-3.045 -13.815 -4.976 7
-2.965 -13.338 -5.014 8
-2.881 -12.861 -5.036 8
-2.811 -12.435 -5.076 10
-2.737 -12.014 -5.104 9
-2.671 -11.621 -5.137 10
-2.606 -11.247 -5.171 10
-2.543 -10.872 -5.192 10
-2.481 -10.518 -5.217 11
-2.421 -10.176 -5.241 13
-2.365 -9.845 -5.261 13
-2.31 -9.53 -5.284 30
-7.431 -38.526 -3.793 6
-6.537 -33.625 -3.536 34
-6.349 -32.429 -3.893 15
-6.016 -30.485 -4.038 6
-5.658 -28.476 -4.1 7
-5.356 -26.743 -4.166 5
-5.082 -25.197 -4.225 4
-4.846 -23.86 -4.295 6
-4.636 -22.648 -4.359 5
-4.437 -21.527 -4.412 10
-4.266 -20.515 -4.467 24
-4.106 -19.627 -4.534 8
-3.97 -18.825 -4.606 8
-3.829 -18.025 -4.651 7
-3.705 -17.303 -4.704 8
-3.586 -16.626 -4.753 7
-3.472 -15.97 -4.789 8
-3.37 -15.388 -4.84 7
-3.269 -14.817 -4.878 8
-3.178 -14.282 -4.917 8
-3.096 -13.81 -4.973 8
-3.015 -13.333 -5.011 8
-2.931 -12.863 -5.037 7
-2.859 -12.438 -5.077 10
-2.785 -12.02 -5.108 10
-2.717 -11.621 -5.137 9
-2.648 -11.237 -5.164 10
-2.587 -10.875 -5.195 11
-2.524 -10.521 -5.22 13
-2.462 -10.177 -5.241 12
-2.406 -9.849 -5.264 14
-2.349 -9.527 -5.282 38
-7.564 -38.573 -3.802 6
-6.655 -33.671 -3.545 22
-6.456 -32.437 -3.895 14
-6.119 -30.505 -4.043 6
-5.755 -28.489 -4.103 7
-5.448 -26.757 -4.17 5
-5.164 -25.189 -4.223 6
-4.928 -23.868 -4.297 6
-4.712 -22.645 -4.358 5
-4.513 -21.537 -4.416 9
-4.338 -20.52 -4.469 24
-4.177 -19.636 -4.538 9
-4.036 -18.825 -4.606 7
-3.892 -18.021 -4.65 7
-3.765 -17.296 -4.701 8
-3.646 -16.626 -4.753 8
-3.531 -15.974 -4.791 9
-3.427 -15.389 -4.841 7
-3.323 -14.814 -4.877 8
-3.231 -14.28 -4.916 9
-3.147 -13.808 -4.972 8
-3.065 -13.331 -5.01 7
-2.98 -12.862 -5.037 8
-2.907 -12.441 -5.079 10
-2.83 -12.013 -5.103 10
-2.762 -11.62 -5.137 10
-2.694 -11.24 -5.166 12
-2.629 -10.871 -5.192 12
-2.566 -10.518 -5.218 10
-2.504 -10.176 -5.241 13
-2.446 -9.846 -5.262 12
-2.388 -9.524 -5.279 33
-7.695 -38.617 -3.809 6
-6.765 -33.681 -3.547 18
-6.561 -32.437 -3.895 14
-6.221 -30.513 -4.044 6
-5.852 -28.502 -4.106 8
-5.537 -26.76 -4.17 5
-5.253 -25.207 -4.228 6
-5.008 -23.868 -4.297 6
-4.794 -22.664 -4.364 5
-4.588 -21.542 -4.417 10
-4.407 -20.511 -4.465 19
-4.246 -19.638 -4.538 9
-4.103 -18.827 -4.607 8
-3.955 -18.02 -4.649 7
-3.827 -17.296 -4.701 8
-3.705 -16.623 -4.752 8
-3.588 -15.967 -4.788 9
-3.484 -15.389 -4.841 7
-3.379 -14.818 -4.879 8
-3.285 -14.286 -4.919 9
-3.2 -13.81 -4.973 8
-3.117 -13.336 -5.013 7
-3.029 -12.864 -5.038 8
-2.954 -12.436 -5.076 9
-2.878 -12.019 -5.107 9
-2.807 -11.616 -5.134 9
-2.737 -11.237 -5.164 10
-2.673 -10.871 -5.192 11
-2.609 -10.521 -5.22 10
-2.546 -10.18 -5.243 12
-2.486 -9.843 -5.259 14
-2.427 -9.525 -5.28 35
-7.825 -38.647 -3.815 6
-6.882 -33.722 -3.555 18
-6.669 -32.447 -3.897 14
-6.326 -30.537 -4.05 6
-5.949 -28.519 -4.111 8
-5.631 -26.781 -4.176 5
-5.339 -25.214 -4.23 5
-5.092 -23.879 -4.301 6
-4.872 -22.669 -4.365 5
-4.663 -21.543 -4.418 7
-4.481 -20.52 -4.469 12
-4.314 -19.637 -4.538 9
-4.171 -18.833 -4.609 8
-4.022 -18.03 -4.653 7
-3.889 -17.296 -4.701 8
-3.766 -16.626 -4.753 8
-3.648 -15.975 -4.792 8
-3.541 -15.394 -4.844 7
-3.433 -14.812 -4.876 7
-3.337 -14.279 -4.915 9
-3.252 -13.812 -4.974 6
-3.167 -13.335 -5.012 7
-3.079 -12.866 -5.039 8
-3.002 -12.435 -5.075 10
-2.923 -12.011 -5.101 10
-2.852 -11.616 -5.133 10
-2.782 -11.239 -5.166 11
-2.715 -10.867 -5.189 12
-2.65 -10.518 -5.218 11
-2.587 -10.179 -5.243 10
-2.526 -9.844 -5.26 14
-2.466 -9.522 -5.277 32
-7.957 -38.69 -3.822 6
-6.99 -33.717 -3.554 31
-6.774 -32.446 -3.897 14
-6.427 -30.541 -4.051 6
-6.046 -28.528 -4.113 7
-5.721 -26.783 -4.177 5
-5.427 -25.228 -4.234 6
-5.173 -23.882 -4.302 5
-4.951 -22.676 -4.368 5
-4.737 -21.544 -4.418 8
-4.555 -20.536 -4.474 9
-4.384 -19.639 -4.539 9
-4.237 -18.832 -4.609 8
-4.085 -18.026 -4.651 7
-3.952 -17.299 -4.702 6
-3.825 -16.623 -4.751 8
-3.706 -15.975 -4.792 9
-3.599 -15.397 -4.845 7
-3.489 -14.817 -4.878 7
-3.391 -14.28 -4.916 9
-3.304 -13.813 -4.975 6
-3.216 -13.33 -5.009 7
-3.128 -12.864 -5.038 8
-3.051 -12.437 -5.077 9
-2.97 -12.014 -5.103 9
-2.897 -11.612 -5.131 9
-2.826 -11.235 -5.163 9
-2.759 -10.87 -5.191 11
-2.693 -10.518 -5.217 11
-2.627 -10.173 -5.238 11
-2.566 -9.841 -5.258 13
-2.504 -9.517 -5.273 33
-8.087 -38.716 -3.827 6
-7.095 -33.699 -3.55 24
-6.881 -32.452 -3.898 16
-6.533 -30.567 -4.057 6
-6.146 -28.555 -4.12 6
-5.814 -26.8 -4.181 4
-5.515 -25.242 -4.238 6
-5.257 -23.893 -4.305 5
-5.029 -22.677 -4.368 4
-4.815 -21.559 -4.423 11
-4.628 -20.542 -4.477 9
-4.454 -19.644 -4.541 9
-4.303 -18.83 -4.608 8
-4.15 -18.029 -4.653 7
-4.015 -17.302 -4.703 7
-3.887 -16.63 -4.755 7
-3.764 -15.975 -4.792 9
-3.656 -15.402 -4.848 8
-3.542 -14.811 -4.875 8
-3.445 -14.285 -4.918 9
-3.356 -13.81 -4.973 6
-3.266 -13.328 -5.008 8
-3.176 -12.859 -5.035 8
-3.097 -12.429 -5.071 10
-3.018 -12.015 -5.105 10
-2.943 -11.614 -5.132 10
-2.87 -11.234 -5.162 10
-2.802 -10.866 -5.188 11
-2.734 -10.514 -5.215 13
-2.669 -10.173 -5.238 13
-2.608 -9.847 -5.263 14
-2.544 -9.52 -5.276 34
-8.224 -38.776 -3.837 6
-7.188 -33.625 -3.536 21
-6.988 -32.456 -3.899 16
-6.637 -30.586 -4.061 6
-6.241 -28.555 -4.12 8
-5.906 -26.813 -4.185 5
-5.602 -25.252 -4.241 7
-5.339 -23.9 -4.307 6
-5.11 -22.695 -4.374 5
-4.888 -21.556 -4.422 15
-4.7 -20.545 -4.478 9
-4.522 -19.642 -4.54 9
-4.371 -18.836 -4.61 8
-4.214 -18.03 -4.653 8
-4.077 -17.304 -4.704 8
-3.946 -16.625 -4.753 7
-3.822 -15.971 -4.79 9
-3.712 -15.398 -4.846 8
-3.598 -14.815 -4.877 8
-3.498 -14.282 -4.917 9
-3.407 -13.805 -4.97 8
-3.317 -13.329 -5.009 8
-3.225 -12.857 -5.034 8
-3.145 -12.431 -5.073 9
-3.063 -12.011 -5.101 10
-2.989 -11.616 -5.133 10
-2.915 -11.237 -5.164 9
-2.846 -10.869 -5.19 11
-2.777 -10.517 -5.217 12
-2.709 -10.17 -5.236 13
-2.646 -9.838 -5.255 13
-2.583 -9.517 -5.273 34
-8.356 -38.813 -3.844 6
-7.302 -33.649 -3.541 13
-7.094 -32.457 -3.899 16
-6.742 -30.603 -4.065 6
-6.337 -28.563 -4.122 7
-5.996 -26.814 -4.185 5
-5.69 -25.265 -4.245 6
-5.425 -23.918 -4.312 6
-5.189 -22.698 -4.375 5
-4.96 -21.545 -4.419 28
-4.773 -20.55 -4.48 9
-4.592 -19.647 -4.542 9
-4.438 -18.838 -4.611 7
-4.279 -18.033 -4.655 8
-4.139 -17.3 -4.702 8
-4.007 -16.629 -4.754 5
-3.881 -15.974 -4.791 9
-3.77 -15.402 -4.848 8
-3.654 -14.819 -4.879 8
-3.55 -14.276 -4.913 9
-3.459 -13.806 -4.971 8
-3.368 -13.33 -5.009 7
-3.275 -12.858 -5.035 8
-3.192 -12.426 -5.069 9
-3.11 -12.009 -5.1 10
-3.035 -11.615 -5.133 9
-2.96 -11.235 -5.163 10
-2.89 -10.869 -5.19 11
-2.819 -10.513 -5.214 12
-2.752 -10.176 -5.24 12
-2.688 -9.841 -5.257 14
-2.622 -9.514 -5.27 27
-8.491 -38.857 -3.852 6
-7.419 -33.681 -3.547 17
-7.201 -32.462 -3.9 15
-6.845 -30.613 -4.068 6
-6.436 -28.582 -4.126 7
-6.092 -26.838 -4.191 5
-5.777 -25.27 -4.246 6
-5.509 -23.927 -4.315 6
-5.27 -22.713 -4.38 5
-5.038 -21.556 -4.422 20
-4.843 -20.544 -4.477 10
-4.662 -19.652 -4.544 9
-4.506 -18.842 -4.613 6
-4.343 -18.031 -4.654 7
-4.202 -17.305 -4.705 7
-4.067 -16.628 -4.754 4
-3.939 -15.974 -4.791 9
-3.826 -15.401 -4.847 8
-3.708 -14.815 -4.877 8
-3.604 -14.28 -4.915 8
-3.511 -13.802 -4.969 7
-3.418 -13.324 -5.006 7
-3.324 -12.856 -5.033 8
-3.242 -12.433 -5.074 9
-3.157 -12.008 -5.099 10
-3.08 -11.614 -5.132 10
-3.004 -11.232 -5.16 10
-2.933 -10.867 -5.189 10
-2.862 -10.515 -5.215 12
-2.793 -10.173 -5.238 11
-2.727 -9.837 -5.255 14
-2.661 -9.511 -5.268 36
-8.628 -38.913 -3.861 6
-7.52 -33.643 -3.54 29
-7.309 -32.467 -3.901 16
-6.95 -30.631 -4.072 6
-6.536 -28.601 -4.131 6
-6.183 -26.845 -4.193 5
-5.864 -25.279 -4.249 6
-5.591 -23.929 -4.316 6
-5.349 -22.715 -4.381 4
-5.114 -21.563 -4.425 12
-4.919 -20.558 -4.483 10
-4.733 -19.656 -4.545 9
-4.571 -18.833 -4.609 7
-4.409 -18.036 -4.656 8
-4.265 -17.304 -4.704 7
-4.129 -16.633 -4.756 7
-3.998 -15.973 -4.791 9
-3.884 -15.405 -4.849 7
-3.762 -14.808 -4.874 8
-3.657 -14.277 -4.914 9
-3.564 -13.807 -4.971 7
-3.47 -13.328 -5.009 8
-3.373 -12.854 -5.032 8
-3.289 -12.429 -5.071 10
-3.204 -12.01 -5.101 10
-3.126 -11.612 -5.131 10
-3.049 -11.234 -5.162 12
-2.976 -10.864 -5.186 10
-2.903 -10.508 -5.21 11
-2.834 -10.168 -5.234 11
-2.769 -9.84 -5.257 13
-2.7 -9.511 -5.268 34
-8.762 -38.948 -3.868 6
-7.651 -33.739 -3.558 23
-7.416 -32.472 -3.902 15
-7.058 -30.659 -4.078 6
-6.635 -28.615 -4.134 7
-6.276 -26.857 -4.196 5
-5.951 -25.285 -4.25 7
-5.676 -23.946 -4.321 6
-5.429 -22.722 -4.383 5
-5.194 -21.585 -4.432 7
-4.991 -20.558 -4.483 9
-4.802 -19.656 -4.545 8
-4.641 -18.845 -4.614 8
-4.474 -18.038 -4.657 7
-4.328 -17.306 -4.705 8
-4.19 -16.633 -4.756 8
-4.056 -15.972 -4.79 9
-3.939 -15.398 -4.845 8
-3.817 -14.808 -4.874 7
-3.71 -14.274 -4.912 9
-3.616 -13.807 -4.971 7
-3.521 -13.329 -5.009 5
-3.422 -12.852 -5.031 8
-3.337 -12.426 -5.07 9
-3.251 -12.007 -5.099 10
-3.172 -11.613 -5.132 10
-3.093 -11.232 -5.161 11
-3.018 -10.859 -5.183 11
-2.947 -10.511 -5.212 12
-2.876 -10.171 -5.236 11
-2.809 -9.839 -5.256 13
-2.74 -9.511 -5.268 34
-8.902 -39.01 -3.879 7
-7.754 -33.709 -3.552 31
-7.524 -32.477 -3.903 13
-7.162 -30.669 -4.081 6
-6.733 -28.629 -4.138 7
-6.369 -26.864 -4.198 4
-6.04 -25.297 -4.254 7
-5.76 -23.952 -4.323 6
-5.51 -22.732 -4.386 5
-5.27 -21.588 -4.433 8
-5.065 -20.566 -4.485 9
-4.874 -19.668 -4.55 6
-4.709 -18.849 -4.616 6
-4.539 -18.04 -4.657 7
-4.39 -17.304 -4.704 7
-4.25 -16.631 -4.755 8
-4.117 -15.979 -4.793 8
-3.997 -15.4 -4.847 8
-3.872 -14.808 -4.874 8
-3.763 -14.27 -4.91 9
-3.668 -13.804 -4.97 8
-3.574 -13.336 -5.013 5
-3.471 -12.853 -5.031 8
-3.386 -12.427 -5.07 10
-3.296 -12.002 -5.096 10
-3.217 -11.609 -5.128 10
-3.138 -11.231 -5.16 10
-3.064 -10.864 -5.187 11
-2.988 -10.507 -5.209 13
-2.916 -10.164 -5.231 12
-2.85 -9.839 -5.256 14
-2.779 -9.507 -5.265 31
-9.037 -39.049 -3.885 7
-7.892 -33.831 -3.576 17
-7.631 -32.477 -3.903 14
-7.268 -30.689 -4.085 6
-6.832 -28.643 -4.141 7
-6.464 -26.886 -4.204 4
-6.128 -25.304 -4.256 7
-5.845 -23.964 -4.327 6
-5.588 -22.73 -4.385 5
-5.348 -21.601 -4.438 9
-5.138 -20.569 -4.486 10
-4.943 -19.665 -4.549 5
-4.776 -18.846 -4.614 8
-4.604 -18.037 -4.656 7
-4.454 -17.31 -4.707 8
-4.311 -16.633 -4.756 8
-4.174 -15.973 -4.791 9
-4.055 -15.403 -4.848 7
-3.928 -14.807 -4.873 8
-3.818 -14.273 -4.912 9
-3.721 -13.804 -4.97 7
-3.623 -13.327 -5.008 5
-3.521 -12.85 -5.029 7
-3.433 -12.421 -5.067 9
-3.346 -12.01 -5.101 10
-3.262 -11.606 -5.127 10
-3.182 -11.229 -5.158 10
-3.106 -10.86 -5.183 11
-3.031 -10.506 -5.208 12
-2.958 -10.163 -5.23 12
-2.891 -9.838 -5.255 12
-2.819 -9.509 -5.266 25
-9.17 -39.079 -3.891 7
-8.028 -33.937 -3.597 20
-7.74 -32.488 -3.906 12
-7.378 -30.72 -4.092 6
-6.932 -28.66 -4.146 7
-6.56 -26.905 -4.209 4
-6.219 -25.327 -4.262 6
-5.929 -23.973 -4.329 5
-5.67 -22.743 -4.39 5
-5.424 -21.604 -4.439 7
-5.211 -20.572 -4.488 9
-5.016 -19.675 -4.553 4
-4.844 -18.85 -4.616 5
-4.668 -18.034 -4.655 8
-4.518 -17.314 -4.709 8
-4.373 -16.634 -4.757 8
-4.234 -15.976 -4.792 9
-4.112 -15.401 -4.847 8
-3.983 -14.806 -4.873 8
-3.871 -14.269 -4.91 8
-3.772 -13.801 -4.968 8
-3.675 -13.331 -5.01 6
-3.57 -12.851 -5.03 8
-3.482 -12.423 -5.067 10
-3.392 -12.004 -5.097 10
-3.309 -11.608 -5.128 10
-3.226 -11.224 -5.155 11
-3.15 -10.858 -5.182 11
-3.073 -10.504 -5.207 13
-2.998 -10.16 -5.227 12
-2.93 -9.834 -5.252 13
-2.86 -9.512 -5.269 22
-9.306 -39.117 -3.897 7
-8.163 -34.039 -3.616 22
-7.848 -32.492 -3.906 11
-7.486 -30.747 -4.099 6
-7.034 -28.681 -4.151 7
-6.654 -26.919 -4.213 5
-6.308 -25.335 -4.265 6
-6.013 -23.981 -4.332 5
-5.752 -22.759 -4.395 4
-5.505 -21.625 -4.446 8
-5.285 -20.578 -4.49 10
-5.085 -19.675 -4.553 4
-4.912 -18.855 -4.618 8
-4.734 -18.039 -4.657 8
-4.58 -17.312 -4.708 7
-4.434 -16.636 -4.758 8
-4.294 -15.981 -4.795 8
-4.169 -15.4 -4.847 8
-4.039 -14.809 -4.874 8
-3.927 -14.276 -4.913 8
-3.825 -13.8 -4.968 8
-3.724 -13.324 -5.006 8
-3.621 -12.854 -5.032 8
-3.531 -12.424 -5.068 10
-3.438 -12.002 -5.096 10
-3.355 -11.606 -5.127 9
-3.272 -11.225 -5.156 11
-3.192 -10.854 -5.179 11
-3.117 -10.506 -5.208 12
-3.041 -10.161 -5.228 12
-2.97 -9.831 -5.249 14
-2.899 -9.508 -5.265 22
-9.446 -39.17 -3.907 8
-8.274 -34.037 -3.616 33
-7.956 -32.495 -3.907 14
-7.591 -30.755 -4.1 6
-7.135 -28.701 -4.156 7
-6.749 -26.933 -4.217 5
-6.396 -25.342 -4.267 7
-6.097 -23.986 -4.333 5
-5.833 -22.764 -4.397 4
-5.58 -21.623 -4.445 8
-5.36 -20.589 -4.494 9
-5.155 -19.675 -4.552 5
-4.98 -18.855 -4.618 6
-4.799 -18.035 -4.655 7
-4.642 -17.306 -4.705 7
-4.495 -16.638 -4.758 7
-4.354 -15.983 -4.796 8
-4.228 -15.406 -4.85 8
-4.094 -14.805 -4.872 8
-3.98 -14.272 -4.911 7
-3.879 -13.804 -4.97 8
-3.775 -13.321 -5.004 7
-3.671 -12.851 -5.03 8
-3.578 -12.42 -5.066 8
-3.485 -12.0 -5.094 10
-3.4 -11.604 -5.125 10
-3.316 -11.224 -5.155 11
-3.237 -10.855 -5.18 11
-3.159 -10.505 -5.207 11
-3.083 -10.163 -5.23 12
-3.012 -9.833 -5.251 12
-2.938 -9.505 -5.262 17
-9.598 -39.271 -3.925 11
-8.396 -34.078 -3.624 24
-8.064 -32.493 -3.907 15
-7.7 -30.781 -4.106 6
-7.234 -28.71 -4.158 7
-6.841 -26.935 -4.217 5
-6.486 -25.357 -4.271 6
-6.182 -23.994 -4.336 5
-5.913 -22.769 -4.398 5
-5.657 -21.625 -4.446 10
-5.432 -20.587 -4.493 9
-5.226 -19.678 -4.554 8
-5.049 -18.858 -4.619 6
-4.866 -18.043 -4.659 7
-4.704 -17.304 -4.704 7
-4.555 -16.632 -4.755 8
-4.413 -15.981 -4.795 9
-4.285 -15.405 -4.849 8
-4.151 -14.811 -4.875 8
-4.035 -14.275 -4.913 7
-3.931 -13.803 -4.969 8
-3.827 -13.323 -5.005 8
-3.721 -12.851 -5.03 8
-3.628 -12.424 -5.068 9
-3.532 -11.997 -5.092 10
-3.446 -11.602 -5.124 9
-3.361 -11.222 -5.153 10
-3.281 -10.856 -5.181 11
-3.202 -10.503 -5.206 12
-3.124 -10.159 -5.226 12
-3.052 -9.831 -5.249 12
-2.975 -9.495 -5.254 17
-9.734 -39.304 -3.93 11
-8.549 -34.243 -3.656 24
-8.173 -32.5 -3.908 14
-7.81 -30.811 -4.113 6
-7.337 -28.737 -4.165 7
-6.935 -26.949 -4.221 5
-6.575 -25.363 -4.273 6
-6.267 -24.005 -4.339 6
-5.992 -22.766 -4.397 5
-5.735 -21.634 -4.449 7
-5.51 -20.604 -4.499 9
-5.298 -19.684 -4.556 9
-5.116 -18.858 -4.619 8
-4.931 -18.043 -4.659 7
-4.769 -17.311 -4.707 7
-4.618 -16.636 -4.758 7
-4.47 -15.976 -4.792 9
-4.343 -15.403 -4.848 8
-4.206 -14.806 -4.872 8
-4.089 -14.273 -4.912 8
-3.985 -13.806 -4.971 7
-3.878 -13.32 -5.003 8
-3.768 -12.841 -5.024 8
-3.675 -12.418 -5.064 10
-3.58 -11.998 -5.093 9
-3.492 -11.599 -5.122 9
-3.405 -11.22 -5.152 11
-3.324 -10.851 -5.177 13
-3.244 -10.499 -5.203 12
-3.167 -10.16 -5.227 11
-3.093 -9.83 -5.248 14
-3.016 -9.497 -5.256 16
-9.874 -39.351 -3.939 10
-8.655 -34.217 -3.651 24
-8.282 -32.505 -3.909 14
-7.919 -30.833 -4.118 6
-7.436 -28.745 -4.167 7
-7.033 -26.973 -4.227 5
-6.666 -25.381 -4.278 6
-6.352 -24.012 -4.341 5
-6.076 -22.785 -4.403 5
-5.812 -21.639 -4.451 8
-5.583 -20.606 -4.5 9
-5.372 -19.697 -4.561 12
-5.186 -18.864 -4.622 7
-4.997 -18.043 -4.659 7
-4.831 -17.304 -4.704 8
-4.68 -16.641 -4.76 7
-4.531 -15.98 -4.794 9
-4.399 -15.398 -4.845 8
-4.26 -14.801 -4.87 8
-4.141 -14.265 -4.907 9
-4.037 -13.801 -4.968 8
-3.93 -13.323 -5.005 7
-3.82 -12.848 -5.028 8
-3.724 -12.418 -5.065 9
-3.626 -11.995 -5.091 10
-3.538 -11.6 -5.122 10
-3.451 -11.22 -5.152 11
-3.369 -10.852 -5.178 11
-3.287 -10.5 -5.203 12
-3.208 -10.159 -5.226 12
-3.135 -9.832 -5.25 13
-3.055 -9.496 -5.255 14
-10.005 -39.364 -3.941 11
-8.778 -34.26 -3.659 40
-8.39 -32.507 -3.909 13
-8.03 -30.862 -4.125 6
-7.54 -28.772 -4.174 7
-7.128 -26.985 -4.231 5
-6.755 -25.386 -4.279 7
-6.441 -24.034 -4.348 6
-6.159 -22.796 -4.407 5
-5.892 -21.65 -4.455 8
-5.659 -20.615 -4.503 9
-5.44 -19.689 -4.558 31
-5.255 -18.867 -4.623 7
-5.065 -18.054 -4.663 7
-4.895 -17.308 -4.706 7
-4.743 -16.644 -4.761 7
-4.591 -15.981 -4.795 9
-4.458 -15.402 -4.848 8
-4.318 -14.806 -4.872 8
-4.197 -14.271 -4.911 8
-4.09 -13.801 -4.968 8
-3.98 -13.316 -5.001 8
-3.869 -12.844 -5.026 8
-3.773 -12.418 -5.064 9
-3.676 -12.002 -5.095 9
-3.584 -11.597 -5.12 11
-3.496 -11.218 -5.15 9
-3.412 -10.85 -5.176 11
-3.33 -10.498 -5.202 12
-3.251 -10.16 -5.228 12
-3.175 -9.828 -5.247 13
-3.095 -9.495 -5.254 14
-10.148 -39.417 -3.95 11
-8.92 -34.37 -3.681 31
-8.5 -32.512 -3.911 13
-8.139 -30.884 -4.13 6
-7.641 -28.786 -4.177 7
-7.226 -27.005 -4.236 4
-6.846 -25.4 -4.283 7
-6.526 -24.04 -4.35 6
-6.243 -22.815 -4.413 5
-5.969 -21.655 -4.456 8
-5.732 -20.616 -4.504 9
-5.508 -19.68 -4.554 39
-5.323 -18.866 -4.622 5
-5.131 -18.053 -4.663 7
-4.959 -17.308 -4.706 8
-4.804 -16.642 -4.76 8
-4.65 -15.979 -4.793 9
-4.515 -15.4 -4.847 7
-4.374 -14.804 -4.871 8
-4.251 -14.27 -4.91 8
-4.143 -13.8 -4.967 7
-4.031 -13.315 -5.0 7
-3.92 -12.847 -5.027 8
-3.821 -12.415 -5.062 9
-3.722 -11.995 -5.091 9
-3.632 -11.6 -5.123 11
-3.54 -11.216 -5.149 10
-3.456 -10.848 -5.175 10
-3.372 -10.496 -5.2 13
-3.292 -10.156 -5.224 12
-3.216 -9.829 -5.248 13
-3.135 -9.494 -5.253 15
-10.287 -39.456 -3.957 9
-9.044 -34.409 -3.688 31
-8.61 -32.521 -3.912 13
-8.249 -30.908 -4.136 6
-7.744 -28.805 -4.182 7
-7.319 -27.009 -4.237 5
-6.938 -25.417 -4.288 6
-6.612 -24.047 -4.352 6
-6.322 -22.811 -4.412 5
-6.048 -21.663 -4.459 8
-5.806 -20.617 -4.504 7
-5.58 -19.685 -4.557 33
-5.393 -18.872 -4.625 5
-5.195 -18.049 -4.661 8
-5.023 -17.307 -4.706 7
-4.865 -16.642 -4.76 7
-4.711 -15.983 -4.796 10
-4.574 -15.401 -4.847 8
-4.429 -14.802 -4.871 8
-4.305 -14.268 -4.909 9
-4.195 -13.798 -4.966 8
-4.083 -13.314 -5.0 7
-3.97 -12.847 -5.028 8
-3.869 -12.411 -5.06 9
-3.769 -11.992 -5.089 10
-3.676 -11.595 -5.119 10
-3.586 -11.216 -5.149 10
-3.499 -10.846 -5.173 11
-3.416 -10.497 -5.201 13
-3.333 -10.154 -5.223 13
-3.256 -9.824 -5.244 13
-3.177 -9.498 -5.257 15
-10.422 -39.478 -3.961 8
-9.146 -34.366 -3.68 34
-8.72 -32.525 -3.913 13
-8.355 -30.917 -4.138 6
-7.847 -28.823 -4.186 7
-7.417 -27.028 -4.242 5
-7.027 -25.422 -4.29 6
-6.698 -24.056 -4.355 6
-6.408 -22.833 -4.419 5
-6.124 -21.663 -4.459 8
-5.884 -20.633 -4.51 7
-5.65 -19.684 -4.556 28
-5.46 -18.866 -4.622 8
-5.263 -18.055 -4.664 8
-5.087 -17.311 -4.707 7
-4.926 -16.639 -4.759 7
-4.771 -15.983 -4.796 8
-4.631 -15.399 -4.846 8
-4.487 -14.807 -4.873 8
-4.359 -14.266 -4.908 8
-4.25 -13.804 -4.969 7
-4.135 -13.316 -5.001 8
-4.019 -12.839 -5.023 8
-3.918 -12.411 -5.06 9
-3.817 -11.992 -5.088 10
-3.723 -11.594 -5.118 9
-3.632 -11.217 -5.149 8
-3.546 -10.853 -5.178 11
-3.459 -10.495 -5.2 11
-3.375 -10.152 -5.221 12
-3.298 -9.826 -5.245 14
-3.217 -9.497 -5.255 14
-10.567 -39.535 -3.971 6
-9.294 -34.494 -3.705 25
-8.831 -32.533 -3.915 14
-8.47 -30.956 -4.147 6
-7.95 -28.845 -4.192 7
-7.513 -27.039 -4.245 5
-7.119 -25.438 -4.294 7
-6.787 -24.073 -4.36 6
-6.49 -22.839 -4.421 5
-6.205 -21.678 -4.464 7
-5.957 -20.631 -4.509 9
-5.725 -19.696 -4.561 12
-5.531 -18.876 -4.626 8
-5.33 -18.057 -4.665 7
-5.153 -17.317 -4.71 7
-4.989 -16.642 -4.76 7
-4.829 -15.977 -4.792 9
-4.689 -15.4 -4.846 8
-4.544 -14.808 -4.874 8
-4.415 -14.268 -4.909 8
-4.301 -13.795 -4.965 8
-4.187 -13.315 -5.0 7
-4.07 -12.842 -5.025 8
-3.968 -12.414 -5.061 9
-3.865 -11.992 -5.089 9
-3.769 -11.591 -5.116 9
-3.676 -11.214 -5.147 10
-3.589 -10.847 -5.174 11
-3.501 -10.493 -5.198 11
-3.418 -10.153 -5.221 12
-3.338 -9.821 -5.241 19
-3.255 -9.492 -5.252 14
-10.712 -39.59 -3.981 7
-9.43 -34.572 -3.72 20
-8.941 -32.536 -3.916 14
-8.582 -30.983 -4.153 6
-8.051 -28.854 -4.194 6
-7.611 -27.058 -4.25 5
-7.211 -25.45 -4.298 7
-6.873 -24.082 -4.363 6
-6.575 -22.853 -4.425 5
-6.284 -21.686 -4.467 7
-6.036 -20.649 -4.516 10
-5.8 -19.711 -4.566 9
-5.599 -18.874 -4.625 8
-5.395 -18.053 -4.663 7
-5.216 -17.313 -4.708 8
-5.051 -16.642 -4.76 7
-4.89 -15.98 -4.794 9
-4.748 -15.4 -4.846 8
-4.598 -14.802 -4.871 8
-4.471 -14.273 -4.911 8
-4.356 -13.8 -4.968 8
-4.239 -13.314 -5.0 7
-4.117 -12.831 -5.018 8
-4.017 -12.41 -5.059 9
-3.914 -11.995 -5.091 10
-3.816 -11.592 -5.117 9
-3.722 -11.214 -5.147 9
-3.634 -10.847 -5.174 11
-3.545 -10.493 -5.198 13
-3.46 -10.151 -5.22 13
-3.379 -9.819 -5.239 20
-3.298 -9.499 -5.258 14
-10.855 -39.635 -3.989 7
-9.523 -34.491 -3.704 22
-9.055 -32.555 -3.92 13
-8.694 -31.006 -4.158 6
-8.153 -28.867 -4.197 7
-7.708 -27.072 -4.254 5
-7.303 -25.466 -4.302 6
-6.962 -24.099 -4.368 6
-6.659 -22.866 -4.43 4
-6.364 -21.695 -4.47 7
-6.112 -20.656 -4.518 15
-5.874 -19.719 -4.57 9
-5.668 -18.876 -4.626 6
-5.463 -18.058 -4.665 6
-5.281 -17.315 -4.709 8
-5.113 -16.641 -4.76 7
-4.95 -15.98 -4.794 9
-4.806 -15.4 -4.847 9
-4.657 -14.81 -4.875 7
-4.524 -14.267 -4.908 8
-4.407 -13.792 -4.963 8
-4.291 -13.316 -5.001 8
-4.17 -12.836 -5.021 8
-4.066 -12.409 -5.058 9
-3.96 -11.987 -5.086 9
-3.863 -11.591 -5.116 10
-3.767 -11.21 -5.145 10
-3.677 -10.844 -5.172 11
-3.589 -10.494 -5.199 12
-3.502 -10.151 -5.22 13
-3.419 -9.815 -5.236 27
-3.338 -9.498 -5.256 14
-11.005 -39.705 -4.001 6
-9.685 -34.659 -3.737 25
-9.168 -32.569 -3.923 11
-8.804 -31.026 -4.163 6
-8.257 -28.884 -4.202 7
-7.807 -27.094 -4.26 5
-7.397 -25.484 -4.307 6
-7.048 -24.104 -4.369 6
-6.74 -22.868 -4.43 5
-6.444 -21.702 -4.473 8
-6.185 -20.653 -4.517 29
-5.948 -19.727 -4.573 9
-5.737 -18.877 -4.627 6
-5.531 -18.064 -4.668 7
-5.345 -17.318 -4.711 7
-5.176 -16.644 -4.761 7
-5.011 -15.983 -4.796 9
-4.866 -15.404 -4.849 7
-4.712 -14.804 -4.872 8
-4.578 -14.265 -4.907 9
-4.463 -13.796 -4.965 7
-4.341 -13.307 -4.996 8
-4.219 -12.831 -5.018 8
-4.114 -12.404 -5.055 9
-4.008 -11.987 -5.085 10
-3.909 -11.588 -5.114 10
-3.814 -11.214 -5.147 9
-3.721 -10.842 -5.17 12
-3.63 -10.485 -5.192 11
-3.543 -10.146 -5.216 12
-3.461 -9.819 -5.239 31
-3.378 -9.496 -5.255 16
-11.155 -39.77 -4.013 5
-9.77 -34.555 -3.717 24
-9.285 -32.594 -3.928 10
-8.921 -31.067 -4.172 7
-8.365 -28.915 -4.209 7
-7.904 -27.104 -4.263 5
-7.489 -25.495 -4.311 7
-7.136 -24.116 -4.373 6
-6.826 -22.885 -4.436 5
-6.525 -21.716 -4.477 7
-6.26 -20.653 -4.517 29
-5.639 -18.481 -4.094 0
-5.808 -18.881 -4.629 6
-5.598 -18.065 -4.668 7
-5.41 -17.32 -4.711 8
-5.238 -16.643 -4.761 8
-5.071 -15.983 -4.796 9
-4.924 -15.4 -4.847 8
-4.769 -14.804 -4.872 8
-4.634 -14.266 -4.908 8
-4.516 -13.794 -4.964 8
-4.395 -13.312 -4.998 8
-4.27 -12.833 -5.019 8
-4.164 -12.407 -5.057 9
-4.057 -11.99 -5.087 10
-3.955 -11.588 -5.114 10
-3.859 -11.21 -5.145 10
-3.767 -10.845 -5.172 10
-3.675 -10.489 -5.195 12
-3.585 -10.144 -5.214 13
-3.502 -9.816 -5.237 33
-3.418 -9.494 -5.253 14
-11.292 -39.79 -4.016 5
-9.872 -34.506 -3.707 33
-9.403 -32.623 -3.934 9
-9.035 -31.096 -4.179 7
-8.467 -28.928 -4.213 7
-8.003 -27.125 -4.268 5
-7.579 -25.499 -4.312 7
-7.224 -24.127 -4.376 6
-6.91 -22.894 -4.439 5
-6.606 -21.725 -4.481 7
-6.334 -20.652 -4.517 21
-5.693 -18.44 -4.079 17
-5.588 -17.952 -4.253 0
-5.665 -18.067 -4.669 7
-5.474 -17.318 -4.711 8
-5.302 -16.649 -4.763 7
-5.131 -15.98 -4.794 29
-4.982 -15.401 -4.847 9
-4.825 -14.802 -4.87 9
-4.688 -14.262 -4.906 8
-4.57 -13.795 -4.965 8
-4.445 -13.307 -4.995 8
-4.32 -12.828 -5.016 8
-4.213 -12.405 -5.056 8
-4.104 -11.985 -5.084 10
-4.002 -11.586 -5.113 10
-3.904 -11.207 -5.143 9
-3.812 -10.845 -5.172 11
-3.718 -10.489 -5.195 12
-3.628 -10.144 -5.215 13
-3.542 -9.811 -5.232 38
-3.458 -9.492 -5.251 14
-11.437 -39.836 -4.024 4
-9.977 -34.469 -3.7 26
-9.524 -32.663 -3.943 8
-9.145 -31.109 -4.182 6
-8.577 -28.962 -4.221 7
-8.102 -27.141 -4.272 5
-7.677 -25.528 -4.32 6
-7.312 -24.136 -4.379 6
-6.992 -22.895 -4.439 4
-6.686 -21.735 -4.484 8
-5.658 -18.234 -3.637 1
-5.625 -18.007 -3.912 3
-5.611 -17.818 -4.199 1
-5.732 -18.068 -4.669 7
-5.54 -17.32 -4.711 8
-5.363 -16.644 -4.761 7
-5.191 -15.979 -4.793 41
-5.041 -15.4 -4.847 8
-4.884 -14.808 -4.873 8
-4.743 -14.26 -4.904 9
-4.622 -13.789 -4.961 8
-4.498 -13.308 -4.996 8
-4.37 -12.827 -5.015 8
-4.262 -12.401 -5.053 8
-4.152 -11.984 -5.084 9
-4.048 -11.582 -5.11 10
-3.951 -11.209 -5.144 9
-3.856 -10.841 -5.17 12
-3.761 -10.486 -5.192 12
-3.671 -10.145 -5.215 14
-3.585 -9.814 -5.235 39
-3.499 -9.493 -5.252 15
-11.585 -39.889 -4.033 5
-10.067 -34.382 -3.683 21
-9.649 -32.709 -3.952 11
-9.263 -31.15 -4.191 7
-8.679 -28.97 -4.223 6
-8.2 -27.155 -4.276 5
-7.768 -25.534 -4.322 6
-7.4 -24.147 -4.382 6
-7.077 -22.907 -4.443 4
-6.768 -21.748 -4.488 15
-5.635 -17.95 -3.533 3
-5.642 -17.851 -3.852 3
-5.666 -17.784 -4.185 2
-5.798 -18.065 -4.668 6
-5.606 -17.326 -4.714 7
-5.428 -16.65 -4.764 7
-5.252 -15.981 -4.794 40
-5.1 -15.4 -4.847 8
-4.94 -14.804 -4.872 8
-4.799 -14.263 -4.906 8
-4.676 -13.79 -4.962 8
-4.551 -13.309 -4.997 7
-4.421 -12.825 -5.014 8
-4.311 -12.399 -5.052 9
-4.2 -11.983 -5.083 9
-4.096 -11.585 -5.112 10
-3.995 -11.206 -5.141 7
-3.901 -10.841 -5.169 9
-3.805 -10.485 -5.192 12
-3.712 -10.139 -5.21 14
-3.626 -9.812 -5.233 40
-3.54 -9.494 -5.253 16
-11.733 -39.941 -4.043 5
-10.238 -34.571 -3.72 21
-9.771 -32.748 -3.961 11
-9.377 -31.174 -4.197 6
-8.786 -28.995 -4.229 6
-8.299 -27.166 -4.279 5
-7.86 -25.541 -4.324 6
-7.49 -24.162 -4.387 6
-7.161 -22.915 -4.446 5
-6.843 -21.739 -4.485 27
-5.653 -17.804 -3.48 1
-5.659 -17.702 -3.795 14
-5.639 -17.497 -4.069 1
-5.642 -17.378 -4.376 1
-5.671 -17.326 -4.714 8
-5.488 -16.641 -4.76 8
-5.312 -15.976 -4.792 40
-5.159 -15.399 -4.846 8
-4.995 -14.797 -4.868 8
-4.855 -14.264 -4.906 9
-4.728 -13.784 -4.958 8
-4.602 -13.304 -4.994 7
-4.473 -12.83 -5.017 8
-4.362 -12.404 -5.055 9
-4.247 -11.978 -5.079 9
-4.141 -11.577 -5.106 10
-4.04 -11.202 -5.139 7
-3.943 -10.835 -5.165 9
-3.848 -10.483 -5.19 13
-3.754 -10.139 -5.21 12
-3.666 -9.807 -5.229 39
-3.579 -9.488 -5.248 15
-11.883 -40.001 -4.053 4
-10.344 -34.537 -3.713 24
-9.891 -32.779 -3.967 14
-9.492 -31.202 -4.204 6
-8.892 -29.013 -4.234 7
-8.399 -27.187 -4.285 5
-7.957 -25.565 -4.331 6
-7.577 -24.164 -4.388 6
-7.245 -22.923 -4.448 5
-5.804 -18.227 -3.276 1
-5.685 -17.701 -3.443 0
-5.669 -17.532 -3.73 7
-5.652 -17.339 -4.005 2
-5.651 -17.206 -4.304 4
-5.735 -17.325 -4.713 7
-5.552 -16.646 -4.762 8
-5.373 -15.979 -4.793 45
-5.215 -15.391 -4.842 8
-5.055 -14.804 -4.872 8
-4.911 -14.264 -4.906 8
-4.784 -13.788 -4.961 8
-4.654 -13.3 -4.992 7
-4.524 -12.827 -5.015 8
-4.411 -12.399 -5.052 9
-4.296 -11.98 -5.081 10
-4.191 -11.583 -5.11 10
-4.086 -11.202 -5.138 8
-3.988 -10.834 -5.164 12
-3.891 -10.479 -5.187 13
-3.796 -10.136 -5.208 13
-3.709 -9.81 -5.231 38
-3.62 -9.489 -5.249 16
-12.024 -40.025 -4.057 4
-10.43 -34.438 -3.694 26
-10.013 -32.812 -3.974 15
-9.608 -31.234 -4.211 6
-8.995 -29.024 -4.237 6
-8.5 -27.206 -4.29 5
-8.05 -25.574 -4.333 6
-7.667 -24.178 -4.392 6
-7.328 -22.927 -4.449 5
-5.813 -18.05 -3.215 1
-5.707 -17.569 -3.395 0
-5.667 -17.33 -3.652 2
-5.678 -17.223 -3.959 3
-5.693 -17.141 -4.276 35
-5.8 -17.322 -4.712 7
-5.615 -16.644 -4.761 8
-5.435 -15.981 -4.794 43
-5.276 -15.397 -4.845 8
-5.112 -14.804 -4.871 8
-4.967 -14.264 -4.906 9
-4.837 -13.785 -4.959 8
-4.706 -13.298 -4.99 8
-4.576 -12.829 -5.016 8
-4.46 -12.397 -5.051 10
-4.345 -11.979 -5.08 9
-4.235 -11.576 -5.105 10
-4.131 -11.197 -5.135 9
-4.033 -10.833 -5.164 10
-3.935 -10.479 -5.187 12
-3.838 -10.133 -5.205 12
-3.749 -9.804 -5.227 41
-3.659 -9.484 -5.244 15
-12.177 -40.087 -4.068 5
-10.533 -34.396 -3.686 33
-10.128 -32.823 -3.977 16
-9.723 -31.257 -4.216 6
-9.105 -29.053 -4.244 7
-8.599 -27.217 -4.293 4
-8.146 -25.594 -4.339 7
-7.758 -24.196 -4.397 6
-7.416 -22.945 -4.455 5
-5.826 -17.893 -3.161 0
-5.744 -17.487 -3.365 0
-5.687 -17.199 -3.602 4
-5.708 -17.121 -3.917 4
-5.728 -17.054 -4.239 22
-5.867 -17.329 -4.715 7
-5.678 -16.645 -4.762 7
-5.494 -15.975 -4.792 40
-5.335 -15.396 -4.845 8
-5.168 -14.799 -4.869 8
-5.022 -14.264 -4.907 8
-4.892 -13.785 -4.959 8
-4.758 -13.296 -4.989 8
-4.625 -12.823 -5.013 8
-4.51 -12.395 -5.049 9
-4.393 -11.977 -5.078 10
-4.283 -11.574 -5.104 10
-4.177 -11.196 -5.135 9
-4.077 -10.83 -5.161 11
-3.978 -10.475 -5.184 12
-3.882 -10.136 -5.208 12
-3.791 -9.804 -5.227 36
-3.699 -9.481 -5.242 15
-12.314 -40.096 -4.07 5
-10.652 -34.401 -3.687 22
-10.246 -32.842 -3.981 20
-9.838 -31.279 -4.221 7
-9.211 -29.07 -4.248 6
-8.7 -27.236 -4.298 5
-8.242 -25.611 -4.344 7
-7.85 -24.213 -4.403 5
-7.503 -22.959 -4.46 5
-5.806 -17.633 -3.072 3
-5.814 -17.506 -3.372 0
-5.731 -17.139 -3.579 7
-5.746 -17.048 -3.888 7
-5.767 -16.981 -4.208 17
-5.932 -17.326 -4.714 7
-5.742 -16.646 -4.762 7
-5.557 -15.981 -4.794 44
-5.397 -15.402 -4.847 8
-5.226 -14.802 -4.87 8
-5.078 -14.263 -4.906 8
-4.946 -13.785 -4.959 8
-4.811 -13.296 -4.989 8
-4.676 -12.82 -5.011 8
-4.559 -12.393 -5.048 9
-4.439 -11.969 -5.073 8
-4.329 -11.57 -5.101 9
-4.225 -11.198 -5.136 10
-4.122 -10.829 -5.16 11
-4.022 -10.475 -5.184 11
-3.927 -10.139 -5.21 11
-3.832 -9.801 -5.224 37
-3.741 -9.481 -5.242 16
-12.467 -40.157 -4.081 5
-10.804 -34.516 -3.709 24
-10.369 -32.878 -3.988 22
-9.957 -31.317 -4.23 6
-9.321 -29.098 -4.255 6
-8.8 -27.25 -4.302 5
-8.337 -25.626 -4.348 6
-7.938 -24.218 -4.404 6
-7.589 -22.97 -4.463 5
-5.866 -17.623 -3.068 3
-5.808 -17.299 -3.296 0
-5.774 -17.08 -3.556 5
-5.78 -16.961 -3.853 255
-5.823 -16.961 -4.199 112
-5.997 -17.326 -4.714 5
-5.807 -16.651 -4.764 7
-5.618 -15.978 -4.793 39
-5.456 -15.4 -4.847 8
-5.283 -14.798 -4.868 8
-5.134 -14.262 -4.906 8
-4.999 -13.782 -4.957 8
-4.863 -13.292 -4.987 8
-4.726 -12.817 -5.009 8
-4.608 -12.39 -5.046 9
-4.491 -11.976 -5.078 10
-4.377 -11.571 -5.102 10
-4.269 -11.194 -5.133 9
-4.167 -10.828 -5.159 12
-4.066 -10.474 -5.183 11
-3.966 -10.129 -5.202 12
-3.873 -9.798 -5.222 39
-3.781 -9.479 -5.24 14
-12.618 -40.206 -4.089 5
-10.95 -34.607 -3.727 9
-10.487 -32.896 -3.992 30
-10.073 -31.339 -4.235 7
-9.43 -29.122 -4.261 7
-8.904 -27.275 -4.308 5
-8.432 -25.637 -4.351 6
-8.029 -24.231 -4.408 5
-7.675 -22.98 -4.467 5
-5.929 -17.62 -3.067 3
-5.848 -17.228 -3.271 0
-5.823 -17.038 -3.54 8
-5.842 -16.958 -3.851 10
-5.882 -16.948 -4.194 84
-6.064 -17.33 -4.716 7
-5.871 -16.652 -4.765 8
-5.68 -15.98 -4.794 41
-5.517 -15.404 -4.849 8
-5.34 -14.796 -4.867 8
-5.188 -14.255 -4.902 8
-5.054 -13.781 -4.956 8
-4.917 -13.296 -4.989 8
-4.777 -12.815 -5.008 8
-4.659 -12.391 -5.047 9
-4.538 -11.971 -5.074 10
-4.425 -11.572 -5.103 9
-4.316 -11.192 -5.131 10
-4.214 -10.83 -5.161 10
-4.109 -10.471 -5.181 13
-4.009 -10.129 -5.202 13
-3.915 -9.798 -5.222 41
-3.823 -9.481 -5.242 14
-12.781 -40.292 -4.105 5
