# .PCD v0.7 - Point Cloud Data file format
VERSION 0.7
FIELDS x y z intensity
SIZE 4 4 4 4
TYPE F F F F
COUNT 1 1 1 1
WIDTH 2037
HEIGHT 1
VIEWPOINT 0 0 0 1 0 0 0
POINTS 2037
DATA ascii
-1.628 -18.791 -4.592 8
-1.568 -17.995 -4.638 8
-1.518 -17.28 -4.693 8
-1.468 -16.608 -4.744 7
-1.423 -15.969 -4.788 39
-1.381 -15.404 -4.849 8
-1.337 -14.822 -4.881 8
-1.301 -14.298 -4.926 9
-1.266 -13.827 -4.983 8
-1.234 -13.364 -5.03 7
-1.196 -12.867 -5.04 8
-1.167 -12.451 -5.086 10
-1.135 -12.031 -5.115 9
-1.108 -11.636 -5.148 10
-1.08 -11.26 -5.181 12
-1.055 -10.896 -5.211 11
-1.028 -10.541 -5.236 12
-1.002 -10.203 -5.263 13
-0.979 -9.872 -5.283 14
-0.955 -9.549 -5.3 39
-2.826 -34.036 -3.001 36
-2.784 -33.275 -3.468 22
-2.231 -26.512 -2.635 2
-2.201 -25.95 -2.991 9
-2.21 -25.908 -3.46 15
-2.268 -26.438 -4.084 6
-2.156 -24.938 -4.151 7
-2.056 -23.642 -4.228 5
-1.969 -22.466 -4.3 4
-1.882 -21.355 -4.353 30
-1.815 -20.429 -4.436 7
-1.747 -19.552 -4.505 9
-1.692 -18.789 -4.591 7
-1.631 -18.001 -4.641 7
-1.579 -17.29 -4.698 8
-1.527 -16.615 -4.748 7
-1.48 -15.972 -4.79 38
-1.435 -15.397 -4.845 7
-1.39 -14.825 -4.883 8
-1.352 -14.298 -4.926 8
-1.316 -13.827 -4.983 8
-1.282 -13.357 -5.026 8
-1.243 -12.864 -5.038 8
-1.213 -12.448 -5.084 9
-1.181 -12.034 -5.117 10
-1.152 -11.633 -5.145 11
-1.123 -11.263 -5.183 11
-1.097 -10.893 -5.209 12
-1.069 -10.538 -5.233 11
-1.043 -10.204 -5.263 11
-1.019 -9.873 -5.284 13
-0.994 -9.553 -5.304 39
-2.932 -34.035 -3.001 28
-2.323 -26.76 -2.202 1
-2.288 -26.205 -2.57 5
-2.263 -25.723 -2.939 15
-2.274 -25.699 -3.408 19
-2.353 -26.438 -4.084 6
-2.238 -24.95 -4.154 7
-2.134 -23.648 -4.23 6
-2.043 -22.471 -4.301 5
-1.954 -21.361 -4.355 32
-1.882 -20.42 -4.432 6
-1.814 -19.558 -4.508 9
-1.757 -18.792 -4.593 7
-1.693 -18.004 -4.642 7
-1.639 -17.285 -4.696 7
-1.585 -16.618 -4.749 7
-1.536 -15.975 -4.791 9
-1.49 -15.396 -4.845 8
-1.443 -14.821 -4.881 8
-1.404 -14.298 -4.926 9
-1.366 -13.826 -4.983 8
-1.331 -13.357 -5.026 7
-1.291 -12.864 -5.038 8
-1.26 -12.451 -5.086 10
-1.226 -12.031 -5.115 10
-1.197 -11.636 -5.148 11
-1.166 -11.258 -5.179 10
-1.139 -10.894 -5.209 9
-1.11 -10.542 -5.237 12
-1.082 -10.199 -5.259 11
-1.059 -9.876 -5.287 13
-1.032 -9.553 -5.304 40
-3.034 -34.002 -2.996 30
-2.403 -26.722 -2.194 5
-2.349 -25.972 -2.52 4
-2.329 -25.549 -2.898 23
-2.34 -25.515 -3.362 23
-2.35 -25.477 -3.827 0
-2.319 -24.951 -4.154 7
-2.211 -23.649 -4.23 6
-2.118 -22.477 -4.303 5
-2.025 -21.367 -4.357 29
-1.952 -20.426 -4.434 8
-1.879 -19.552 -4.505 9
-1.821 -18.798 -4.595 7
-1.755 -18.002 -4.642 8
-1.698 -17.284 -4.695 7
-1.643 -16.617 -4.749 8
-1.593 -15.978 -4.793 9
-1.544 -15.396 -4.845 7
-1.496 -14.82 -4.88 8
-1.455 -14.298 -4.925 9
-1.416 -13.823 -4.981 8
-1.38 -13.357 -5.026 8
-1.338 -12.864 -5.038 9
-1.307 -12.451 -5.086 10
-1.271 -12.028 -5.113 10
-1.241 -11.633 -5.146 10
-1.209 -11.258 -5.179 11
-1.182 -10.898 -5.212 11
-1.152 -10.542 -5.237 14
-1.123 -10.199 -5.259 12
-1.097 -9.871 -5.283 13
-0.96 -8.567 -4.448 11
-3.148 -34.092 -3.011 27
-2.497 -26.832 -2.216 13
-2.417 -25.82 -2.488 0
-2.404 -25.479 -2.882 4
-2.41 -25.392 -3.331 19
-2.426 -25.416 -3.81 9
-2.401 -24.96 -4.157 7
-2.29 -23.657 -4.233 6
-2.193 -22.482 -4.305 5
-2.097 -21.371 -4.359 32
-2.021 -20.435 -4.438 9
-1.945 -19.551 -4.505 9
-1.886 -18.8 -4.596 7
-1.816 -17.998 -4.64 7
-1.758 -17.287 -4.697 8
-1.701 -16.623 -4.751 8
-1.649 -15.977 -4.792 9
-1.599 -15.399 -4.846 4
-1.549 -14.816 -4.878 8
-1.507 -14.301 -4.927 9
-1.467 -13.829 -4.984 7
-1.43 -13.36 -5.027 8
-1.386 -12.864 -5.038 10
-1.353 -12.448 -5.084 10
-1.317 -12.028 -5.113 9
-1.285 -11.637 -5.148 11
-1.253 -11.261 -5.182 11
-1.223 -10.891 -5.207 11
-1.193 -10.539 -5.234 12
-1.164 -10.203 -5.262 11
-1.137 -9.874 -5.285 12
-0.986 -8.49 -4.38 12
-3.254 -34.089 -3.011 29
-2.576 -26.778 -2.205 6
0.0 -0.0 3.0 0
-2.475 -25.375 -2.858 255
-2.487 -25.349 -3.32 66
-2.509 -25.42 -3.811 21
-2.484 -24.971 -4.16 6
-2.367 -23.658 -4.233 5
-2.267 -22.479 -4.304 5
-2.169 -21.38 -4.362 27
-2.09 -20.436 -4.438 18
-2.012 -19.556 -4.507 8
-1.949 -18.794 -4.593 5
-1.879 -18.011 -4.645 7
-1.819 -17.289 -4.697 8
-1.759 -16.622 -4.751 8
-1.705 -15.979 -4.794 9
-1.654 -15.401 -4.847 5
-1.602 -14.816 -4.878 7
-1.559 -14.297 -4.925 9
-1.517 -13.826 -4.982 8
-1.478 -13.353 -5.023 8
-1.434 -12.863 -5.038 9
-1.4 -12.451 -5.086 9
-1.363 -12.035 -5.117 10
-1.329 -11.633 -5.146 10
-1.296 -11.262 -5.182 12
-1.266 -10.895 -5.21 11
-1.234 -10.537 -5.232 11
-1.204 -10.203 -5.262 11
-1.176 -9.872 -5.283 13
-1.009 -8.401 -4.303 11
-3.341 -33.899 -2.977 15
-2.648 -26.657 -2.182 56
-2.549 -25.506 -2.421 31
-2.555 -25.371 -2.857 63
-2.568 -25.343 -3.319 68
-2.59 -25.412 -3.809 35
-2.566 -24.975 -4.162 6
-2.445 -23.654 -4.232 5
-2.343 -22.494 -4.309 4
-2.241 -21.381 -4.362 25
-2.158 -20.427 -4.435 22
-2.079 -19.562 -4.509 9
-2.013 -18.792 -4.593 5
-1.94 -18.001 -4.641 7
-1.879 -17.291 -4.698 7
-1.818 -16.623 -4.752 8
-1.762 -15.978 -4.793 9
-1.708 -15.396 -4.845 6
-1.655 -14.814 -4.877 7
-1.61 -14.292 -4.922 9
-1.568 -13.828 -4.984 8
-1.528 -13.359 -5.027 8
-1.482 -12.867 -5.04 8
-1.446 -12.447 -5.083 9
-1.408 -12.034 -5.117 10
-1.374 -11.637 -5.148 10
-1.34 -11.264 -5.184 11
-1.308 -10.892 -5.207 11
-1.275 -10.536 -5.232 11
-1.244 -10.2 -5.26 12
-1.051 -8.535 -4.162 10
-1.032 -8.311 -4.224 10
-3.464 -34.073 -3.008 35
-2.733 -26.675 -2.185 50
-2.626 -25.471 -2.414 59
-2.637 -25.379 -2.859 61
-2.65 -25.35 -3.32 67
-2.672 -25.408 -3.808 46
-2.647 -24.975 -4.161 6
-2.525 -23.678 -4.239 6
-2.418 -22.499 -4.31 5
-2.312 -21.382 -4.362 23
-2.226 -20.42 -4.432 32
-2.146 -19.57 -4.512 9
-2.078 -18.798 -4.595 5
-2.003 -18.003 -4.642 7
-1.94 -17.296 -4.701 8
-1.876 -16.625 -4.753 8
-1.818 -15.977 -4.792 9
-1.764 -15.399 -4.846 8
-1.708 -14.817 -4.878 7
-1.662 -14.298 -4.925 9
-1.618 -13.824 -4.981 8
-1.577 -13.358 -5.026 7
-1.529 -12.866 -5.04 8
-1.493 -12.447 -5.083 9
-1.454 -12.037 -5.119 10
-1.418 -11.633 -5.145 10
-1.382 -11.258 -5.179 11
-1.35 -10.891 -5.207 11
-1.317 -10.543 -5.237 12
-1.284 -10.2 -5.26 12
-1.073 -8.439 -4.081 10
-1.052 -8.203 -4.131 8
-3.558 -33.961 -2.988 17
-2.828 -26.781 -2.206 20
-2.707 -25.475 -2.415 40
-2.718 -25.383 -2.86 58
-2.731 -25.349 -3.32 65
-2.755 -25.412 -3.809 51
-2.729 -24.983 -4.164 6
-2.602 -23.674 -4.238 6
-2.491 -22.488 -4.307 5
-2.384 -21.39 -4.365 23
-2.294 -20.414 -4.43 26
-2.212 -19.567 -4.511 9
-2.141 -18.788 -4.591 7
-2.065 -18.008 -4.644 7
-1.999 -17.294 -4.7 7
-1.935 -16.627 -4.753 8
-1.874 -15.975 -4.791 9
-1.818 -15.397 -4.845 8
-1.761 -14.813 -4.876 7
-1.713 -14.293 -4.923 9
-1.668 -13.823 -4.981 7
-1.626 -13.358 -5.026 6
-1.578 -12.869 -5.041 7
-1.54 -12.449 -5.085 10
-1.499 -12.033 -5.117 11
-1.463 -11.636 -5.148 10
-1.426 -11.258 -5.179 12
-1.392 -10.891 -5.207 11
-1.358 -10.54 -5.235 12
-1.11 -8.546 -3.92 0
-1.096 -8.354 -4.01 12
-1.076 -8.135 -4.072 11
-3.678 -34.087 -3.01 38
-2.912 -26.783 -2.206 20
0.0 -0.0 3.0 0
-2.8 -25.394 -2.863 29
-2.813 -25.349 -3.32 65
-2.598 -23.271 -3.236 2
-2.811 -24.982 -4.163 7
-2.681 -23.678 -4.239 6
-2.567 -22.496 -4.309 5
-2.456 -21.395 -4.367 23
-2.363 -20.421 -4.433 13
-2.279 -19.568 -4.512 9
-2.205 -18.781 -4.588 7
-2.128 -18.01 -4.645 7
-2.059 -17.292 -4.699 7
-1.993 -16.625 -4.753 8
-1.932 -15.984 -4.796 8
-1.873 -15.399 -4.846 8
-1.814 -14.814 -4.877 7
-1.766 -14.299 -4.926 8
-1.72 -13.828 -4.984 8
-1.675 -13.353 -5.023 5
-1.625 -12.868 -5.041 8
-1.586 -12.445 -5.082 10
-1.544 -12.032 -5.116 9
-1.507 -11.639 -5.15 10
-1.47 -11.264 -5.184 11
-1.435 -10.894 -5.209 11
-1.399 -10.537 -5.232 12
-1.137 -8.494 -3.878 10
-1.118 -8.275 -3.943 10
-1.097 -8.051 -3.999 12
-3.781 -34.064 -3.006 34
-2.997 -26.79 -2.207 19
0.0 -0.0 3.0 0
-2.883 -25.413 -2.867 24
-2.894 -25.352 -3.321 64
-2.642 -22.995 -3.161 2
-2.662 -22.994 -3.593 1
-2.76 -23.689 -4.242 6
-2.642 -22.502 -4.312 5
-2.529 -21.402 -4.369 23
-2.434 -20.436 -4.438 10
-2.345 -19.566 -4.511 9
-2.27 -18.789 -4.591 8
-2.19 -18.011 -4.645 8
-2.12 -17.293 -4.699 7
-2.051 -16.623 -4.752 7
-1.987 -15.979 -4.793 9
-1.928 -15.394 -4.843 8
-1.868 -14.816 -4.878 7
-1.818 -14.298 -4.925 9
-1.769 -13.82 -4.979 8
-1.724 -13.352 -5.023 7
-1.673 -12.867 -5.04 9
-1.633 -12.451 -5.086 9
-1.59 -12.032 -5.115 10
-1.551 -11.635 -5.147 10
-1.512 -11.256 -5.178 12
-1.477 -10.891 -5.207 10
-1.441 -10.539 -5.234 10
-1.159 -8.414 -3.813 12
-1.142 -8.205 -3.885 8
-1.118 -7.97 -3.928 7
-3.884 -34.03 -3.0 29
-3.081 -26.789 -2.207 19
-3.11 -26.868 -2.711 1
-2.965 -25.416 -2.868 22
-2.976 -25.355 -3.322 64
-2.692 -22.791 -3.107 2
-2.723 -22.871 -3.558 2
-2.839 -23.696 -4.244 5
-2.716 -22.499 -4.31 5
-2.602 -21.413 -4.373 18
-2.504 -20.445 -4.441 9
-2.412 -19.573 -4.513 9
-2.334 -18.783 -4.589 8
-2.251 -18.004 -4.642 8
-2.18 -17.294 -4.7 7
-2.109 -16.624 -4.752 7
-2.045 -15.987 -4.797 9
-1.982 -15.392 -4.843 8
-1.92 -14.811 -4.875 7
-1.869 -14.292 -4.922 8
-1.82 -13.826 -4.982 7
-1.773 -13.354 -5.024 8
-1.721 -12.865 -5.039 8
-1.679 -12.447 -5.083 10
-1.635 -12.031 -5.115 11
-1.596 -11.634 -5.146 10
-1.556 -11.259 -5.18 12
-1.519 -10.89 -5.206 11
-1.2 -8.537 -3.67 4
-1.183 -8.343 -3.756 12
-1.162 -8.117 -3.811 10
-1.378 -9.546 -5.298 26
-4.0 -34.112 -3.015 40
-3.167 -26.803 -2.21 18
-3.196 -26.878 -2.713 0
-3.048 -25.429 -2.871 18
-3.059 -25.361 -3.323 64
-2.764 -22.771 -3.101 3
-2.798 -22.878 -3.56 1
-2.917 -23.698 -4.245 6
-2.794 -22.517 -4.316 6
-2.674 -21.413 -4.373 17
-2.572 -20.441 -4.44 9
-2.479 -19.573 -4.513 9
-2.398 -18.787 -4.59 7
-2.314 -18.009 -4.644 8
-2.24 -17.292 -4.699 8
-2.167 -16.622 -4.751 8
-2.1 -15.978 -4.793 8
-2.038 -15.401 -4.847 7
-1.975 -14.82 -4.88 8
-1.921 -14.294 -4.923 9
-1.871 -13.824 -4.981 5
-1.823 -13.352 -5.023 8
-1.769 -12.865 -5.039 8
-1.726 -12.446 -5.083 10
-1.68 -12.027 -5.112 10
-1.64 -11.633 -5.146 10
-1.599 -11.255 -5.177 10
-1.562 -10.896 -5.211 10
-1.224 -8.466 -3.614 12
-1.204 -8.259 -3.688 8
-1.182 -8.033 -3.74 11
-1.417 -9.549 -5.301 37
-4.121 -34.232 -3.036 30
-3.253 -26.813 -2.212 18
-3.288 -26.931 -2.724 0
-3.13 -25.436 -2.872 15
-3.141 -25.364 -3.324 1
-2.837 -22.767 -3.1 3
-2.879 -22.923 -3.573 0
-2.995 -23.697 -4.245 6
-2.867 -22.505 -4.312 5
-2.745 -21.412 -4.373 15
-2.643 -20.452 -4.444 9
-2.546 -19.577 -4.515 9
-2.463 -18.788 -4.591 8
-2.376 -18.005 -4.643 7
-2.301 -17.296 -4.701 8
-2.226 -16.619 -4.75 8
-2.157 -15.979 -4.793 8
-2.094 -15.405 -4.849 7
-2.028 -14.821 -4.881 7
-1.974 -14.3 -4.926 8
-1.921 -13.822 -4.98 5
-1.872 -13.351 -5.022 8
-1.816 -12.859 -5.036 7
-1.773 -12.445 -5.082 10
-1.727 -12.032 -5.116 10
-1.685 -11.633 -5.145 11
-1.643 -11.258 -5.179 10
-1.604 -10.889 -5.205 11
-1.246 -8.39 -3.555 9
-1.224 -8.173 -3.618 10
-1.204 -7.963 -3.682 7
-1.455 -9.546 -5.298 39
-4.211 -34.095 -3.012 5
-3.337 -26.815 -2.212 17
-3.369 -26.898 -2.717 1
-3.213 -25.45 -2.876 3
0.0 -0.0 3.0 0
-2.935 -22.954 -3.15 0
0.0 -0.0 3.0 0
-3.075 -23.707 -4.248 6
-2.945 -22.526 -4.319 5
-2.816 -21.405 -4.37 30
-2.712 -20.452 -4.444 9
-2.613 -19.581 -4.516 9
-2.528 -18.791 -4.592 8
-2.438 -18.002 -4.642 8
-2.361 -17.296 -4.701 8
-2.284 -16.62 -4.75 8
-2.213 -15.972 -4.79 9
-2.149 -15.403 -4.848 7
-2.082 -14.822 -4.881 7
-2.024 -14.291 -4.921 9
-1.972 -13.824 -4.981 8
-1.922 -13.356 -5.025 8
-1.865 -12.865 -5.039 8
-1.82 -12.446 -5.083 8
-1.772 -12.028 -5.113 10
-1.729 -11.634 -5.147 10
-1.687 -11.26 -5.181 10
-1.288 -8.515 -3.417 9
-1.264 -8.293 -3.48 6
-1.242 -8.081 -3.544 8
-1.235 -7.957 -3.677 0
-1.494 -9.546 -5.298 40
-4.344 -34.309 -3.05 3
-3.424 -26.832 -2.216 18
-3.453 -26.887 -2.715 2
0.0 -0.0 3.0 0
0.0 -0.0 3.0 0
0.0 -0.0 3.0 0
0.0 -0.0 3.0 0
-3.15 -23.687 -4.242 3
-3.019 -22.525 -4.319 5
-2.888 -21.404 -4.37 32
-2.78 -20.447 -4.442 9
-2.68 -19.577 -4.515 9
-2.593 -18.791 -4.592 8
-2.501 -18.006 -4.643 7
-2.421 -17.293 -4.699 8
-2.342 -16.614 -4.747 8
-2.271 -15.98 -4.794 9
-2.205 -15.407 -4.85 7
-2.136 -14.823 -4.882 7
-2.078 -14.299 -4.926 8
-2.023 -13.822 -4.98 8
-1.971 -13.354 -5.024 8
-1.912 -12.863 -5.038 8
-1.866 -12.445 -5.082 9
-1.817 -12.026 -5.112 9
-1.773 -11.63 -5.144 10
-1.729 -11.252 -5.175 12
-1.318 -8.497 -3.403 8
-1.284 -8.212 -3.416 8
-1.261 -7.998 -3.477 12
-1.571 -9.867 -5.279 13
-1.533 -9.548 -5.3 38
-4.928 -37.98 -3.697 7
-3.507 -26.822 -2.214 12
-3.54 -26.896 -2.717 2
0.0 -0.0 3.0 0
0.0 -0.0 3.0 0
0.0 -0.0 3.0 0
0.0 -0.0 3.0 0
-3.042 -22.319 -3.824 0
-3.095 -22.531 -4.321 5
-2.96 -21.41 -4.372 33
-2.851 -20.457 -4.446 9
-2.747 -19.584 -4.517 9
-2.658 -18.794 -4.593 8
-2.563 -18.006 -4.643 8
-2.481 -17.29 -4.698 8
-2.401 -16.621 -4.75 8
-2.327 -15.978 -4.793 9
-2.259 -15.404 -4.849 8
-2.189 -14.821 -4.88 8
-2.13 -14.3 -4.926 8
-2.075 -13.83 -4.985 8
-2.02 -13.353 -5.023 7
-1.96 -12.861 -5.037 6
-1.914 -12.447 -5.083 9
-1.864 -12.032 -5.115 9
-1.818 -11.632 -5.145 10
-1.774 -11.258 -5.18 12
-1.351 -8.493 -3.4 5
-1.316 -8.212 -3.416 2
-1.284 -7.942 -3.431 6
-1.611 -9.873 -5.284 15
-1.571 -9.545 -5.297 39
-5.051 -38.009 -3.702 6
-3.596 -26.854 -2.22 17
-3.628 -26.912 -2.72 2
-3.208 -23.612 -2.451 0
-3.091 -22.608 -2.637 1
-3.082 -22.394 -3.001 0
0.0 -0.0 3.0 0
-3.116 -22.321 -3.824 1
-3.171 -22.537 -4.323 5
-3.033 -21.415 -4.374 16
-2.92 -20.456 -4.446 9
-2.814 -19.579 -4.516 9
-2.722 -18.794 -4.593 8
-2.626 -18.005 -4.643 8
-2.542 -17.29 -4.698 8
-2.459 -16.614 -4.747 8
-2.384 -15.974 -4.791 9
-2.314 -15.402 -4.848 8
-2.243 -14.825 -4.883 8
-2.182 -14.298 -4.925 9
-2.125 -13.824 -4.981 7
-2.069 -13.35 -5.022 7
-2.008 -12.863 -5.038 8
-1.961 -12.448 -5.084 9
-1.909 -12.03 -5.114 10
-1.863 -11.631 -5.144 8
-1.817 -11.257 -5.178 11
-1.773 -10.885 -5.202 11
-1.365 -8.312 -3.494 5
-1.316 -7.945 -3.434 4
-1.65 -9.866 -5.279 14
-1.611 -9.547 -5.299 35
-5.17 -38.013 -3.703 6
-3.682 -26.863 -2.222 18
-3.715 -26.925 -2.723 2
-3.292 -23.671 -2.465 0
-3.142 -22.449 -2.597 0
-3.153 -22.377 -2.996 2
0.0 -0.0 3.0 0
-3.191 -22.323 -3.825 1
-3.246 -22.535 -4.322 5
-3.107 -21.426 -4.378 15
-2.99 -20.458 -4.446 9
-2.88 -19.578 -4.515 9
-2.787 -18.793 -4.593 8
-2.689 -18.009 -4.644 8
-2.602 -17.29 -4.698 8
-2.518 -16.614 -4.747 8
-2.44 -15.97 -4.789 9
-2.371 -15.41 -4.852 8
-2.297 -14.826 -4.883 7
-2.234 -14.299 -4.926 8
-2.176 -13.826 -4.982 7
-2.118 -13.345 -5.019 7
-2.057 -12.864 -5.038 7
-2.008 -12.45 -5.085 9
-1.955 -12.028 -5.113 10
-1.907 -11.626 -5.141 9
-1.86 -11.255 -5.177 12
-1.816 -10.886 -5.203 12
-1.434 -8.527 -3.662 0
-1.349 -7.951 -3.439 1
-1.69 -9.865 -5.278 14
-1.649 -9.544 -5.296 38
-5.291 -38.021 -3.704 7
-3.77 -26.879 -2.225 19
-3.803 -26.937 -2.726 2
-3.369 -23.68 -2.467 0
-3.211 -22.419 -2.59 5
0.0 -0.0 3.0 0
-3.253 -22.388 -3.42 0
-3.285 -22.465 -3.868 0
-3.322 -22.54 -4.324 5
-3.183 -21.45 -4.386 11
-3.06 -20.465 -4.449 10
-2.947 -19.577 -4.515 9
-2.851 -18.789 -4.591 8
-2.751 -18.008 -4.644 8
-2.663 -17.293 -4.7 8
-2.577 -16.618 -4.749 7
-2.497 -15.975 -4.792 9
-2.425 -15.403 -4.848 8
-2.35 -14.823 -4.882 8
-2.286 -14.299 -4.926 8
-2.227 -13.827 -4.983 7
-2.168 -13.35 -5.021 7
-2.106 -12.869 -5.041 8
-2.054 -12.444 -5.081 10
-2.001 -12.03 -5.114 9
-1.952 -11.631 -5.144 9
-1.904 -11.254 -5.176 12
-1.858 -10.882 -5.201 11
-1.813 -10.532 -5.229 12
-1.482 -8.54 -3.915 3
-1.396 -7.963 -3.681 5
-1.687 -9.542 -5.295 40
-5.416 -38.067 -3.712 6
-3.856 -26.891 -2.227 19
0.0 -0.0 3.0 0
-3.448 -23.698 -2.471 0
-3.285 -22.429 -2.592 4
0.0 -0.0 3.0 0
-3.316 -22.321 -3.4 2
-3.339 -22.323 -3.825 2
-3.399 -22.549 -4.327 5
-3.255 -21.448 -4.385 12
-3.13 -20.467 -4.449 9
-3.015 -19.583 -4.517 9
-2.918 -18.799 -4.595 8
-2.814 -18.011 -4.645 8
-2.724 -17.296 -4.701 8
-2.636 -16.618 -4.749 8
-2.554 -15.975 -4.792 9
-2.481 -15.41 -4.852 8
-2.404 -14.823 -4.882 8
-2.337 -14.293 -4.923 8
-2.277 -13.823 -4.981 7
-2.217 -13.344 -5.018 8
-2.155 -12.873 -5.044 7
-2.102 -12.446 -5.083 10
-2.047 -12.028 -5.113 10
-1.997 -11.629 -5.142 9
-1.947 -11.252 -5.175 10
-1.902 -10.89 -5.206 12
-1.856 -10.537 -5.232 11
-1.811 -10.196 -5.256 13
-1.498 -8.351 -4.007 0
-1.488 -8.223 -4.148 1
-5.539 -38.09 -3.716 6
-3.858 -26.32 -2.116 24
-3.776 -25.593 -2.44 2
-3.523 -23.69 -2.469 0
-3.358 -22.431 -2.593 4
0.0 -0.0 3.0 0
-3.384 -22.284 -3.39 4
-3.409 -22.297 -3.817 3
-3.457 -22.433 -4.289 2
-3.328 -21.457 -4.388 11
-3.2 -20.469 -4.45 9
-3.083 -19.586 -4.518 9
-2.982 -18.797 -4.595 8
-2.878 -18.014 -4.646 8
-2.785 -17.295 -4.7 5
-2.695 -16.621 -4.75 8
-2.611 -15.97 -4.789 9
-2.536 -15.406 -4.85 7
-2.458 -14.828 -4.884 8
-2.39 -14.296 -4.925 8
-2.328 -13.821 -4.98 7
-2.267 -13.348 -5.02 8
-2.203 -12.87 -5.042 7
-2.148 -12.444 -5.081 9
-2.092 -12.026 -5.112 8
-2.041 -11.627 -5.141 7
-1.991 -11.253 -5.176 10
-1.943 -10.882 -5.2 12
-1.897 -10.535 -5.231 13
-1.851 -10.194 -5.255 13
-1.557 -8.49 -4.124 5
-1.476 -7.98 -3.937 4
-5.661 -38.1 -3.718 6
-3.934 -26.273 -2.107 24
0.0 -0.0 3.0 0
-3.602 -23.707 -2.473 0
-3.431 -22.433 -2.593 3
0.0 -0.0 3.0 0
-3.459 -22.29 -3.391 3
-3.486 -22.317 -3.823 5
-3.518 -22.344 -4.26 2
-3.401 -21.458 -4.388 10
-3.271 -20.474 -4.452 9
-3.151 -19.591 -4.52 9
-3.048 -18.8 -4.596 8
-2.94 -18.013 -4.646 7
-2.848 -17.305 -4.705 8
-2.754 -16.623 -4.752 8
-2.667 -15.967 -4.788 9
-2.591 -15.403 -4.848 8
-2.512 -14.824 -4.882 8
-2.443 -14.301 -4.927 9
-2.379 -13.822 -4.98 7
-2.316 -13.345 -5.018 7
-2.25 -12.868 -5.041 7
-2.195 -12.441 -5.079 9
-2.139 -12.031 -5.115 10
-2.086 -11.625 -5.14 7
-2.035 -11.252 -5.175 11
-1.986 -10.884 -5.202 11
-1.938 -10.531 -5.228 13
-1.892 -10.196 -5.257 12
-1.85 -9.87 -5.282 14
-1.548 -8.189 -4.118 4
-5.126 -33.786 -2.957 4
-4.016 -26.264 -2.105 21
-4.148 -26.947 -2.728 1
-3.681 -23.723 -2.477 0
-3.502 -22.422 -2.59 3
0.0 -0.0 3.0 0
-3.532 -22.29 -3.392 3
-3.565 -22.349 -3.833 12
-3.592 -22.338 -4.258 3
-3.474 -21.459 -4.389 10
-3.341 -20.476 -4.453 10
-3.219 -19.596 -4.522 9
-3.114 -18.809 -4.599 8
-3.004 -18.019 -4.649 7
-2.908 -17.301 -4.703 8
-2.812 -16.616 -4.748 8
-2.725 -15.973 -4.791 9
-2.647 -15.403 -4.848 7
-2.565 -14.824 -4.882 7
-2.494 -14.29 -4.921 9
-2.429 -13.818 -4.978 7
-2.366 -13.345 -5.019 7
-2.301 -12.879 -5.048 8
-2.243 -12.446 -5.082 9
-2.184 -12.028 -5.113 9
-2.131 -11.626 -5.14 7
-2.079 -11.253 -5.176 12
-2.03 -10.885 -5.202 10
-1.98 -10.53 -5.227 11
-1.932 -10.192 -5.253 13
-1.888 -9.862 -5.275 14
-1.657 -8.58 -4.458 2
-5.234 -33.794 -2.959 11
-4.101 -26.272 -2.107 18
-4.24 -26.985 -2.736 0
-3.759 -23.736 -2.48 0
-3.576 -22.426 -2.592 2
0.0 -0.0 3.0 0
-3.606 -22.291 -3.392 2
-3.641 -22.357 -3.835 2
-3.667 -22.338 -4.258 4
-3.547 -21.464 -4.391 10
-3.411 -20.481 -4.454 10
-3.286 -19.594 -4.522 18
-3.179 -18.804 -4.597 8
-3.066 -18.014 -4.646 7
-2.968 -17.3 -4.702 8
-2.872 -16.622 -4.751 8
-2.782 -15.97 -4.789 9
-2.701 -15.395 -4.844 7
-2.619 -14.82 -4.88 8
-2.548 -14.297 -4.925 9
-2.48 -13.815 -4.976 7
-2.416 -13.342 -5.017 7
-2.348 -12.87 -5.042 7
-2.29 -12.446 -5.082 9
-2.23 -12.026 -5.112 10
-2.175 -11.624 -5.139 5
-2.122 -11.251 -5.174 11
-2.071 -10.88 -5.199 11
-2.021 -10.528 -5.226 12
-1.973 -10.194 -5.255 12
-1.928 -9.861 -5.274 14
-1.881 -9.537 -5.29 38
-5.346 -33.833 -2.966 13
-4.192 -26.322 -2.116 12
-4.325 -26.973 -2.733 1
-3.841 -23.77 -2.488 0
-3.652 -22.451 -2.598 2
0.0 -0.0 3.0 0
-3.682 -22.307 -3.396 2
-3.715 -22.353 -3.834 3
-3.743 -22.346 -4.261 5
-3.62 -21.468 -4.392 10
-3.481 -20.482 -4.455 9
-3.352 -19.585 -4.518 36
-3.245 -18.809 -4.599 8
-3.129 -18.015 -4.647 7
-3.029 -17.298 -4.702 8
-2.93 -16.614 -4.747 8
-2.839 -15.969 -4.788 9
-2.757 -15.398 -4.846 7
-2.673 -14.823 -4.882 8
-2.599 -14.294 -4.923 9
-2.531 -13.815 -4.976 7
-2.465 -13.343 -5.017 8
-2.397 -12.877 -5.046 8
-2.337 -12.443 -5.081 9
-2.276 -12.023 -5.11 10
-2.22 -11.624 -5.14 6
-2.166 -11.249 -5.173 12
-2.115 -10.885 -5.202 10
-2.063 -10.529 -5.226 12
-2.014 -10.191 -5.253 12
-1.968 -9.862 -5.275 14
-1.92 -9.536 -5.289 37
-5.414 -33.591 -2.923 28
-4.385 -26.996 -2.247 15
0.0 -0.0 3.0 0
-3.918 -23.77 -2.488 0
-3.725 -22.447 -2.597 2
0.0 -0.0 3.0 0
-3.758 -22.318 -3.4 3
-3.846 -22.685 -3.936 2
-3.822 -22.369 -4.268 2
-3.695 -21.476 -4.395 10
-3.553 -20.489 -4.457 9
-3.419 -19.586 -4.518 41
-3.31 -18.807 -4.598 8
-3.191 -18.01 -4.645 7
-3.09 -17.297 -4.701 8
-2.99 -16.623 -4.752 8
-2.897 -15.975 -4.792 9
-2.813 -15.397 -4.845 7
-2.727 -14.819 -4.879 8
-2.652 -14.293 -4.923 9
-2.583 -13.819 -4.978 7
-2.515 -13.343 -5.017 8
-2.445 -12.873 -5.044 8
-2.384 -12.441 -5.079 9
-2.322 -12.024 -5.11 9
-2.266 -11.629 -5.143 10
-2.21 -11.25 -5.174 11
-2.158 -10.882 -5.2 11
-2.104 -10.524 -5.222 12
-2.054 -10.19 -5.252 11
-2.008 -9.861 -5.274 14
-1.959 -9.538 -5.291 30
-5.503 -33.485 -2.904 15
-4.475 -27.017 -2.252 12
0.0 -0.0 3.0 0
-3.996 -23.777 -2.489 0
-3.802 -22.47 -2.602 2
0.0 -0.0 3.0 0
-3.833 -22.326 -3.402 2
-3.865 -22.361 -3.836 5
-3.912 -22.45 -4.295 2
-3.767 -21.476 -4.395 9
-3.623 -20.49 -4.458 9
-3.488 -19.591 -4.52 33
-3.376 -18.811 -4.6 8
-3.255 -18.015 -4.647 7
-3.151 -17.295 -4.7 8
-3.049 -16.618 -4.749 8
-2.954 -15.973 -4.791 9
-2.867 -15.393 -4.843 8
-2.782 -14.825 -4.883 8
-2.704 -14.289 -4.921 9
-2.633 -13.812 -4.974 7
-2.565 -13.342 -5.017 8
-2.493 -12.87 -5.042 8
-2.432 -12.444 -5.082 9
-2.368 -12.025 -5.111 10
-2.311 -11.63 -5.143 10
-2.253 -11.247 -5.171 11
-2.201 -10.884 -5.201 11
-2.147 -10.528 -5.225 11
-2.096 -10.191 -5.253 12
-2.047 -9.859 -5.273 14
-1.998 -9.539 -5.292 38
-5.6 -33.437 -2.896 27
-4.563 -27.031 -2.254 12
0.0 -0.0 3.0 0
-4.08 -23.816 -2.498 0
-3.874 -22.459 -2.6 1
0.0 -0.0 3.0 0
-3.91 -22.341 -3.406 2
-3.938 -22.346 -3.832 5
-4.013 -22.596 -4.342 5
-3.84 -21.477 -4.395 10
-3.694 -20.494 -4.459 9
-3.554 -19.583 -4.517 15
-3.442 -18.813 -4.601 8
-3.318 -18.013 -4.646 7
-3.211 -17.293 -4.7 8
-3.108 -16.62 -4.75 7
-3.011 -15.969 -4.788 9
-2.922 -15.388 -4.841 7
-2.835 -14.822 -4.881 8
-2.757 -14.292 -4.922 8
-2.685 -13.814 -4.976 8
-2.615 -13.342 -5.017 8
-2.542 -12.87 -5.042 8
-2.479 -12.445 -5.082 9
-2.414 -12.022 -5.109 9
-2.356 -11.627 -5.141 10
-2.297 -11.245 -5.17 11
-2.243 -10.881 -5.2 11
-2.189 -10.529 -5.226 10
-2.136 -10.186 -5.248 12
-2.087 -9.858 -5.272 14
-2.036 -9.534 -5.288 36
-5.749 -33.688 -2.94 3
-4.655 -27.063 -2.261 8
0.0 -0.0 3.0 0
-4.161 -23.837 -2.503 0
-3.948 -22.466 -2.601 1
-3.968 -22.424 -3.009 0
-3.991 -22.378 -3.417 2
-4.018 -22.379 -3.842 2
-4.091 -22.603 -4.344 5
-3.915 -21.483 -4.397 10
-3.763 -20.49 -4.458 8
-3.625 -19.603 -4.525 9
-3.507 -18.813 -4.601 8
-3.381 -18.011 -4.645 7
-3.272 -17.291 -4.698 8
-3.168 -16.622 -4.751 8
-3.069 -15.974 -4.791 9
-2.978 -15.387 -4.84 7
-2.888 -14.814 -4.877 8
-2.81 -14.295 -4.924 8
-2.735 -13.811 -4.974 7
-2.665 -13.342 -5.017 8
-2.589 -12.863 -5.038 8
-2.526 -12.441 -5.079 9
-2.46 -12.022 -5.109 9
-2.401 -11.628 -5.142 10
-2.342 -11.248 -5.172 11
-2.286 -10.878 -5.197 11
-2.23 -10.524 -5.222 12
-2.177 -10.19 -5.252 13
-2.127 -9.859 -5.272 13
-2.076 -9.536 -5.289 33
-6.663 -38.33 -3.759 6
-4.753 -27.131 -2.274 3
0.0 -0.0 3.0 0
-4.243 -23.864 -2.509 0
-4.024 -22.48 -2.605 1
0.0 -0.0 3.0 0
0.0 -0.0 3.0 0
-4.143 -22.65 -3.925 6
-4.169 -22.614 -4.348 5
-3.989 -21.49 -4.4 7
-3.834 -20.494 -4.459 9
-3.695 -19.611 -4.528 8
-3.572 -18.807 -4.598 8
-3.445 -18.015 -4.647 7
-3.334 -17.292 -4.699 8
-3.227 -16.62 -4.75 8
-3.127 -15.972 -4.79 9
-3.036 -15.396 -4.845 7
-2.943 -14.819 -4.879 9
-2.862 -14.29 -4.921 8
-2.786 -13.81 -4.973 8
-2.715 -13.342 -5.017 7
-2.638 -12.864 -5.038 8
-2.574 -12.441 -5.08 10
-2.506 -12.022 -5.109 9
-2.445 -11.625 -5.14 11
-2.385 -11.246 -5.171 11
-2.329 -10.879 -5.198 12
-2.272 -10.525 -5.223 12
-2.217 -10.185 -5.248 11
-2.166 -9.85 -5.265 13
-2.115 -9.534 -5.287 34
-6.79 -38.365 -3.765 6
-4.815 -26.989 -2.246 1
0.0 -0.0 3.0 0
0.0 -0.0 3.0 0
-4.1 -22.492 -2.608 1
0.0 -0.0 3.0 0
0.0 -0.0 3.0 0
-4.186 -22.471 -3.87 1
-4.246 -22.62 -4.35 4
-4.063 -21.493 -4.401 9
-3.906 -20.501 -4.462 9
-3.762 -19.611 -4.528 9
-3.639 -18.819 -4.603 8
-3.508 -18.013 -4.646 5
-3.395 -17.293 -4.7 8
-3.287 -16.622 -4.751 8
-3.185 -15.974 -4.791 9
-3.091 -15.395 -4.844 7
-2.997 -14.815 -4.877 8
-2.914 -14.286 -4.919 9
-2.839 -13.816 -4.977 7
-2.765 -13.341 -5.016 7
-2.688 -12.87 -5.042 9
-2.62 -12.437 -5.077 9
-2.553 -12.022 -5.109 9
-2.49 -11.621 -5.137 10
-2.429 -11.246 -5.171 11
-2.372 -10.88 -5.198 11
-2.314 -10.525 -5.223 11
-2.259 -10.186 -5.249 12
-2.206 -9.852 -5.266 13
-2.153 -9.532 -5.286 29
-6.918 -38.399 -3.771 6
-4.789 -26.371 -2.126 0
0.0 -0.0 3.0 0
0.0 -0.0 3.0 0
-4.173 -22.487 -2.607 1
0.0 -0.0 3.0 0
0.0 -0.0 3.0 0
-4.257 -22.451 -3.864 1
-4.324 -22.626 -4.352 5
-4.137 -21.5 -4.403 8
-3.978 -20.509 -4.465 9
-3.831 -19.614 -4.529 9
-3.704 -18.815 -4.602 8
-3.573 -18.02 -4.649 7
-3.456 -17.291 -4.698 7
-3.346 -16.619 -4.75 8
-3.242 -15.972 -4.79 9
-3.146 -15.389 -4.841 7
-3.051 -14.817 -4.878 8
-2.968 -14.292 -4.922 8
-2.89 -13.815 -4.976 7
-2.814 -13.337 -5.014 7
-2.735 -12.863 -5.038 8
-2.669 -12.441 -5.079 9
-2.598 -12.019 -5.107 9
-2.536 -11.625 -5.14 10
-2.474 -11.247 -5.171 10
-2.415 -10.878 -5.197 12
-2.356 -10.523 -5.222 12
-2.299 -10.183 -5.246 14
-2.247 -9.855 -5.269 14
-2.192 -9.53 -5.284 35
-7.046 -38.432 -3.777 6
-4.858 -26.291 -2.11 2
0.0 -0.0 3.0 0
0.0 -0.0 3.0 0
-4.252 -22.517 -2.614 1
0.0 -0.0 3.0 0
0.0 -0.0 3.0 0
-4.342 -22.503 -3.88 0
-4.401 -22.628 -4.352 5
-4.212 -21.506 -4.405 9
-4.051 -20.522 -4.469 9
-3.901 -19.621 -4.532 8
-3.773 -18.826 -4.606 8
-3.636 -18.017 -4.648 7
-3.518 -17.292 -4.699 8
-3.405 -16.617 -4.749 8
-3.301 -15.977 -4.792 9
-3.202 -15.388 -4.84 8
-3.105 -14.815 -4.877 8
-3.019 -14.284 -4.918 8
-2.941 -13.81 -4.973 7
-2.864 -13.336 -5.013 8
-2.784 -12.862 -5.037 8
-2.716 -12.44 -5.079 8
-2.644 -12.015 -5.104 10
-2.581 -11.621 -5.137 11
-2.518 -11.247 -5.171 10
-2.458 -10.878 -5.197 12
-2.398 -10.523 -5.222 12
-2.339 -10.178 -5.242 14
-2.287 -9.853 -5.268 13
-2.231 -9.528 -5.283 34
-7.175 -38.469 -3.783 6
-4.942 -26.288 -2.11 2
0.0 -0.0 3.0 0
0.0 -0.0 3.0 0
-4.329 -22.53 -2.617 1
0.0 -0.0 3.0 0
0.0 -0.0 3.0 0
-4.422 -22.523 -3.886 0
-4.478 -22.63 -4.353 4
-4.288 -21.515 -4.408 10
-4.121 -20.517 -4.468 12
-3.969 -19.621 -4.532 9
-3.838 -18.823 -4.605 8
-3.701 -18.025 -4.651 7
-3.581 -17.299 -4.702 9
-3.465 -16.621 -4.75 8
-3.357 -15.971 -4.79 9
-3.258 -15.388 -4.841 6
-3.161 -14.82 -4.88 8
-3.073 -14.285 -4.918 9
-2.993 -13.813 -4.975 7
-2.915 -13.335 -5.013 8
-2.832 -12.858 -5.035 8
-2.764 -12.44 -5.078 9
-2.691 -12.018 -5.106 10
-2.626 -11.621 -5.137 10
-2.561 -11.244 -5.169 11
-2.501 -10.877 -5.197 12
-2.44 -10.524 -5.222 9
-2.38 -10.178 -5.242 11
-2.326 -9.851 -5.266 14
-2.27 -9.525 -5.28 34
-7.301 -38.486 -3.786 6
-6.437 -33.663 -3.543 17
-4.953 -25.723 -2.468 63
-4.974 -25.627 -2.917 33
-4.403 -22.528 -2.617 1
0.0 -0.0 3.0 0
0.0 -0.0 3.0 0
-4.499 -22.525 -3.887 0
-4.557 -22.639 -4.356 4
-4.362 -21.521 -4.41 8
-4.19 -20.509 -4.465 32
-4.038 -19.628 -4.534 9
-3.903 -18.818 -4.603 8
-3.763 -18.017 -4.648 6
-3.642 -17.296 -4.701 8
-3.527 -16.629 -4.754 7
-3.415 -15.972 -4.79 9
-3.314 -15.387 -4.84 7
-3.215 -14.818 -4.879 8
-3.125 -14.284 -4.918 9
-3.045 -13.811 -4.974 7
-2.966 -13.341 -5.016 7
-2.881 -12.861 -5.036 8
-2.811 -12.439 -5.078 10
-2.738 -12.018 -5.106 9
-2.671 -11.621 -5.137 10
-2.605 -11.241 -5.167 10
-2.544 -10.874 -5.194 11
-2.482 -10.524 -5.222 10
-2.423 -10.182 -5.245 13
-2.367 -9.851 -5.266 13
-2.31 -9.53 -5.284 30
-7.431 -38.523 -3.793 6
-6.537 -33.625 -3.536 35
-5.039 -25.735 -2.47 43
-5.06 -25.643 -2.92 39
-4.479 -22.538 -2.619 1
-4.539 -22.685 -3.078 1
0.0 -0.0 3.0 0
-4.576 -22.53 -3.888 0
-4.638 -22.658 -4.362 5
-4.438 -21.531 -4.414 10
-4.262 -20.516 -4.467 24
-4.106 -19.627 -4.534 8
-3.971 -18.828 -4.607 8
-3.828 -18.021 -4.649 7
-3.704 -17.3 -4.702 8
-3.585 -16.623 -4.751 8
-3.472 -15.97 -4.789 8
-3.371 -15.391 -4.842 7
-3.269 -14.817 -4.878 8
-3.178 -14.282 -4.917 8
-3.096 -13.81 -4.973 8
-3.015 -13.333 -5.011 8
-2.93 -12.859 -5.035 8
-2.858 -12.435 -5.075 10
-2.783 -12.014 -5.103 10
-2.716 -11.617 -5.135 9
-2.649 -11.24 -5.166 10
-2.587 -10.875 -5.195 11
-2.524 -10.521 -5.22 13
-2.464 -10.182 -5.245 12
-2.407 -9.852 -5.267 14
-2.349 -9.527 -5.282 37
-7.563 -38.569 -3.801 6
-6.652 -33.659 -3.543 22
0.0 -0.0 3.0 0
-5.147 -25.659 -2.924 46
-4.554 -22.543 -2.621 0
-4.615 -22.686 -3.079 1
0.0 -0.0 3.0 0
-4.654 -22.543 -3.892 0
-4.715 -22.659 -4.363 5
-4.514 -21.54 -4.417 9
-4.334 -20.518 -4.468 24
-4.176 -19.633 -4.536 9
-4.037 -18.828 -4.607 8
-3.893 -18.028 -4.652 8
-3.765 -17.296 -4.701 8
-3.645 -16.623 -4.751 8
-3.531 -15.971 -4.789 9
-3.428 -15.392 -4.843 7
-3.324 -14.818 -4.879 8
-3.231 -14.28 -4.916 9
-3.147 -13.808 -4.972 8
-3.065 -13.331 -5.01 7
-2.979 -12.858 -5.035 8
-2.907 -12.437 -5.077 10
-2.831 -12.02 -5.107 10
-2.761 -11.617 -5.134 10
-2.693 -11.237 -5.164 12
-2.629 -10.868 -5.19 12
-2.567 -10.524 -5.222 11
-2.505 -10.179 -5.243 12
-2.447 -9.849 -5.264 12
-2.388 -9.524 -5.279 32
-7.694 -38.609 -3.808 6
-6.766 -33.685 -3.548 19
0.0 -0.0 3.0 0
-5.234 -25.671 -2.927 3
-4.627 -22.538 -2.619 0
-4.799 -23.215 -3.22 1
0.0 -0.0 3.0 0
-4.731 -22.544 -3.892 0
-4.794 -22.668 -4.365 5
-4.588 -21.542 -4.417 10
-4.403 -20.508 -4.464 19
-4.246 -19.638 -4.538 9
-4.102 -18.824 -4.605 7
-3.955 -18.02 -4.649 7
-3.828 -17.3 -4.702 8
-3.706 -16.626 -4.753 8
-3.59 -15.974 -4.791 9
-3.484 -15.393 -4.843 7
-3.378 -14.815 -4.877 9
-3.284 -14.282 -4.917 9
-3.2 -13.813 -4.975 7
-3.117 -13.336 -5.013 7
-3.029 -12.86 -5.036 8
-2.954 -12.433 -5.074 9
-2.878 -12.019 -5.107 9
-2.807 -11.62 -5.136 9
-2.738 -11.24 -5.166 10
-2.673 -10.871 -5.192 11
-2.608 -10.518 -5.217 11
-2.545 -10.177 -5.241 12
-2.486 -9.843 -5.259 13
-2.428 -9.528 -5.283 35
-7.824 -38.643 -3.814 6
-6.881 -33.719 -3.554 19
0.0 -0.0 3.0 0
0.0 -0.0 3.0 0
-4.707 -22.565 -2.626 0
0.0 -0.0 3.0 0
0.0 -0.0 3.0 0
-4.811 -22.563 -3.898 0
-4.873 -22.676 -4.368 5
-4.662 -21.539 -4.416 7
-4.477 -20.521 -4.469 12
-4.314 -19.637 -4.538 9
-4.17 -18.829 -4.608 8
-4.02 -18.023 -4.65 7
-3.888 -17.293 -4.699 7
-3.766 -16.626 -4.753 8
-3.648 -15.975 -4.792 9
-3.542 -15.397 -4.845 7
-3.433 -14.816 -4.878 7
-3.338 -14.283 -4.917 9
-3.252 -13.812 -4.974 6
-3.167 -13.335 -5.012 7
-3.078 -12.862 -5.037 8
-3.002 -12.435 -5.075 10
-2.924 -12.014 -5.104 10
-2.852 -11.616 -5.133 10
-2.782 -11.239 -5.166 11
-2.715 -10.867 -5.189 12
-2.65 -10.518 -5.218 11
-2.588 -10.183 -5.246 10
-2.527 -9.847 -5.263 14
-2.467 -9.525 -5.28 32
-7.957 -38.686 -3.821 6
-6.99 -33.717 -3.554 30
-5.386 -25.795 -2.483 8
0.0 -0.0 3.0 0
-4.789 -22.597 -2.634 0
0.0 -0.0 3.0 0
0.0 -0.0 3.0 0
-4.889 -22.567 -3.9 0
-4.952 -22.68 -4.369 5
-4.738 -21.547 -4.419 8
-4.551 -20.533 -4.473 9
-4.383 -19.636 -4.537 9
-4.236 -18.828 -4.607 8
-4.084 -18.022 -4.65 7
-3.952 -17.299 -4.702 6
-3.825 -16.623 -4.751 8
-3.704 -15.968 -4.788 9
-3.598 -15.394 -4.844 7
-3.489 -14.817 -4.878 7
-3.391 -14.28 -4.916 9
-3.303 -13.809 -4.973 6
-3.218 -13.337 -5.013 7
-3.127 -12.861 -5.036 9
-3.049 -12.43 -5.072 9
-2.97 -12.014 -5.103 9
-2.897 -11.615 -5.133 10
-2.826 -11.235 -5.163 9
-2.759 -10.87 -5.191 11
-2.693 -10.521 -5.22 11
-2.629 -10.18 -5.243 11
-2.567 -9.844 -5.26 13
-2.505 -9.519 -5.275 33
-8.09 -38.731 -3.829 7
-7.096 -33.703 -3.551 23
-5.472 -25.806 -2.485 45
0.0 -0.0 3.0 0
-4.861 -22.586 -2.631 0
0.0 -0.0 3.0 0
0.0 -0.0 3.0 0
-4.966 -22.572 -3.901 1
-5.032 -22.691 -4.373 4
-4.816 -21.563 -4.425 11
-4.625 -20.545 -4.478 9
-4.454 -19.644 -4.541 9
-4.303 -18.83 -4.608 8
-4.148 -18.021 -4.65 7
-4.014 -17.298 -4.702 7
-3.886 -16.626 -4.753 7
-3.764 -15.971 -4.79 8
-3.655 -15.398 -4.846 8
-3.541 -14.807 -4.873 8
-3.444 -14.281 -4.916 9
-3.356 -13.81 -4.973 7
-3.267 -13.331 -5.01 8
-3.176 -12.859 -5.035 8
-3.097 -12.429 -5.071 10
-3.016 -12.009 -5.1 10
-2.943 -11.614 -5.132 10
-2.871 -11.237 -5.164 10
-2.801 -10.864 -5.186 11
-2.734 -10.514 -5.215 13
-2.668 -10.171 -5.236 13
-2.607 -9.844 -5.26 14
-2.544 -9.517 -5.273 33
-8.222 -38.769 -3.836 6
-7.189 -33.629 -3.537 22
-5.562 -25.831 -2.491 39
0.0 -0.0 3.0 0
-4.937 -22.591 -2.632 0
0.0 -0.0 3.0 0
0.0 -0.0 3.0 0
-5.044 -22.58 -3.903 1
-5.11 -22.695 -4.374 5
-4.888 -21.552 -4.421 15
-4.695 -20.539 -4.476 9
-4.524 -19.65 -4.543 9
-4.371 -18.836 -4.61 8
-4.215 -18.034 -4.655 8
-4.077 -17.301 -4.703 8
-3.946 -16.625 -4.753 8
-3.822 -15.971 -4.79 9
-3.713 -15.402 -4.848 8
-3.597 -14.811 -4.875 8
-3.497 -14.279 -4.915 9
-3.407 -13.805 -4.97 7
-3.317 -13.329 -5.009 8
-3.226 -12.861 -5.036 8
-3.144 -12.427 -5.07 9
-3.063 -12.011 -5.101 10
-2.988 -11.612 -5.131 10
-2.915 -11.234 -5.162 10
-2.845 -10.866 -5.188 11
-2.777 -10.514 -5.214 13
-2.708 -10.167 -5.233 12
-2.647 -9.84 -5.257 13
-2.583 -9.517 -5.273 35
-8.358 -38.821 -3.845 6
-7.302 -33.645 -3.54 13
-5.663 -25.91 -2.507 2
0.0 -0.0 3.0 0
-5.019 -22.621 -2.64 0
0.0 -0.0 3.0 0
0.0 -0.0 3.0 0
-5.124 -22.591 -3.907 1
-5.19 -22.702 -4.376 5
-4.96 -21.545 -4.419 28
-4.767 -20.54 -4.476 10
-4.592 -19.647 -4.542 9
-4.441 -18.848 -4.615 8
-4.279 -18.033 -4.655 8
-4.14 -17.303 -4.704 8
-4.005 -16.622 -4.751 5
-3.882 -15.978 -4.793 9
-3.77 -15.402 -4.848 8
-3.653 -14.815 -4.877 8
-3.549 -14.273 -4.911 9
-3.458 -13.802 -4.969 8
-3.368 -13.327 -5.007 7
-3.275 -12.858 -5.035 8
-3.193 -12.429 -5.072 9
-3.111 -12.012 -5.102 10
-3.035 -11.615 -5.133 9
-2.959 -11.232 -5.161 10
-2.89 -10.869 -5.19 11
-2.819 -10.513 -5.214 12
-2.751 -10.17 -5.235 12
-2.687 -9.838 -5.255 13
-2.622 -9.514 -5.27 27
-8.487 -38.838 -3.848 7
-7.418 -33.677 -3.546 18
-7.201 -32.459 -3.899 1
0.0 -0.0 3.0 0
-5.098 -22.64 -2.645 0
0.0 -0.0 3.0 0
0.0 -0.0 3.0 0
-5.203 -22.602 -3.91 1
-5.27 -22.713 -4.38 5
-5.037 -21.552 -4.421 20
-4.841 -20.551 -4.48 10
-4.662 -19.652 -4.544 9
-4.505 -18.839 -4.611 7
-4.344 -18.035 -4.655 7
-4.201 -17.299 -4.702 7
-4.069 -16.634 -4.757 4
-3.939 -15.971 -4.789 9
-3.826 -15.398 -4.846 8
-3.707 -14.812 -4.875 8
-3.604 -14.28 -4.915 8
-3.511 -13.806 -4.971 7
-3.419 -13.327 -5.008 7
-3.323 -12.853 -5.032 8
-3.242 -12.43 -5.072 9
-3.157 -12.011 -5.102 10
-3.08 -11.614 -5.132 10
-3.004 -11.232 -5.16 10
-2.931 -10.861 -5.185 10
-2.862 -10.513 -5.213 12
-2.794 -10.175 -5.24 11
-2.728 -9.84 -5.257 13
-2.662 -9.514 -5.271 36
-8.626 -38.901 -3.859 6
-7.517 -33.632 -3.537 24
-7.309 -32.467 -3.901 15
0.0 -0.0 3.0 0
-5.18 -22.667 -2.651 0
0.0 -0.0 3.0 0
0.0 -0.0 3.0 0
-5.283 -22.612 -3.913 1
-5.352 -22.726 -4.384 4
-5.113 -21.56 -4.424 13
-4.912 -20.549 -4.479 9
-4.733 -19.656 -4.545 9
-4.574 -18.843 -4.613 7
-4.41 -18.04 -4.657 8
-4.265 -17.304 -4.704 7
-4.128 -16.63 -4.755 7
-3.998 -15.973 -4.791 9
-3.885 -15.408 -4.851 8
-3.763 -14.812 -4.875 8
-3.656 -14.274 -4.912 9
-3.564 -13.807 -4.971 7
-3.469 -13.325 -5.006 8
-3.373 -12.858 -5.034 8
-3.289 -12.425 -5.069 10
-3.202 -12.003 -5.096 10
-3.125 -11.609 -5.129 9
-3.048 -11.23 -5.159 12
-2.976 -10.864 -5.186 10
-2.904 -10.512 -5.213 11
-2.835 -10.172 -5.237 12
-2.769 -9.84 -5.257 14
-2.7 -9.508 -5.265 34
-8.763 -38.952 -3.868 6
-7.651 -33.739 -3.558 23
-7.417 -32.476 -3.903 15
0.0 -0.0 3.0 0
-5.263 -22.7 -2.66 0
0.0 -0.0 3.0 0
0.0 -0.0 3.0 0
-5.361 -22.615 -3.914 1
-5.43 -22.726 -4.384 5
-5.193 -21.581 -4.431 8
-4.987 -20.559 -4.483 9
-4.803 -19.66 -4.547 8
-4.641 -18.845 -4.614 8
-4.474 -18.038 -4.657 6
-4.327 -17.303 -4.704 8
-4.191 -16.636 -4.758 8
-4.058 -15.98 -4.794 9
-3.939 -15.398 -4.845 8
-3.817 -14.808 -4.874 7
-3.711 -14.277 -4.914 9
-3.616 -13.803 -4.969 7
-3.521 -13.329 -5.009 5
-3.422 -12.855 -5.033 8
-3.336 -12.423 -5.067 9
-3.25 -12.004 -5.097 10
-3.17 -11.607 -5.128 10
-3.093 -11.232 -5.161 11
-3.019 -10.862 -5.185 11
-2.947 -10.511 -5.212 12
-2.876 -10.171 -5.236 11
-2.81 -9.842 -5.259 13
-2.741 -9.514 -5.27 34
-8.898 -38.995 -3.876 7
-7.752 -33.701 -3.551 31
-7.526 -32.484 -3.905 14
-6.027 -25.808 -2.958 0
-5.341 -22.707 -2.662 0
0.0 -0.0 3.0 0
0.0 -0.0 3.0 0
-5.442 -22.632 -3.919 1
-5.509 -22.728 -4.385 5
-5.271 -21.592 -4.435 8
-5.059 -20.559 -4.483 9
-4.873 -19.661 -4.547 6
-4.708 -18.845 -4.614 7
-4.539 -18.036 -4.656 7
-4.391 -17.308 -4.706 8
-4.25 -16.631 -4.755 8
-4.117 -15.979 -4.793 8
-3.997 -15.4 -4.847 8
-3.872 -14.808 -4.874 9
-3.765 -14.277 -4.914 9
-3.668 -13.804 -4.97 8
-3.572 -13.33 -5.009 5
-3.471 -12.853 -5.031 8
-3.386 -12.427 -5.07 10
-3.297 -12.006 -5.098 10
-3.217 -11.609 -5.128 10
-3.137 -11.228 -5.157 10
-3.063 -10.861 -5.184 11
-2.99 -10.513 -5.214 13
-2.918 -10.17 -5.236 12
-2.85 -9.839 -5.256 14
-2.779 -9.507 -5.265 31
-9.035 -39.041 -3.884 6
-7.892 -33.831 -3.576 17
-7.631 -32.477 -3.903 13
-6.121 -25.847 -2.967 3
-5.412 -22.687 -2.657 0
0.0 -0.0 3.0 0
0.0 -0.0 3.0 0
-5.525 -22.653 -3.926 1
-5.59 -22.741 -4.389 5
-5.347 -21.595 -4.436 7
-5.134 -20.57 -4.487 10
-4.943 -19.665 -4.549 5
-4.777 -18.85 -4.616 7
-4.603 -18.033 -4.655 7
-4.454 -17.31 -4.707 8
-4.311 -16.633 -4.756 8
-4.174 -15.973 -4.791 9
-4.054 -15.399 -4.846 7
-3.927 -14.804 -4.871 8
-3.818 -14.273 -4.912 9
-3.721 -13.804 -4.97 8
-3.624 -13.331 -5.01 5
-3.521 -12.85 -5.029 7
-3.434 -12.425 -5.069 9
-3.345 -12.007 -5.099 10
-3.262 -11.606 -5.127 10
-3.182 -11.229 -5.158 11
-3.105 -10.856 -5.181 11
-3.031 -10.506 -5.208 12
-2.958 -10.167 -5.233 12
-2.89 -9.835 -5.253 12
-2.819 -9.509 -5.266 25
-9.173 -39.091 -3.893 7
-8.029 -33.941 -3.597 22
-7.738 -32.476 -3.903 12
-6.201 -25.821 -2.961 52
-6.232 -25.765 -3.424 2
0.0 -0.0 3.0 0
0.0 -0.0 3.0 0
-5.602 -22.651 -3.925 1
-5.669 -22.739 -4.388 5
-5.426 -21.611 -4.441 7
-5.208 -20.577 -4.489 10
-5.014 -19.668 -4.55 4
-4.842 -18.844 -4.613 5
-4.668 -18.034 -4.655 8
-4.516 -17.307 -4.706 7
-4.372 -16.631 -4.755 8
-4.233 -15.972 -4.79 9
-4.112 -15.401 -4.847 8
-3.982 -14.803 -4.871 8
-3.873 -14.276 -4.914 8
-3.772 -13.801 -4.968 8
-3.675 -13.331 -5.01 6
-3.571 -12.854 -5.032 8
-3.483 -12.426 -5.069 10
-3.392 -12.004 -5.097 10
-3.307 -11.602 -5.124 10
-3.227 -11.228 -5.157 11
-3.151 -10.862 -5.185 11
-3.073 -10.504 -5.207 13
-2.998 -10.16 -5.227 13
-2.93 -9.831 -5.249 13
-2.859 -9.509 -5.266 22
-9.309 -39.129 -3.899 7
-8.162 -34.035 -3.616 23
-7.846 -32.481 -3.904 11
-6.294 -25.852 -2.968 33
-6.315 -25.751 -3.42 60
-5.593 -22.643 -3.067 1
0.0 -0.0 3.0 0
-5.682 -22.66 -3.928 1
-5.75 -22.748 -4.391 4
-5.502 -21.614 -4.442 8
-5.281 -20.579 -4.49 10
-5.085 -19.672 -4.551 4
-4.911 -18.851 -4.616 8
-4.735 -18.042 -4.659 8
-4.58 -17.312 -4.708 8
-4.433 -16.633 -4.756 8
-4.293 -15.978 -4.793 8
-4.169 -15.4 -4.847 8
-4.038 -14.802 -4.87 8
-3.928 -14.279 -4.915 8
-3.825 -13.8 -4.968 8
-3.724 -13.32 -5.004 8
-3.62 -12.847 -5.028 8
-3.531 -12.424 -5.068 10
-3.439 -12.006 -5.098 11
-3.355 -11.606 -5.127 9
-3.272 -11.225 -5.156 11
-3.194 -10.86 -5.183 11
-3.117 -10.506 -5.208 13
-3.042 -10.164 -5.231 13
-2.971 -9.833 -5.251 14
-2.898 -9.506 -5.263 23
-9.446 -39.17 -3.907 7
-8.274 -34.037 -3.616 34
-7.955 -32.487 -3.905 14
-6.413 -25.984 -2.999 1
-6.404 -25.762 -3.423 59
0.0 -0.0 3.0 0
0.0 -0.0 3.0 0
-5.765 -22.677 -3.933 1
-5.834 -22.767 -4.398 4
-5.579 -21.619 -4.444 8
-5.356 -20.589 -4.494 9
-5.155 -19.675 -4.552 5
-4.979 -18.851 -4.616 6
-4.8 -18.042 -4.659 7
-4.642 -17.306 -4.705 8
-4.495 -16.634 -4.757 7
-4.355 -15.987 -4.797 8
-4.227 -15.402 -4.848 8
-4.094 -14.805 -4.872 8
-3.981 -14.275 -4.913 7
-3.878 -13.8 -4.968 8
-3.776 -13.324 -5.006 7
-3.67 -12.848 -5.028 8
-3.579 -12.424 -5.068 8
-3.485 -12.0 -5.094 10
-3.4 -11.604 -5.125 10
-3.317 -11.226 -5.156 11
-3.237 -10.855 -5.18 11
-3.159 -10.505 -5.207 12
-3.082 -10.16 -5.227 12
-3.012 -9.833 -5.251 12
-2.938 -9.505 -5.262 17
-9.597 -39.267 -3.924 11
-8.395 -34.074 -3.623 25
-8.064 -32.497 -3.908 14
-6.53 -26.105 -3.027 6
-6.495 -25.776 -3.427 59
0.0 -0.0 3.0 0
0.0 -0.0 3.0 0
-5.844 -22.683 -3.935 0
-5.914 -22.773 -4.399 5
-5.658 -21.629 -4.447 10
-5.427 -20.584 -4.492 9
-5.226 -19.678 -4.554 8
-5.05 -18.861 -4.62 6
-4.866 -18.043 -4.659 7
-4.705 -17.306 -4.705 8
-4.554 -16.628 -4.754 8
-4.412 -15.978 -4.793 9
-4.284 -15.401 -4.847 8
-4.149 -14.804 -4.871 8
-4.035 -14.275 -4.913 7
-3.931 -13.803 -4.969 8
-3.826 -13.321 -5.004 8
-3.721 -12.851 -5.03 8
-3.627 -12.421 -5.066 9
-3.532 -11.997 -5.092 10
-3.445 -11.598 -5.121 9
-3.361 -11.222 -5.153 11
-3.281 -10.856 -5.181 11
-3.201 -10.5 -5.203 12
-3.126 -10.165 -5.231 13
-3.052 -9.831 -5.249 12
-2.977 -9.501 -5.259 17
-9.737 -39.315 -3.932 11
-8.55 -34.247 -3.657 24
-8.173 -32.5 -3.908 14
-6.652 -26.24 -3.058 6
-6.584 -25.787 -3.429 57
0.0 -0.0 3.0 0
0.0 -0.0 3.0 0
-5.925 -22.694 -3.938 1
-5.993 -22.774 -4.4 5
-5.736 -21.637 -4.45 7
-5.505 -20.602 -4.498 10
-5.298 -19.684 -4.556 9
-5.117 -18.861 -4.62 8
-4.931 -18.043 -4.659 7
-4.768 -17.307 -4.706 7
-4.617 -16.633 -4.756 7
-4.472 -15.982 -4.795 9
-4.344 -15.407 -4.85 8
-4.205 -14.802 -4.87 8
-4.088 -14.27 -4.91 8
-3.984 -13.802 -4.969 7
-3.878 -13.32 -5.003 8
-3.77 -12.848 -5.028 9
-3.675 -12.418 -5.064 10
-3.581 -12.001 -5.095 9
-3.492 -11.599 -5.122 9
-3.406 -11.223 -5.154 11
-3.325 -10.854 -5.179 12
-3.244 -10.499 -5.203 12
-3.167 -10.163 -5.23 11
-3.092 -9.827 -5.246 14
-3.016 -9.497 -5.256 16
-9.871 -39.34 -3.937 10
-8.652 -34.206 -3.649 23
-8.281 -32.501 -3.908 14
-6.807 -26.504 -3.119 4
-6.677 -25.809 -3.435 55
-5.915 -22.698 -3.082 1
0.0 -0.0 3.0 0
-5.986 -22.628 -3.918 1
-6.076 -22.785 -4.403 6
-5.812 -21.639 -4.451 7
-5.578 -20.604 -4.499 9
-5.37 -19.69 -4.558 12
-5.184 -18.857 -4.619 6
-4.998 -18.046 -4.66 7
-4.831 -17.304 -4.704 8
-4.678 -16.633 -4.756 7
-4.53 -15.977 -4.792 9
-4.401 -15.404 -4.849 8
-4.26 -14.801 -4.87 8
-4.142 -14.269 -4.909 9
-4.037 -13.801 -4.968 8
-3.929 -13.319 -5.003 7
-3.819 -12.845 -5.026 8
-3.724 -12.418 -5.065 10
-3.627 -11.998 -5.093 10
-3.536 -11.593 -5.118 10
-3.451 -11.22 -5.152 11
-3.369 -10.856 -5.18 11
-3.287 -10.5 -5.203 12
-3.208 -10.159 -5.226 11
-3.135 -9.832 -5.25 13
-3.055 -9.496 -5.255 15
-10.006 -39.368 -3.942 11
-8.779 -34.263 -3.66 39
-8.391 -32.511 -3.91 13
-8.028 -30.854 -4.123 6
-6.771 -25.837 -3.442 56
0.0 -0.0 3.0 0
0.0 -0.0 3.0 0
-6.054 -22.588 -3.906 2
-6.159 -22.796 -4.407 5
-5.891 -21.647 -4.454 8
-5.655 -20.616 -4.504 10
-5.44 -19.689 -4.558 31
-5.255 -18.867 -4.623 6
-5.064 -18.05 -4.662 7
-4.894 -17.304 -4.704 7
-4.741 -16.638 -4.758 7
-4.592 -15.985 -4.796 9
-4.458 -15.402 -4.848 8
-4.318 -14.806 -4.872 8
-4.195 -14.265 -4.907 8
-4.09 -13.801 -4.968 8
-3.98 -13.316 -5.001 8
-3.869 -12.844 -5.026 8
-3.774 -12.421 -5.066 9
-3.674 -11.995 -5.091 10
-3.584 -11.597 -5.12 11
-3.498 -11.224 -5.155 9
-3.414 -10.857 -5.181 11
-3.331 -10.501 -5.204 12
-3.25 -10.157 -5.225 12
-3.174 -9.825 -5.244 13
-3.095 -9.495 -5.254 14
-10.144 -39.402 -3.948 10
-8.918 -34.362 -3.679 26
-8.498 -32.505 -3.909 13
-8.135 -30.868 -4.127 6
-6.86 -25.844 -3.444 4
0.0 -0.0 3.0 0
0.0 -0.0 3.0 0
-6.269 -23.093 -4.06 1
-6.241 -22.807 -4.411 5
-5.969 -21.655 -4.456 8
-5.729 -20.617 -4.504 9
-5.507 -19.677 -4.553 38
-5.322 -18.862 -4.621 5
-5.13 -18.049 -4.661 7
-4.958 -17.304 -4.704 7
-4.804 -16.642 -4.76 8
-4.652 -15.986 -4.797 9
-4.515 -15.4 -4.847 7
-4.374 -14.804 -4.871 8
-4.251 -14.27 -4.91 8
-4.142 -13.796 -4.965 7
-4.031 -13.315 -5.0 7
-3.919 -12.844 -5.026 8
-3.822 -12.418 -5.064 9
-3.722 -11.995 -5.091 10
-3.63 -11.594 -5.119 11
-3.54 -11.216 -5.149 10
-3.456 -10.848 -5.175 11
-3.372 -10.496 -5.2 12
-3.292 -10.156 -5.224 12
-3.216 -9.829 -5.248 13
-3.136 -9.497 -5.255 15
-10.281 -39.433 -3.953 9
-9.044 -34.409 -3.688 31
-8.61 -32.521 -3.912 13
-8.247 -30.901 -4.134 6
0.0 -0.0 3.0 0
0.0 -0.0 3.0 0
-6.203 -22.724 -3.516 0
-6.248 -22.722 -3.947 1
-6.324 -22.818 -4.414 5
-6.047 -21.659 -4.458 8
-5.803 -20.622 -4.506 6
-5.579 -19.682 -4.555 34
-5.393 -18.872 -4.625 5
-5.197 -18.056 -4.664 7
-5.024 -17.311 -4.707 7
-4.864 -16.639 -4.759 7
-4.711 -15.983 -4.796 10
-4.573 -15.398 -4.846 8
-4.429 -14.802 -4.871 8
-4.304 -14.265 -4.907 9
-4.195 -13.798 -4.966 8
-4.084 -13.317 -5.002 8
-3.969 -12.843 -5.025 8
-3.871 -12.417 -5.064 9
-3.77 -11.996 -5.091 10
-3.675 -11.592 -5.116 10
-3.587 -11.219 -5.151 10
-3.501 -10.852 -5.177 11
-3.415 -10.494 -5.199 13
-3.333 -10.154 -5.223 13
-3.257 -9.828 -5.246 13
-3.176 -9.495 -5.254 15
-10.426 -39.493 -3.964 8
-9.149 -34.377 -3.682 37
-8.721 -32.529 -3.914 12
-8.359 -30.929 -4.14 7
-7.848 -28.827 -4.187 7
0.0 -0.0 3.0 0
-6.266 -22.668 -3.5 1
-6.294 -22.604 -3.911 2
-6.404 -22.817 -4.414 4
-6.125 -21.667 -4.461 8
-5.879 -20.631 -4.509 7
-5.65 -19.684 -4.556 30
-5.462 -18.874 -4.625 7
-5.262 -18.051 -4.662 8
-5.087 -17.311 -4.707 7
-4.927 -16.642 -4.76 7
-4.771 -15.983 -4.796 9
-4.631 -15.399 -4.846 8
-4.484 -14.797 -4.868 8
-4.359 -14.266 -4.908 8
-4.247 -13.793 -4.963 7
-4.135 -13.316 -5.001 8
-4.02 -12.843 -5.025 8
-3.919 -12.414 -5.062 9
-3.817 -11.992 -5.088 10
-3.722 -11.592 -5.117 9
-3.631 -11.213 -5.147 8
-3.545 -10.85 -5.176 11
-3.459 -10.495 -5.2 11
-3.375 -10.152 -5.221 12
-3.296 -9.82 -5.24 14
-3.217 -9.497 -5.255 14
-10.567 -39.535 -3.971 7
-9.293 -34.49 -3.704 25
-8.83 -32.53 -3.914 14
-8.468 -30.949 -4.145 6
-7.947 -28.833 -4.189 7
0.0 -0.0 3.0 0
-6.331 -22.619 -3.486 1
-6.365 -22.578 -3.903 3
-6.427 -22.615 -4.348 2
-6.206 -21.682 -4.466 7
-5.954 -20.634 -4.51 9
-5.724 -19.692 -4.559 12
-5.532 -18.879 -4.628 8
-5.33 -18.057 -4.665 7
-5.15 -17.306 -4.705 7
-4.989 -16.642 -4.76 7
-4.832 -15.987 -4.797 10
-4.689 -15.4 -4.846 8
-4.542 -14.801 -4.87 8
-4.417 -14.274 -4.912 8
-4.302 -13.798 -4.967 8
-4.187 -13.315 -5.0 7
-4.07 -12.842 -5.025 9
-3.966 -12.407 -5.057 9
-3.864 -11.989 -5.086 8
-3.77 -11.595 -5.119 9
-3.676 -11.214 -5.147 10
-3.589 -10.847 -5.174 11
-3.5 -10.489 -5.195 12
-3.417 -10.15 -5.22 13
-3.339 -9.824 -5.243 19
-3.257 -9.498 -5.256 14
-10.711 -39.587 -3.98 7
-9.427 -34.561 -3.718 21
-8.942 -32.54 -3.917 13
-8.581 -30.979 -4.152 6
-8.051 -28.854 -4.194 6
0.0 -0.0 3.0 0
-6.408 -22.616 -3.485 1
-6.448 -22.592 -3.907 14
-6.503 -22.603 -4.344 1
-6.284 -21.686 -4.467 7
-6.03 -20.642 -4.513 10
-5.8 -19.711 -4.566 9
-5.599 -18.874 -4.625 7
-5.398 -18.063 -4.667 7
-5.216 -17.313 -4.708 8
-5.049 -16.634 -4.757 7
-4.891 -15.984 -4.796 9
-4.749 -15.403 -4.848 8
-4.597 -14.799 -4.869 7
-4.47 -14.269 -4.91 8
-4.355 -13.797 -4.966 8
-4.238 -13.31 -4.998 7
-4.119 -12.837 -5.022 8
-4.018 -12.413 -5.061 9
-3.912 -11.988 -5.086 10
-3.816 -11.592 -5.117 9
-3.721 -11.211 -5.145 9
-3.633 -10.844 -5.172 11
-3.545 -10.493 -5.198 13
-3.46 -10.151 -5.22 13
-3.378 -9.817 -5.237 20
-3.297 -9.496 -5.255 14
-10.855 -39.635 -3.989 6
-9.522 -34.487 -3.704 23
-9.052 -32.544 -3.917 13
-8.691 -30.998 -4.157 6
-8.156 -28.874 -4.199 7
0.0 -0.0 3.0 0
-6.485 -22.612 -3.484 1
-6.531 -22.606 -3.911 8
-6.586 -22.617 -4.349 3
-6.363 -21.692 -4.469 7
-6.11 -20.661 -4.52 15
-5.873 -19.716 -4.568 9
-5.669 -18.878 -4.627 7
-5.464 -18.062 -4.667 7
-5.283 -17.323 -4.713 8
-5.114 -16.644 -4.761 7
-4.95 -15.98 -4.794 9
-4.804 -15.393 -4.843 9
-4.654 -14.8 -4.869 7
-4.524 -14.267 -4.908 8
-4.408 -13.795 -4.965 8
-4.29 -13.312 -4.999 8
-4.169 -12.833 -5.019 8
-4.066 -12.409 -5.058 9
-3.961 -11.991 -5.088 9
-3.863 -11.591 -5.116 10
-3.768 -11.214 -5.147 10
-3.678 -10.848 -5.174 11
-3.587 -10.488 -5.194 12
-3.5 -10.146 -5.216 13
-3.42 -9.817 -5.238 27
-3.337 -9.495 -5.254 14
-10.998 -39.678 -3.996 5
-9.685 -34.659 -3.737 25
-9.166 -32.561 -3.921 11
-8.804 -31.026 -4.163 6
-8.259 -28.891 -4.203 7
0.0 -0.0 3.0 0
-6.57 -22.633 -3.49 2
-6.614 -22.619 -3.915 2
-6.667 -22.619 -4.349 3
-6.445 -21.706 -4.474 8
-6.181 -20.65 -4.516 28
-5.946 -19.721 -4.57 9
-5.738 -18.88 -4.628 6
-5.531 -18.064 -4.668 7
-5.347 -17.321 -4.712 8
-5.174 -16.637 -4.758 7
-5.011 -15.983 -4.796 9
-4.865 -15.4 -4.847 8
-4.712 -14.804 -4.872 8
-4.58 -14.268 -4.909 9
-4.461 -13.794 -4.964 7
-4.342 -13.311 -4.998 8
-4.22 -12.835 -5.02 8
-4.115 -12.407 -5.057 9
-4.009 -11.99 -5.088 10
-3.909 -11.588 -5.114 10
-3.815 -11.216 -5.149 10
-3.722 -10.845 -5.172 12
-3.632 -10.491 -5.197 11
-3.544 -10.15 -5.219 12
-3.46 -9.815 -5.236 31
-3.378 -9.496 -5.255 17
-11.15 -39.755 -4.01 6
-9.773 -34.562 -3.718 24
-9.283 -32.587 -3.927 10
-8.92 -31.063 -4.171 6
-8.364 -28.911 -4.208 7
0.0 -0.0 3.0 0
-6.651 -22.643 -3.493 2
-6.705 -22.658 -3.927 3
-6.75 -22.628 -4.352 3
-6.524 -21.712 -4.476 8
-6.255 -20.65 -4.516 29
-6.019 -19.728 -4.573 9
-5.809 -18.885 -4.63 8
-5.598 -18.065 -4.668 7
-5.412 -17.324 -4.713 8
-5.238 -16.643 -4.761 8
-5.069 -15.976 -4.792 9
-4.925 -15.404 -4.849 8
-4.769 -14.804 -4.872 7
-4.634 -14.266 -4.908 8
-4.517 -13.798 -4.966 8
-4.394 -13.308 -4.996 8
-4.27 -12.833 -5.019 8
-4.163 -12.403 -5.055 9
-4.056 -11.986 -5.085 10
-3.955 -11.588 -5.114 10
-3.858 -11.207 -5.142 10
-3.767 -10.845 -5.172 10
-3.675 -10.489 -5.195 12
-3.586 -10.147 -5.217 13
-3.502 -9.816 -5.237 33
-3.418 -9.494 -5.253 14
-11.299 -39.816 -4.021 5
