# .PCD v0.7 - Point Cloud Data file format
VERSION 0.7
FIELDS x y z intensity
SIZE 4 4 4 4
TYPE F F F F
COUNT 1 1 1 1
WIDTH 2005
HEIGHT 1
VIEWPOINT 0 0 0 1 0 0 0
POINTS 2005
DATA ascii
-13.402 -40.524 -4.145 6
-11.512 -34.521 -3.71 10
-11.081 -32.977 -4.009 26
-10.667 -31.489 -4.27 7
0.0 -0.0 3.0 0
-9.418 -27.37 -4.334 5
-8.919 -25.725 -4.376 7
-8.486 -24.294 -4.427 6
-8.114 -23.043 -4.487 5
-7.751 -21.848 -4.523 7
-7.441 -20.792 -4.568 10
-7.14 -19.814 -4.606 9
-6.878 -18.934 -4.65 6
-6.625 -18.103 -4.684 7
-6.401 -17.348 -4.724 7
-6.192 -16.655 -4.766 7
-5.989 -15.979 -4.793 41
-5.815 -15.396 -4.845 8
-5.631 -14.798 -4.868 8
-5.47 -14.255 -4.902 8
-5.328 -13.776 -4.954 8
-5.181 -13.284 -4.982 8
-5.035 -12.808 -5.003 8
-4.91 -12.383 -5.041 9
-4.781 -11.962 -5.068 9
-4.662 -11.562 -5.095 11
-4.548 -11.186 -5.127 10
-4.437 -10.817 -5.151 10
-4.33 -10.465 -5.176 12
-4.226 -10.124 -5.198 13
-4.123 -9.787 -5.212 40
-4.023 -9.463 -5.226 20
-13.559 -40.58 -4.155 5
-11.65 -34.58 -3.722 12
-11.199 -32.988 -4.012 31
-10.805 -31.571 -4.289 1
0.0 -0.0 3.0 0
-9.522 -27.39 -4.339 5
-9.014 -25.734 -4.379 6
-8.578 -24.305 -4.431 6
-8.204 -23.059 -4.492 5
-7.837 -21.864 -4.529 8
-7.52 -20.798 -4.57 10
-7.219 -19.828 -4.611 10
-6.953 -18.945 -4.654 6
-6.696 -18.108 -4.686 6
-6.466 -17.344 -4.722 5
-6.257 -16.658 -4.768 7
-6.054 -15.986 -4.797 42
-5.877 -15.401 -4.847 7
-5.689 -14.795 -4.867 8
-5.526 -14.253 -4.901 9
-5.381 -13.772 -4.951 8
-5.234 -13.282 -4.981 8
-5.087 -12.808 -5.003 8
-4.958 -12.376 -5.037 9
-4.83 -11.959 -5.066 9
-4.708 -11.556 -5.092 10
-4.594 -11.184 -5.126 10
-4.484 -10.817 -5.151 11
-4.374 -10.463 -5.175 11
-4.268 -10.121 -5.196 11
-4.164 -9.783 -5.209 36
-4.062 -9.457 -5.221 21
-13.723 -40.656 -4.169 5
-12.613 -37.063 -4.204 5
-11.321 -33.01 -4.017 30
0.0 -0.0 3.0 0
0.0 -0.0 3.0 0
-9.63 -27.42 -4.347 5
-9.111 -25.748 -4.383 7
-8.67 -24.315 -4.434 6
-8.292 -23.071 -4.496 5
-7.924 -21.88 -4.534 8
-7.603 -20.815 -4.576 10
-7.293 -19.828 -4.611 17
-7.025 -18.946 -4.655 5
-6.768 -18.116 -4.69 7
-6.533 -17.346 -4.723 5
-6.324 -16.664 -4.771 5
-6.116 -15.986 -4.797 42
-5.935 -15.394 -4.843 8
-5.748 -14.796 -4.867 7
-5.585 -14.258 -4.903 5
-5.439 -13.776 -4.954 8
-5.288 -13.282 -4.98 8
-5.136 -12.8 -4.998 8
-5.01 -12.38 -5.04 9
-4.877 -11.953 -5.062 9
-4.758 -11.56 -5.094 10
-4.642 -11.185 -5.127 10
-4.528 -10.813 -5.148 10
-4.418 -10.462 -5.174 11
-4.311 -10.119 -5.194 12
-4.208 -9.784 -5.21 39
-4.103 -9.456 -5.22 19
-13.88 -40.712 -4.179 4
-11.83 -34.414 -3.689 2
-11.447 -33.044 -4.024 32
0.0 -0.0 3.0 0
-9.484 -26.948 -3.719 0
-9.736 -27.442 -4.353 5
-9.211 -25.767 -4.389 7
-8.764 -24.333 -4.439 6
-8.381 -23.082 -4.5 5
-8.004 -21.878 -4.533 8
-7.682 -20.817 -4.577 10
-7.366 -19.825 -4.61 32
-7.101 -18.958 -4.659 6
-6.836 -18.114 -4.689 6
-6.602 -17.351 -4.725 5
-6.386 -16.656 -4.767 7
-6.179 -15.985 -4.796 41
-5.997 -15.397 -4.845 7
-5.806 -14.794 -4.866 8
-5.64 -14.252 -4.9 9
-5.494 -13.775 -4.953 7
-5.341 -13.28 -4.979 8
-5.191 -12.806 -5.002 8
-5.06 -12.376 -5.037 8
-4.928 -11.956 -5.064 10
-4.803 -11.55 -5.088 9
-4.687 -11.179 -5.122 11
-4.574 -10.814 -5.149 11
-4.463 -10.46 -5.172 11
-4.353 -10.115 -5.191 12
-4.249 -9.78 -5.207 34
-4.143 -9.452 -5.217 24
-14.046 -40.79 -4.192 4
-12.899 -37.151 -4.221 5
-11.566 -33.057 -4.026 29
0.0 -0.0 3.0 0
-9.533 -26.817 -3.686 1
-9.84 -27.456 -4.357 5
-9.31 -25.783 -4.393 6
-8.858 -24.347 -4.443 6
-8.47 -23.093 -4.503 5
-8.091 -21.894 -4.539 7
-7.763 -20.827 -4.58 11
-7.439 -19.82 -4.608 33
-7.172 -18.954 -4.658 6
-6.907 -18.119 -4.691 7
-6.668 -17.349 -4.724 5
-6.45 -16.655 -4.766 7
-6.241 -15.985 -4.796 42
-6.058 -15.397 -4.845 7
-5.868 -14.801 -4.87 7
-5.696 -14.25 -4.899 9
-5.547 -13.77 -4.95 8
-5.395 -13.279 -4.979 8
-5.242 -12.802 -5.0 8
-5.111 -12.375 -5.037 9
-4.976 -11.952 -5.062 9
-4.853 -11.554 -5.09 10
-4.732 -11.174 -5.118 10
-4.618 -10.808 -5.145 11
-4.507 -10.458 -5.171 12
-4.398 -10.117 -5.192 13
-4.291 -9.779 -5.206 26
-4.185 -9.452 -5.216 21
-14.201 -40.834 -4.2 5
-13.044 -37.197 -4.23 6
-11.689 -33.078 -4.031 29
0.0 -0.0 3.0 0
-9.587 -26.704 -3.658 1
-9.605 -26.537 -4.111 2
-9.404 -25.784 -4.393 6
-8.951 -24.36 -4.448 6
-8.557 -23.1 -4.506 4
-8.176 -21.906 -4.543 7
-7.847 -20.843 -4.586 10
-7.515 -19.823 -4.609 22
-7.244 -18.954 -4.658 5
-6.977 -18.119 -4.691 8
-6.737 -17.354 -4.726 5
-6.514 -16.653 -4.766 7
-6.304 -15.984 -4.796 42
-6.119 -15.397 -4.845 8
-5.924 -14.795 -4.866 8
-5.754 -14.251 -4.899 9
-5.605 -13.774 -4.953 7
-5.448 -13.277 -4.978 8
-5.295 -12.801 -4.999 8
-5.161 -12.371 -5.034 8
-5.026 -11.952 -5.062 9
-4.901 -11.554 -5.09 9
-4.781 -11.178 -5.121 10
-4.666 -10.812 -5.148 11
-4.549 -10.45 -5.165 12
-4.438 -10.108 -5.186 12
-4.335 -9.781 -5.207 18
-4.227 -9.453 -5.218 22
-14.358 -40.88 -4.208 5
-13.195 -37.259 -4.242 6
-11.809 -33.091 -4.034 27
0.0 -0.0 3.0 0
-9.644 -26.598 -3.632 3
-9.691 -26.512 -4.104 4
-9.508 -25.814 -4.402 7
-9.044 -24.369 -4.45 6
-8.652 -23.124 -4.514 5
-8.265 -21.924 -4.549 7
-7.929 -20.852 -4.59 13
-7.595 -19.836 -4.614 11
-7.317 -18.957 -4.659 5
-7.048 -18.123 -4.693 6
-6.804 -17.352 -4.726 5
-6.58 -16.656 -4.767 7
-6.365 -15.98 -4.794 41
-6.18 -15.396 -4.845 8
-5.984 -14.795 -4.866 7
-5.813 -14.255 -4.902 8
-5.659 -13.769 -4.95 8
-5.502 -13.275 -4.977 8
-5.344 -12.793 -4.994 8
-5.212 -12.371 -5.034 9
-5.075 -11.949 -5.059 9
-4.948 -11.547 -5.086 10
-4.825 -11.168 -5.114 11
-4.711 -10.807 -5.144 11
-4.597 -10.457 -5.17 11
-4.483 -10.11 -5.187 12
-4.375 -9.774 -5.201 13
-4.265 -9.444 -5.209 23
-14.528 -40.964 -4.223 5
-13.346 -37.319 -4.254 6
-11.932 -33.11 -4.038 28
0.0 -0.0 3.0 0
-9.715 -26.533 -3.615 5
-9.777 -26.487 -4.097 8
-9.607 -25.829 -4.406 6
-9.139 -24.385 -4.455 6
-8.738 -23.128 -4.515 4
-8.348 -21.928 -4.55 8
-8.007 -20.853 -4.59 25
-7.677 -19.852 -4.621 9
-7.392 -18.963 -4.662 6
-7.121 -18.131 -4.696 8
-6.871 -17.353 -4.726 6
-6.646 -16.657 -4.767 7
-6.43 -15.985 -4.796 44
-6.241 -15.396 -4.845 8
-6.043 -14.795 -4.866 7
-5.868 -14.248 -4.898 9
-5.715 -13.77 -4.95 8
-5.556 -13.274 -4.976 7
-5.399 -12.798 -4.997 9
-5.262 -12.366 -5.031 9
-5.124 -11.945 -5.057 9
-4.996 -11.547 -5.085 10
-4.875 -11.175 -5.119 11
-4.756 -10.804 -5.142 11
-4.64 -10.452 -5.166 11
-4.527 -10.108 -5.186 11
-4.418 -9.775 -5.203 13
-4.308 -9.446 -5.211 20
-14.692 -41.029 -4.234 3
-13.5 -37.386 -4.267 6
-12.063 -33.149 -4.046 24
0.0 -0.0 3.0 0
-9.796 -26.497 -3.606 4
-9.865 -26.465 -4.091 12
-9.71 -25.851 -4.413 6
-9.235 -24.401 -4.46 6
-8.83 -23.144 -4.52 4
-8.435 -21.943 -4.555 7
-8.084 -20.848 -4.588 26
-7.754 -19.858 -4.623 9
-7.469 -18.974 -4.666 6
-7.191 -18.131 -4.696 7
-6.939 -17.354 -4.726 5
-6.711 -16.655 -4.766 8
-6.49 -15.977 -4.793 44
-6.303 -15.399 -4.846 8
-6.102 -14.794 -4.866 7
-5.926 -14.249 -4.898 9
-5.769 -13.764 -4.947 8
-5.61 -13.271 -4.974 8
-5.45 -12.793 -4.994 8
-5.313 -12.366 -5.03 9
-5.174 -11.944 -5.057 9
-5.044 -11.544 -5.083 9
-4.919 -11.165 -5.112 10
-4.803 -10.804 -5.142 11
-4.686 -10.453 -5.167 11
-4.569 -10.103 -5.182 13
-4.458 -9.768 -5.196 13
-4.348 -9.441 -5.207 22
-14.874 -41.14 -4.254 5
-13.649 -37.439 -4.277 6
-12.192 -33.182 -4.053 24
0.0 -0.0 3.0 0
-9.883 -26.474 -3.601 13
-9.956 -26.453 -4.088 8
-9.808 -25.861 -4.416 6
-9.329 -24.413 -4.464 6
-8.918 -23.15 -4.522 4
-8.519 -21.946 -4.557 7
-8.165 -20.855 -4.591 18
-7.833 -19.866 -4.626 8
-7.54 -18.969 -4.664 6
-7.263 -18.134 -4.697 7
-7.008 -17.358 -4.728 4
-6.778 -16.66 -4.769 7
-6.556 -15.982 -4.795 44
-6.364 -15.397 -4.845 8
-6.16 -14.79 -4.864 6
-5.983 -14.246 -4.897 9
-5.827 -13.768 -4.949 8
-5.663 -13.269 -4.973 8
-5.503 -12.792 -4.993 7
-5.362 -12.357 -5.025 9
-5.221 -11.937 -5.052 9
-5.093 -11.544 -5.083 10
-4.968 -11.168 -5.114 10
-4.848 -10.802 -5.14 11
-4.729 -10.447 -5.162 11
-4.612 -10.101 -5.18 12
-4.503 -9.772 -5.199 13
-4.392 -9.446 -5.211 20
-15.04 -41.203 -4.265 4
-13.795 -37.479 -4.285 6
-12.322 -33.22 -4.061 22
0.0 -0.0 3.0 0
-9.978 -26.474 -3.601 10
-10.046 -26.438 -4.084 6
-9.908 -25.876 -4.42 6
-9.428 -24.436 -4.471 6
-9.012 -23.17 -4.528 4
-8.606 -21.959 -4.561 8
-8.256 -20.884 -4.601 11
-7.91 -19.868 -4.627 9
-7.615 -18.975 -4.666 6
-7.334 -18.137 -4.699 8
-7.079 -17.365 -4.731 4
-6.84 -16.651 -4.764 8
-6.616 -15.974 -4.791 43
-6.425 -15.397 -4.845 9
-6.223 -14.797 -4.867 7
-6.042 -14.249 -4.899 9
-5.882 -13.765 -4.947 8
-5.717 -13.267 -4.971 8
-5.555 -12.79 -4.992 8
-5.417 -12.365 -5.03 8
-5.274 -11.943 -5.055 9
-5.141 -11.54 -5.08 8
-5.014 -11.162 -5.11 10
-4.895 -10.802 -5.14 12
-4.776 -10.45 -5.165 12
-4.657 -10.102 -5.18 10
-4.543 -9.764 -5.193 14
-4.432 -9.441 -5.207 20
-15.207 -41.269 -4.277 5
-13.956 -37.559 -4.301 7
-12.448 -33.241 -4.066 22
0.0 -0.0 3.0 0
-10.073 -26.474 -3.601 8
-10.16 -26.484 -4.096 2
-10.008 -25.889 -4.424 6
-9.52 -24.44 -4.472 6
-9.104 -23.182 -4.532 5
-8.697 -21.98 -4.568 13
-8.339 -20.895 -4.605 10
-7.989 -19.876 -4.63 8
-7.689 -18.977 -4.667 6
-7.404 -18.136 -4.698 5
-7.146 -17.362 -4.73 7
-6.906 -16.652 -4.765 7
-6.681 -15.979 -4.793 39
-6.485 -15.392 -4.843 8
-6.279 -14.789 -4.863 6
-6.1 -14.249 -4.898 9
-5.939 -13.765 -4.947 8
-5.773 -13.268 -4.972 8
-5.609 -12.791 -4.993 8
-5.467 -12.361 -5.027 9
-5.323 -11.938 -5.052 8
-5.19 -11.539 -5.08 9
-5.062 -11.162 -5.11 10
-4.941 -10.799 -5.137 11
-4.819 -10.445 -5.161 10
-4.699 -10.097 -5.176 12
-4.587 -9.765 -5.194 18
-4.471 -9.434 -5.201 17
-15.366 -41.313 -4.285 5
-14.101 -37.595 -4.308 6
-12.586 -33.296 -4.077 30
0.0 -0.0 3.0 0
-10.168 -26.472 -3.6 6
-10.237 -26.435 -4.083 2
-10.108 -25.903 -4.428 6
-9.617 -24.458 -4.478 6
-9.191 -23.184 -4.533 5
-8.777 -21.971 -4.565 19
-8.423 -20.905 -4.609 10
-8.068 -19.885 -4.633 8
-7.766 -18.986 -4.671 6
-7.476 -18.139 -4.7 6
-7.214 -17.362 -4.73 6
-6.972 -16.652 -4.765 8
-6.744 -15.977 -4.793 43
-6.548 -15.394 -4.844 9
-6.339 -14.788 -4.863 6
-6.157 -14.245 -4.896 8
-5.994 -13.762 -4.946 7
-5.826 -13.265 -4.971 8
-5.66 -12.785 -4.989 8
-5.517 -12.356 -5.024 9
-5.371 -11.933 -5.049 9
-5.239 -11.539 -5.079 10
-5.109 -11.162 -5.109 10
-4.989 -10.802 -5.14 11
-4.864 -10.442 -5.158 10
-4.743 -10.094 -5.174 11
-4.627 -9.758 -5.188 24
-4.514 -9.435 -5.202 21
-15.532 -41.371 -4.295 5
-14.255 -37.652 -4.319 6
-12.718 -33.331 -4.085 34
0.0 -0.0 3.0 0
-10.265 -26.474 -3.601 5
-10.357 -26.495 -4.099 14
-10.207 -25.912 -4.43 6
-9.714 -24.472 -4.482 6
-9.287 -23.206 -4.54 5
-8.856 -21.963 -4.563 29
-8.508 -20.919 -4.614 10
-8.148 -19.892 -4.636 9
-7.842 -18.991 -4.673 6
-7.551 -18.148 -4.704 5
-7.285 -17.369 -4.733 8
-7.04 -16.656 -4.767 8
-6.806 -15.971 -4.789 42
-6.608 -15.389 -4.841 8
-6.399 -14.787 -4.862 7
-6.216 -14.248 -4.898 8
-6.05 -13.759 -4.944 8
-5.88 -13.262 -4.969 8
-5.714 -12.787 -4.99 8
-5.568 -12.354 -5.023 10
-5.423 -11.935 -5.05 9
-5.286 -11.534 -5.076 10
-5.153 -11.152 -5.102 9
-5.036 -10.802 -5.14 10
-4.91 -10.443 -5.159 10
-4.789 -10.098 -5.177 12
-4.67 -9.755 -5.186 26
-4.555 -9.431 -5.198 18
-15.701 -41.435 -4.306 6
-14.409 -37.709 -4.33 5
-12.847 -33.36 -4.091 33
0.0 -0.0 3.0 0
-10.365 -26.488 -3.604 4
-10.446 -26.474 -4.094 13
-10.313 -25.939 -4.438 6
-9.81 -24.486 -4.486 5
-9.375 -23.21 -4.542 5
-8.943 -21.972 -4.566 18
-8.591 -20.925 -4.616 10
-8.227 -19.9 -4.639 9
-7.915 -18.989 -4.672 6
-7.623 -18.15 -4.704 6
-7.355 -17.371 -4.734 6
-7.108 -16.66 -4.769 7
-6.871 -15.975 -4.792 43
-6.668 -15.383 -4.838 9
-6.457 -14.783 -4.86 6
-6.273 -14.244 -4.895 5
-6.108 -13.762 -4.945 8
-5.937 -13.266 -4.971 8
-5.766 -12.781 -4.986 8
-5.62 -12.352 -5.022 9
-5.472 -11.931 -5.047 9
-5.335 -11.533 -5.075 10
-5.204 -11.157 -5.106 10
-5.079 -10.792 -5.133 11
-4.953 -10.436 -5.154 11
-4.831 -10.092 -5.172 11
-4.714 -9.756 -5.186 34
-4.598 -9.432 -5.199 21
-15.861 -41.476 -4.313 3
-14.564 -37.765 -4.341 4
-12.964 -33.354 -4.09 30
0.0 -0.0 3.0 0
-10.464 -26.493 -3.605 4
-10.548 -26.487 -4.097 27
-10.416 -25.954 -4.442 6
-9.907 -24.499 -4.49 5
-9.472 -23.232 -4.549 5
-9.039 -22.002 -4.576 8
-8.676 -20.939 -4.621 9
-8.307 -19.907 -4.641 9
-7.995 -19.004 -4.678 6
-7.695 -18.152 -4.705 6
-7.421 -17.363 -4.731 5
-7.171 -16.652 -4.765 7
-6.936 -15.976 -4.792 44
-6.731 -15.384 -4.839 7
-6.518 -14.784 -4.861 7
-6.33 -14.239 -4.893 8
-6.163 -13.758 -4.943 7
-5.991 -13.262 -4.969 8
-5.82 -12.781 -4.987 7
-5.671 -12.35 -5.02 9
-5.522 -11.929 -5.046 9
-5.383 -11.528 -5.072 10
-5.248 -11.147 -5.099 9
-5.127 -10.795 -5.134 11
-4.996 -10.43 -5.149 11
-4.873 -10.086 -5.168 10
-4.756 -9.754 -5.184 39
-4.642 -9.435 -5.202 21
-16.037 -41.555 -4.327 4
-14.715 -37.809 -4.349 5
-13.105 -33.41 -4.102 31
0.0 -0.0 3.0 0
-10.562 -26.497 -3.607 4
-10.656 -26.513 -4.104 19
-10.518 -25.97 -4.447 6
-10.004 -24.513 -4.494 6
-9.562 -23.24 -4.551 5
-9.13 -22.021 -4.583 8
-8.759 -20.945 -4.623 11
-8.386 -19.91 -4.643 8
-8.066 -18.997 -4.675 6
-7.767 -18.154 -4.706 6
-7.493 -17.373 -4.735 6
-7.239 -16.656 -4.767 8
-6.999 -15.973 -4.79 45
-6.792 -15.382 -4.838 8
-6.576 -14.779 -4.858 7
-6.387 -14.235 -4.891 8
-6.22 -13.757 -4.943 5
-6.044 -13.256 -4.965 8
-5.87 -12.772 -4.981 8
-5.723 -12.348 -5.019 9
-5.572 -11.927 -5.045 9
-5.432 -11.527 -5.071 11
-5.297 -11.149 -5.1 10
-5.171 -10.788 -5.129 10
-5.044 -10.433 -5.151 12
-4.92 -10.09 -5.17 11
-4.799 -9.751 -5.182 38
-4.678 -9.422 -5.19 18
-16.21 -41.624 -4.339 5
-14.878 -37.883 -4.364 5
-13.251 -33.477 -4.116 31
0.0 -0.0 3.0 0
-10.662 -26.506 -3.609 3
-10.745 -26.492 -4.098 2
-10.625 -25.996 -4.454 6
-10.1 -24.522 -4.497 6
-9.654 -23.25 -4.554 5
-9.218 -22.029 -4.585 8
-8.843 -20.954 -4.626 11
-8.466 -19.917 -4.645 9
-8.147 -19.011 -4.681 6
-7.839 -18.155 -4.706 8
-7.562 -17.371 -4.734 6
-7.309 -16.662 -4.77 8
-7.065 -15.976 -4.792 46
-6.855 -15.383 -4.838 8
-6.636 -14.777 -4.857 7
-6.445 -14.233 -4.89 8
-6.279 -13.759 -4.944 6
-6.101 -13.259 -4.967 8
-5.925 -12.776 -4.983 10
-5.773 -12.342 -5.015 8
-5.621 -11.922 -5.041 9
-5.481 -11.525 -5.07 10
-5.346 -11.148 -5.099 10
-5.216 -10.781 -5.124 11
-5.087 -10.427 -5.146 12
-4.962 -10.084 -5.166 11
-4.84 -9.746 -5.178 39
-4.723 -9.425 -5.193 16
-16.385 -41.697 -4.352 4
-15.028 -37.922 -4.371 5
-13.409 -33.572 -4.136 30
0.0 -0.0 3.0 0
-10.761 -26.51 -3.61 3
-10.869 -26.557 -4.116 3
-10.732 -26.021 -4.461 6
-10.2 -24.542 -4.503 5
-9.747 -23.26 -4.558 5
-9.304 -22.034 -4.587 7
-8.928 -20.962 -4.63 11
-8.544 -19.919 -4.646 16
-8.225 -19.019 -4.684 5
-7.915 -18.163 -4.71 6
-7.634 -17.377 -4.737 6
-7.372 -16.654 -4.766 8
-7.128 -15.973 -4.79 45
-6.918 -15.383 -4.838 8
-6.698 -14.778 -4.858 7
-6.5 -14.226 -4.885 9
-6.333 -13.753 -4.94 8
-6.157 -13.259 -4.967 8
-5.978 -12.772 -4.981 8
-5.826 -12.343 -5.015 9
-5.672 -11.92 -5.04 9
-5.531 -11.524 -5.069 10
-5.394 -11.146 -5.098 10
-5.264 -10.784 -5.126 12
-5.132 -10.424 -5.144 11
-5.006 -10.081 -5.163 10
-4.884 -9.746 -5.178 34
-4.763 -9.421 -5.189 21
-16.577 -41.81 -4.372 5
-15.187 -37.984 -4.383 6
-13.597 -33.739 -4.171 19
0.0 -0.0 3.0 0
-10.864 -26.524 -3.613 4
-10.952 -26.521 -4.106 1
-10.835 -26.036 -4.466 6
-10.295 -24.547 -4.505 6
-9.841 -23.273 -4.562 4
-9.394 -22.048 -4.592 7
-9.014 -20.975 -4.634 11
-8.629 -19.936 -4.653 7
-8.296 -19.013 -4.682 6
-7.988 -18.168 -4.712 6
-7.704 -17.379 -4.738 5
-7.441 -16.657 -4.767 7
-7.195 -15.976 -4.792 44
-6.981 -15.384 -4.839 8
-6.759 -14.779 -4.858 9
-6.562 -14.231 -4.888 8
-6.392 -13.754 -4.941 7
-6.211 -13.255 -4.964 8
-6.031 -12.769 -4.979 11
-5.878 -12.339 -5.013 9
-5.724 -11.92 -5.04 10
-5.579 -11.519 -5.065 9
-5.441 -11.142 -5.095 9
-5.311 -10.782 -5.125 10
-5.179 -10.426 -5.146 11
-5.049 -10.078 -5.161 12
-4.927 -9.743 -5.175 39
-4.802 -9.412 -5.182 18
-16.739 -41.845 -4.378 5
-15.342 -38.029 -4.392 6
-13.753 -33.822 -4.189 22
0.0 -0.0 3.0 0
-10.961 -26.524 -3.613 3
-11.053 -26.528 -4.108 1
-10.943 -26.06 -4.473 6
-10.395 -24.566 -4.511 6
-9.935 -23.286 -4.566 4
-9.484 -22.059 -4.595 7
-9.099 -20.982 -4.637 11
-8.711 -19.946 -4.656 9
-8.374 -19.019 -4.684 6
-8.061 -18.168 -4.712 6
-7.777 -17.387 -4.741 5
-7.509 -16.659 -4.768 8
-7.257 -15.969 -4.789 44
-7.042 -15.377 -4.835 9
-6.817 -14.774 -4.856 8
-6.62 -14.228 -4.887 7
-6.447 -13.749 -4.938 8
-6.267 -13.254 -4.964 8
-6.087 -12.772 -4.981 15
-5.928 -12.334 -5.01 9
-5.773 -11.915 -5.037 9
-5.628 -11.517 -5.064 9
-5.487 -11.137 -5.092 10
-5.357 -10.778 -5.122 11
-5.223 -10.419 -5.14 12
-5.095 -10.077 -5.16 10
-4.971 -9.743 -5.176 33
-4.847 -9.416 -5.185 17
-16.92 -41.926 -4.393 6
-15.503 -38.093 -4.405 6
-13.876 -33.825 -4.19 23
0.0 -0.0 3.0 0
-11.06 -26.527 -3.614 3
-11.158 -26.541 -4.112 1
-11.044 -26.067 -4.475 6
-10.495 -24.581 -4.515 6
-10.028 -23.296 -4.569 5
-9.572 -22.066 -4.598 8
-9.184 -20.99 -4.64 11
-8.792 -19.951 -4.658 9
-8.457 -19.036 -4.691 7
-8.134 -18.169 -4.712 6
-7.845 -17.381 -4.739 5
-7.576 -16.658 -4.768 7
-7.326 -15.978 -4.793 46
-7.108 -15.384 -4.839 8
-6.879 -14.774 -4.856 8
-6.679 -14.227 -4.886 8
-6.503 -13.745 -4.936 8
-6.321 -13.25 -4.961 8
-6.138 -12.766 -4.977 16
-5.984 -12.34 -5.014 9
-5.823 -11.913 -5.035 9
-5.674 -11.509 -5.058 9
-5.536 -11.136 -5.09 9
-5.406 -10.78 -5.123 11
-5.266 -10.412 -5.135 11
-5.137 -10.071 -5.156 11
-5.011 -9.735 -5.168 37
-4.888 -9.413 -5.182 16
-17.096 -41.992 -4.404 6
-15.666 -38.155 -4.417 5
-14.07 -33.997 -4.226 6
-11.195 -26.825 -3.193 0
-11.17 -26.555 -3.621 3
-11.258 -26.543 -4.112 2
-11.15 -26.088 -4.481 6
-10.593 -24.592 -4.519 5
-10.124 -23.312 -4.575 4
-9.664 -22.083 -4.604 7
-9.269 -20.998 -4.643 11
-8.872 -19.956 -4.66 9
-8.53 -19.031 -4.689 6
-8.208 -18.173 -4.714 6
-7.917 -17.386 -4.741 5
-7.646 -16.663 -4.77 7
-7.39 -15.974 -4.791 46
-7.167 -15.375 -4.834 8
-6.939 -14.772 -4.854 7
-6.739 -14.228 -4.887 6
-6.559 -13.74 -4.933 8
-6.375 -13.245 -4.958 8
-6.191 -12.762 -4.974 14
-6.033 -12.33 -5.007 9
-5.877 -11.916 -5.037 9
-5.725 -11.509 -5.059 8
-5.585 -11.137 -5.092 10
-5.449 -10.769 -5.115 10
-5.31 -10.408 -5.132 12
-5.184 -10.073 -5.157 10
-5.055 -9.734 -5.168 38
-4.927 -9.405 -5.175 18
-17.278 -42.074 -4.419 5
-15.837 -38.236 -4.432 5
-14.655 -35.103 -4.461 9
-11.304 -26.849 -3.199 0
-11.266 -26.551 -3.62 2
-11.361 -26.552 -4.115 2
-11.26 -26.114 -4.488 6
-10.697 -24.617 -4.526 6
-10.214 -23.314 -4.575 4
-9.753 -22.09 -4.606 8
-9.356 -21.009 -4.647 11
-8.955 -19.965 -4.664 9
-8.61 -19.041 -4.693 6
-8.284 -18.179 -4.717 7
-7.987 -17.387 -4.741 5
-7.711 -16.658 -4.768 8
-7.453 -15.97 -4.789 46
-7.235 -15.384 -4.838 8
-7.001 -14.772 -4.854 7
-6.798 -14.225 -4.885 8
-6.618 -13.741 -4.933 8
-6.43 -13.241 -4.956 8
-6.249 -12.767 -4.978 19
-6.089 -12.337 -5.012 8
-5.926 -11.91 -5.033 9
-5.775 -11.507 -5.057 9
-5.631 -11.129 -5.086 10
-5.498 -10.771 -5.116 13
-5.358 -10.411 -5.134 11
-5.226 -10.067 -5.152 12
-5.098 -9.731 -5.165 40
-4.969 -9.402 -5.173 17
-17.456 -42.139 -4.43 5
-15.999 -38.294 -4.444 5
-14.798 -35.138 -4.469 8
0.0 -0.0 3.0 0
-11.372 -26.567 -3.624 2
-11.464 -26.561 -4.117 2
-11.368 -26.134 -4.494 6
-10.796 -24.628 -4.529 6
-10.311 -23.329 -4.58 4
-9.843 -22.099 -4.609 8
-9.445 -21.023 -4.652 11
-9.037 -19.972 -4.667 10
-8.685 -19.04 -4.693 7
-8.36 -18.186 -4.719 6
-8.058 -17.387 -4.741 5
-7.781 -16.662 -4.77 8
-7.52 -15.972 -4.79 40
-7.297 -15.38 -4.837 8
-7.061 -14.769 -4.853 8
-6.855 -14.219 -4.882 7
-6.676 -13.743 -4.935 8
-6.487 -13.243 -4.957 8
-6.299 -12.757 -4.971 16
-6.139 -12.329 -5.007 8
-5.978 -11.91 -5.033 9
-5.824 -11.504 -5.056 8
-5.679 -11.127 -5.084 10
-5.543 -10.767 -5.113 12
-5.403 -10.406 -5.13 12
-5.271 -10.066 -5.151 11
-5.142 -9.731 -5.165 37
-5.011 -9.399 -5.17 18
-17.639 -42.218 -4.444 5
-16.163 -38.355 -4.455 5
-14.947 -35.188 -4.48 8
0.0 -0.0 3.0 0
-11.479 -26.587 -3.629 2
-11.569 -26.573 -4.12 2
-11.475 -26.153 -4.499 6
-10.899 -24.648 -4.536 6
-10.409 -23.347 -4.586 4
-9.929 -22.101 -4.61 8
-9.529 -21.026 -4.653 11
-9.118 -19.977 -4.669 14
-8.766 -19.048 -4.696 6
-8.433 -18.185 -4.719 6
-8.129 -17.387 -4.741 5
-7.85 -16.663 -4.77 8
-7.587 -15.974 -4.791 44
-7.36 -15.379 -4.836 8
-7.121 -14.766 -4.851 7
-6.915 -14.22 -4.882 8
-6.732 -13.737 -4.931 8
-6.543 -13.241 -4.956 8
-6.352 -12.752 -4.968 17
-6.191 -12.326 -5.005 8
-6.027 -11.903 -5.029 9
-5.875 -11.505 -5.056 9
-5.726 -11.122 -5.08 12
-5.591 -10.765 -5.112 12
-5.449 -10.405 -5.129 11
-5.315 -10.062 -5.148 11
-5.185 -9.727 -5.162 37
-5.054 -9.399 -5.17 17
-17.818 -42.281 -4.455 6
-16.332 -38.427 -4.469 5
-15.089 -35.22 -4.486 8
0.0 -0.0 3.0 0
-11.589 -26.613 -3.635 1
-11.671 -26.577 -4.121 2
-11.587 -26.182 -4.508 6
-11.001 -24.665 -4.541 6
-10.504 -23.358 -4.589 4
-10.024 -22.12 -4.617 8
-9.616 -21.036 -4.656 11
-9.196 -19.974 -4.667 29
-8.843 -19.05 -4.697 6
-8.509 -18.191 -4.722 6
-8.201 -17.391 -4.743 5
-7.92 -16.668 -4.772 8
-7.65 -15.969 -4.789 41
-7.424 -15.378 -4.836 5
-7.178 -14.755 -4.845 7
-6.975 -14.22 -4.882 8
-6.793 -13.742 -4.934 8
-6.599 -13.239 -4.955 8
-6.408 -12.754 -4.97 25
-6.244 -12.325 -5.004 8
-6.078 -11.901 -5.027 10
-5.925 -11.502 -5.054 8
-5.776 -11.122 -5.081 11
-5.637 -10.76 -5.108 11
-5.494 -10.4 -5.125 11
-5.36 -10.061 -5.147 12
-5.23 -9.727 -5.162 37
-5.095 -9.393 -5.165 16
-17.999 -42.352 -4.468 6
-16.509 -38.516 -4.487 5
-15.252 -35.297 -4.503 7
0.0 -0.0 3.0 0
-11.688 -26.611 -3.635 1
-11.776 -26.588 -4.124 2
-11.695 -26.201 -4.513 6
-11.103 -24.681 -4.546 6
-10.603 -23.375 -4.595 4
-10.113 -22.125 -4.618 7
-9.703 -21.046 -4.66 9
-9.276 -19.975 -4.668 31
-8.921 -19.055 -4.699 7
-8.58 -18.187 -4.72 6
-8.275 -17.397 -4.746 5
-7.988 -16.665 -4.771 7
-7.714 -15.964 -4.786 14
-7.486 -15.373 -4.833 8
-7.244 -14.761 -4.849 8
-7.033 -14.214 -4.879 9
-6.846 -13.73 -4.927 8
-6.654 -13.234 -4.952 8
-6.462 -12.753 -4.969 19
-6.296 -12.321 -5.002 9
-6.128 -11.897 -5.024 9
-5.972 -11.496 -5.05 6
-5.824 -11.119 -5.079 10
-5.682 -10.755 -5.104 12
-5.539 -10.396 -5.122 11
-5.404 -10.057 -5.144 11
-5.271 -9.72 -5.156 37
-4.766 -8.712 -4.573 1
-18.187 -42.432 -4.482 5
-16.675 -38.574 -4.498 4
-15.405 -35.352 -4.514 7
0.0 -0.0 3.0 0
-11.799 -26.636 -3.641 1
-11.877 -26.589 -4.124 2
-11.808 -26.229 -4.521 6
-11.207 -24.7 -4.552 5
-10.695 -23.379 -4.596 5
-10.205 -22.137 -4.622 7
-9.791 -21.055 -4.663 11
-9.354 -19.971 -4.666 18
-8.997 -19.052 -4.698 6
-8.658 -18.195 -4.723 6
-8.346 -17.397 -4.746 4
-8.057 -16.665 -4.771 7
-7.786 -15.974 -4.791 9
-7.551 -15.376 -4.834 8
-7.306 -14.76 -4.848 8
-7.095 -14.217 -4.881 9
-6.905 -13.73 -4.927 8
-6.705 -13.222 -4.945 8
-6.519 -12.755 -4.97 22
-6.35 -12.321 -5.001 8
-6.182 -11.9 -5.027 9
-6.022 -11.492 -5.047 6
-5.873 -11.118 -5.077 11
-5.73 -10.752 -5.102 12
-5.585 -10.394 -5.121 11
-5.448 -10.053 -5.141 12
-5.317 -9.722 -5.158 33
-4.722 -8.559 -4.44 3
-18.368 -42.498 -4.494 3
-16.834 -38.615 -4.506 5
-15.564 -35.417 -4.528 7
0.0 -0.0 3.0 0
-11.905 -26.651 -3.645 1
-11.986 -26.607 -4.129 2
-11.918 -26.251 -4.527 6
-11.306 -24.71 -4.555 5
-10.786 -23.378 -4.596 5
-10.293 -22.138 -4.623 7
-9.88 -21.067 -4.668 13
-9.452 -20.009 -4.681 9
-9.076 -19.057 -4.7 6
-8.733 -18.197 -4.724 6
-8.42 -17.403 -4.749 5
-8.126 -16.666 -4.772 8
-7.855 -15.979 -4.793 9
-7.617 -15.377 -4.835 9
-7.368 -14.76 -4.848 8
-7.15 -14.208 -4.875 8
-6.964 -13.73 -4.927 8
-6.766 -13.229 -4.949 9
-6.57 -12.747 -4.965 26
-6.403 -12.319 -5.0 9
-6.231 -11.893 -5.022 9
-6.073 -11.492 -5.047 7
-5.921 -11.114 -5.075 9
-5.779 -10.753 -5.103 12
-5.632 -10.392 -5.119 11
-5.493 -10.051 -5.139 11
-4.714 -8.547 -4.172 6
-4.712 -8.47 -4.363 5
-18.549 -42.559 -4.504 17
-17.003 -38.68 -4.519 6
-15.717 -35.467 -4.539 6
-14.59 -32.646 -4.537 6
-12.015 -26.672 -3.65 1
-12.091 -26.617 -4.132 2
-12.029 -26.271 -4.533 6
-11.409 -24.725 -4.559 5
-10.882 -23.389 -4.599 5
-10.387 -22.152 -4.628 8
-9.962 -21.062 -4.666 19
-9.534 -20.012 -4.682 7
-9.157 -19.065 -4.703 7
-8.807 -18.195 -4.723 6
-8.492 -17.403 -4.748 5
-8.2 -16.676 -4.776 7
-7.922 -15.98 -4.794 9
-7.681 -15.375 -4.834 8
-7.428 -14.755 -4.846 8
-7.216 -14.216 -4.88 8
-7.018 -13.721 -4.922 8
-6.819 -13.221 -4.944 9
-6.624 -12.742 -4.962 23
-6.455 -12.315 -4.997 9
-6.284 -11.892 -5.021 9
-6.123 -11.49 -5.045 9
-5.968 -11.108 -5.071 9
-5.825 -10.748 -5.099 12
-5.677 -10.387 -5.115 11
-4.759 -8.635 -3.993 4
-4.713 -8.474 -4.11 5
-4.74 -8.448 -4.344 5
-18.722 -42.602 -4.512 14
-17.179 -38.755 -4.533 5
-15.871 -35.518 -4.55 7
-14.725 -32.675 -4.544 6
-12.129 -26.7 -3.657 1
-12.197 -26.626 -4.134 2
-12.142 -26.299 -4.541 5
-11.519 -24.754 -4.568 5
-10.983 -23.409 -4.606 4
-10.48 -22.163 -4.631 7
-10.048 -21.067 -4.668 18
-9.619 -20.021 -4.685 8
-9.239 -19.075 -4.707 6
-8.885 -18.203 -4.727 6
-8.564 -17.404 -4.749 5
-8.267 -16.672 -4.774 8
-7.991 -15.983 -4.796 9
-7.745 -15.373 -4.833 8
-7.492 -14.757 -4.847 7
-7.272 -14.206 -4.875 7
-7.079 -13.723 -4.923 8
-6.877 -13.221 -4.944 8
-6.68 -12.743 -4.963 30
-6.508 -12.31 -4.994 8
-6.333 -11.884 -5.016 9
-6.173 -11.486 -5.042 9
-6.019 -11.109 -5.071 10
-5.872 -10.745 -5.097 10
-5.723 -10.385 -5.113 12
-4.711 -8.476 -3.864 5
-4.718 -8.412 -4.059 5
-4.781 -8.451 -4.346 5
-18.898 -42.651 -4.52 8
-17.345 -38.808 -4.544 6
-16.028 -35.574 -4.562 7
-14.865 -32.712 -4.552 7
0.0 -0.0 3.0 0
-12.307 -26.643 -4.139 2
-12.248 -26.308 -4.544 5
-11.62 -24.764 -4.571 5
-11.082 -23.424 -4.611 5
-10.573 -22.173 -4.635 7
-10.135 -21.072 -4.669 16
-9.702 -20.027 -4.688 9
-9.317 -19.075 -4.707 6
-8.96 -18.204 -4.727 6
-8.636 -17.403 -4.748 5
-8.34 -16.678 -4.777 8
-8.055 -15.977 -4.793 8
-7.804 -15.361 -4.827 8
-7.553 -14.753 -4.844 8
-7.334 -14.209 -4.876 8
-7.137 -13.72 -4.921 8
-6.931 -13.215 -4.941 8
-6.733 -12.737 -4.959 33
-6.561 -12.309 -4.993 8
-6.387 -11.887 -5.018 9
-6.222 -11.482 -5.04 8
-6.067 -11.105 -5.069 9
-5.922 -10.745 -5.097 11
-4.719 -8.492 -3.634 4
-4.715 -8.413 -3.813 4
-4.757 -8.413 -4.059 5
-4.762 -8.349 -4.258 6
-19.092 -42.735 -4.535 3
-17.523 -38.885 -4.559 7
-16.194 -35.648 -4.577 8
-15.011 -32.763 -4.564 7
0.0 -0.0 3.0 0
-12.416 -26.659 -4.143 1
-12.369 -26.349 -4.555 5
-11.729 -24.79 -4.579 6
-11.176 -23.426 -4.612 5
-10.666 -22.183 -4.638 7
-10.226 -21.086 -4.675 11
-9.788 -20.036 -4.691 9
-9.396 -19.078 -4.708 7
-9.037 -18.209 -4.729 6
-8.709 -17.404 -4.749 4
-8.408 -16.674 -4.775 7
-8.122 -15.977 -4.793 9
-7.87 -15.362 -4.827 8
-7.615 -14.751 -4.843 8
-7.393 -14.205 -4.874 8
-7.196 -13.719 -4.921 8
-6.989 -13.216 -4.941 8
-6.788 -12.735 -4.958 32
-6.613 -12.303 -4.99 9
-6.436 -11.879 -5.013 9
-6.272 -11.478 -5.037 8
-6.116 -11.102 -5.066 8
-4.764 -8.573 -3.46 2
-4.714 -8.414 -3.574 5
-4.733 -8.377 -3.783 4
-4.768 -8.362 -4.017 4
-4.797 -8.341 -4.251 17
0.0 -0.0 3.0 0
-17.693 -38.944 -4.57 5
-16.348 -35.691 -4.586 9
-15.155 -32.808 -4.574 7
0.0 -0.0 3.0 0
-12.528 -26.679 -4.148 1
-12.482 -26.371 -4.562 6
-11.829 -24.796 -4.581 5
-11.276 -23.441 -4.616 5
-10.762 -22.2 -4.644 17
-10.32 -21.104 -4.681 11
-9.875 -20.048 -4.696 9
-9.477 -19.084 -4.711 7
-9.115 -18.213 -4.731 6
-8.782 -17.406 -4.75 4
-8.479 -16.676 -4.776 7
-8.193 -15.984 -4.796 9
-7.935 -15.362 -4.828 9
-7.679 -14.752 -4.844 8
-7.454 -14.203 -4.873 8
-7.253 -13.713 -4.917 8
-7.048 -13.215 -4.94 8
-6.847 -12.739 -4.96 35
-6.667 -12.301 -4.988 8
-6.489 -11.877 -5.011 9
-6.322 -11.474 -5.034 8
-6.165 -11.099 -5.064 10
-4.803 -8.573 -3.46 7
-4.718 -8.351 -3.524 4
-4.772 -8.377 -3.784 4
-4.777 -8.309 -3.972 9
-4.829 -8.327 -4.239 6
0.0 -0.0 3.0 0
-17.859 -38.992 -4.579 5
-16.495 -35.722 -4.593 10
-15.291 -32.833 -4.58 6
-12.484 -26.592 -3.63 0
-12.63 -26.676 -4.148 2
-12.6 -26.404 -4.571 6
-11.936 -24.816 -4.587 5
-11.372 -23.449 -4.619 5
-10.845 -22.189 -4.64 25
-10.404 -21.101 -4.68 9
-9.956 -20.046 -4.695 8
-9.557 -19.086 -4.711 6
-9.195 -18.223 -4.735 6
-8.859 -17.414 -4.753 4
-8.55 -16.679 -4.777 6
-8.259 -15.98 -4.794 9
-8.001 -15.363 -4.828 8
-7.741 -14.75 -4.843 7
-7.513 -14.199 -4.87 7
-7.31 -13.708 -4.915 8
-7.101 -13.206 -4.935 8
-6.9 -12.733 -4.957 41
-6.723 -12.302 -4.989 8
-6.541 -11.876 -5.011 10
-6.372 -11.47 -5.031 9
-6.215 -11.098 -5.063 10
-4.846 -8.578 -3.464 7
-4.748 -8.337 -3.514 5
-4.754 -8.277 -3.703 5
-4.793 -8.27 -3.939 9
-4.868 -8.327 -4.239 6
0.0 -0.0 3.0 0
-18.032 -39.053 -4.591 6
-16.641 -35.747 -4.598 6
-15.431 -32.866 -4.588 6
-12.677 -26.784 -3.678 1
-12.737 -26.684 -4.15 2
-12.714 -26.425 -4.577 6
-12.042 -24.833 -4.592 5
-11.476 -23.47 -4.626 5
-10.939 -22.198 -4.643 20
-10.499 -21.122 -4.688 9
-10.043 -20.058 -4.699 8
-9.637 -19.089 -4.713 6
-9.269 -18.219 -4.734 6
-8.931 -17.412 -4.752 4
-8.621 -16.681 -4.778 8
-8.327 -15.979 -4.793 9
-8.065 -15.36 -4.826 8
-7.804 -14.748 -4.842 7
-7.574 -14.197 -4.869 7
-7.37 -13.708 -4.914 8
-7.16 -13.209 -4.937 8
-6.955 -12.73 -4.955 41
-6.775 -12.297 -4.986 8
-6.594 -11.874 -5.009 9
-6.423 -11.469 -5.031 8
-6.26 -11.088 -5.056 9
-4.884 -8.576 -3.462 8
-4.789 -8.339 -3.515 5
-4.788 -8.269 -3.696 5
-4.829 -8.265 -3.935 8
-4.906 -8.324 -4.236 5
0.0 -0.0 3.0 0
-18.207 -39.117 -4.604 5
-16.809 -35.818 -4.613 6
-15.587 -32.932 -4.603 6
-12.795 -26.817 -3.686 0
-12.842 -26.688 -4.151 2
-12.829 -26.45 -4.584 4
-12.148 -24.849 -4.597 5
-11.578 -23.488 -4.632 5
-11.036 -22.213 -4.649 8
-10.583 -21.117 -4.686 10
-10.126 -20.058 -4.7 9
-9.724 -19.104 -4.719 6
-9.347 -18.223 -4.735 6
-9.002 -17.409 -4.751 5
-8.693 -16.682 -4.779 6
-8.394 -15.978 -4.793 9
-8.13 -15.356 -4.824 8
-7.865 -14.742 -4.838 7
-7.633 -14.192 -4.867 9
-7.431 -13.71 -4.915 8
-7.215 -13.202 -4.933 8
-7.012 -12.73 -4.955 39
-6.829 -12.295 -4.984 9
-6.647 -11.872 -5.008 10
-6.473 -11.465 -5.028 8
-6.309 -11.084 -5.053 9
-4.921 -8.572 -3.46 8
-4.771 -8.242 -3.439 7
-4.822 -8.26 -3.689 5
-4.879 -8.284 -3.951 5
-4.946 -8.325 -4.237 5
0.0 -0.0 3.0 0
-18.387 -39.188 -4.617 5
-16.964 -35.86 -4.622 6
-15.743 -32.995 -4.618 7
0.0 -0.0 3.0 0
-12.956 -26.709 -4.157 3
-12.945 -26.475 -4.592 5
-12.258 -24.872 -4.604 5
-11.676 -23.494 -4.634 5
-11.13 -22.221 -4.651 8
-10.677 -21.134 -4.692 9
-10.212 -20.066 -4.702 9
-9.8 -19.1 -4.717 6
-9.426 -18.229 -4.738 6
-9.076 -17.41 -4.751 5
-8.759 -16.673 -4.775 6
-8.466 -15.984 -4.796 9
-8.196 -15.356 -4.824 8
-7.931 -14.745 -4.84 5
-7.696 -14.193 -4.867 8
-7.491 -13.708 -4.914 8
-7.272 -13.198 -4.93 8
-7.066 -12.724 -4.951 42
-6.883 -12.292 -4.982 8
-6.698 -11.867 -5.004 9
-6.523 -11.46 -5.024 8
-6.361 -11.087 -5.055 9
-4.959 -8.569 -3.457 8
-4.818 -8.256 -3.45 7
-4.856 -8.252 -3.683 5
-4.918 -8.284 -3.951 5
-4.987 -8.327 -4.238 5
0.0 -0.0 3.0 0
-18.571 -39.268 -4.633 5
-17.131 -35.927 -4.636 15
-15.894 -33.047 -4.629 6
0.0 -0.0 3.0 0
-13.067 -26.723 -4.16 7
-13.059 -26.495 -4.597 5
-12.366 -24.89 -4.61 5
-11.778 -23.511 -4.639 5
-11.225 -22.233 -4.656 7
-10.765 -21.137 -4.693 8
-10.295 -20.066 -4.703 8
-9.882 -19.104 -4.719 6
-9.504 -18.231 -4.739 6
-9.151 -17.413 -4.753 6
-8.833 -16.678 -4.777 6
-8.532 -15.979 -4.794 12
-8.265 -15.362 -4.827 8
-7.994 -14.743 -4.839 7
-7.756 -14.188 -4.864 9
-7.551 -13.707 -4.913 8
-7.329 -13.194 -4.928 9
-7.123 -12.723 -4.95 39
-6.937 -12.289 -4.98 8
-6.751 -11.865 -5.003 9
-6.576 -11.462 -5.026 9
-6.41 -11.082 -5.052 10
-4.995 -8.563 -3.453 8
-4.858 -8.259 -3.453 7
-4.893 -8.249 -3.68 5
-4.956 -8.281 -3.949 6
-5.026 -8.327 -4.239 5
0.0 -0.0 3.0 0
-18.755 -39.345 -4.648 5
-17.282 -35.958 -4.643 15
-16.04 -33.088 -4.639 6
0.0 -0.0 3.0 0
-13.181 -26.743 -4.166 8
-13.175 -26.519 -4.604 5
-12.474 -24.909 -4.615 5
-11.876 -23.518 -4.641 5
-11.319 -22.24 -4.658 7
-10.856 -21.145 -4.696 9
-10.383 -20.076 -4.707 7
-9.964 -19.109 -4.721 7
-9.581 -18.234 -4.74 6
-9.23 -17.423 -4.757 6
-8.904 -16.679 -4.777 7
-8.602 -15.981 -4.794 9
-8.328 -15.355 -4.824 7
-8.058 -14.743 -4.839 7
-7.817 -14.185 -4.863 9
-7.607 -13.699 -4.909 8
-7.385 -13.19 -4.925 9
-7.178 -12.719 -4.948 41
-6.989 -12.283 -4.977 8
-6.805 -11.865 -5.003 9
-6.628 -11.46 -5.024 9
-6.461 -11.081 -5.051 10
-5.032 -8.556 -3.448 8
-4.895 -8.256 -3.45 7
-4.934 -8.251 -3.682 4
-4.999 -8.286 -3.953 5
-5.07 -8.332 -4.243 5
0.0 -0.0 3.0 0
-18.938 -39.416 -4.662 5
-17.437 -35.994 -4.651 6
-16.196 -33.145 -4.652 16
0.0 -0.0 3.0 0
-13.282 -26.735 -4.164 4
-13.297 -26.552 -4.614 5
-12.595 -24.951 -4.628 2
-11.982 -23.54 -4.649 4
-11.412 -22.245 -4.659 7
-10.949 -21.157 -4.701 12
-10.468 -20.079 -4.708 7
-10.048 -19.117 -4.724 6
-9.661 -18.239 -4.742 6
-9.301 -17.416 -4.754 6
-8.976 -16.68 -4.778 7
-8.671 -15.983 -4.795 8
-8.396 -15.357 -4.825 8
-8.123 -14.743 -4.839 8
-7.88 -14.185 -4.863 9
-7.666 -13.694 -4.906 8
-7.445 -13.192 -4.926 8
-7.233 -12.716 -4.946 41
-7.045 -12.283 -4.977 8
-6.855 -11.857 -4.997 9
-6.676 -11.451 -5.018 9
-6.511 -11.08 -5.05 10
-5.064 -8.544 -3.438 8
-4.936 -8.258 -3.452 10
-4.969 -8.245 -3.677 4
-5.04 -8.289 -3.955 5
-5.114 -8.34 -4.249 6
0.0 -0.0 3.0 0
-19.121 -39.488 -4.676 5
-17.61 -36.068 -4.667 7
-16.334 -33.167 -4.657 14
0.0 -0.0 3.0 0
-13.449 -26.859 -4.197 3
-13.416 -26.578 -4.621 4
-12.707 -24.976 -4.636 1
-12.089 -23.563 -4.656 5
-11.508 -22.255 -4.663 7
-11.035 -21.156 -4.7 12
-10.556 -20.089 -4.711 9
-10.132 -19.124 -4.727 7
-9.739 -18.241 -4.743 6
-9.376 -17.419 -4.755 6
-9.052 -16.686 -4.781 8
-8.741 -15.984 -4.796 9
-8.463 -15.356 -4.824 8
-8.186 -14.739 -4.837 7
-7.939 -14.179 -4.86 9
-7.727 -13.694 -4.906 8
-7.5 -13.184 -4.921 9
-7.29 -12.715 -4.945 39
-7.101 -12.283 -4.976 8
-6.908 -11.854 -4.996 9
-6.73 -11.453 -5.019 9
-6.559 -11.072 -5.044 10
-5.09 -8.52 -3.42 8
-4.969 -8.25 -3.445 7
-5.01 -8.248 -3.679 5
-5.082 -8.293 -3.959 5
-5.159 -8.347 -4.256 5
0.0 -0.0 3.0 0
-19.308 -39.566 -4.691 5
-17.79 -36.154 -4.685 6
-16.483 -33.21 -4.667 8
-15.362 -30.7 -4.654 6
-13.51 -26.77 -4.173 1
-13.538 -26.611 -4.63 5
-12.822 -25.003 -4.644 2
-12.189 -23.572 -4.659 4
-11.606 -22.268 -4.668 7
-11.129 -21.166 -4.704 12
-10.643 -20.095 -4.714 7
-10.213 -19.124 -4.727 6
-9.821 -18.249 -4.746 6
-9.456 -17.428 -4.76 5
-9.12 -16.68 -4.778 7
-8.81 -15.982 -4.795 8
-8.531 -15.357 -4.825 8
-8.25 -14.739 -4.837 7
-8.001 -14.177 -4.858 8
-7.785 -13.689 -4.903 8
-7.561 -13.186 -4.923 8
-7.346 -12.711 -4.943 39
-7.155 -12.279 -4.974 8
-6.962 -11.855 -4.996 9
-6.78 -11.447 -5.016 6
-6.611 -11.073 -5.045 9
-5.123 -8.507 -3.411 8
-5.006 -8.246 -3.443 7
-5.05 -8.25 -3.681 4
-5.124 -8.296 -3.961 5
-5.209 -8.363 -4.269 5
0.0 -0.0 3.0 0
-19.495 -39.639 -4.705 5
-17.946 -36.189 -4.692 5
-16.633 -33.252 -4.677 8
-15.501 -30.738 -4.664 6
-13.624 -26.785 -4.177 0
-13.654 -26.628 -4.636 5
-12.921 -24.999 -4.643 4
-12.291 -23.583 -4.663 5
-11.706 -22.285 -4.673 8
-11.22 -21.174 -4.707 12
-10.734 -20.107 -4.718 7
-10.297 -19.131 -4.729 7
-9.899 -18.25 -4.747 6
-9.532 -17.43 -4.76 6
-9.196 -16.686 -4.781 6
-8.878 -15.979 -4.794 9
-8.594 -15.349 -4.821 8
-8.313 -14.734 -4.834 8
-8.064 -14.177 -4.858 9
-7.851 -13.695 -4.907 8
-7.617 -13.181 -4.92 8
-7.403 -12.71 -4.942 38
-7.208 -12.272 -4.97 8
-7.017 -11.854 -4.996 9
-6.837 -11.453 -5.02 9
-6.66 -11.068 -5.041 9
-5.152 -8.489 -3.397 8
-5.034 -8.228 -3.429 7
-5.095 -8.258 -3.687 4
-5.172 -8.309 -3.972 5
-5.263 -8.384 -4.288 3
0.0 -0.0 3.0 0
-19.683 -39.714 -4.72 5
-18.118 -36.255 -4.706 5
-16.785 -33.297 -4.687 6
-15.634 -30.761 -4.67 6
0.0 -0.0 3.0 0
-13.775 -26.657 -4.644 5
-13.036 -25.026 -4.651 5
-12.397 -23.601 -4.668 5
-11.801 -22.291 -4.675 8
-11.307 -21.172 -4.706 12
-10.817 -20.105 -4.718 8
-10.378 -19.131 -4.729 7
-9.979 -18.255 -4.749 6
-9.606 -17.428 -4.76 6
-9.268 -16.686 -4.781 6
-8.952 -15.986 -4.797 9
-8.664 -15.354 -4.823 8
-8.382 -14.74 -4.837 7
-8.129 -14.18 -4.86 9
-7.907 -13.687 -4.902 8
-7.676 -13.178 -4.918 9
-7.457 -12.702 -4.937 34
-7.264 -12.272 -4.97 9
-7.067 -11.846 -4.99 9
-6.885 -11.445 -5.014 9
-6.709 -11.064 -5.038 9
-5.189 -8.485 -3.394 8
-5.07 -8.222 -3.423 6
-5.141 -8.268 -3.696 5
-5.22 -8.322 -3.983 5
-5.315 -8.401 -4.303 7
0.0 -0.0 3.0 0
-19.881 -39.808 -4.738 5
-18.286 -36.309 -4.718 5
-16.95 -33.366 -4.703 6
-15.786 -30.822 -4.685 5
-14.782 -28.616 -4.668 4
-13.896 -26.685 -4.652 5
-13.136 -25.025 -4.651 5
-12.499 -23.612 -4.672 4
-11.906 -22.314 -4.683 7
-11.401 -21.181 -4.709 9
-10.908 -20.117 -4.722 8
-10.466 -19.143 -4.734 7
-10.059 -18.258 -4.75 6
-9.686 -17.437 -4.763 6
-9.342 -16.689 -4.782 6
-9.022 -15.986 -4.797 9
-8.731 -15.352 -4.822 8
-8.441 -14.729 -4.832 7
-8.191 -14.175 -4.858 9
-7.969 -13.687 -4.902 8
-7.735 -13.176 -4.917 8
-7.516 -12.704 -4.938 36
-7.318 -12.267 -4.967 8
-7.121 -11.845 -4.99 9
-6.933 -11.436 -5.008 9
-6.762 -11.064 -5.038 10
-5.227 -8.481 -3.391 8
-5.108 -8.221 -3.423 5
-5.185 -8.276 -3.701 4
-5.275 -8.345 -4.003 4
-5.787 -9.078 -4.891 10
0.0 -0.0 3.0 0
-20.084 -39.907 -4.757 4
-18.464 -36.384 -4.734 5
-17.106 -33.416 -4.715 5
-15.918 -30.841 -4.69 5
-14.9 -28.623 -4.67 5
-14.009 -26.695 -4.655 5
-13.252 -25.05 -4.659 6
-12.605 -23.629 -4.678 4
-12.001 -22.319 -4.685 7
-11.495 -21.191 -4.713 9
-10.996 -20.122 -4.724 8
-10.547 -19.142 -4.734 7
-10.14 -18.262 -4.752 6
-9.76 -17.435 -4.762 6
-9.412 -16.684 -4.78 8
-9.094 -15.99 -4.799 9
-8.798 -15.35 -4.821 8
-8.512 -14.737 -4.836 7
-8.252 -14.172 -4.856 8
-8.03 -13.684 -4.9 8
-7.792 -13.17 -4.914 8
-7.572 -12.699 -4.935 36
-7.372 -12.264 -4.964 9
-7.173 -11.838 -4.985 9
-6.989 -11.439 -5.01 9
-6.811 -11.059 -5.035 10
-5.267 -8.48 -3.39 8
-5.153 -8.228 -3.429 5
-5.233 -8.289 -3.712 4
-5.32 -8.352 -4.008 0
-5.828 -9.073 -4.887 9
0.0 -0.0 3.0 0
-20.287 -40.005 -4.776 5
-18.64 -36.452 -4.748 5
-17.272 -33.483 -4.73 6
-16.064 -30.887 -4.701 5
-15.037 -28.665 -4.681 4
-14.14 -26.739 -4.667 5
-13.362 -25.065 -4.663 5
-12.706 -23.636 -4.68 4
-12.096 -22.323 -4.686 8
-11.587 -21.198 -4.715 12
-11.087 -20.133 -4.728 13
-10.63 -19.145 -4.735 7
-10.222 -18.269 -4.755 6
-9.837 -17.437 -4.763 6
-9.487 -16.687 -4.781 6
-9.161 -15.984 -4.796 9
-8.865 -15.348 -4.82 8
-8.573 -14.729 -4.832 7
-8.316 -14.171 -4.855 8
-8.09 -13.681 -4.898 8
-7.849 -13.165 -4.911 8
-7.627 -12.694 -4.932 31
-7.43 -12.265 -4.965 9
-7.228 -11.838 -4.985 9
-7.039 -11.433 -5.006 8
-6.862 -11.056 -5.033 10
-5.303 -8.472 -3.384 8
-5.199 -8.239 -3.437 5
-5.29 -8.316 -3.734 3
-6.197 -9.655 -5.101 17
-5.87 -9.068 -4.883 10
0.0 -0.0 3.0 0
-20.478 -40.078 -4.79 5
-18.816 -36.518 -4.762 6
-17.442 -33.557 -4.747 11
-16.202 -30.915 -4.708 6
-15.166 -28.692 -4.688 4
-14.263 -26.765 -4.675 5
-13.476 -25.087 -4.67 6
-12.815 -23.655 -4.686 4
-12.199 -22.342 -4.693 7
-11.683 -21.211 -4.72 10
-11.167 -20.123 -4.724 24
-10.713 -19.147 -4.736 7
-10.301 -18.268 -4.754 6
-9.915 -17.44 -4.765 6
-9.563 -16.691 -4.783 6
-9.235 -15.989 -4.798 9
-8.937 -15.354 -4.823 8
-8.638 -14.728 -4.831 8
-8.377 -14.167 -4.853 8
-8.15 -13.677 -4.897 8
-7.91 -13.165 -4.91 8
-7.685 -12.692 -4.931 32
-7.483 -12.258 -4.96 9
-7.281 -11.834 -4.982 8
-7.091 -11.43 -5.003 9
-6.912 -11.054 -5.031 9
-5.344 -8.474 -3.386 8
-5.25 -8.257 -3.451 4
-6.396 -9.978 -5.08 39
-6.245 -9.657 -5.103 17
-5.913 -9.065 -4.88 10
0.0 -0.0 3.0 0
-20.688 -40.185 -4.811 6
-18.993 -36.585 -4.776 5
-17.6 -33.605 -4.758 17
-16.347 -30.956 -4.718 5
-15.302 -28.729 -4.698 4
-14.38 -26.781 -4.679 5
-13.594 -25.115 -4.678 4
-12.923 -23.674 -4.692 4
-12.302 -22.359 -4.699 8
-11.78 -21.222 -4.724 11
-11.255 -20.127 -4.726 22
-10.802 -19.158 -4.741 7
-10.382 -18.271 -4.755 6
-9.99 -17.437 -4.764 6
-9.637 -16.693 -4.784 6
-9.31 -15.995 -4.801 9
-9.004 -15.351 -4.822 9
-8.705 -14.729 -4.831 4
-8.443 -14.169 -4.854 8
-8.209 -13.671 -4.893 8
-7.968 -13.162 -4.909 8
-7.742 -12.69 -4.929 24
-7.539 -12.257 -4.96 8
-7.334 -11.83 -4.979 8
-7.143 -11.426 -5.001 8
-6.962 -11.048 -5.027 10
-5.378 -8.463 -3.378 1
-5.303 -8.278 -3.467 3
-6.446 -9.98 -5.081 39
-6.287 -9.648 -5.096 23
-5.954 -9.06 -4.876 9
0.0 -0.0 3.0 0
-20.892 -40.278 -4.829 6
-19.176 -36.66 -4.792 5
-17.751 -33.639 -4.766 22
-16.49 -30.993 -4.727 5
-15.436 -28.762 -4.707 5
-14.505 -26.81 -4.688 5
-13.704 -25.125 -4.681 5
-13.031 -23.691 -4.698 4
-12.397 -22.359 -4.699 7
-11.878 -21.238 -4.73 15
-11.343 -20.13 -4.727 15
-10.889 -19.166 -4.744 7
-10.465 -18.277 -4.758 6
-10.068 -17.441 -4.765 6
-9.712 -16.695 -4.785 8
-9.379 -15.991 -4.799 8
-9.077 -15.358 -4.825 8
-8.771 -14.726 -4.83 7
-8.505 -14.164 -4.851 7
-8.273 -13.672 -4.894 8
-8.027 -13.159 -4.907 9
-7.804 -12.694 -4.932 23
-7.592 -12.249 -4.954 8
-7.389 -11.829 -4.979 7
-7.194 -11.42 -4.997 8
-7.011 -11.042 -5.023 9
-6.842 -10.686 -5.052 11
-6.661 -10.319 -5.062 10
-6.49 -9.973 -5.076 32
-6.332 -9.644 -5.093 19
-5.999 -9.06 -4.876 10
0.0 -0.0 3.0 0
-21.089 -40.355 -4.844 5
-19.347 -36.711 -4.803 6
-17.898 -33.666 -4.772 26
-16.644 -31.047 -4.741 5
-15.566 -28.788 -4.714 5
-14.634 -26.844 -4.697 5
-13.819 -25.145 -4.688 5
-13.136 -23.702 -4.701 4
-12.498 -22.373 -4.704 7
-11.967 -21.236 -4.729 22
-11.44 -20.15 -4.735 10
-10.972 -19.167 -4.744 7
-10.544 -18.275 -4.757 6
-10.149 -17.448 -4.768 6
-9.787 -16.696 -4.785 6
-9.448 -15.986 -4.797 9
-9.142 -15.351 -4.822 8
-8.836 -14.723 -4.829 6
-8.569 -14.162 -4.85 8
-8.332 -13.666 -4.89 8
-8.085 -13.153 -4.903 9
-7.858 -12.685 -4.926 21
-7.648 -12.247 -4.953 8
-7.445 -11.828 -4.978 8
-7.249 -11.422 -4.998 8
-7.064 -11.042 -5.022 9
-6.888 -10.678 -5.046 10
-6.708 -10.314 -5.058 11
-6.538 -9.971 -5.074 39
-6.375 -9.638 -5.087 21
-6.038 -9.052 -4.869 9
0.0 -0.0 3.0 0
-21.29 -40.439 -4.861 7
-19.527 -36.778 -4.817 5
-18.057 -33.712 -4.783 35
-16.79 -31.088 -4.751 6
-15.699 -28.817 -4.722 5
-14.763 -26.879 -4.707 5
-13.937 -25.171 -4.696 5
-13.243 -23.717 -4.706 4
-12.597 -22.379 -4.706 7
-12.057 -21.234 -4.728 24
-11.53 -20.156 -4.737 8
-11.058 -19.171 -4.746 7
-10.629 -18.284 -4.761 6
-10.226 -17.448 -4.768 6
-9.865 -16.703 -4.789 6
-9.524 -15.994 -4.801 9
-9.211 -15.351 -4.822 8
-8.902 -14.721 -4.827 7
-8.632 -14.161 -4.849 8
-8.396 -13.667 -4.891 8
-8.146 -13.152 -4.903 9
-7.917 -12.685 -4.927 16
-7.707 -12.247 -4.953 9
-7.498 -11.823 -4.975 9
-7.3 -11.416 -4.994 8
-7.115 -11.039 -5.02 10
-6.937 -10.672 -5.042 12
-6.755 -10.31 -5.055 10
-6.586 -9.97 -5.073 38
-6.424 -9.639 -5.088 18
-6.081 -9.049 -4.866 9
0.0 -0.0 3.0 0
-21.477 -40.494 -4.871 6
-19.706 -36.841 -4.831 5
-18.222 -33.769 -4.796 25
-16.937 -31.127 -4.761 6
-15.822 -28.828 -4.724 4
-14.889 -26.907 -4.715 5
-14.047 -25.181 -4.699 5
-13.351 -23.731 -4.711 5
-12.702 -22.399 -4.712 7
-12.15 -21.238 -4.73 14
-11.619 -20.159 -4.738 8
-11.146 -19.178 -4.749 7
-10.714 -18.292 -4.764 6
-10.303 -17.447 -4.768 6
-9.938 -16.701 -4.788 7
-9.595 -15.993 -4.8 9
-9.28 -15.35 -4.821 8
-8.973 -14.727 -4.831 7
-8.698 -14.162 -4.85 7
-8.457 -13.663 -4.888 8
-8.205 -13.148 -4.9 9
-7.977 -12.685 -4.927 14
-7.765 -12.248 -4.954 8
-7.551 -11.818 -4.971 9
-7.352 -11.412 -4.991 8
-7.166 -11.035 -5.018 8
-6.988 -10.672 -5.042 13
-6.804 -10.308 -5.053 11
-6.63 -9.962 -5.067 39
-6.465 -9.63 -5.081 20
-6.124 -9.046 -4.863 9
0.0 -0.0 3.0 0
-21.672 -40.562 -4.885 6
-19.902 -36.935 -4.851 5
-18.386 -33.822 -4.808 21
-17.082 -31.162 -4.77 5
-15.96 -28.863 -4.734 4
-15.022 -26.946 -4.727 5
-14.165 -25.202 -4.705 5
-13.457 -23.742 -4.714 4
-12.809 -22.417 -4.719 16
-12.251 -21.255 -4.736 9
-11.711 -20.167 -4.742 8
-11.231 -19.181 -4.75 7
-10.797 -18.297 -4.766 6
-10.388 -17.459 -4.773 6
-10.013 -16.701 -4.788 8
-9.668 -15.994 -4.801 9
-9.353 -15.355 -4.824 8
-9.038 -14.725 -4.829 7
-8.764 -14.162 -4.85 8
-8.521 -13.664 -4.889 8
-8.264 -13.145 -4.898 8
-8.033 -12.679 -4.923 10
-7.822 -12.246 -4.952 9
-7.607 -11.816 -4.97 9
-7.406 -11.41 -4.989 8
-7.215 -11.029 -5.013 9
-7.037 -10.667 -5.038 11
-6.853 -10.305 -5.051 10
-6.678 -9.96 -5.065 33
-6.512 -9.628 -5.079 20
-6.165 -9.04 -4.858 9
0.0 -0.0 3.0 0
-21.868 -40.63 -4.898 5
-20.09 -37.01 -4.867 6
-18.535 -33.846 -4.814 9
-17.226 -31.192 -4.777 6
-16.093 -28.89 -4.741 5
-15.158 -26.99 -4.739 4
-14.287 -25.232 -4.714 6
-13.562 -23.749 -4.717 4
-12.898 -22.406 -4.715 20
-12.347 -21.262 -4.739 9
-11.804 -20.175 -4.744 8
-11.319 -19.188 -4.752 7
-10.875 -18.291 -4.764 6
-10.461 -17.452 -4.77 6
-10.092 -16.707 -4.791 6
-9.739 -15.992 -4.8 9
-9.421 -15.351 -4.822 5
-9.104 -14.721 -4.827 7
-8.826 -14.157 -4.847 8
-8.584 -13.662 -4.888 8
-8.325 -13.144 -4.898 8
-8.091 -12.676 -4.921 9
-7.873 -12.234 -4.945 8
-7.658 -11.808 -4.965 9
-7.46 -11.409 -4.989 8
-7.268 -11.028 -5.012 10
-7.087 -10.664 -5.036 11
-6.9 -10.299 -5.047 10
-6.722 -9.953 -5.06 24
-6.559 -9.627 -5.078 17
-6.212 -9.042 -4.86 10
0.0 -0.0 3.0 0
-22.072 -40.711 -4.913 5
-20.269 -37.068 -4.879 6
-18.713 -33.921 -4.831 7
-17.379 -31.241 -4.789 5
-16.241 -28.94 -4.755 5
-15.291 -27.025 -4.749 4
-14.403 -25.249 -4.719 6
-13.676 -23.772 -4.724 4
-12.993 -22.405 -4.715 19
-12.446 -21.275 -4.743 8
-11.896 -20.183 -4.747 8
-11.403 -19.187 -4.752 7
-10.962 -18.301 -4.768 5
-10.54 -17.454 -4.771 6
-10.168 -16.707 -4.791 7
-9.815 -15.996 -4.802 9
-9.494 -15.355 -4.824 6
-9.172 -14.72 -4.827 8
-8.894 -14.16 -4.849 8
-8.647 -13.66 -4.887 8
-8.382 -13.136 -4.893 9
-8.147 -12.669 -4.916 9
-7.931 -12.234 -4.945 8
-7.716 -11.809 -4.965 9
-7.515 -11.407 -4.988 8
-7.319 -11.024 -5.009 10
-7.135 -10.657 -5.031 11
-6.949 -10.297 -5.045 10
-6.772 -9.954 -5.06 15
-6.606 -9.625 -5.077 18
-6.255 -9.039 -4.857 10
0.0 -0.0 3.0 0
-22.286 -40.807 -4.932 5
-20.46 -37.145 -4.895 6
-18.894 -33.999 -4.849 5
-17.53 -31.281 -4.799 6
-16.379 -28.974 -4.764 5
-15.422 -27.058 -4.759 4
-14.519 -25.267 -4.725 5
-13.784 -23.784 -4.728 4
-13.1 -22.423 -4.721 8
-12.542 -21.281 -4.746 9
-11.985 -20.184 -4.748 8
-11.493 -19.197 -4.756 7
-11.044 -18.302 -4.769 6
-10.62 -17.455 -4.771 6
-10.241 -16.703 -4.789 8
-9.888 -15.996 -4.802 9
-9.562 -15.351 -4.822 8
-9.241 -14.722 -4.828 8
-8.958 -14.157 -4.847 7
-8.705 -13.652 -4.882 7
-8.448 -13.141 -4.896 8
-8.207 -12.668 -4.916 9
-7.986 -12.228 -4.941 8
-7.769 -11.804 -4.962 8
-7.563 -11.397 -4.98 8
-7.375 -11.026 -5.011 10
-7.185 -10.654 -5.028 11
-6.999 -10.294 -5.043 11
-6.817 -9.946 -5.054 12
-6.646 -9.613 -5.066 17
-6.3 -9.038 -4.857 11
0.0 -0.0 3.0 0
-22.495 -40.893 -4.949 4
-20.65 -37.218 -4.911 5
-19.075 -34.075 -4.867 5
-17.69 -31.337 -4.813 6
-16.515 -29.003 -4.771 5
-15.536 -27.059 -4.759 5
-14.638 -25.287 -4.731 6
-13.897 -23.803 -4.734 4
-13.214 -22.453 -4.731 7
-12.638 -21.287 -4.748 8
-12.08 -20.194 -4.752 8
-11.576 -19.192 -4.754 7
-11.134 -18.315 -4.774 6
-10.705 -17.466 -4.776 6
-10.318 -16.705 -4.79 7
-9.961 -15.996 -4.802 9
-9.635 -15.355 -4.824 8
-9.307 -14.719 -4.826 7
-9.025 -14.156 -4.847 7
-8.768 -13.65 -4.881 8
-8.507 -13.136 -4.893 9
-8.263 -12.662 -4.912 9
-8.043 -12.225 -4.939 8
-7.825 -11.802 -4.96 9
-7.619 -11.398 -4.981 8
-7.422 -11.016 -5.004 9
-7.236 -10.65 -5.025 11
-7.044 -10.286 -5.036 10
-6.867 -9.947 -5.055 12
-6.693 -9.611 -5.065 17
-6.349 -9.043 -4.861 14
0.0 -0.0 3.0 0
-22.718 -41.002 -4.97 5
-20.832 -37.277 -4.923 6
-19.253 -34.145 -4.883 5
-17.847 -31.387 -4.826 6
-16.654 -29.034 -4.78 5
-15.654 -27.066 -4.761 5
-14.763 -25.318 -4.74 5
-14.012 -23.825 -4.741 4
-13.314 -22.457 -4.733 7
-12.733 -21.289 -4.749 9
-12.172 -20.198 -4.753 10
-11.664 -19.197 -4.756 7
-11.212 -18.309 -4.772 6
-10.779 -17.458 -4.773 5
-10.398 -16.711 -4.792 6
-10.033 -15.994 -4.801 9
-9.707 -15.355 -4.824 8
-9.377 -14.721 -4.827 7
-9.089 -14.153 -4.845 7
-8.831 -13.647 -4.879 8
-8.565 -13.129 -4.888 9
-8.321 -12.657 -4.909 9
-8.104 -12.227 -4.94 8
-7.884 -11.804 -4.962 9
-7.672 -11.393 -4.977 9
-7.475 -11.014 -5.002 9
-7.288 -10.649 -5.025 10
-7.093 -10.283 -5.034 11
-6.911 -9.938 -5.048 11
-6.74 -9.609 -5.063 16
-6.392 -9.039 -4.857 29
0.0 -0.0 3.0 0
-22.935 -41.096 -4.988 5
-21.01 -37.325 -4.934 5
-19.416 -34.187 -4.893 6
-17.993 -31.415 -4.833 5
-16.799 -29.076 -4.791 5
-15.782 -27.09 -4.768 4
-14.886 -25.344 -4.748 5
-14.117 -23.83 -4.743 4
-13.421 -22.474 -4.738 7
-12.833 -21.3 -4.753 8
-12.263 -20.201 -4.755 8
-11.757 -19.208 -4.761 7
-11.298 -18.314 -4.774 6
-10.866 -17.471 -4.779 6
-10.474 -16.71 -4.792 7
-10.108 -15.996 -4.802 9
-9.777 -15.354 -4.823 8
-9.443 -14.716 -4.825 7
-9.157 -14.156 -4.847 7
-8.9 -13.653 -4.883 8
-8.624 -13.124 -4.886 8
-8.383 -12.659 -4.91 9
-8.16 -12.223 -4.938 8
-7.936 -11.796 -4.956 9
-7.726 -11.391 -4.976 8
-7.527 -11.01 -4.999 10
-7.338 -10.646 -5.022 11
-7.144 -10.282 -5.033 11
-6.955 -9.93 -5.041 15
-6.781 -9.599 -5.055 18
-6.441 -9.044 -4.861 21
0.0 -0.0 3.0 0
-23.15 -41.187 -5.006 5
-21.215 -37.419 -4.954 6
-19.583 -34.234 -4.904 6
-18.154 -31.469 -4.846 6
-16.943 -29.113 -4.801 5
-15.914 -27.12 -4.776 4
-15.006 -25.362 -4.754 5
-14.229 -23.845 -4.748 3
-13.519 -22.474 -4.738 7
-12.932 -21.308 -4.755 9
-12.358 -20.211 -4.758 8
-11.844 -19.209 -4.761 7
-11.382 -18.317 -4.775 6
-10.936 -17.456 -4.772 13
-10.553 -16.714 -4.794 7
-10.186 -16.002 -4.805 9
-9.847 -15.351 -4.822 8
-9.511 -14.715 -4.824 8
-9.22 -14.149 -4.843 7
-8.959 -13.644 -4.877 8
