# .PCD v0.7 - Point Cloud Data file format
VERSION 0.7
FIELDS x y z intensity
SIZE 4 4 4 4
TYPE F F F F
COUNT 1 1 1 1
WIDTH 2229
HEIGHT 1
VIEWPOINT 0 0 0 1 0 0 0
POINTS 2229
DATA ascii
-5.466 -1.071 2.672 17
-5.448 -0.999 2.675 13
-5.518 -0.948 2.673 9
-7.056 -1.141 2.585 53
-5.539 -0.845 2.676 5
-8.698 -1.262 2.49 7
-8.61 -1.199 2.491 4
-7.842 -1.062 2.527 0
-7.341 -0.978 2.544 0
-6.925 -0.922 2.551 0
-6.542 -0.88 2.552 0
-1.526 -0.21 2.888 1
-1.508 -0.215 2.881 43
-1.522 -0.226 2.87 40
-1.519 -0.235 2.859 29
-1.277 -0.208 2.87 13
-1.246 -0.213 2.862 12
-1.298 -0.234 2.842 17
-1.243 -0.235 2.835 10
-1.201 -0.238 2.827 2
-1.243 -0.258 2.806 0
-1.199 -0.26 2.797 12
-1.168 -0.264 2.786 22
-1.369 -0.323 2.729 11
-1.214 -0.297 2.742 14
-5.184 -1.585 2.72 12
-5.484 -1.584 2.692 18
-5.823 -1.586 2.663 23
-6.209 -1.591 2.633 4
-6.623 -1.594 2.603 6
-7.089 -1.601 2.571 3
-7.633 -1.616 2.537 3
-5.444 -1.079 2.67 17
-5.421 -1.007 2.673 20
-5.456 -0.951 2.672 14
-5.552 -0.913 2.668 0
-5.552 -0.862 2.669 0
-8.631 -1.277 2.484 7
-8.242 -1.172 2.503 0
-7.669 -1.061 2.528 0
-7.195 -0.979 2.544 0
-6.791 -0.923 2.55 0
-6.203 -0.851 2.566 0
-1.521 -0.214 2.886 2
-1.511 -0.219 2.879 44
-1.525 -0.229 2.868 38
-1.53 -0.241 2.855 27
-1.249 -0.206 2.871 10
-1.226 -0.212 2.862 11
-1.211 -0.22 2.852 13
-1.204 -0.23 2.839 9
-1.192 -0.238 2.827 4
-1.184 -0.247 2.814 4
-1.195 -0.261 2.796 11
-1.175 -0.267 2.784 20
-1.502 -0.356 2.702 5
-1.293 -0.318 2.724 16
-5.162 -1.587 2.72 21
-5.477 -1.592 2.691 6
-5.82 -1.595 2.661 7
-6.171 -1.592 2.632 12
-6.593 -1.6 2.601 24
-7.039 -1.604 2.57 12
-7.587 -1.622 2.535 14
-5.426 -1.088 2.667 17
-5.407 -1.018 2.669 20
-5.446 -0.963 2.668 17
-5.549 -0.926 2.663 4
-9.3 -1.47 2.436 27
-8.417 -1.269 2.487 2
-8.025 -1.164 2.506 0
-7.499 -1.059 2.528 0
-7.038 -0.978 2.544 0
-6.665 -0.925 2.549 0
-6.164 -0.863 2.56 0
-1.512 -0.216 2.885 3
-1.507 -0.223 2.877 44
-1.52 -0.232 2.866 37
-1.534 -0.244 2.853 26
-1.252 -0.209 2.869 7
-1.237 -0.217 2.859 11
-1.203 -0.22 2.851 13
-1.18 -0.227 2.841 15
-1.192 -0.24 2.826 7
-1.184 -0.249 2.813 10
-1.191 -0.261 2.796 12
-1.174 -0.268 2.783 11
-1.39 -0.331 2.722 4
-1.338 -0.33 2.713 6
-5.152 -1.593 2.719 7
-5.432 -1.588 2.691 5
-5.771 -1.592 2.662 4
-6.149 -1.599 2.631 15
-6.555 -1.604 2.6 4
-7.024 -1.616 2.567 11
-7.54 -1.629 2.533 3
-5.4 -1.095 2.665 28
-5.397 -1.029 2.666 17
-5.463 -0.98 2.663 17
-5.59 -0.948 2.655 6
-8.684 -1.396 2.464 11
-8.019 -1.232 2.502 4
-7.828 -1.158 2.509 0
-7.349 -1.059 2.528 0
-6.908 -0.981 2.543 0
-6.531 -0.925 2.549 0
-5.916 -0.845 2.569 8
-1.516 -0.221 2.883 4
-1.51 -0.227 2.874 43
-1.52 -0.236 2.864 37
-1.533 -0.248 2.851 20
-1.251 -0.212 2.868 7
-1.241 -0.219 2.858 10
-1.214 -0.225 2.848 12
-1.183 -0.229 2.839 15
-1.183 -0.24 2.825 8
-1.179 -0.25 2.812 3
-1.19 -0.263 2.794 12
-1.216 -0.28 2.773 10
-1.306 -0.313 2.738 12
-1.318 -0.327 2.715 13
-5.104 -1.587 2.72 8
-5.403 -1.589 2.691 11
-5.73 -1.592 2.662 10
-6.103 -1.599 2.631 4
-6.509 -1.605 2.6 7
-6.958 -1.615 2.567 4
-7.478 -1.633 2.532 14
-5.401 -1.108 2.661 23
-5.386 -1.041 2.662 17
-5.511 -1.003 2.655 14
-5.575 -0.961 2.65 9
-8.692 -1.421 2.454 14
-7.829 -1.225 2.505 5
-7.662 -1.156 2.509 0
-7.199 -1.059 2.529 0
-6.778 -0.982 2.542 0
-6.319 -0.913 2.555 0
-5.902 -0.86 2.562 19
-1.515 -0.225 2.88 5
-1.501 -0.229 2.873 43
-1.531 -0.242 2.86 34
-1.544 -0.253 2.848 17
-1.255 -0.215 2.866 6
-1.24 -0.222 2.856 11
-1.217 -0.227 2.847 12
-1.19 -0.233 2.837 15
-1.187 -0.243 2.824 9
-1.171 -0.25 2.812 0
-1.205 -0.268 2.79 9
-1.211 -0.281 2.773 12
-1.286 -0.31 2.74 10
-1.333 -0.333 2.711 14
-5.078 -1.588 2.72 7
-5.381 -1.593 2.69 19
-5.719 -1.599 2.66 18
-6.065 -1.602 2.63 8
-6.478 -1.611 2.598 24
-6.919 -1.622 2.566 19
-7.224 -1.593 2.543 6
-5.398 -1.12 2.657 20
-5.375 -1.051 2.658 33
-5.516 -1.018 2.65 16
-5.525 -0.967 2.648 9
-8.648 -1.438 2.448 11
-7.652 -1.219 2.508 6
-7.492 -1.152 2.511 0
-7.054 -1.058 2.529 0
-6.648 -0.982 2.542 0
-6.174 -0.91 2.556 1
-5.907 -0.877 2.553 23
-1.502 -0.227 2.879 7
-1.501 -0.233 2.871 43
-1.518 -0.244 2.859 30
-1.535 -0.255 2.847 14
-1.266 -0.219 2.863 6
-1.243 -0.225 2.854 9
-1.225 -0.232 2.844 13
-1.194 -0.236 2.835 16
-1.186 -0.245 2.822 11
-1.186 -0.255 2.808 5
-1.177 -0.263 2.794 16
-1.203 -0.28 2.773 15
-1.285 -0.311 2.739 10
-1.329 -0.333 2.71 16
-5.06 -1.591 2.719 17
-5.363 -1.597 2.69 6
-5.677 -1.598 2.66 5
-6.035 -1.605 2.629 22
-6.436 -1.614 2.598 4
-6.881 -1.627 2.564 4
-7.349 -1.638 2.53 7
-5.392 -1.131 2.654 19
-5.361 -1.062 2.655 60
-5.458 -1.021 2.648 25
-5.538 -0.984 2.642 2
-8.525 -1.441 2.447 5
-7.478 -1.212 2.51 6
-7.319 -1.146 2.513 0
-6.9 -1.055 2.53 0
-6.519 -0.982 2.542 0
-5.914 -0.889 2.567 9
-5.903 -0.893 2.545 97
-1.505 -0.232 2.877 9
-1.5 -0.237 2.869 39
-1.517 -0.247 2.857 28
-1.542 -0.261 2.843 10
-1.269 -0.223 2.861 5
-1.247 -0.228 2.852 8
-1.224 -0.233 2.843 12
-1.197 -0.239 2.833 15
-1.185 -0.247 2.821 16
-1.174 -0.255 2.808 2
-1.169 -0.264 2.794 23
-1.21 -0.284 2.77 16
-1.281 -0.312 2.738 17
-1.29 -0.325 2.717 14
-5.046 -1.596 2.719 15
-5.322 -1.595 2.69 5
-5.648 -1.601 2.66 4
-6.001 -1.608 2.629 4
-6.39 -1.617 2.597 8
-6.83 -1.631 2.563 10
-7.357 -1.657 2.525 12
-5.385 -1.144 2.65 17
-5.362 -1.076 2.65 72
-5.424 -1.029 2.646 34
-5.57 -1.005 2.634 2
-8.198 -1.409 2.459 1
-7.333 -1.211 2.511 4
-7.181 -1.145 2.514 0
-6.77 -1.055 2.53 0
-6.318 -0.971 2.547 0
-5.907 -0.905 2.559 13
-5.889 -0.908 2.538 7
-1.501 -0.235 2.875 11
-1.499 -0.241 2.867 37
-1.513 -0.25 2.856 25
-1.538 -0.263 2.842 7
-1.268 -0.226 2.859 3
-1.246 -0.231 2.85 9
-1.227 -0.237 2.84 13
-1.204 -0.242 2.83 15
-1.185 -0.249 2.819 18
-1.165 -0.254 2.808 2
-1.184 -0.269 2.79 17
-1.225 -0.289 2.766 18
-1.28 -0.313 2.737 18
-1.293 -0.328 2.715 15
-5.032 -1.601 2.718 7
-5.303 -1.599 2.689 7
-5.61 -1.602 2.66 14
-5.955 -1.608 2.629 7
-6.371 -1.625 2.595 23
-6.807 -1.64 2.561 16
-7.283 -1.657 2.525 4
-5.386 -1.156 2.646 17
-5.355 -1.088 2.647 150
-5.421 -1.043 2.641 28
-5.556 -1.017 2.63 4
-8.005 -1.398 2.463 1
-7.211 -1.211 2.511 1
-7.043 -1.145 2.514 0
-6.636 -1.054 2.531 0
-6.169 -0.966 2.549 1
-5.904 -0.922 2.55 17
-5.874 -0.921 2.531 4
-1.496 -0.239 2.873 12
-1.502 -0.245 2.864 36
-1.524 -0.255 2.853 17
-1.545 -0.268 2.839 6
-1.276 -0.23 2.857 1
-1.249 -0.234 2.848 8
-1.227 -0.239 2.839 12
-1.207 -0.245 2.828 18
-1.192 -0.252 2.817 19
-1.168 -0.257 2.806 8
-1.233 -0.282 2.78 9
-1.224 -0.291 2.764 16
-1.272 -0.313 2.737 20
-1.296 -0.33 2.713 16
-4.995 -1.598 2.718 8
-5.278 -1.601 2.689 24
-5.599 -1.61 2.658 11
-5.933 -1.615 2.627 30
-6.325 -1.628 2.594 4
-6.749 -1.642 2.56 4
-7.252 -1.667 2.522 14
-5.383 -1.169 2.643 17
-5.352 -1.101 2.642 173
-5.414 -1.056 2.636 14
-8.527 -1.585 2.423 3
-7.832 -1.39 2.466 1
-7.124 -1.216 2.509 0
-6.89 -1.14 2.516 0
-6.503 -1.051 2.532 0
-5.905 -0.942 2.561 11
-5.904 -0.939 2.542 51
-5.733 -0.916 2.533 1
-1.499 -0.243 2.871 12
-1.501 -0.249 2.862 32
-1.523 -0.259 2.85 14
-1.559 -0.275 2.835 3
-4.552 -0.83 2.481 0
-1.252 -0.237 2.846 6
-1.226 -0.242 2.837 10
-1.211 -0.249 2.826 16
-1.191 -0.254 2.816 20
-1.175 -0.261 2.803 4
-1.252 -0.288 2.775 9
-1.216 -0.291 2.765 17
-1.271 -0.315 2.736 33
-1.265 -0.324 2.718 21
-4.966 -1.598 2.718 8
-5.271 -1.61 2.687 10
-5.554 -1.608 2.658 4
-5.906 -1.62 2.626 6
-6.279 -1.629 2.594 8
-6.711 -1.647 2.559 13
-7.193 -1.671 2.521 3
-5.392 -1.184 2.638 17
-5.353 -1.115 2.638 93
-5.411 -1.07 2.632 16
-8.193 -1.545 2.438 1
-7.647 -1.378 2.471 1
-7.049 -1.224 2.505 0
-6.764 -1.138 2.517 0
-6.334 -1.043 2.536 0
-5.91 -0.96 2.552 13
-5.885 -0.953 2.535 4
-5.556 -0.904 2.54 0
-1.49 -0.246 2.869 10
-1.497 -0.252 2.86 25
-1.522 -0.263 2.848 13
-1.574 -0.281 2.831 0
0.0 -0.0 3.0 0
-1.256 -0.24 2.844 4
-1.233 -0.245 2.834 8
-1.214 -0.251 2.824 16
-1.191 -0.256 2.814 18
-7.739 -1.73 1.697 0
-1.259 -0.292 2.772 10
-1.215 -0.292 2.763 19
-1.271 -0.317 2.734 34
-1.264 -0.326 2.717 25
-4.951 -1.603 2.717 18
-5.218 -1.605 2.688 5
-5.528 -1.612 2.657 4
-5.865 -1.62 2.626 5
-6.256 -1.637 2.592 22
-6.695 -1.659 2.555 9
-7.154 -1.678 2.519 14
-5.42 -1.204 2.632 15
-5.35 -1.128 2.634 54
-5.408 -1.084 2.627 13
-8.012 -1.534 2.442 1
-7.474 -1.368 2.475 1
-6.951 -1.227 2.504 1
-6.63 -1.136 2.518 0
-6.153 -1.032 2.541 0
-5.903 -0.976 2.545 17
-5.862 -0.966 2.529 3
-5.443 -0.9 2.541 0
-1.486 -0.248 2.868 8
-1.492 -0.255 2.858 24
-1.517 -0.266 2.846 9
-4.618 -0.835 2.498 0
0.0 -0.0 3.0 0
-1.267 -0.245 2.841 2
-1.232 -0.248 2.833 8
-1.256 -0.262 2.816 21
-1.19 -0.258 2.812 13
0.0 -0.0 3.0 0
-1.258 -0.294 2.77 11
-1.184 -0.286 2.768 17
-1.266 -0.317 2.734 33
-1.26 -0.326 2.717 28
-4.937 -1.608 2.716 14
-5.196 -1.608 2.688 5
-5.498 -1.614 2.657 16
-5.834 -1.625 2.625 12
-6.218 -1.641 2.591 4
-3.954 -0.989 2.735 1
-7.123 -1.688 2.516 5
-5.44 -1.222 2.626 14
-5.359 -1.143 2.628 43
-5.417 -1.1 2.621 26
-7.827 -1.519 2.447 1
-7.308 -1.359 2.478 1
-6.841 -1.228 2.504 2
-6.501 -1.132 2.519 0
-5.902 -1.007 2.552 12
-5.895 -0.992 2.537 32
-5.737 -0.962 2.531 1
-5.326 -0.896 2.543 0
-1.492 -0.255 2.865 6
-1.503 -0.261 2.855 22
-1.524 -0.271 2.843 7
-4.553 -0.835 2.499 0
0.0 -0.0 3.0 0
-1.246 -0.245 2.841 0
-1.235 -0.251 2.831 6
-1.274 -0.269 2.811 21
-1.189 -0.26 2.811 12
-10.912 -2.477 1.133 0
-1.265 -0.297 2.768 13
-1.157 -0.282 2.772 18
-1.262 -0.318 2.733 34
-1.255 -0.327 2.716 28
-4.911 -1.609 2.716 6
-5.17 -1.61 2.687 16
-5.487 -1.623 2.655 9
-5.819 -1.633 2.623 16
-6.172 -1.643 2.59 7
-3.92 -0.99 2.735 1
-5.547 -1.328 2.619 0
-5.448 -1.237 2.622 9
-5.363 -1.158 2.624 23
-5.406 -1.112 2.617 37
-3.931 -0.774 2.718 0
-7.179 -1.355 2.48 1
-6.735 -1.228 2.504 3
-6.351 -1.125 2.522 0
-5.902 -1.024 2.544 9
-5.872 -1.006 2.531 4
-5.533 -0.944 2.539 0
-5.26 -0.9 2.541 0
-1.492 -0.258 2.863 5
-1.498 -0.264 2.854 13
-1.535 -0.277 2.84 5
0.0 -0.0 3.0 0
0.0 -0.0 3.0 0
0.0 -0.0 3.0 0
-1.239 -0.255 2.828 4
-1.258 -0.268 2.812 15
-1.192 -0.263 2.809 10
0.0 -0.0 3.0 0
-1.26 -0.299 2.767 14
-1.141 -0.279 2.774 16
-1.253 -0.318 2.733 32
-1.262 -0.33 2.713 29
-4.867 -1.603 2.717 8
-5.159 -1.617 2.686 14
-5.441 -1.621 2.655 4
-5.774 -1.633 2.623 4
-3.859 -1.036 2.742 2
-3.879 -0.989 2.735 8
-5.547 -1.342 2.615 6
-5.449 -1.252 2.617 7
-5.376 -1.175 2.618 17
-5.422 -1.13 2.611 63
-3.893 -0.777 2.717 0
-7.025 -1.347 2.483 1
-6.633 -1.229 2.504 1
-6.175 -1.112 2.528 0
-5.911 -1.043 2.536 16
-5.861 -1.021 2.524 3
-5.432 -0.942 2.54 0
-5.194 -0.903 2.54 0
-1.479 -0.26 2.862 2
-1.505 -0.27 2.851 8
-1.538 -0.282 2.837 1
-4.423 -0.832 2.5 0
0.0 -0.0 3.0 0
0.0 -0.0 3.0 0
-1.246 -0.258 2.826 2
-1.261 -0.271 2.81 10
-1.192 -0.265 2.807 8
-5.28 -1.218 2.082 0
-1.263 -0.301 2.765 14
-1.144 -0.282 2.772 12
-1.249 -0.319 2.733 31
-1.258 -0.331 2.712 30
-4.856 -1.61 2.716 8
-5.122 -1.617 2.686 5
-5.415 -1.624 2.655 6
-5.739 -1.636 2.622 6
-3.872 -1.048 2.739 4
-3.885 -1.0 2.732 10
-4.012 -0.981 2.719 1
-5.461 -1.268 2.612 6
-5.388 -1.192 2.613 16
-3.9 -0.823 2.716 5
-3.918 -0.794 2.711 1
-6.892 -1.341 2.485 1
-6.535 -1.23 2.503 0
-5.904 -1.081 2.541 10
-5.899 -1.059 2.529 20
-5.692 -1.009 2.53 1
-5.326 -0.94 2.542 0
-5.081 -0.898 2.542 0
-1.47 -0.263 2.86 0
-1.504 -0.273 2.849 8
0.0 -0.0 3.0 0
-4.4 -0.839 2.496 0
0.0 -0.0 3.0 0
0.0 -0.0 3.0 0
0.0 -0.0 3.0 0
-1.315 -0.285 2.8 11
-1.199 -0.269 2.805 6
-5.269 -1.224 2.077 1
-1.266 -0.305 2.762 14
-1.154 -0.287 2.768 9
-1.237 -0.318 2.734 31
-1.253 -0.332 2.712 31
-4.838 -1.614 2.715 18
-5.092 -1.618 2.686 5
-5.381 -1.626 2.654 18
-5.709 -1.64 2.621 22
-3.87 -1.057 2.737 11
-3.859 -1.002 2.732 16
-3.921 -0.968 2.722 2
-3.904 -0.917 2.72 1
-3.913 -0.876 2.715 1
-3.909 -0.836 2.712 6
-3.9 -0.801 2.709 2
-6.747 -1.332 2.489 1
-6.35 -1.213 2.51 0
-5.909 -1.099 2.534 8
-5.872 -1.071 2.523 3
-5.508 -0.992 2.537 0
-5.256 -0.943 2.54 0
-5.031 -0.904 2.539 0
0.0 -0.0 3.0 0
-1.511 -0.279 2.845 7
0.0 -0.0 3.0 0
0.0 -0.0 3.0 0
0.0 -0.0 3.0 0
0.0 -0.0 3.0 0
-7.406 -1.568 1.942 0
-1.353 -0.296 2.793 11
-1.198 -0.271 2.803 6
-5.239 -1.227 2.075 2
-1.273 -0.308 2.759 13
-1.161 -0.29 2.765 8
-1.228 -0.317 2.734 30
-1.252 -0.333 2.71 34
-4.827 -1.62 2.714 14
-5.074 -1.622 2.685 8
-5.378 -1.637 2.652 10
-5.694 -1.649 2.619 7
-3.836 -1.057 2.737 23
-3.837 -1.005 2.731 17
-3.942 -0.983 2.718 4
-3.874 -0.92 2.719 2
-3.918 -0.888 2.712 7
-3.899 -0.845 2.709 14
-3.905 -0.813 2.704 0
-6.59 -1.32 2.493 1
-6.108 -1.185 2.521 0
-5.905 -1.116 2.526 15
-5.837 -1.082 2.518 2
-5.403 -0.989 2.539 0
-5.147 -0.938 2.542 0
-4.937 -0.901 2.541 0
0.0 -0.0 3.0 0
-1.506 -0.282 2.844 0
0.0 -0.0 3.0 0
0.0 -0.0 3.0 0
0.0 -0.0 3.0 0
0.0 -0.0 3.0 0
-7.371 -1.576 1.937 0
-1.495 -0.331 2.768 7
-1.205 -0.275 2.8 3
-5.228 -1.234 2.07 2
-1.272 -0.31 2.758 11
-1.191 -0.3 2.757 7
-1.216 -0.316 2.735 26
-1.252 -0.335 2.709 35
-4.786 -1.616 2.715 7
-5.055 -1.627 2.684 20
-5.328 -1.634 2.653 5
-5.648 -1.649 2.619 5
-3.815 -1.06 2.736 16
-3.819 -1.01 2.729 20
-3.908 -0.985 2.718 8
-3.876 -0.93 2.716 5
-3.912 -0.897 2.709 14
-3.893 -0.854 2.706 13
-6.877 -1.451 2.472 1
-6.312 -1.283 2.508 1
-5.904 -1.163 2.53 8
-5.893 -1.131 2.52 11
-5.637 -1.062 2.527 0
-5.317 -0.989 2.539 0
-5.109 -0.946 2.538 0
-4.875 -0.904 2.539 0
-4.672 -0.873 2.536 0
0.0 -0.0 3.0 0
0.0 -0.0 3.0 0
0.0 -0.0 3.0 0
0.0 -0.0 3.0 0
0.0 -0.0 3.0 0
0.0 -0.0 3.0 0
-1.54 -0.344 2.759 7
-6.836 -1.574 1.856 2
-3.442 -0.819 2.383 0
-1.275 -0.313 2.755 10
-1.278 -0.323 2.738 10
-1.193 -0.311 2.739 20
-1.24 -0.334 2.71 33
-4.768 -1.62 2.714 8
-5.04 -1.634 2.682 8
-5.306 -1.639 2.652 5
-5.61 -1.65 2.619 10
-3.808 -1.067 2.734 16
-3.801 -1.015 2.728 18
-3.921 -0.997 2.714 12
-3.858 -0.936 2.714 10
-3.905 -0.906 2.706 21
-3.894 -0.865 2.702 10
-6.751 -1.444 2.475 1
-6.132 -1.264 2.515 0
-5.908 -1.181 2.523 6
-5.854 -1.141 2.516 3
-5.501 -1.053 2.531 0
-5.247 -0.992 2.538 0
-5.007 -0.942 2.541 0
-4.79 -0.902 2.54 0
-53.498 -10.153 -2.399 2
0.0 -0.0 3.0 0
0.0 -0.0 3.0 0
0.0 -0.0 3.0 0
0.0 -0.0 3.0 0
0.0 -0.0 3.0 0
0.0 -0.0 3.0 0
-1.539 -0.347 2.757 7
-6.832 -1.587 1.847 2
-3.398 -0.815 2.386 0
-1.278 -0.316 2.753 10
-1.307 -0.334 2.73 11
-1.165 -0.306 2.743 18
-1.227 -0.332 2.711 30
-4.754 -1.625 2.713 8
-5.007 -1.633 2.682 6
-5.283 -1.643 2.651 14
-5.564 -1.65 2.619 22
-3.779 -1.068 2.734 17
-3.784 -1.02 2.727 20
-3.899 -1.001 2.713 12
-3.855 -0.946 2.711 13
-3.903 -0.917 2.702 23
-3.887 -0.875 2.699 4
-6.626 -1.436 2.477 1
-5.957 -1.245 2.522 1
-5.908 -1.199 2.515 17
-5.807 -1.149 2.512 1
-5.399 -1.05 2.533 0
-5.158 -0.991 2.538 0
-4.934 -0.943 2.54 0
-4.74 -0.906 2.538 0
-53.17 -10.241 -2.445 2
0.0 -0.0 3.0 0
0.0 -0.0 3.0 0
0.0 -0.0 3.0 0
0.0 -0.0 3.0 0
0.0 -0.0 3.0 0
0.0 -0.0 3.0 0
-1.538 -0.349 2.756 3
-3.492 -0.818 2.405 0
-3.3 -0.797 2.399 0
-1.274 -0.318 2.752 8
-1.345 -0.346 2.72 11
-1.119 -0.296 2.752 11
-1.223 -0.333 2.711 30
-4.72 -1.624 2.714 14
-4.977 -1.635 2.682 6
-5.272 -1.652 2.649 10
-3.87 -1.157 2.733 0
-3.773 -1.075 2.732 16
-3.777 -1.027 2.725 28
-3.873 -1.006 2.712 17
-3.853 -0.956 2.708 14
-3.896 -0.925 2.699 24
-6.887 -1.569 2.46 0
-6.505 -1.428 2.48 1
-5.902 -1.251 2.52 12
-5.892 -1.213 2.51 8
-5.6 -1.125 2.522 0
-5.329 -1.051 2.532 0
-5.092 -0.992 2.537 0
-4.856 -0.942 2.54 0
0.0 -0.0 3.0 0
-4.554 -0.89 2.527 0
0.0 -0.0 3.0 0
0.0 -0.0 3.0 0
0.0 -0.0 3.0 0
0.0 -0.0 3.0 0
0.0 -0.0 3.0 0
0.0 -0.0 3.0 0
-1.541 -0.353 2.753 0
-3.425 -0.809 2.412 0
-3.187 -0.777 2.415 0
-1.281 -0.321 2.749 6
-1.389 -0.359 2.709 10
-1.118 -0.297 2.75 11
-1.207 -0.331 2.713 28
-4.717 -1.633 2.712 17
-4.954 -1.639 2.682 12
-5.23 -1.651 2.649 5
-3.852 -1.16 2.732 2
-3.755 -1.079 2.731 30
-3.767 -1.034 2.723 24
-3.832 -1.004 2.712 18
-3.846 -0.964 2.705 15
-3.901 -0.937 2.695 14
-6.754 -1.558 2.463 1
-6.372 -1.417 2.484 1
-5.824 -1.251 2.52 1
-5.857 -1.223 2.506 2
-5.499 -1.121 2.524 0
-5.228 -1.048 2.534 0
-4.983 -0.986 2.54 0
-4.794 -0.944 2.539 0
0.0 -0.0 3.0 0
-52.559 -10.42 -2.541 2
0.0 -0.0 3.0 0
0.0 -0.0 3.0 0
0.0 -0.0 3.0 0
0.0 -0.0 3.0 0
0.0 -0.0 3.0 0
0.0 -0.0 3.0 0
-6.779 -1.569 1.901 0
-3.38 -0.806 2.415 0
-3.162 -0.776 2.415 0
-1.28 -0.323 2.747 3
-1.43 -0.372 2.699 12
-1.118 -0.299 2.749 12
-1.195 -0.329 2.714 22
-4.695 -1.636 2.712 8
-4.936 -1.643 2.681 16
-5.2 -1.654 2.648 4
-3.857 -1.171 2.73 4
-3.752 -1.088 2.729 20
-3.753 -1.04 2.721 22
-3.814 -1.01 2.71 25
-3.84 -0.973 2.703 16
-3.903 -0.948 2.692 8
-6.629 -1.548 2.467 0
-6.181 -1.393 2.493 1
-5.715 -1.245 2.522 0
-5.795 -1.228 2.504 1
-5.39 -1.115 2.527 0
-5.142 -1.046 2.534 0
-4.924 -0.99 2.539 0
-4.752 -0.95 2.537 0
-4.594 -0.919 2.532 0
0.0 -0.0 3.0 0
0.0 -0.0 3.0 0
0.0 -0.0 3.0 0
0.0 -0.0 3.0 0
0.0 -0.0 3.0 0
0.0 -0.0 3.0 0
-122.475 -27.816 -15.762 17
-3.458 -0.807 2.435 0
-3.286 -0.79 2.426 0
-3.087 -0.764 2.424 7
-1.271 -0.324 2.747 0
-1.455 -0.382 2.691 10
-1.121 -0.302 2.747 11
-1.172 -0.325 2.718 18
-4.669 -1.637 2.711 7
-4.917 -1.649 2.68 6
-5.17 -1.656 2.648 10
-3.854 -1.18 2.728 3
-3.746 -1.095 2.727 22
-3.746 -1.047 2.719 22
-3.8 -1.016 2.709 27
-3.837 -0.983 2.7 17
-3.939 -0.968 2.685 2
-6.496 -1.535 2.471 1
-5.912 -1.35 2.509 7
-5.59 -1.234 2.526 0
-5.615 -1.206 2.513 0
-5.296 -1.112 2.528 0
-5.061 -1.045 2.535 0
-4.839 -0.987 2.54 0
-4.694 -0.952 2.536 0
0.0 -0.0 3.0 0
0.0 -0.0 3.0 0
0.0 -0.0 3.0 0
0.0 -0.0 3.0 0
0.0 -0.0 3.0 0
0.0 -0.0 3.0 0
0.0 -0.0 3.0 0
0.0 -0.0 3.0 0
-3.425 -0.807 2.435 0
-3.199 -0.775 2.437 0
-3.081 -0.769 2.421 7
-3.062 -0.785 2.386 34
-1.523 -0.402 2.675 7
-1.131 -0.307 2.742 11
-1.118 -0.312 2.729 13
-4.635 -1.635 2.712 8
-4.876 -1.645 2.68 6
-5.166 -1.667 2.646 15
-3.863 -1.192 2.725 3
-3.739 -1.103 2.725 18
-3.736 -1.054 2.717 25
-3.793 -1.024 2.706 34
-3.857 -0.998 2.695 17
-3.924 -0.976 2.683 1
-6.371 -1.524 2.475 0
-5.912 -1.367 2.503 6
-5.504 -1.232 2.527 0
-5.479 -1.194 2.518 0
-5.21 -1.109 2.529 0
-4.975 -1.042 2.536 0
-4.777 -0.989 2.539 0
0.0 -0.0 3.0 0
-49.965 -10.28 -2.238 4
0.0 -0.0 3.0 0
0.0 -0.0 3.0 0
0.0 -0.0 3.0 0
0.0 -0.0 3.0 0
0.0 -0.0 3.0 0
0.0 -0.0 3.0 0
0.0 -0.0 3.0 0
-3.384 -0.805 2.436 0
-3.17 -0.775 2.437 1
-3.075 -0.773 2.417 8
-3.052 -0.789 2.383 7
-1.541 -0.409 2.669 8
-1.145 -0.313 2.737 12
-1.087 -0.305 2.735 13
-4.621 -1.641 2.711 12
-4.861 -1.652 2.679 6
-5.128 -1.667 2.646 5
-3.872 -1.204 2.722 3
-3.733 -1.111 2.723 19
-3.729 -1.062 2.715 27
-3.783 -1.032 2.704 26
-3.827 -1.001 2.694 15
-3.925 -0.987 2.679 3
-6.208 -1.503 2.483 1
-5.907 -1.383 2.497 21
-5.411 -1.226 2.529 0
-5.401 -1.193 2.518 0
-5.125 -1.107 2.53 0
-4.921 -1.045 2.535 0
-4.742 -0.995 2.536 0
-4.59 -0.958 2.533 0
-49.999 -10.433 -2.316 3
0.0 -0.0 3.0 0
-50.357 -10.663 -2.911 3
0.0 -0.0 3.0 0
0.0 -0.0 3.0 0
0.0 -0.0 3.0 0
0.0 -0.0 3.0 0
0.0 -0.0 3.0 0
-3.259 -0.783 2.452 0
-3.088 -0.762 2.447 8
-3.073 -0.778 2.413 12
-3.05 -0.794 2.38 3
-1.539 -0.412 2.667 8
-1.145 -0.314 2.736 13
-1.09 -0.308 2.733 13
-4.602 -1.645 2.71 20
-4.838 -1.656 2.678 15
-5.106 -1.672 2.645 5
-3.873 -1.214 2.72 8
-3.726 -1.117 2.721 17
-3.723 -1.07 2.713 36
-3.776 -1.04 2.702 21
-3.821 -1.01 2.691 14
-3.918 -0.996 2.676 3
-5.917 -1.449 2.501 5
-5.872 -1.392 2.493 2
-5.36 -1.231 2.528 0
-5.288 -1.183 2.522 0
-5.051 -1.106 2.53 0
-4.87 -1.049 2.533 0
-4.642 -0.988 2.539 0
-48.337 -10.236 -1.992 2
-50.107 -10.602 -2.402 3
0.0 -0.0 3.0 0
0.0 -0.0 3.0 0
0.0 -0.0 3.0 0
0.0 -0.0 3.0 0
0.0 -0.0 3.0 0
0.0 -0.0 3.0 0
0.0 -0.0 3.0 0
-3.207 -0.777 2.456 0
-3.082 -0.767 2.443 8
-3.067 -0.783 2.41 47
-3.055 -0.801 2.374 1
-1.546 -0.416 2.663 4
-1.136 -0.314 2.736 12
-1.097 -0.311 2.73 13
-4.599 -1.654 2.708 10
-4.831 -1.665 2.676 15
-5.079 -1.676 2.644 7
-3.858 -1.219 2.719 6
-3.723 -1.126 2.719 19
-3.716 -1.078 2.711 43
-3.769 -1.048 2.699 18
-3.803 -1.016 2.69 15
-3.919 -1.008 2.673 1
-5.92 -1.468 2.495 3
-5.821 -1.397 2.492 2
-5.302 -1.233 2.527 0
-5.203 -1.18 2.523 0
-5.001 -1.11 2.529 0
-4.77 -1.042 2.536 0
0.0 -0.0 3.0 0
-48.079 -10.324 -2.035 3
-50.143 -10.756 -2.481 4
-50.298 -10.831 -2.759 3
-50.015 -10.87 -3.025 2
0.0 -0.0 3.0 0
0.0 -0.0 3.0 0
0.0 -0.0 3.0 0
0.0 -0.0 3.0 0
-3.356 -0.8 2.46 0
-3.116 -0.762 2.466 1
-3.076 -0.771 2.44 10
-3.061 -0.788 2.406 8
-3.057 -0.807 2.369 0
-1.533 -0.416 2.663 4
-1.124 -0.313 2.737 10
-1.093 -0.311 2.729 12
-4.562 -1.652 2.709 7
-4.801 -1.666 2.676 7
-5.049 -1.677 2.643 19
-3.836 -1.222 2.718 9
-3.72 -1.135 2.717 17
-3.709 -1.086 2.709 47
-3.755 -1.055 2.697 18
-3.819 -1.03 2.685 14
-3.916 -1.018 2.669 0
-5.904 -1.48 2.491 17
-5.65 -1.372 2.5 0
0.0 -0.0 3.0 0
-5.117 -1.176 2.525 0
-4.919 -1.107 2.53 0
-4.696 -1.04 2.537 0
0.0 -0.0 3.0 0
-47.704 -10.385 -2.065 2
0.0 -0.0 3.0 0
-50.334 -10.984 -2.84 3
-49.729 -10.947 -3.068 2
0.0 -0.0 3.0 0
0.0 -0.0 3.0 0
0.0 -0.0 3.0 0
0.0 -0.0 3.0 0
-3.219 -0.776 2.477 0
-3.079 -0.76 2.468 5
-3.073 -0.777 2.435 28
-3.062 -0.794 2.401 3
-1.19 -0.317 2.752 0
-1.513 -0.413 2.666 0
-1.131 -0.317 2.734 10
-1.107 -0.317 2.724 11
-4.536 -1.652 2.709 9
-4.771 -1.666 2.676 7
-5.045 -1.689 2.641 9
-3.83 -1.229 2.716 10
-3.718 -1.144 2.715 23
-3.71 -1.096 2.706 46
-3.744 -1.062 2.696 24
-3.824 -1.042 2.681 16
-5.918 -1.555 2.495 4
-5.853 -1.485 2.489 2
-5.549 -1.364 2.503 0
-5.166 -1.233 2.527 0
-5.032 -1.172 2.527 0
-4.826 -1.101 2.533 0
-4.654 -1.044 2.535 0
0.0 -0.0 3.0 0
-47.466 -10.476 -2.109 2
-47.089 -10.377 -2.287 2
-50.26 -11.112 -2.908 2
-49.463 -11.027 -3.112 2
0.0 -0.0 3.0 0
0.0 -0.0 3.0 0
0.0 -0.0 3.0 0
0.0 -0.0 3.0 0
-3.159 -0.769 2.482 0
-3.069 -0.765 2.465 9
-3.067 -0.783 2.431 71
-3.079 -0.806 2.393 1
-1.208 -0.324 2.747 2
-1.177 -0.323 2.738 1
-1.179 -0.332 2.721 10
-1.098 -0.317 2.725 11
-4.513 -1.655 2.708 9
-4.752 -1.672 2.675 7
-4.999 -1.686 2.642 5
-3.819 -1.236 2.715 8
-3.711 -1.151 2.713 23
-3.711 -1.106 2.704 45
-3.745 -1.072 2.693 22
-3.859 -1.063 2.675 14
-5.921 -1.572 2.489 2
-5.802 -1.488 2.488 1
-5.437 -1.352 2.508 0
-5.143 -1.242 2.523 1
-4.939 -1.165 2.529 0
-4.753 -1.098 2.534 0
-4.619 -1.051 2.532 0
-47.945 -10.786 -2.03 1
0.0 -0.0 3.0 0
-46.855 -10.463 -2.331 2
0.0 -0.0 3.0 0
0.0 -0.0 3.0 0
0.0 -0.0 3.0 0
0.0 -0.0 3.0 0
0.0 -0.0 3.0 0
-3.318 -0.798 2.482 0
-3.114 -0.765 2.484 2
-3.067 -0.771 2.46 11
-3.065 -0.789 2.427 9
-3.065 -0.808 2.391 1
-1.215 -0.328 2.744 4
-1.183 -0.328 2.735 2
-1.144 -0.324 2.728 5
-1.105 -0.32 2.721 12
-4.502 -1.661 2.707 15
-4.73 -1.675 2.674 14
-4.98 -1.692 2.64 5
-3.816 -1.245 2.713 7
-3.712 -1.162 2.71 18
-3.708 -1.115 2.701 36
-3.739 -1.081 2.69 29
-3.848 -1.071 2.673 15
-5.898 -1.583 2.485 14
-5.655 -1.468 2.495 0
-5.34 -1.344 2.511 0
-5.069 -1.24 2.524 3
-7.116 -1.7 2.313 2
-4.695 -1.099 2.533 0
-4.561 -1.051 2.532 0
0.0 -0.0 3.0 0
0.0 -0.0 3.0 0
-46.617 -10.547 -2.374 2
-49.678 -11.269 -2.992 2
-48.971 -11.193 -3.204 2
0.0 -0.0 3.0 0
0.0 -0.0 3.0 0
-3.474 -0.828 2.483 0
-3.2 -0.778 2.495 0
-3.077 -0.763 2.486 9
-3.061 -0.776 2.457 71
-3.066 -0.795 2.422 3
-3.055 -0.812 2.388 0
-1.225 -0.334 2.739 3
-1.205 -0.336 2.728 2
-1.199 -0.342 2.713 4
-1.108 -0.323 2.719 12
-4.487 -1.667 2.706 13
-4.718 -1.683 2.673 16
-4.954 -1.696 2.64 11
-3.817 -1.254 2.71 10
-3.716 -1.173 2.708 16
-3.709 -1.126 2.698 29
-3.739 -1.091 2.687 24
-3.841 -1.08 2.67 17
-5.862 -1.591 2.483 1
-5.539 -1.454 2.499 0
-5.247 -1.337 2.514 0
-5.026 -1.245 2.522 4
-7.118 -1.722 2.304 0
-4.652 -1.104 2.532 0
-7.127 -1.665 2.259 2
0.0 -0.0 3.0 0
0.0 -0.0 3.0 0
-46.339 -10.621 -2.412 3
-49.43 -11.356 -3.038 2
0.0 -0.0 3.0 0
0.0 -0.0 3.0 0
0.0 -0.0 3.0 0
0.0 -0.0 3.0 0
-3.163 -0.776 2.496 0
-3.067 -0.768 2.482 10
-3.062 -0.784 2.451 114
-3.056 -0.8 2.419 1
-3.015 -0.807 2.392 0
-1.22 -0.334 2.739 2
-1.204 -0.338 2.726 4
-1.195 -0.343 2.712 3
-1.122 -0.33 2.713 12
-4.465 -1.669 2.706 7
-4.696 -1.687 2.672 6
-4.938 -1.703 2.638 13
-3.81 -1.262 2.709 9
-3.725 -1.185 2.704 15
-3.71 -1.136 2.696 26
-3.736 -1.1 2.684 22
-3.827 -1.087 2.668 16
-5.796 -1.589 2.484 1
-5.453 -1.447 2.502 0
-5.076 -1.309 2.524 0
-4.972 -1.246 2.522 4
-4.757 -1.165 2.529 0
-7.04 -1.691 2.282 2
-7.144 -1.691 2.247 5
0.0 -0.0 3.0 0
0.0 -0.0 3.0 0
-46.081 -10.699 -2.451 3
-49.181 -11.442 -3.084 2
0.0 -0.0 3.0 0
0.0 -0.0 3.0 0
0.0 -0.0 3.0 0
-3.272 -0.797 2.502 0
-3.088 -0.765 2.503 10
-3.076 -0.778 2.475 27
-3.056 -0.789 2.448 10
-3.057 -0.807 2.414 1
-2.994 -0.808 2.391 0
-1.216 -0.336 2.738 3
-1.207 -0.341 2.724 6
-1.186 -0.343 2.712 5
-1.121 -0.332 2.712 12
-4.435 -1.669 2.706 9
-4.662 -1.685 2.672 7
-4.915 -1.707 2.637 5
-3.837 -1.281 2.704 6
-3.725 -1.196 2.702 15
-3.707 -1.145 2.693 24
-3.737 -1.111 2.681 18
-3.835 -1.1 2.664 12
-5.63 -1.561 2.493 0
-5.353 -1.436 2.505 0
-4.918 -1.282 2.533 1
-4.921 -1.248 2.521 2
-9.239 -2.291 2.074 0
-4.544 -1.106 2.531 0
-7.158 -1.716 2.236 0
0.0 -0.0 3.0 0
-46.105 -10.866 -2.3 1
-45.812 -10.772 -2.489 3
0.0 -0.0 3.0 0
-48.351 -11.462 -3.354 3
0.0 -0.0 3.0 0
0.0 -0.0 3.0 0
-3.185 -0.784 2.51 0
-3.078 -0.771 2.499 61
-3.066 -0.782 2.472 255
-3.057 -0.796 2.442 3
-3.07 -0.817 2.406 0
-2.972 -0.809 2.391 0
-1.215 -0.338 2.736 3
-1.213 -0.346 2.72 7
-1.185 -0.345 2.711 9
-1.135 -0.337 2.707 13
-4.402 -1.667 2.706 8
-4.639 -1.689 2.672 6
-4.889 -1.711 2.636 4
-3.883 -1.307 2.698 5
-3.741 -1.211 2.698 14
-3.708 -1.156 2.69 22
-3.742 -1.123 2.678 16
-3.832 -1.11 2.661 12
-5.525 -1.548 2.497 0
-5.279 -1.432 2.507 0
-4.829 -1.274 2.536 1
-4.852 -1.245 2.522 0
-9.143 -2.296 2.072 0
-7.118 -1.753 2.256 1
0.0 -0.0 3.0 0
0.0 -0.0 3.0 0
0.0 -0.0 3.0 0
-45.588 -10.855 -2.531 2
0.0 -0.0 3.0 0
0.0 -0.0 3.0 0
0.0 -0.0 3.0 0
-3.407 -0.835 2.498 0
-3.163 -0.787 2.508 0
-3.075 -0.778 2.495 17
-3.067 -0.79 2.467 255
-3.074 -0.808 2.434 2
-3.041 -0.816 2.407 0
-2.905 -0.797 2.399 0
-1.217 -0.341 2.733 6
-1.205 -0.345 2.721 12
-1.184 -0.347 2.709 10
-1.145 -0.343 2.702 14
-4.394 -1.676 2.705 12
-4.624 -1.695 2.67 11
-3.944 -1.39 2.705 1
-3.868 -1.312 2.697 0
-3.746 -1.222 2.695 14
-3.705 -1.165 2.688 27
-3.746 -1.135 2.674 16
-3.837 -1.122 2.657 15
-5.433 -1.538 2.5 0
-5.194 -1.425 2.509 0
-4.756 -1.269 2.538 1
-4.813 -1.25 2.52 0
-9.058 -2.302 2.07 0
0.0 -0.0 3.0 0
0.0 -0.0 3.0 0
0.0 -0.0 3.0 0
-45.623 -11.028 -2.379 1
-45.28 -10.916 -2.562 2
0.0 -0.0 3.0 0
0.0 -0.0 3.0 0
0.0 -0.0 3.0 0
-3.274 -0.811 2.513 0
-3.068 -0.771 2.518 21
-3.076 -0.786 2.49 92
-3.061 -0.796 2.463 13
-3.067 -0.813 2.43 1
-3.027 -0.819 2.405 0
-2.929 -0.81 2.389 0
-1.213 -0.343 2.732 6
-1.215 -0.351 2.716 15
-1.187 -0.35 2.706 12
-1.159 -0.349 2.697 14
-4.383 -1.681 2.704 17
-4.609 -1.701 2.669 17
-4.828 -1.714 2.636 11
-5.092 -1.741 2.598 5
-3.762 -1.238 2.691 15
-3.705 -1.175 2.685 18
-3.751 -1.148 2.671 16
-3.833 -1.132 2.654 14
-5.367 -1.535 2.501 0
-5.124 -1.421 2.511 0
-4.675 -1.262 2.541 1
0.0 -0.0 3.0 0
-8.946 -2.301 2.07 0
0.0 -0.0 3.0 0
0.0 -0.0 3.0 0
0.0 -0.0 3.0 0
-45.341 -11.097 -2.412 2
-45.134 -11.015 -2.612 4
0.0 -0.0 3.0 0
0.0 -0.0 3.0 0
0.0 -0.0 3.0 0
-3.21 -0.804 2.517 0
-3.073 -0.78 2.512 9
-3.074 -0.793 2.485 255
-3.077 -0.808 2.455 5
-3.046 -0.815 2.429 0
-2.972 -0.811 2.411 0
-2.95 -0.822 2.381 0
-1.211 -0.345 2.73 3
-1.21 -0.352 2.715 17
-1.186 -0.352 2.705 16
-1.169 -0.354 2.692 13
-4.364 -1.685 2.703 9
-4.582 -1.703 2.669 7
-3.903 -1.397 2.703 4
-5.065 -1.745 2.597 8
-3.8 -1.261 2.686 7
-3.721 -1.191 2.681 15
-3.751 -1.158 2.668 18
-3.838 -1.144 2.65 16
-5.282 -1.526 2.504 0
-5.047 -1.414 2.513 0
-4.617 -1.26 2.541 1
0.0 -0.0 3.0 0
-5.565 -1.449 2.415 0
0.0 -0.0 3.0 0
0.0 -0.0 3.0 0
0.0 -0.0 3.0 0
0.0 -0.0 3.0 0
-44.879 -11.086 -2.649 2
0.0 -0.0 3.0 0
0.0 -0.0 3.0 0
0.0 -0.0 3.0 0
-3.15 -0.798 2.521 0
-3.074 -0.788 2.508 9
-3.075 -0.801 2.48 255
-3.086 -0.818 2.448 5
-3.028 -0.817 2.428 0
-2.867 -0.789 2.427 0
-2.86 -0.803 2.395 0
-1.207 -0.346 2.73 0
-1.22 -0.357 2.711 20
-1.193 -0.356 2.701 16
-1.168 -0.356 2.691 18
-4.342 -1.688 2.702 8
-4.541 -1.7 2.67 5
-4.786 -1.725 2.633 4
-5.041 -1.75 2.596 18
-3.812 -1.275 2.682 7
-3.741 -1.208 2.676 15
-3.763 -1.172 2.664 16
-3.842 -1.158 2.646 10
-5.181 -1.513 2.508 0
-4.97 -1.408 2.515 0
-4.556 -1.257 2.542 1
-8.187 -2.202 2.155 0
-5.556 -1.463 2.409 2
0.0 -0.0 3.0 0
-46.59 -11.885 -2.291 2
0.0 -0.0 3.0 0
-5.556 -1.393 2.32 1
0.0 -0.0 3.0 0
-45.301 -11.333 -3.026 2
0.0 -0.0 3.0 0
-3.225 -0.816 2.529 0
-3.082 -0.788 2.526 11
-3.072 -0.796 2.503 33
-3.065 -0.806 2.476 15
-3.095 -0.828 2.442 3
-2.987 -0.814 2.43 0
-4.881 -1.355 2.016 6
-2.858 -0.809 2.39 0
-2.832 -0.817 2.361 0
-1.216 -0.358 2.71 19
-1.195 -0.359 2.699 18
-1.175 -0.36 2.687 20
-4.305 -1.685 2.703 10
-4.492 -1.693 2.671 5
-4.763 -1.729 2.632 5
-5.022 -1.757 2.594 6
-3.835 -1.294 2.677 5
-3.749 -1.221 2.673 12
-3.767 -1.185 2.66 22
-3.831 -1.166 2.644 6
-5.112 -1.508 2.51 0
-4.893 -1.401 2.518 0
-4.483 -1.251 2.545 1
-8.126 -2.21 2.151 0
-5.497 -1.465 2.408 6
0.0 -0.0 3.0 0
0.0 -0.0 3.0 0
0.0 -0.0 3.0 0
0.0 -0.0 3.0 0
0.0 -0.0 3.0 0
-45.392 -11.49 -3.109 3
0.0 -0.0 3.0 0
-3.195 -0.818 2.528 0
-3.075 -0.795 2.522 8
-3.069 -0.803 2.498 181
-3.085 -0.819 2.468 6
-3.104 -0.838 2.435 2
-2.985 -0.82 2.426 0
-4.85 -1.357 2.014 5
-2.757 -0.787 2.407 0
-2.826 -0.822 2.358 0
-1.218 -0.361 2.707 16
-1.19 -0.36 2.698 21
-1.174 -0.363 2.685 22
-4.29 -1.69 2.702 9
-4.037 -1.532 2.702 2
-4.743 -1.734 2.631 6
-4.987 -1.759 2.594 6
-3.805 -1.294 2.677 0
-3.768 -1.238 2.668 12
-3.779 -1.2 2.656 10
-3.835 -1.178 2.64 1
-5.031 -1.499 2.513 0
-4.835 -1.399 2.518 0
-4.425 -1.248 2.546 1
-8.054 -2.216 2.149 0
-5.477 -1.476 2.404 15
-5.562 -1.474 2.375 1
-5.553 -1.451 2.354 0
-5.531 -1.43 2.333 2
0.0 -0.0 3.0 0
-43.85 -11.227 -2.72 1
-45.351 -11.614 -3.175 2
0.0 -0.0 3.0 0
-3.139 -0.813 2.531 0
-3.076 -0.804 2.517 8
-3.063 -0.81 2.494 52
-3.082 -0.827 2.463 5
-3.086 -0.84 2.433 2
-2.929 -0.812 2.432 0
-2.848 -0.803 2.417 0
-4.829 -1.388 1.954 3
-2.774 -0.813 2.365 0
-1.217 -0.363 2.706 15
-1.197 -0.365 2.694 21
-1.173 -0.364 2.684 26
-4.252 -1.686 2.703 13
-4.465 -1.707 2.668 6
-4.724 -1.741 2.63 14
-4.968 -1.765 2.593 6
-5.25 -1.8 2.551 9
-3.784 -1.254 2.664 4
-3.802 -1.218 2.651 10
-5.194 -1.611 2.508 0
-4.985 -1.499 2.513 0
-4.75 -1.389 2.522 0
-4.371 -1.246 2.546 1
-7.95 -2.212 2.151 0
-5.453 -1.487 2.399 21
-5.546 -1.486 2.369 1
-5.579 -1.475 2.343 1
0.0 -0.0 3.0 0
0.0 -0.0 3.0 0
-43.633 -11.303 -2.759 2
-45.449 -11.773 -3.26 3
-3.205 -0.833 2.538 0
-3.082 -0.807 2.534 5
-3.066 -0.81 2.514 31
-3.06 -0.817 2.489 8
-3.095 -0.838 2.456 2
-3.087 -0.849 2.428 2
-2.93 -0.819 2.426 0
-1.328 -0.378 2.725 2
-4.839 -1.402 1.944 1
-2.693 -0.795 2.379 0
-1.216 -0.365 2.704 15
-1.196 -0.366 2.693 22
-1.164 -0.363 2.684 27
-4.237 -1.691 2.702 13
-4.473 -1.721 2.665 8
-4.708 -1.747 2.629 11
-4.937 -1.768 2.592 14
-5.207 -1.801 2.551 5
-3.776 -1.262 2.662 2
-3.829 -1.238 2.645 5
-5.124 -1.604 2.51 0
-4.892 -1.486 2.517 0
-6.918 -2.044 2.296 1
-4.318 -1.244 2.547 1
-5.53 -1.556 2.403 0
-5.429 -1.498 2.395 23
-5.499 -1.491 2.367 2
-5.551 -1.485 2.339 1
0.0 -0.0 3.0 0
-43.976 -11.566 -2.641 1
-43.425 -11.38 -2.798 2
-45.488 -11.917 -3.337 2
-3.176 -0.835 2.537 0
-3.083 -0.816 2.529 8
-3.067 -0.819 2.508 97
-3.065 -0.827 2.483 3
-3.103 -0.848 2.449 1
-2.947 -0.817 2.449 0
-2.859 -0.806 2.436 0
-1.35 -0.387 2.719 1
-1.296 -0.378 2.715 0
-2.122 -0.631 2.507 1
-1.219 -0.369 2.701 15
-1.195 -0.368 2.691 19
-1.171 -0.368 2.68 30
-4.078 -1.638 2.711 5
-4.45 -1.724 2.665 6
-4.682 -1.75 2.628 5
-4.929 -1.779 2.589 11
-5.176 -1.804 2.55 6
-5.442 -1.834 2.508 1
-3.83 -1.249 2.642 3
-5.059 -1.6 2.511 0
-4.804 -1.474 2.521 0
-6.858 -2.047 2.295 0
-4.275 -1.245 2.547 0
-5.514 -1.568 2.398 1
-5.409 -1.509 2.39 18
-5.467 -1.499 2.364 2
-5.507 -1.49 2.337 2
-44.625 -11.95 -2.572 3
0.0 -0.0 3.0 0
0.0 -0.0 3.0 0
0.0 -0.0 3.0 0
-3.123 -0.83 2.54 1
-3.073 -0.821 2.526 9
-3.06 -0.825 2.504 19
-3.047 -0.83 2.481 2
-3.066 -0.847 2.45 0
-2.876 -0.805 2.457 0
-2.845 -0.809 2.433 0
-1.364 -0.394 2.714 0
-1.299 -0.382 2.712 3
-2.113 -0.632 2.506 0
-1.218 -0.371 2.699 13
-1.19 -0.37 2.69 16
-1.169 -0.37 2.678 29
-4.174 -1.688 2.702 6
-4.42 -1.725 2.665 8
-4.647 -1.75 2.628 6
-4.89 -1.779 2.589 6
-5.156 -1.812 2.548 16
-5.313 -1.806 2.516 0
-5.654 -1.861 2.466 0
-4.94 -1.576 2.518 0
-6.408 -1.986 2.355 0
-6.822 -2.057 2.292 2
-4.226 -1.244 2.547 0
-5.512 -1.585 2.391 1
-5.403 -1.524 2.384 20
-5.446 -1.511 2.359 2
-5.491 -1.503 2.331 2
0.0 -0.0 3.0 0
0.0 -0.0 3.0 0
0.0 -0.0 3.0 0
-3.234 -0.866 2.539 0
-3.093 -0.831 2.539 3
-3.07 -0.83 2.521 32
-3.053 -0.832 2.5 5
-3.059 -0.842 2.474 1
-3.003 -0.836 2.457 0
-2.79 -0.788 2.469 0
-2.888 -0.828 2.42 0
-1.313 -0.383 2.722 0
-1.32 -0.391 2.705 3
-1.304 -0.393 2.693 0
-1.209 -0.371 2.699 10
-1.193 -0.373 2.687 18
-1.172 -0.373 2.676 30
-4.166 -1.696 2.701 11
-4.412 -1.733 2.663 7
-4.628 -1.756 2.627 6
-4.867 -1.784 2.588 6
-5.14 -1.821 2.546 10
-5.255 -1.801 2.517 0
-5.686 -1.888 2.459 2
-4.883 -1.573 2.519 0
-4.673 -1.463 2.525 0
-6.762 -2.06 2.291 0
-4.183 -1.244 2.547 0
-5.496 -1.597 2.387 1
-5.395 -1.539 2.378 12
-5.43 -1.522 2.354 1
-5.539 -1.534 2.317 2
0.0 -0.0 3.0 0
0.0 -0.0 3.0 0
0.0 -0.0 3.0 0
-3.174 -0.86 2.543 0
-3.067 -0.833 2.538 8
-3.063 -0.836 2.517 67
-3.066 -0.844 2.493 2
-3.026 -0.841 2.475 0
-2.841 -0.799 2.481 0
-4.808 -1.37 2.076 9
-2.765 -0.8 2.44 0
-1.32 -0.388 2.718 2
-1.341 -0.401 2.698 2
-1.269 -0.386 2.699 5
-1.219 -0.377 2.695 3
-1.188 -0.373 2.687 21
-1.164 -0.372 2.676 29
-4.177 -1.711 2.698 9
-4.389 -1.737 2.662 15
-4.605 -1.76 2.626 16
-4.84 -1.788 2.587 8
-5.101 -1.822 2.546 6
-5.235 -1.81 2.515 8
-5.635 -1.888 2.459 1
-4.814 -1.565 2.522 0
-6.343 -2.005 2.349 0
-6.713 -2.065 2.289 1
-4.145 -1.245 2.547 0
-5.517 -1.621 2.378 1
-5.382 -1.551 2.373 7
-5.409 -1.534 2.349 3
-5.534 -1.549 2.31 1
0.0 -0.0 3.0 0
0.0 -0.0 3.0 0
0.0 -0.0 3.0 0
-3.083 -0.844 2.551 5
-3.064 -0.842 2.533 9
-3.06 -0.844 2.512 10
-3.048 -0.847 2.491 2
-3.095 -0.868 2.457 1
-2.868 -0.814 2.471 0
-2.725 -0.783 2.472 0
-2.826 -0.824 2.423 0
-1.345 -0.399 2.71 0
-4.839 -1.457 1.902 0
-1.283 -0.393 2.693 5
-1.285 -0.4 2.676 0
-1.187 -0.376 2.685 21
-1.163 -0.374 2.675 28
-4.166 -1.717 2.697 14
-4.377 -1.744 2.661 11
-4.601 -1.771 2.624 11
-4.82 -1.795 2.586 18
-5.078 -1.828 2.544 6
-5.188 -1.81 2.515 10
-5.592 -1.89 2.458 0
-4.763 -1.563 2.522 0
-6.291 -2.008 2.348 1
-6.68 -2.076 2.285 0
-4.088 -1.241 2.548 0
-5.493 -1.631 2.374 1
-5.377 -1.567 2.367 4
-5.404 -1.55 2.342 1
-5.49 -1.555 2.308 1
0.0 -0.0 3.0 0
0.0 -0.0 3.0 0
-3.208 -0.889 2.547 0
-3.095 -0.857 2.544 4
-3.065 -0.851 2.528 33
-3.05 -0.85 2.509 4
-3.011 -0.845 2.492 0
-2.971 -0.842 2.474 0
-2.831 -0.811 2.473 0
-2.767 -0.803 2.458 0
-2.684 -0.79 2.447 0
-1.325 -0.395 2.713 1
-1.316 -0.399 2.699 3
-1.33 -0.41 2.68 3
-1.272 -0.399 2.677 5
-1.178 -0.375 2.685 20
-1.15 -0.373 2.676 25
-4.158 -1.725 2.696 13
-4.362 -1.75 2.66 7
-4.563 -1.769 2.624 6
-4.801 -1.8 2.584 7
-5.043 -1.83 2.544 13
-5.157 -1.814 2.514 1
-5.587 -1.905 2.454 2
-4.687 -1.552 2.525 0
-6.255 -2.015 2.345 1
-6.621 -2.079 2.284 0
-4.046 -1.241 2.548 1
-5.487 -1.647 2.368 0
-5.368 -1.582 2.361 4
-5.395 -1.564 2.336 1
-5.466 -1.565 2.303 1
0.0 -0.0 3.0 0
0.0 -0.0 3.0 0
-3.163 -0.886 2.548 0
-3.073 -0.861 2.542 7
-3.062 -0.859 2.524 45
-3.062 -0.863 2.502 2
-4.865 -1.38 2.171 0
-2.922 -0.836 2.478 0
-2.844 -0.823 2.466 0
-2.769 -0.81 2.453 0
-2.772 -0.823 2.424 0
-4.851 -1.461 1.939 4
-1.367 -0.418 2.685 2
-1.314 -0.408 2.681 3
-1.256 -0.397 2.679 5
-1.177 -0.378 2.683 20
-1.146 -0.374 2.675 23
-4.135 -1.727 2.695 9
-4.324 -1.746 2.661 8
-4.54 -1.773 2.623 6
-4.773 -1.804 2.583 6
-5.034 -1.842 2.541 31
-5.114 -1.814 2.514 0
-5.559 -1.913 2.452 1
-5.872 -1.962 2.4 0
-6.207 -2.019 2.344 0
-4.103 -1.3 2.552 0
-4.027 -1.248 2.546 2
-5.482 -1.663 2.362 1
-5.37 -1.599 2.354 3
-5.393 -1.581 2.329 1
-5.483 -1.587 2.294 1
0.0 -0.0 3.0 0
-3.291 -0.936 2.543 0
-3.08 -0.873 2.555 7
-3.078 -0.871 2.537 8
-3.056 -0.866 2.52 10
-3.036 -0.864 2.501 1
-2.978 -0.853 2.487 0
-2.919 -0.843 2.473 0
-2.875 -0.839 2.455 0
-2.83 -0.836 2.436 0
-2.716 -0.813 2.431 0
-2.094 -0.635 2.538 2
-1.336 -0.412 2.69 3
-1.301 -0.407 2.682 4
-1.24 -0.394 2.681 6
-1.172 -0.379 2.682 15
-1.141 -0.375 2.674 23
-4.113 -1.729 2.695 8
-4.313 -1.754 2.659 7
-4.52 -1.778 2.622 6
-4.746 -1.808 2.583 6
-4.992 -1.841 2.541 6
-7.12 -2.546 2.318 0
-4.797 -1.665 2.523 0
-4.568 -1.54 2.529 0
-6.144 -2.018 2.344 1
-4.043 -1.294 2.554 0
-4.0 -1.252 2.544 4
-5.473 -1.677 2.356 1
-5.368 -1.615 2.347 2
-5.376 -1.593 2.324 2
-5.512 -1.612 2.282 0
0.0 -0.0 3.0 0
-3.215 -0.925 2.549 0
-3.088 -0.884 2.549 6
-3.063 -0.876 2.534 30
-3.049 -0.873 2.516 3
-3.041 -0.874 2.495 0
-2.926 -0.846 2.491 0
-2.977 -0.868 2.457 0
-2.823 -0.832 2.46 0
-2.774 -0.827 2.442 0
-4.793 -1.447 1.987 3
-2.088 -0.639 2.536 3
-1.35 -0.419 2.684 3
-1.359 -0.429 2.665 3
-1.221 -0.39 2.684 6
-1.171 -0.38 2.681 15
-1.151 -0.38 2.67 23
-4.083 -1.728 2.695 12
-4.282 -1.754 2.659 10
-4.501 -1.783 2.621 13
-4.719 -1.812 2.582 10
-4.968 -1.847 2.54 4
-5.108 -1.843 2.506 0
-2.24 -0.785 2.775 3
-5.796 -1.973 2.397 1
-6.13 -2.032 2.34 0
-4.001 -1.293 2.555 0
-3.958 -1.251 2.545 5
-5.471 -1.694 2.35 1
-5.37 -1.634 2.34 2
-5.379 -1.61 2.317 3
-5.552 -1.642 2.269 1
0.0 -0.0 3.0 0
-3.163 -0.919 2.552 0
-3.078 -0.89 2.546 6
-3.068 -0.887 2.528 26
-3.065 -0.887 2.508 2
-2.97 -0.862 2.502 0
-4.85 -1.417 2.148 3
-2.857 -0.841 2.474 0
-2.813 -0.836 2.457 0
-2.794 -0.84 2.434 0
-2.111 -0.643 2.55 1
-2.071 -0.638 2.536 3
-1.616 -0.506 2.619 16
-1.388 -0.441 2.656 24
-1.219 -0.393 2.682 9
-1.17 -0.383 2.679 18
-1.142 -0.38 2.67 25
-4.082 -1.739 2.693 9
-4.274 -1.763 2.657 19
-4.485 -1.79 2.62 13
-4.711 -1.822 2.579 16
-4.937 -1.85 2.539 5
-5.143 -1.87 2.499 1
-2.253 -0.796 2.772 8
-5.745 -1.973 2.397 0
-6.071 -2.032 2.34 0
-3.94 -1.286 2.557 0
-3.939 -1.258 2.542 6
-5.511 -1.723 2.338 0
-5.373 -1.651 2.333 2
-5.373 -1.626 2.31 6
-5.547 -1.658 2.262 1
-3.247 -0.961 2.552 0
-3.095 -0.909 2.557 3
-3.071 -0.898 2.542 10
-3.053 -0.892 2.526 7
-3.035 -0.888 2.508 0
-2.993 -0.877 2.493 0
-2.852 -0.841 2.495 0
-2.843 -0.845 2.472 0
-2.889 -0.867 2.437 0
-2.735 -0.829 2.441 0
-2.09 -0.641 2.551 2
-2.072 -0.644 2.532 6
-2.035 -0.642 2.517 9
-1.401 -0.448 2.65 23
-1.207 -0.391 2.683 7
-1.169 -0.385 2.677 23
-1.141 -0.382 2.668 25
-4.053 -1.737 2.694 12
-4.262 -1.77 2.656 8
-4.458 -1.792 2.619 6
-4.683 -1.825 2.579 6
-4.879 -1.843 2.54 0
-5.134 -1.883 2.495 2
-2.243 -0.799 2.771 8
-5.716 -1.98 2.395 1
-6.042 -2.04 2.337 1
-3.894 -1.283 2.558 0
-3.908 -1.26 2.541 5
-7.203 -2.275 2.127 0
-5.378 -1.67 2.325 2
-5.375 -1.644 2.302 17
-5.522 -1.668 2.257 0
-3.195 -0.955 2.555 0
-3.084 -0.916 2.553 5
-3.071 -0.908 2.537 27
-3.05 -0.9 2.522 2
-3.051 -0.901 2.501 0
-3.001 -0.889 2.487 0
-2.785 -0.829 2.502 0
-2.711 -0.813 2.492 0
-2.78 -0.841 2.454 0
-4.856 -1.485 1.998 3
-2.088 -0.646 2.547 3
-2.07 -0.649 2.528 7
-2.048 -0.65 2.51 10
-1.522 -0.49 2.617 19
-1.209 -0.395 2.68 12
-1.164 -0.386 2.676 25
-1.147 -0.386 2.665 24
-2.359 -1.018 2.82 0
-2.311 -0.966 2.812 1
-4.431 -1.795 2.619 6
-4.649 -1.825 2.579 6
-4.792 -1.824 2.545 0
-2.245 -0.83 2.778 4
-2.248 -0.808 2.768 8
-5.688 -1.989 2.392 1
-5.991 -2.042 2.336 0
-3.834 -1.275 2.561 0
-3.889 -1.267 2.539 3
-7.165 -2.287 2.122 1
-5.38 -1.688 2.318 2
-5.381 -1.662 2.294 26
-3.377 -1.03 2.541 0
-3.134 -0.947 2.558 0
-3.077 -0.924 2.55 5
-3.068 -0.916 2.533 15
-3.055 -0.91 2.516 1
-2.972 -0.887 2.508 0
-3.044 -0.91 2.474 1
-2.789 -0.838 2.496 0
-2.712 -0.821 2.487 0
-2.717 -0.83 2.461 0
-2.103 -0.648 2.563 2
-2.071 -0.646 2.548 4
-2.057 -0.649 2.528 8
-2.046 -0.655 2.507 10
-1.616 -0.524 2.59 18
-1.208 -0.397 2.678 14
-1.162 -0.388 2.674 25
-1.142 -0.387 2.664 24
-2.342 -1.018 2.821 8
-2.309 -0.972 2.811 3
-4.416 -1.801 2.617 6
-4.633 -1.833 2.577 6
-4.731 -1.816 2.547 0
-2.246 -0.838 2.776 7
-2.242 -0.813 2.767 7
-5.641 -1.99 2.392 0
-5.936 -2.041 2.337 2
-3.781 -1.27 2.563 0
-3.866 -1.272 2.537 2
-7.097 -2.288 2.122 0
-5.413 -1.716 2.307 1
-5.39 -1.683 2.286 12
-3.248 -1.002 2.554 0
-3.108 -0.949 2.558 2
-3.07 -0.931 2.546 11
-3.057 -0.923 2.53 6
-3.006 -0.905 2.519 0
-2.935 -0.885 2.51 0
-2.969 -0.896 2.483 0
-2.809 -0.853 2.488 0
-2.702 -0.825 2.484 0
-4.851 -1.495 2.029 3
-2.09 -0.65 2.562 2
-2.065 -0.65 2.545 6
-2.051 -0.653 2.525 9
-2.044 -0.659 2.504 10
-2.017 -0.659 2.485 10
-1.207 -0.4 2.676 9
-1.165 -0.391 2.672 25
-1.137 -0.387 2.663 25
-2.303 -1.007 2.822 7
-2.321 -0.984 2.809 3
-4.396 -1.806 2.616 12
-4.606 -1.836 2.576 13
-4.7 -1.818 2.547 8
-2.248 -0.845 2.774 7
-2.236 -0.817 2.766 9
-5.601 -1.993 2.391 1
-5.888 -2.044 2.336 2
-3.724 -1.263 2.565 0
-3.832 -1.272 2.537 1
-7.052 -2.296 2.119 1
-5.445 -1.743 2.296 0
-5.392 -1.701 2.278 3
-3.176 -0.99 2.559 0
-3.086 -0.953 2.556 7
-3.067 -0.94 2.542 22
-3.05 -0.93 2.526 2
-3.007 -0.914 2.514 0
-2.894 -0.881 2.512 0
-2.935 -0.896 2.483 0
-2.81 -0.861 2.483 0
-2.748 -0.847 2.471 0
-2.145 -0.667 2.567 1
-2.069 -0.649 2.562 3
-2.063 -0.654 2.542 7
-2.049 -0.657 2.522 10
-2.042 -0.663 2.5 11
-2.023 -0.666 2.48 9
-1.206 -0.402 2.674 8
-1.164 -0.393 2.67 25
-1.14 -0.391 2.66 25
-2.246 -0.989 2.826 5
-2.326 -0.993 2.807 3
-2.295 -0.95 2.798 3
-4.597 -1.846 2.574 15
-2.26 -0.881 2.78 1
-2.245 -0.851 2.772 8
-2.23 -0.822 2.764 9
-5.58 -2.003 2.388 0
-5.878 -2.059 2.331 2
-3.693 -1.264 2.565 0
0.0 -0.0 3.0 0
-6.999 -2.301 2.117 0
-7.425 -2.401 2.03 0
-5.409 -1.723 2.269 1
-3.112 -0.98 2.564 1
-3.083 -0.961 2.552 5
-3.063 -0.949 2.537 11
-3.058 -0.942 2.52 1
-3.0 -0.921 2.51 0
-2.891 -0.888 2.508 0
-2.932 -0.903 2.479 0
-2.875 -0.889 2.466 0
-2.662 -0.829 2.482 0
-2.102 -0.659 2.572 2
-2.07 -0.655 2.558 4
-2.046 -0.654 2.542 8
-2.043 -0.66 2.52 11
-2.036 -0.666 2.498 11
-2.024 -0.671 2.476 8
-1.193 -0.401 2.676 8
-1.162 -0.396 2.668 23
-1.135 -0.391 2.66 24
-2.229 -0.988 2.826 4
-2.287 -0.982 2.809 3
-2.307 -0.961 2.796 4
-2.254 -0.911 2.79 6
-2.247 -0.883 2.78 8
-2.236 -0.853 2.771 6
-2.235 -0.831 2.762 8
-5.533 -2.004 2.387 0
-5.845 -2.067 2.328 1
-6.162 -2.128 2.267 3
0.0 -0.0 3.0 0
-6.938 -2.303 2.116 0
-7.372 -2.407 2.027 0
-3.213 -1.034 2.561 0
-3.101 -0.986 2.561 2
-3.068 -0.966 2.549 14
-3.056 -0.956 2.534 4
-3.032 -0.944 2.519 0
-3.011 -0.934 2.503 0
-2.79 -0.866 2.52 0
-3.012 -0.937 2.459 1
-2.777 -0.867 2.479 0
-2.408 -0.756 2.527 0
-2.088 -0.661 2.571 2
-2.061 -0.657 2.557 6
-2.043 -0.659 2.539 9
-2.037 -0.663 2.518 11
-2.033 -0.67 2.495 11
-2.026 -0.676 2.472 7
-1.188 -0.402 2.675 6
-1.161 -0.398 2.666 22
-1.137 -0.395 2.657 26
-2.248 -1.003 2.823 5
-2.277 -0.985 2.809 6
-2.312 -0.971 2.794 5
-2.255 -0.918 2.788 12
-2.252 -0.891 2.778 10
-2.237 -0.862 2.769 8
-2.225 -0.834 2.761 2
-5.504 -2.011 2.385 1
-5.805 -2.071 2.327 0
-6.132 -2.138 2.264 1
0.0 -0.0 3.0 0
-6.878 -2.306 2.115 0
-3.215 -1.061 2.571 0
-3.172 -1.031 2.562 0
-3.079 -0.989 2.56 5
-3.065 -0.975 2.545 20
-3.053 -0.965 2.529 1
-3.044 -0.957 2.512 0
-2.94 -0.922 2.51 0
-2.768 -0.867 2.519 0
-2.851 -0.895 2.483 0
-2.789 -0.879 2.472 0
-2.117 -0.67 2.581 1
-2.082 -0.664 2.569 3
-2.058 -0.662 2.554 7
-2.041 -0.663 2.536 10
-2.038 -0.669 2.514 11
-2.028 -0.674 2.492 10
-2.027 -0.682 2.467 7
-1.194 -0.406 2.671 3
-1.167 -0.402 2.662 20
-1.133 -0.396 2.656 25
-2.246 -1.008 2.822 9
-2.271 -0.989 2.808 6
-2.317 -0.98 2.792 5
-2.245 -0.922 2.787 15
-2.246 -0.896 2.777 1
-2.231 -0.865 2.768 7
-2.222 -0.84 2.759 0
-5.476 -2.017 2.383 1
-5.761 -2.074 2.326 0
-6.088 -2.143 2.262 1
0.0 -0.0 3.0 0
-6.84 -2.316 2.111 1
-3.17 -1.056 2.573 3
-3.089 -1.014 2.569 3
-3.072 -0.997 2.556 5
-3.058 -0.982 2.542 9
-3.031 -0.967 2.529 1
-3.007 -0.954 2.514 0
-3.039 -0.962 2.489 0
-2.78 -0.879 2.513 0
-2.855 -0.904 2.478 0
-2.696 -0.857 2.485 0
-2.096 -0.67 2.582 2
-2.073 -0.667 2.567 4
-2.045 -0.664 2.552 8
-2.035 -0.667 2.533 10
-2.036 -0.674 2.511 11
-2.033 -0.68 2.487 9
-2.029 -0.687 2.463 6
-1.215 -0.416 2.663 1
-1.159 -0.402 2.663 18
-1.139 -0.4 2.652 23
-2.211 -0.998 2.824 8
-2.257 -0.99 2.808 7
-2.314 -0.985 2.791 10
-2.257 -0.933 2.784 17
-2.243 -0.902 2.775 4
-2.232 -0.874 2.766 7
-2.224 -0.847 2.757 0
-5.421 -2.014 2.384 0
-5.691 -2.066 2.329 0
-6.066 -2.155 2.258 2
-6.399 -2.229 2.189 0
-6.788 -2.32 2.11 0
-3.159 -1.062 2.571 6
-3.086 -1.023 2.566 5
-3.069 -1.005 2.552 14
-3.054 -0.992 2.538 3
-3.02 -0.973 2.525 0
-3.0 -0.961 2.51 0
-3.077 -0.983 2.477 0
-4.851 -1.55 2.141 3
-4.852 -1.552 2.104 3
-2.308 -0.741 2.555 0
-2.079 -0.671 2.581 3
-2.07 -0.673 2.563 6
-2.046 -0.67 2.548 9
-2.033 -0.672 2.53 11
-2.03 -0.677 2.508 11
-2.03 -0.685 2.484 8
-2.052 -0.7 2.453 7
-2.055 -0.709 2.426 6
-1.161 -0.406 2.66 14
-1.134 -0.401 2.651 18
-2.186 -0.994 2.825 9
-2.233 -0.986 2.808 8
-2.323 -0.995 2.788 11
-2.247 -0.937 2.784 24
-2.237 -0.906 2.774 9
-2.222 -0.877 2.765 0
-5.163 -1.984 2.431 1
-5.407 -2.027 2.38 1
-5.577 -2.043 2.336 0
-6.029 -2.161 2.256 0
-6.373 -2.24 2.185 0
-3.279 -1.131 2.566 0
-3.144 -1.068 2.569 10
-3.079 -1.031 2.562 5
-3.061 -1.014 2.549 15
-3.058 -1.002 2.533 1
-2.967 -0.966 2.529 0
-2.944 -0.953 2.514 0
-2.991 -0.965 2.487 0
-2.71 -0.874 2.515 0
-2.744 -0.885 2.489 0
-2.11 -0.684 2.589 2
-2.084 -0.678 2.576 3
-2.057 -0.673 2.563 7
-2.04 -0.674 2.546 11
-2.027 -0.675 2.527 10
-2.028 -0.682 2.505 10
-2.035 -0.692 2.479 7
-2.057 -0.707 2.448 7
-2.056 -0.714 2.422 7
-1.156 -0.406 2.659 14
-1.129 -0.402 2.651 15
-2.198 -1.006 2.823 10
-2.219 -0.986 2.808 9
-2.309 -0.997 2.788 13
-2.245 -0.942 2.782 29
-2.231 -0.911 2.773 8
-2.227 -0.886 2.763 0
-5.112 -1.981 2.432 0
-5.375 -2.032 2.379 1
-5.604 -2.071 2.327 0
-5.993 -2.168 2.254 0
-6.29 -2.232 2.188 0
-6.708 -2.336 2.103 0
-3.133 -1.074 2.566 23
-3.083 -1.042 2.558 6
-3.054 -1.021 2.545 8
-3.092 -1.023 2.523 1
-2.942 -0.967 2.529 0
-2.944 -0.962 2.51 0
-2.965 -0.966 2.487 0
-2.744 -0.893 2.505 0
-4.852 -1.581 2.087 3
-2.093 -0.684 2.589 2
-2.063 -0.678 2.577 5
-2.051 -0.677 2.56 9
-2.038 -0.678 2.543 11
-2.025 -0.679 2.524 11
-2.033 -0.689 2.5 9
-2.048 -0.701 2.472 7
-2.044 -0.707 2.448 8
-2.039 -0.713 2.423 8
-1.155 -0.409 2.657 12
-1.135 -0.406 2.647 15
-2.21 -1.018 2.82 13
-2.206 -0.987 2.808 10
-2.306 -1.003 2.787 12
-2.246 -0.95 2.781 24
-2.235 -0.92 2.771 1
-2.213 -0.887 2.762 0
-5.092 -1.989 2.43 0
-5.324 -2.03 2.379 0
-5.597 -2.087 2.322 1
-5.967 -2.178 2.25 0
-6.272 -2.247 2.182 1
-3.174 -1.116 2.571 1
-3.118 -1.079 2.564 19
-3.072 -1.048 2.555 15
-3.051 -1.029 2.542 2
-3.081 -1.03 2.52 0
-2.882 -0.957 2.533 0
-2.907 -0.959 2.511 0
-2.905 -0.956 2.492 0
-2.707 -0.89 2.507 0
-2.165 -0.712 2.589 0
-2.076 -0.684 2.589 3
-2.06 -0.682 2.574 7
-2.052 -0.684 2.556 9
-2.032 -0.681 2.54 11
-2.022 -0.684 2.521 10
-2.034 -0.694 2.495 8
-2.06 -0.71 2.465 8
-2.041 -0.711 2.444 8
-2.026 -0.714 2.422 8
-1.164 -0.414 2.652 10
-1.13 -0.407 2.646 14
-2.197 -1.018 2.821 14
-2.218 -0.999 2.806 10
-2.293 -1.004 2.787 15
-2.243 -0.955 2.779 23
-2.222 -0.921 2.77 0
-4.816 -1.946 2.479 2
-5.06 -1.993 2.428 1
-5.296 -2.037 2.377 0
-5.554 -2.089 2.321 1
0.0 -0.0 3.0 0
-6.212 -2.245 2.183 0
-3.159 -1.122 2.569 1
-3.103 -1.084 2.562 11
-3.068 -1.057 2.551 13
-3.043 -1.037 2.538 1
-3.089 -1.042 2.514 0
-2.875 -0.963 2.53 0
-2.836 -0.945 2.519 0
-2.991 -0.994 2.472 1
-2.697 -0.895 2.504 0
-2.107 -0.699 2.596 2
-2.07 -0.689 2.586 4
-2.051 -0.685 2.572 8
-2.042 -0.686 2.554 10
-2.033 -0.688 2.536 11
-2.027 -0.691 2.516 9
-2.036 -0.7 2.492 7
-2.054 -0.713 2.462 8
-2.039 -0.715 2.441 8
-2.009 -0.712 2.423 8
-1.17 -0.42 2.648 9
-1.136 -0.412 2.642 11
-2.18 -1.017 2.821 13
-2.208 -1.001 2.805 13
-2.308 -1.018 2.784 14
-2.248 -0.965 2.777 22
-2.226 -0.931 2.768 0
-4.792 -1.951 2.477 0
-5.028 -1.997 2.427 0
-5.271 -2.044 2.375 1
-5.551 -2.106 2.316 0
0.0 -0.0 3.0 0
-3.412 -1.244 2.547 0
-3.122 -1.118 2.571 2
-3.088 -1.089 2.56 10
-3.057 -1.064 2.548 7
-3.036 -1.045 2.535 0
-3.096 -1.055 2.508 1
-2.815 -0.952 2.536 0
-2.78 -0.936 2.523 0
-2.835 -0.95 2.495 0
-4.845 -1.622 2.101 4
-2.085 -0.699 2.597 2
-2.067 -0.694 2.583 5
-2.045 -0.689 2.569 9
-2.04 -0.691 2.551 10
-2.027 -0.691 2.534 10
-2.021 -0.695 2.513 8
-2.055 -0.712 2.482 7
-2.052 -0.718 2.459 9
-2.022 -0.714 2.442 8
-1.996 -0.712 2.423 8
-1.183 -0.427 2.641 4
-1.156 -0.422 2.634 10
-2.188 -1.028 2.819 11
-2.209 -1.009 2.804 13
-2.306 -1.024 2.782 14
-2.256 -0.975 2.775 16
-4.51 -1.898 2.527 0
-4.753 -1.95 2.477 0
-4.989 -1.997 2.427 0
-5.228 -2.044 2.375 0
-3.358 -1.285 2.583 0
-3.35 -1.255 2.568 0
-3.24 -1.192 2.566 0
-3.092 -1.118 2.571 7
-3.062 -1.09 2.56 13
-3.083 -1.083 2.54 1
-3.017 -1.048 2.533 0
-3.126 -1.075 2.499 1
-2.924 -0.999 2.513 0
-2.781 -0.945 2.519 0
-2.783 -0.942 2.499 0
-2.108 -0.712 2.605 1
-2.079 -0.703 2.594 3
-2.061 -0.698 2.58 7
-2.046 -0.696 2.565 10
-2.037 -0.696 2.548 10
-2.029 -0.698 2.529 10
-2.03 -0.703 2.508 7
-2.053 -0.717 2.479 8
-2.049 -0.722 2.456 8
