# .PCD v0.7 - Point Cloud Data file format
VERSION 0.7
FIELDS x y z intensity
SIZE 4 4 4 4
TYPE F F F F
COUNT 1 1 1 1
WIDTH 1978
HEIGHT 1
VIEWPOINT 0 0 0 1 0 0 0
POINTS 1978
DATA ascii
-9.332 -12.365 0.82 3
-9.43 -12.367 0.596 255
-9.426 -12.242 0.398 255
-9.429 -12.124 0.201 255
-9.426 -12.007 0.006 255
-9.428 -11.894 -0.187 255
-9.422 -11.777 -0.377 255
-19.595 -24.276 -4.422 41
-20.22 -24.823 -5.065 9
-18.543 -22.567 -4.77 7
-17.846 -21.518 -4.832 11
-17.23 -20.61 -4.912 18
-16.46 -19.52 -4.887 8
-15.729 -18.504 -4.854 6
-15.073 -17.585 -4.829 5
-14.495 -16.778 -4.824 6
-13.94 -16.006 -4.807 32
-13.453 -15.33 -4.811 7
-12.969 -14.668 -4.799 7
-12.54 -14.074 -4.801 7
-12.137 -13.522 -4.807 8
-11.739 -12.979 -4.799 9
-11.378 -12.491 -4.805 9
-11.047 -12.038 -4.817 8
-10.719 -11.598 -4.823 9
-10.416 -11.187 -4.833 8
-10.126 -10.8 -4.847 9
-9.845 -10.423 -4.855 11
-9.572 -10.064 -4.863 32
-9.234 -9.64 -4.806 13
-8.793 -9.112 -4.646 17
-8.516 -8.763 -4.618 13
-9.324 -12.278 0.835 3
-9.431 -12.291 0.611 255
-9.432 -12.173 0.413 255
-9.435 -12.056 0.217 255
-9.433 -11.939 0.023 255
-9.429 -11.82 -0.167 255
-9.427 -11.711 -0.358 255
-19.737 -24.296 -4.428 41
-20.368 -24.843 -5.072 13
-18.667 -22.572 -4.772 24
-17.853 -21.389 -4.785 11
-17.37 -20.644 -4.925 11
-16.575 -19.531 -4.891 8
-15.837 -18.51 -4.857 6
-15.18 -17.596 -4.834 6
-14.588 -16.777 -4.823 6
-14.033 -16.01 -4.808 8
-13.539 -15.328 -4.81 7
-13.049 -14.663 -4.796 7
-12.62 -14.072 -4.8 7
-12.21 -13.516 -4.803 8
-11.811 -12.975 -4.796 9
-11.453 -12.493 -4.807 9
-11.109 -12.027 -4.811 8
-10.784 -11.594 -4.82 8
-10.48 -11.185 -4.832 8
-10.191 -10.801 -4.847 11
-9.904 -10.42 -4.852 11
-9.627 -10.058 -4.858 32
-9.16 -9.505 -4.697 11
-8.842 -9.107 -4.642 13
-8.562 -8.757 -4.612 14
-9.308 -12.181 0.852 3
-9.432 -12.217 0.625 255
-9.441 -12.108 0.426 255
-9.441 -11.988 0.232 255
-9.438 -11.871 0.04 255
-9.432 -11.749 -0.148 255
-9.431 -11.64 -0.338 255
-19.874 -24.31 -4.432 41
-20.508 -24.855 -5.076 13
-18.812 -22.603 -4.783 24
-17.889 -21.295 -4.751 8
-17.492 -20.655 -4.929 16
-16.688 -19.538 -4.894 8
-15.947 -18.519 -4.861 6
-15.286 -17.604 -4.838 7
-14.685 -16.78 -4.825 6
-14.126 -16.011 -4.809 8
-13.625 -15.327 -4.81 7
-13.133 -14.663 -4.797 6
-12.703 -14.073 -4.801 7
-12.281 -13.508 -4.799 7
-11.883 -12.971 -4.794 9
-11.519 -12.484 -4.801 9
-11.173 -12.02 -4.806 8
-10.844 -11.585 -4.814 9
-10.544 -11.181 -4.829 9
-10.247 -10.791 -4.84 11
-9.963 -10.416 -4.849 10
-9.68 -10.05 -4.852 32
-9.159 -9.443 -4.647 8
-8.892 -9.101 -4.637 13
-8.609 -8.75 -4.606 13
-9.321 -12.123 0.862 4
-9.438 -12.148 0.639 255
-9.442 -12.034 0.442 255
-9.442 -11.914 0.249 255
-9.441 -11.8 0.058 255
-9.437 -11.682 -0.13 255
-9.433 -11.57 -0.318 255
-20.02 -24.332 -4.439 41
-20.291 -24.436 -4.94 1
-18.912 -22.577 -4.774 25
-18.042 -21.34 -4.767 8
-17.611 -20.663 -4.932 16
-16.804 -19.547 -4.898 8
-16.055 -18.524 -4.863 6
-15.391 -17.611 -4.841 6
-14.778 -16.778 -4.824 6
-14.22 -16.014 -4.811 7
-13.711 -15.325 -4.808 7
-13.217 -14.662 -4.796 6
-12.778 -14.066 -4.797 9
-12.36 -13.507 -4.798 8
-11.955 -12.965 -4.79 9
-11.587 -12.477 -4.797 9
-11.242 -12.017 -4.804 9
-10.912 -11.583 -4.813 9
-10.6 -11.171 -4.822 9
-10.304 -10.784 -4.835 10
-10.022 -10.412 -4.846 11
-9.736 -10.045 -4.848 31
-9.209 -9.436 -4.641 8
-8.934 -9.088 -4.626 13
-8.657 -8.745 -4.602 14
-9.328 -12.057 0.874 4
-9.446 -12.083 0.651 255
-9.449 -11.969 0.456 255
-9.447 -11.845 0.265 255
-9.444 -11.73 0.075 255
-9.445 -11.617 -0.113 255
-9.44 -11.505 -0.299 255
-9.366 -11.312 -0.458 2
-20.411 -24.424 -4.936 4
-19.023 -22.566 -4.77 25
-18.153 -21.334 -4.765 26
-17.747 -20.69 -4.942 17
-16.92 -19.556 -4.901 8
-16.166 -18.533 -4.867 6
-15.494 -17.615 -4.843 7
-14.872 -16.776 -4.823 6
-14.313 -16.016 -4.812 6
-13.798 -15.323 -4.807 7
-13.297 -14.656 -4.793 7
-12.858 -14.063 -4.795 7
-12.438 -13.506 -4.798 7
-12.029 -12.963 -4.789 9
-11.655 -12.471 -4.793 9
-11.308 -12.011 -4.8 9
-10.977 -11.579 -4.81 9
-10.664 -11.167 -4.819 8
-10.365 -10.779 -4.831 10
-10.076 -10.403 -4.839 11
-9.784 -10.032 -4.838 46
-9.26 -9.43 -4.637 8
-8.984 -9.083 -4.621 16
-8.703 -8.737 -4.595 14
-9.34 -11.999 0.884 4
-9.456 -12.021 0.663 255
-9.449 -11.894 0.472 255
-9.449 -11.775 0.282 255
-9.451 -11.664 0.092 255
-9.444 -11.543 -0.093 255
-9.442 -11.435 -0.279 255
-9.393 -11.272 -0.446 4
-20.548 -24.431 -4.938 28
-19.148 -22.569 -4.771 23
-18.239 -21.298 -4.752 27
-17.872 -20.701 -4.947 17
-17.039 -19.567 -4.906 8
-16.279 -18.543 -4.871 6
-15.59 -17.61 -4.841 6
-14.962 -16.769 -4.82 7
-14.402 -16.012 -4.809 8
-13.89 -15.326 -4.809 7
-13.384 -14.657 -4.793 4
-12.936 -14.058 -4.793 7
-12.512 -13.499 -4.794 6
-12.101 -12.958 -4.786 9
-11.725 -12.467 -4.79 9
-11.377 -12.008 -4.798 9
-11.038 -11.569 -4.803 9
-10.726 -11.161 -4.815 9
-10.423 -10.771 -4.826 10
-10.133 -10.396 -4.834 11
-9.847 -10.034 -4.839 28
-9.311 -9.424 -4.631 8
-9.017 -9.06 -4.602 29
-8.749 -8.73 -4.589 13
-9.349 -11.937 0.895 4
-9.475 -11.971 0.673 39
-9.451 -11.823 0.487 255
-9.456 -11.71 0.297 255
-9.45 -11.591 0.11 255
-9.446 -11.473 -0.074 255
-9.447 -11.368 -0.26 255
-9.442 -11.259 -0.442 255
-20.69 -24.445 -4.943 34
-19.257 -22.554 -4.766 22
-18.342 -21.282 -4.746 24
-18.012 -20.731 -4.958 16
-17.161 -19.581 -4.911 8
-16.395 -18.556 -4.877 6
-15.698 -17.619 -4.845 7
-15.058 -16.769 -4.82 6
-14.493 -16.01 -4.808 7
-13.974 -15.319 -4.806 7
-13.466 -14.653 -4.791 7
-13.016 -14.055 -4.791 6
-12.586 -13.492 -4.79 7
-12.171 -12.95 -4.781 9
-11.796 -12.463 -4.787 9
-11.444 -12.002 -4.794 8
-11.105 -11.567 -4.802 9
-10.785 -11.151 -4.808 9
-10.48 -10.763 -4.82 10
-10.194 -10.394 -4.833 12
-9.904 -10.03 -4.836 16
-9.367 -9.421 -4.629 9
-9.045 -9.032 -4.578 13
-8.796 -8.722 -4.582 13
-9.368 -11.888 0.904 4
-9.484 -11.91 0.685 26
-9.456 -11.755 0.501 255
-9.457 -11.64 0.313 255
-9.454 -11.524 0.127 255
-9.447 -11.403 -0.056 255
-9.445 -11.295 -0.239 255
-9.448 -11.195 -0.423 255
-20.888 -24.523 -4.968 0
-19.384 -22.559 -4.768 19
-18.458 -21.281 -4.746 18
-18.106 -20.707 -4.949 20
-17.28 -19.592 -4.916 8
-16.524 -18.583 -4.888 6
-15.799 -17.619 -4.845 23
-15.152 -16.766 -4.818 6
-14.582 -16.005 -4.806 7
-14.063 -15.319 -4.806 8
-13.551 -14.652 -4.79 6
-13.099 -14.054 -4.79 6
-12.665 -13.491 -4.789 7
-12.245 -12.946 -4.779 9
-11.864 -12.455 -4.783 9
-11.518 -12.004 -4.796 8
-11.168 -11.559 -4.797 9
-10.849 -11.148 -4.806 9
-10.546 -10.763 -4.819 10
-10.246 -10.382 -4.823 10
-9.962 -10.026 -4.833 15
-9.418 -9.414 -4.623 9
-9.065 -8.997 -4.549 5
-8.844 -8.718 -4.578 15
-9.389 -11.842 0.912 4
-9.484 -11.836 0.699 3
-9.462 -11.691 0.515 255
-9.461 -11.572 0.328 255
-9.455 -11.454 0.144 255
-9.451 -11.336 -0.037 255
-9.451 -11.231 -0.221 255
-9.451 -11.129 -0.402 255
-21.448 -25.022 -5.13 3
-19.494 -22.542 -4.762 13
-18.559 -21.262 -4.739 20
-18.163 -20.64 -4.923 18
-17.397 -19.598 -4.918 9
-16.638 -18.592 -4.892 6
-15.898 -17.617 -4.843 27
-15.256 -16.773 -4.821 6
-14.681 -16.011 -4.809 8
-14.153 -15.319 -4.805 7
-13.636 -14.649 -4.789 4
-13.177 -14.049 -4.787 6
-12.741 -13.486 -4.786 9
-12.323 -12.946 -4.779 9
-11.935 -12.45 -4.78 9
-11.58 -11.992 -4.788 8
-11.234 -11.554 -4.793 9
-10.913 -11.143 -4.803 9
-10.604 -10.754 -4.814 10
-10.308 -10.38 -4.822 12
-10.013 -10.015 -4.825 12
-9.469 -9.407 -4.617 9
-9.11 -8.986 -4.54 5
-8.888 -8.708 -4.569 13
-9.412 -11.798 0.92 3
-9.443 -11.713 0.723 3
-9.463 -11.62 0.53 255
-9.465 -11.504 0.344 255
-9.459 -11.386 0.161 255
-9.454 -11.269 -0.019 255
-9.452 -11.162 -0.201 255
-9.454 -11.063 -0.382 255
-21.624 -25.067 -5.145 3
-19.629 -22.555 -4.766 14
-18.653 -21.233 -4.728 22
-18.214 -20.566 -4.895 8
-17.506 -19.596 -4.917 8
-16.76 -18.609 -4.899 7
-15.999 -17.616 -4.843 28
-15.357 -16.777 -4.823 6
-14.773 -16.008 -4.808 8
-14.237 -15.312 -4.802 7
-13.721 -14.648 -4.788 6
-13.256 -14.042 -4.784 5
-12.818 -13.48 -4.783 7
-12.398 -12.941 -4.776 9
-12.006 -12.445 -4.777 9
-11.65 -11.988 -4.785 9
-11.302 -11.551 -4.791 9
-10.975 -11.136 -4.798 9
-10.662 -10.746 -4.807 10
-10.369 -10.377 -4.819 11
-10.074 -10.014 -4.824 13
-9.525 -9.404 -4.615 8
-9.142 -8.963 -4.521 4
-8.934 -8.699 -4.562 14
-9.446 -11.768 0.925 4
-9.411 -11.601 0.745 5
-9.466 -11.552 0.544 255
-9.463 -11.431 0.361 255
-9.464 -11.322 0.177 255
-9.459 -11.205 -0.002 255
-9.457 -11.098 -0.182 255
-9.457 -10.996 -0.362 255
-21.789 -25.1 -5.155 3
-19.749 -22.549 -4.764 18
-18.738 -21.196 -4.715 24
-18.278 -20.507 -4.872 15
-17.624 -19.603 -4.92 8
-16.867 -18.608 -4.899 6
-16.106 -17.62 -4.845 32
-15.461 -16.783 -4.826 7
-14.862 -16.003 -4.805 7
-14.324 -15.307 -4.799 7
-13.804 -14.641 -4.785 7
-13.342 -14.043 -4.784 5
-12.897 -13.478 -4.782 7
-12.47 -12.935 -4.772 10
-12.079 -12.442 -4.774 10
-11.716 -11.981 -4.781 9
-11.37 -11.548 -4.789 8
-11.039 -11.132 -4.795 9
-10.727 -10.744 -4.806 10
-10.424 -10.367 -4.812 11
-10.129 -10.007 -4.818 13
-9.573 -9.394 -4.607 9
-9.196 -8.961 -4.519 6
-8.985 -8.696 -4.56 14
-9.439 -11.688 0.939 8
-9.386 -11.501 0.764 3
-9.469 -11.485 0.559 255
-9.468 -11.366 0.376 255
-9.462 -11.249 0.195 255
-9.459 -11.135 0.016 255
-9.462 -11.035 -0.164 255
-9.459 -10.93 -0.342 255
-21.963 -25.141 -5.169 3
-19.892 -22.57 -4.771 23
-18.803 -21.135 -4.693 26
-18.336 -20.442 -4.847 15
-17.736 -19.602 -4.92 8
-16.987 -18.622 -4.904 6
-16.21 -17.621 -4.846 32
-15.556 -16.778 -4.824 6
-14.956 -16.002 -4.805 8
-14.412 -15.303 -4.797 7
-13.889 -14.638 -4.783 6
-13.423 -14.039 -4.782 7
-12.976 -13.475 -4.78 8
-12.548 -12.933 -4.771 9
-12.15 -12.436 -4.771 9
-11.789 -11.979 -4.779 8
-11.43 -11.536 -4.781 9
-11.101 -11.124 -4.789 9
-10.783 -10.733 -4.798 10
-10.483 -10.362 -4.808 11
-10.183 -9.998 -4.811 13
-9.632 -9.394 -4.607 7
-9.261 -8.969 -4.526 7
-9.034 -8.69 -4.554 16
-9.461 -11.645 0.947 11
-9.376 -11.418 0.781 3
-9.464 -11.408 0.575 255
-9.47 -11.299 0.391 255
-9.466 -11.184 0.211 255
-9.466 -11.074 0.033 255
-9.467 -10.971 -0.146 255
-9.464 -10.866 -0.322 255
-9.391 -10.682 -0.471 0
-20.059 -22.615 -4.787 22
-18.881 -21.089 -4.676 24
-18.397 -20.38 -4.823 15
-17.859 -19.612 -4.924 8
-17.102 -18.628 -4.907 6
-16.314 -17.622 -4.846 33
-15.658 -16.78 -4.825 7
-15.046 -15.996 -4.802 8
-14.507 -15.306 -4.799 7
-13.977 -14.637 -4.783 6
-13.506 -14.037 -4.781 7
-13.055 -13.471 -4.778 9
-12.618 -12.923 -4.765 9
-12.218 -12.428 -4.766 9
-11.853 -11.969 -4.773 8
-11.499 -11.532 -4.779 9
-11.168 -11.121 -4.787 9
-10.846 -10.729 -4.795 10
-10.54 -10.354 -4.802 12
-10.238 -9.991 -4.806 14
-9.68 -9.384 -4.599 9
-9.288 -8.941 -4.502 7
-9.063 -8.666 -4.533 6
-9.464 -11.577 0.959 7
-9.37 -11.342 0.795 3
-9.469 -11.344 0.589 255
-9.472 -11.232 0.407 255
-9.471 -11.121 0.227 255
-9.466 -11.005 0.051 255
-9.468 -10.904 -0.127 255
-9.468 -10.803 -0.303 255
-9.402 -10.628 -0.453 3
-20.242 -22.678 -4.809 22
-19.026 -21.116 -4.686 27
-18.462 -20.323 -4.801 11
-17.987 -19.628 -4.93 14
-17.215 -18.632 -4.909 6
-16.429 -17.634 -4.851 33
-15.76 -16.783 -4.826 6
-15.146 -15.999 -4.803 8
-14.597 -15.303 -4.797 6
-14.062 -14.634 -4.781 7
-13.59 -14.034 -4.779 6
-13.132 -13.465 -4.774 9
-12.69 -12.916 -4.761 9
-12.295 -12.427 -4.765 9
-11.923 -11.964 -4.77 8
-11.564 -11.526 -4.774 9
-11.225 -11.109 -4.778 9
-10.904 -10.719 -4.788 10
-10.599 -10.348 -4.798 14
-10.296 -9.986 -4.802 14
-9.736 -9.381 -4.596 5
-9.21 -8.812 -4.394 3
-9.094 -8.644 -4.514 4
-9.37 -11.394 0.991 8
-9.359 -11.26 0.811 3
-9.473 -11.28 0.602 255
-9.471 -11.162 0.423 255
-9.475 -11.057 0.243 255
-9.475 -10.947 0.067 255
-9.475 -10.844 -0.109 255
-9.472 -10.74 -0.284 255
-9.46 -10.626 -0.453 97
-20.412 -22.725 -4.825 23
-19.042 -21.0 -4.643 30
-18.543 -20.284 -4.786 9
-18.098 -19.624 -4.929 22
-17.317 -18.625 -4.906 6
-16.542 -17.642 -4.855 33
-15.859 -16.782 -4.826 6
-15.251 -16.008 -4.808 8
-14.684 -15.298 -4.795 6
-14.151 -14.632 -4.78 6
-13.674 -14.032 -4.778 7
-13.212 -13.462 -4.772 9
-12.771 -12.916 -4.761 9
-12.366 -12.42 -4.761 9
-11.99 -11.957 -4.765 9
-11.633 -11.522 -4.772 9
-11.292 -11.106 -4.776 9
-10.965 -10.713 -4.783 11
-10.654 -10.337 -4.789 21
-10.35 -9.976 -4.794 17
-9.778 -9.363 -4.582 7
-9.277 -8.822 -4.403 3
-9.148 -8.642 -4.512 4
-9.424 -11.391 0.991 255
-9.371 -11.205 0.822 3
-9.479 -11.219 0.615 255
-9.483 -11.107 0.436 255
-9.476 -10.991 0.26 255
-9.479 -10.883 0.084 255
-9.479 -10.78 -0.091 255
-9.47 -10.672 -0.263 255
-9.466 -10.567 -0.433 255
-19.879 -21.992 -4.572 2
-19.265 -21.113 -4.684 27
-18.648 -20.269 -4.781 8
-18.216 -19.628 -4.93 17
-17.433 -18.631 -4.908 6
-16.652 -17.647 -4.857 32
-15.965 -16.786 -4.827 6
-15.346 -16.005 -4.806 10
-14.78 -15.3 -4.796 7
-14.234 -14.626 -4.777 7
-13.75 -14.021 -4.772 7
-13.289 -13.454 -4.768 7
-12.841 -12.905 -4.754 9
-12.437 -12.413 -4.757 9
-12.062 -11.954 -4.763 8
-11.701 -11.517 -4.769 9
-11.359 -11.102 -4.774 9
-11.028 -10.708 -4.78 10
-10.718 -10.336 -4.788 25
-10.4 -9.964 -4.785 28
-9.409 -8.955 -4.251 1
-9.313 -8.803 -4.386 5
-9.194 -8.633 -4.505 6
-9.426 -11.323 1.003 255
-9.374 -11.141 0.834 4
-9.493 -11.167 0.626 255
-9.479 -11.034 0.453 255
-9.485 -10.932 0.274 255
-9.487 -10.826 0.099 255
-9.485 -10.721 -0.074 255
-9.479 -10.614 -0.245 255
-9.472 -10.507 -0.414 255
-20.744 -22.804 -4.852 22
-19.393 -21.118 -4.686 25
-18.797 -20.302 -4.793 9
-18.348 -19.645 -4.937 10
-17.536 -18.621 -4.904 6
-16.768 -17.657 -4.861 33
-16.062 -16.781 -4.825 6
-15.444 -16.005 -4.806 8
-14.868 -15.293 -4.792 7
-14.314 -14.615 -4.771 7
-13.837 -14.02 -4.772 6
-13.369 -13.45 -4.766 8
-12.919 -12.902 -4.753 10
-12.511 -12.409 -4.754 10
-12.13 -11.945 -4.757 9
-11.767 -11.51 -4.764 9
-11.423 -11.096 -4.77 9
-11.089 -10.7 -4.774 22
-10.773 -10.324 -4.78 34
-10.464 -9.964 -4.784 19
-9.308 -8.806 -4.131 2
-9.332 -8.768 -4.357 6
-9.245 -8.63 -4.502 7
-9.432 -11.263 1.014 255
-9.382 -11.083 0.846 5
-9.507 -11.115 0.637 184
-9.485 -10.973 0.467 255
-9.491 -10.872 0.289 255
-9.485 -10.756 0.118 255
-9.485 -10.654 -0.055 255
-9.479 -10.548 -0.225 255
-9.475 -10.444 -0.393 255
-20.908 -22.841 -4.865 25
-19.536 -21.141 -4.695 26
-18.941 -20.329 -4.804 17
-18.47 -19.65 -4.939 9
-17.654 -18.629 -4.908 6
-16.884 -17.667 -4.866 33
-16.178 -16.796 -4.832 6
-15.539 -16.003 -4.805 8
-14.953 -15.284 -4.787 7
-14.403 -14.614 -4.77 6
-13.921 -14.017 -4.77 6
-13.446 -13.443 -4.761 7
-12.992 -12.894 -4.747 9
-12.583 -12.402 -4.75 10
-12.2 -11.939 -4.754 9
-11.836 -11.506 -4.761 9
-11.486 -11.088 -4.764 9
-11.15 -10.693 -4.769 11
-10.832 -10.318 -4.775 36
-10.522 -9.958 -4.78 16
-9.309 -8.753 -4.088 4
-9.343 -8.725 -4.321 6
-9.291 -8.62 -4.494 8
-9.43 -11.192 1.026 255
-9.393 -11.029 0.856 7
-9.546 -11.094 0.642 31
-9.488 -10.91 0.481 255
-9.491 -10.806 0.306 255
-9.491 -10.696 0.134 255
-9.49 -10.594 -0.038 255
-9.487 -10.492 -0.208 255
-9.48 -10.385 -0.374 255
-20.457 -22.208 -4.647 3
-19.688 -21.172 -4.706 24
-19.056 -20.324 -4.802 24
-18.597 -19.66 -4.943 9
-17.765 -18.628 -4.907 6
-17.0 -17.676 -4.87 34
-16.294 -16.809 -4.838 6
-15.632 -15.997 -4.802 8
-15.044 -15.279 -4.785 7
-14.494 -14.613 -4.77 7
-14.008 -14.016 -4.769 7
-13.531 -13.443 -4.761 7
-13.073 -12.893 -4.747 9
-12.654 -12.394 -4.745 33
-12.27 -11.933 -4.749 8
-11.907 -11.503 -4.759 9
-11.553 -11.084 -4.761 9
-11.216 -10.69 -4.767 10
-10.892 -10.311 -4.77 36
-9.319 -8.766 -3.848 2
-9.325 -8.714 -4.057 5
-9.379 -8.707 -4.306 6
-9.325 -8.6 -4.476 6
-9.43 -11.126 1.038 255
-9.408 -10.98 0.866 7
-9.56 -11.041 0.653 7
-9.496 -10.852 0.495 255
-9.496 -10.745 0.321 255
-9.496 -10.636 0.15 255
-9.493 -10.531 -0.02 255
-9.487 -10.426 -0.187 255
-9.48 -10.319 -0.353 255
-20.488 -22.102 -4.61 4
-19.835 -21.195 -4.714 25
-19.172 -20.319 -4.8 26
-18.719 -19.664 -4.945 9
-17.887 -18.637 -4.911 7
-17.106 -17.674 -4.869 29
-16.405 -16.817 -4.842 6
-15.733 -15.998 -4.803 7
-15.137 -15.278 -4.784 7
-14.581 -14.608 -4.767 7
-14.092 -14.012 -4.767 6
-13.608 -13.435 -4.757 7
-13.151 -12.889 -4.744 9
-12.726 -12.387 -4.74 30
-12.342 -11.929 -4.747 8
-11.973 -11.496 -4.754 9
-11.618 -11.078 -4.757 9
-11.274 -10.68 -4.759 10
-10.952 -10.305 -4.765 35
-9.314 -8.708 -3.803 3
-9.348 -8.683 -4.032 5
-9.426 -8.697 -4.297 5
-9.396 -8.614 -4.488 4
-9.432 -11.062 1.049 255
-9.431 -10.941 0.873 7
-9.487 -10.891 0.685 5
-9.5 -10.792 0.509 255
-9.498 -10.681 0.337 255
-9.495 -10.57 0.168 255
-9.495 -10.468 -0.002 255
-9.491 -10.366 -0.169 255
-9.484 -10.26 -0.334 255
-19.894 -21.327 -4.344 238
-19.979 -21.216 -4.722 25
-19.298 -20.324 -4.802 27
-18.846 -19.674 -4.949 9
-18.001 -18.638 -4.911 6
-17.206 -17.665 -4.865 18
-16.514 -16.822 -4.844 6
-15.834 -15.999 -4.803 8
-15.231 -15.275 -4.783 8
-14.677 -14.612 -4.769 6
-14.177 -14.007 -4.764 6
-13.686 -13.426 -4.752 7
-13.227 -12.882 -4.74 9
-12.8 -12.381 -4.737 10
-12.415 -11.925 -4.744 9
-12.037 -11.485 -4.747 9
-11.68 -11.068 -4.75 9
-11.335 -10.672 -4.754 10
-9.352 -8.745 -3.59 1
-9.327 -8.667 -3.771 5
-9.371 -8.652 -4.006 5
-9.472 -8.687 -4.289 5
-9.448 -8.61 -4.484 7
-9.435 -10.999 1.061 255
-9.459 -10.907 0.88 6
-9.445 -10.777 0.709 2
-9.5 -10.725 0.524 255
-9.498 -10.615 0.353 255
-9.497 -10.507 0.185 255
-9.494 -10.403 0.017 255
-9.493 -10.304 -0.15 255
-9.488 -10.2 -0.314 255
-19.906 -21.207 -4.302 251
-20.129 -21.241 -4.731 24
-19.419 -20.323 -4.801 27
-18.971 -19.68 -4.951 11
-18.131 -18.654 -4.918 6
-17.309 -17.66 -4.863 15
-16.615 -16.818 -4.843 7
-15.935 -16.0 -4.804 8
-15.322 -15.27 -4.78 7
-14.759 -14.6 -4.763 7
-14.259 -13.999 -4.76 7
-13.774 -13.428 -4.753 7
-13.303 -12.875 -4.736 9
-12.879 -12.381 -4.736 9
-12.483 -11.915 -4.738 8
-12.111 -11.484 -4.746 17
-11.747 -11.063 -4.746 9
-11.401 -10.668 -4.751 10
-9.325 -8.667 -3.531 3
-9.339 -8.625 -3.739 5
-9.407 -8.632 -3.99 5
-9.498 -8.659 -4.266 5
-9.476 -8.584 -4.462 10
-9.439 -10.939 1.071 255
-9.497 -10.885 0.884 10
-9.415 -10.678 0.73 3
-9.502 -10.662 0.539 255
-9.502 -10.556 0.368 255
-9.504 -10.449 0.2 255
-9.501 -10.346 0.033 255
-9.494 -10.241 -0.131 255
-9.492 -10.141 -0.295 255
-19.951 -21.122 -4.273 11
-20.216 -21.199 -4.716 30
-19.546 -20.328 -4.803 29
-19.096 -19.686 -4.954 11
-18.251 -18.659 -4.92 7
-17.405 -17.645 -4.856 20
-16.727 -16.825 -4.845 6
-16.036 -16.0 -4.804 8
-15.416 -15.266 -4.779 7
-14.845 -14.593 -4.759 6
-14.346 -13.997 -4.759 6
-13.852 -13.419 -4.748 7
-13.379 -12.868 -4.732 9
-12.954 -12.375 -4.733 9
-12.558 -11.913 -4.736 8
-12.172 -11.47 -4.737 37
-11.812 -11.056 -4.742 9
-9.522 -8.855 -3.434 255
-9.329 -8.618 -3.494 5
-9.366 -8.598 -3.718 5
-9.45 -8.62 -3.98 4
-9.637 -8.733 -4.328 6
-9.545 -8.595 -4.472 5
-9.438 -10.872 1.083 255
0.0 -0.0 3.0 0
-9.403 -10.6 0.747 3
-9.5 -10.596 0.554 255
-9.506 -10.496 0.383 255
-9.502 -10.384 0.217 255
-9.499 -10.28 0.052 255
-9.498 -10.182 -0.113 255
-9.504 -10.091 -0.279 255
-21.157 -22.259 -4.664 3
-20.313 -21.167 -4.704 26
-19.671 -20.328 -4.803 29
-19.23 -19.699 -4.959 15
-18.376 -18.669 -4.925 7
-17.522 -17.652 -4.859 16
-16.844 -16.836 -4.851 6
-16.143 -16.006 -4.806 7
-15.51 -15.263 -4.777 6
-14.932 -14.586 -4.756 7
-14.431 -13.991 -4.755 7
-13.937 -13.418 -4.747 7
-13.457 -12.862 -4.728 9
-13.026 -12.365 -4.727 9
-12.621 -11.898 -4.726 9
-12.238 -11.462 -4.731 34
-11.88 -11.051 -4.738 9
-9.402 -8.691 -3.314 6
-9.343 -8.578 -3.464 5
-9.394 -8.571 -3.696 5
-9.514 -8.627 -3.986 2
-9.671 -8.711 -4.31 6
-9.597 -8.591 -4.468 4
-9.437 -10.806 1.095 255
0.0 -0.0 3.0 0
-9.396 -10.528 0.762 3
-9.504 -10.535 0.568 255
-9.504 -10.429 0.4 255
-9.506 -10.324 0.234 255
-9.505 -10.224 0.068 255
-9.504 -10.125 -0.096 255
-9.553 -10.079 -0.275 5
-21.904 -22.901 -4.885 13
-20.531 -21.261 -4.738 29
-19.795 -20.329 -4.803 28
-19.361 -19.709 -4.963 15
-18.493 -18.67 -4.925 7
-17.636 -17.656 -4.861 13
-16.943 -16.828 -4.847 6
-16.258 -16.018 -4.813 7
-15.604 -15.259 -4.775 7
-15.018 -14.579 -4.752 7
-14.518 -13.988 -4.754 7
-14.012 -13.406 -4.74 7
-13.539 -12.86 -4.727 9
-13.105 -12.365 -4.726 10
-12.694 -11.893 -4.723 9
-12.312 -11.46 -4.73 9
-11.95 -11.048 -4.736 9
-9.332 -8.572 -3.228 13
-9.365 -8.546 -3.44 5
-9.434 -8.557 -3.685 5
-10.265 -9.252 -4.493 16
-9.967 -8.925 -4.489 25
-9.645 -8.583 -4.461 4
-9.44 -10.745 1.105 255
-9.404 -10.585 0.942 3
-9.4 -10.468 0.775 3
-9.51 -10.479 0.581 255
-9.51 -10.372 0.414 255
-9.504 -10.259 0.251 255
-9.506 -10.161 0.086 255
-9.51 -10.069 -0.078 255
-9.578 -10.043 -0.263 1
-22.135 -22.999 -4.919 15
-20.79 -21.395 -4.787 26
-19.922 -20.332 -4.805 30
-19.492 -19.718 -4.967 15
-18.619 -18.68 -4.929 7
-17.765 -17.672 -4.868 9
-17.058 -16.836 -4.851 6
-16.368 -16.025 -4.816 7
-15.701 -15.257 -4.774 7
-15.108 -14.574 -4.749 7
-14.606 -13.984 -4.751 7
-14.098 -13.404 -4.739 9
-13.615 -12.851 -4.722 9
-13.18 -12.357 -4.721 12
-12.767 -11.887 -4.72 10
-12.384 -11.456 -4.727 9
-9.343 -8.584 -3.011 2
-9.343 -8.531 -3.198 6
-9.389 -8.516 -3.417 6
-9.491 -8.555 -3.684 3
-10.269 -9.2 -4.45 23
-9.996 -8.898 -4.466 16
-9.694 -8.575 -4.454 8
-9.444 -10.685 1.116 255
-9.439 -10.561 0.947 18
-9.4 -10.405 0.788 4
-9.511 -10.415 0.595 255
-9.505 -10.304 0.431 255
-9.512 -10.205 0.266 255
-9.511 -10.104 0.103 255
-9.553 -10.052 -0.073 5
-24.659 -25.696 -5.349 2
-21.584 -22.287 -4.674 6
-20.907 -21.381 -4.782 26
-20.053 -20.336 -4.806 29
-19.624 -19.727 -4.97 16
-18.737 -18.68 -4.929 6
-17.885 -17.68 -4.872 7
-17.165 -16.835 -4.85 7
-16.47 -16.025 -4.816 8
-15.803 -15.261 -4.776 6
-15.197 -14.568 -4.746 6
-14.694 -13.98 -4.749 6
-14.184 -13.401 -4.737 7
-13.691 -12.843 -4.717 9
-13.255 -12.35 -4.717 23
-12.84 -11.882 -4.716 8
-12.451 -11.446 -4.721 9
-9.335 -8.525 -2.969 4
-9.356 -8.49 -3.169 6
-9.429 -8.501 -3.406 5
-9.586 -8.59 -3.711 0
-10.431 -9.289 -4.522 13
-10.033 -8.877 -4.449 11
-9.738 -8.563 -4.444 10
-9.441 -10.619 1.128 255
-9.46 -10.522 0.955 255
-9.403 -10.346 0.801 4
-9.522 -10.364 0.607 255
-9.516 -10.252 0.444 255
-9.512 -10.142 0.282 255
-9.519 -10.051 0.118 255
-9.578 -10.015 -0.062 1
-24.832 -25.716 -5.356 3
-22.009 -22.584 -4.776 8
-21.097 -21.441 -4.804 23
-20.178 -20.336 -4.806 31
-19.753 -19.732 -4.972 17
-18.858 -18.682 -4.93 7
-18.003 -17.685 -4.874 6
-17.264 -16.826 -4.846 6
-16.575 -16.026 -4.816 7
-15.909 -15.266 -4.778 7
-15.293 -14.568 -4.746 6
-14.774 -13.968 -4.743 10
-14.268 -13.396 -4.734 7
-13.776 -12.841 -4.716 9
-13.327 -12.34 -4.711 29
-12.914 -11.875 -4.712 8
-9.362 -8.554 -2.77 1
-9.342 -8.479 -2.937 5
-9.38 -8.46 -3.147 6
-9.475 -8.49 -3.398 4
-10.25 -9.129 -4.132 18
-10.363 -9.174 -4.429 11
-10.083 -8.868 -4.441 11
-9.8 -8.567 -4.447 15
-9.441 -10.556 1.139 255
-9.46 -10.458 0.967 255
-9.413 -10.295 0.812 4
-9.554 -10.336 0.614 31
-9.513 -10.187 0.46 255
-9.515 -10.083 0.298 255
-9.562 -10.034 0.123 6
-20.035 -20.822 -3.366 3
-25.019 -25.749 -5.366 3
-22.638 -23.085 -4.949 12
-21.231 -21.442 -4.804 26
-20.306 -20.336 -4.806 29
-19.888 -19.742 -4.976 17
-18.982 -18.686 -4.932 6
-18.124 -17.692 -4.877 6
-17.358 -16.811 -4.839 6
-16.68 -16.026 -4.816 7
-16.011 -15.268 -4.779 7
-15.388 -14.566 -4.745 6
-14.856 -13.959 -4.737 7
-14.346 -13.386 -4.728 7
-9.332 -8.644 -2.194 6
-13.402 -12.332 -4.706 33
-12.984 -11.867 -4.707 8
-9.342 -8.484 -2.722 3
-9.353 -8.437 -2.907 5
-9.417 -8.442 -3.133 6
-9.536 -8.494 -3.4 1
-10.253 -9.076 -4.091 18
-10.531 -9.266 -4.503 23
-10.238 -8.952 -4.511 20
-9.857 -8.565 -4.446 43
-9.444 -10.496 1.149 255
-9.46 -10.395 0.979 255
-9.423 -10.244 0.823 4
-9.543 -10.262 0.631 15
-9.521 -10.133 0.474 255
-9.522 -10.028 0.313 255
-9.589 -10.0 0.133 2
-26.986 -27.872 -5.521 5
-25.206 -25.781 -5.377 2
-22.823 -23.13 -4.964 15
-21.275 -21.352 -4.772 25
-20.429 -20.331 -4.804 29
-20.026 -19.755 -4.981 15
-19.108 -18.693 -4.935 7
-18.237 -17.69 -4.876 5
-17.468 -16.812 -4.84 6
-16.786 -16.026 -4.816 8
-16.123 -15.278 -4.784 7
-15.478 -14.56 -4.742 7
-14.947 -13.956 -4.736 7
-14.432 -13.382 -4.726 7
-9.366 -8.622 -2.181 31
-13.479 -12.327 -4.703 34
-9.381 -8.521 -2.533 0
-9.344 -8.433 -2.688 5
-9.379 -8.409 -2.888 5
-9.459 -8.428 -3.124 5
-10.232 -9.059 -3.826 5
-10.263 -9.031 -4.056 19
-10.444 -9.135 -4.397 12
-10.286 -8.939 -4.501 23
-9.898 -8.551 -4.433 36
-9.438 -10.428 1.161 255
-9.454 -10.327 0.993 255
-9.443 -10.205 0.831 4
-9.55 -10.208 0.643 2
-9.52 -10.071 0.489 255
-9.551 -9.998 0.321 13
-20.038 -20.77 -2.956 11
-27.198 -27.918 -5.535 5
-25.402 -25.82 -5.389 3
0.0 -0.0 3.0 0
-21.373 -21.317 -4.759 25
-20.56 -20.335 -4.806 29
-20.158 -19.76 -4.984 15
-19.235 -18.7 -4.937 6
-18.355 -17.694 -4.878 6
-17.573 -16.807 -4.837 6
-16.891 -16.025 -4.816 8
-16.237 -15.289 -4.79 7
-15.571 -14.555 -4.739 7
-15.033 -13.948 -4.731 7
-14.516 -13.376 -4.722 7
-9.4 -8.599 -2.167 255
-13.552 -12.316 -4.696 33
-9.358 -8.447 -2.485 2
-9.359 -8.394 -2.662 5
-9.41 -8.385 -2.871 5
-9.513 -8.424 -3.12 3
-10.259 -9.027 -3.802 6
-10.287 -8.997 -4.03 17
-10.396 -9.039 -4.32 21
-10.328 -8.923 -4.487 28
-9.939 -8.536 -4.42 35
-9.442 -10.371 1.171 255
-9.456 -10.268 1.004 255
-9.458 -10.159 0.841 4
-9.498 -10.09 0.67 2
-9.527 -10.017 0.502 255
-9.593 -9.981 0.326 5
-29.528 -30.417 -5.722 5
-27.419 -27.972 -5.552 5
-25.604 -25.865 -5.404 3
-23.173 -23.193 -4.986 14
-21.534 -21.345 -4.769 24
-20.694 -20.339 -4.807 28
-20.291 -19.766 -4.986 16
-19.362 -18.705 -4.94 6
-18.474 -17.697 -4.879 5
-17.692 -16.815 -4.841 6
-16.988 -16.017 -4.812 8
-16.351 -15.301 -4.796 7
-15.655 -14.543 -4.733 31
-15.115 -13.938 -4.726 7
-9.323 -8.537 -1.929 1
-9.384 -8.532 -2.127 255
-13.627 -12.308 -4.691 20
-9.348 -8.386 -2.446 4
-9.373 -8.356 -2.636 6
-9.449 -8.368 -2.86 5
-9.588 -8.439 -3.131 0
-10.301 -9.009 -3.789 7
-10.165 -8.837 -3.904 13
-10.225 -8.837 -4.156 27
-10.373 -8.909 -4.475 18
-9.979 -8.52 -4.407 20
-9.438 -10.305 1.183 255
-9.449 -10.199 1.017 255
-9.481 -10.123 0.848 3
-9.448 -9.977 0.697 3
-9.556 -9.986 0.51 21
-20.034 -20.715 -2.551 30
-29.43 -30.131 -5.64 2
-27.636 -28.019 -5.566 5
-25.807 -25.907 -5.418 3
-23.343 -23.218 -4.995 15
-21.448 -21.127 -4.69 28
-20.837 -20.352 -4.812 28
-20.43 -19.777 -4.99 15
-19.495 -18.715 -4.944 7
-18.604 -17.71 -4.885 8
-17.8 -16.811 -4.839 6
-17.083 -16.004 -4.806 8
-16.458 -15.304 -4.798 7
-15.748 -14.538 -4.73 31
-15.207 -13.934 -4.724 8
-9.373 -8.529 -1.924 11
-9.376 -8.472 -2.091 255
-9.323 -8.369 -2.23 4
-9.365 -8.349 -2.422 5
-9.404 -8.332 -2.62 5
-9.494 -8.357 -2.852 4
-12.115 -10.599 -4.701 11
-10.326 -8.977 -3.765 23
-10.317 -8.915 -3.966 28
-10.256 -8.811 -4.135 26
-10.402 -8.881 -4.452 20
-9.994 -8.483 -4.374 19
-9.44 -10.246 1.193 255
-9.453 -10.142 1.029 255
-9.526 -10.11 0.851 2
-9.424 -9.892 0.716 3
-9.592 -9.963 0.516 3
-29.147 -29.956 -5.027 4
-29.598 -30.116 -5.636 2
-27.866 -28.079 -5.585 5
-26.001 -25.941 -5.429 3
-23.527 -23.256 -5.008 14
-21.496 -21.042 -4.659 26
-20.974 -20.358 -4.815 27
-20.563 -19.782 -4.992 15
-19.612 -18.709 -4.942 6
-18.704 -17.692 -4.877 34
-17.922 -16.82 -4.843 7
-17.183 -15.998 -4.803 8
-16.559 -15.301 -4.796 7
-15.844 -14.535 -4.728 30
-15.298 -13.931 -4.722 7
-9.398 -8.499 -1.907 255
-9.357 -8.403 -2.049 255
-9.285 -8.283 -2.176 12
-9.379 -8.311 -2.397 5
-9.438 -8.31 -2.605 5
-9.566 -8.369 -2.86 1
-12.182 -10.593 -4.696 27
-10.387 -8.976 -3.764 29
-10.21 -8.771 -3.853 24
-10.343 -8.833 -4.153 35
-10.455 -8.874 -4.446 40
-10.011 -8.447 -4.343 17
-9.441 -10.187 1.204 255
-9.456 -10.086 1.039 255
-9.418 -9.936 0.888 2
-9.403 -9.81 0.735 6
-32.117 -33.157 -5.267 24
0.0 -0.0 3.0 0
-29.077 -29.405 -5.432 8
-28.092 -28.131 -5.601 5
-26.21 -25.989 -5.444 3
-23.697 -23.279 -5.016 14
-21.907 -21.311 -4.757 30
-21.117 -20.369 -4.819 25
-20.7 -19.789 -4.995 16
-19.739 -18.713 -4.943 6
-18.817 -17.689 -4.876 37
-18.031 -16.816 -4.841 7
-17.275 -15.983 -4.795 8
-16.66 -15.299 -4.795 7
-15.943 -14.534 -4.728 29
-15.387 -13.923 -4.718 7
-9.381 -8.431 -1.868 255
-9.343 -8.338 -2.01 255
-9.293 -8.239 -2.148 255
-9.404 -8.282 -2.378 5
-9.485 -8.301 -2.599 4
-12.62 -10.973 -4.684 10
-12.243 -10.582 -4.688 34
-10.429 -8.958 -3.75 25
-10.409 -8.888 -3.944 24
-10.364 -8.797 -4.124 27
-10.497 -8.857 -4.432 42
-10.062 -8.441 -4.338 16
-9.441 -10.127 1.214 255
-9.454 -10.024 1.051 255
-9.416 -9.874 0.901 13
-9.414 -9.762 0.746 5
-32.393 -33.241 -5.288 24
0.0 -0.0 3.0 0
-29.151 -29.3 -5.402 4
-28.321 -28.187 -5.618 4
-26.414 -26.029 -5.457 4
-23.857 -23.291 -5.02 11
-22.059 -21.326 -4.762 33
-21.275 -20.393 -4.828 24
-20.847 -19.806 -5.002 16
-19.881 -18.73 -4.95 6
-18.948 -17.7 -4.88 28
-18.15 -16.821 -4.844 7
-17.379 -15.977 -4.793 8
-16.756 -15.29 -4.791 6
-16.042 -14.533 -4.728 31
-15.475 -13.916 -4.714 7
-9.37 -8.369 -1.832 255
-9.329 -8.274 -1.971 255
-9.284 -8.18 -2.112 255
-9.437 -8.26 -2.364 5
-9.543 -8.301 -2.599 2
-12.691 -10.967 -4.679 20
-12.31 -10.575 -4.683 39
-10.499 -8.963 -3.754 21
-10.383 -8.812 -3.885 28
-10.422 -8.795 -4.122 22
-10.523 -8.826 -4.406 35
-10.116 -8.436 -4.334 15
-9.442 -10.068 1.225 255
-9.46 -9.971 1.062 255
-9.473 -9.875 0.901 255
-9.419 -9.709 0.758 4
-32.66 -33.311 -5.305 23
0.0 -0.0 3.0 0
0.0 -0.0 3.0 0
-28.551 -28.241 -5.634 4
-26.618 -26.069 -5.47 3
-24.059 -23.342 -5.037 11
-22.182 -21.311 -4.757 29
-21.427 -20.41 -4.835 23
-20.987 -19.814 -5.005 16
-20.015 -18.738 -4.954 6
-19.065 -17.698 -4.88 24
-18.262 -16.818 -4.843 6
-17.485 -15.975 -4.791 8
-16.851 -15.281 -4.786 6
-16.147 -14.536 -4.729 30
-15.57 -13.914 -4.713 7
-9.353 -8.301 -1.793 255
-9.315 -8.209 -1.933 255
-9.269 -8.117 -2.072 255
-9.476 -8.243 -2.353 4
-13.154 -11.371 -4.67 34
-12.754 -10.955 -4.671 34
-12.375 -10.566 -4.677 40
-10.563 -8.963 -3.754 13
-10.46 -8.825 -3.895 33
-10.496 -8.805 -4.13 29
-10.584 -8.825 -4.405 42
-10.178 -8.438 -4.335 17
-9.442 -10.009 1.235 255
-9.457 -9.908 1.074 255
-9.476 -9.819 0.913 255
-9.427 -9.659 0.77 5
-32.913 -33.367 -5.319 22
0.0 -0.0 3.0 0
0.0 -0.0 3.0 0
-28.795 -28.307 -5.654 4
-26.829 -26.113 -5.485 3
-24.242 -23.374 -5.048 9
-22.522 -21.504 -4.827 30
-21.571 -20.42 -4.839 23
-21.124 -19.819 -5.007 17
-20.146 -18.743 -4.956 6
-19.182 -17.694 -4.878 21
-18.376 -16.818 -4.843 6
-17.588 -15.968 -4.788 7
-16.947 -15.272 -4.782 7
-16.246 -14.535 -4.728 30
-15.662 -13.909 -4.71 8
-9.332 -8.231 -1.752 255
-9.297 -8.143 -1.893 255
-9.291 -8.085 -2.052 67
-9.528 -8.237 -2.349 3
-13.221 -11.359 -4.662 39
-12.819 -10.944 -4.663 14
-12.442 -10.559 -4.672 42
-10.64 -8.975 -3.763 12
-10.488 -8.796 -3.872 27
-10.832 -9.033 -4.315 28
-10.629 -8.81 -4.393 38
-10.232 -8.434 -4.331 17
-9.444 -9.953 1.245 255
-9.459 -9.853 1.085 255
-9.478 -9.762 0.925 255
-9.432 -9.606 0.782 5
-33.414 -33.669 -5.395 16
0.0 -0.0 3.0 0
0.0 -0.0 3.0 0
-29.034 -28.367 -5.673 5
-27.046 -26.16 -5.5 3
-24.417 -23.397 -5.056 7
-22.824 -21.656 -4.882 27
-21.718 -20.431 -4.843 23
-21.267 -19.828 -5.011 16
-20.272 -18.742 -4.956 6
-19.302 -17.694 -4.878 15
-18.494 -16.82 -4.843 6
-17.698 -15.967 -4.788 7
-17.043 -15.263 -4.777 7
-16.345 -14.532 -4.727 35
-9.382 -8.28 -1.59 0
-9.333 -8.181 -1.724 255
-9.318 -8.111 -1.873 72
-9.379 -8.112 -2.069 9
-9.595 -8.244 -2.354 0
-13.291 -11.349 -4.655 37
-12.893 -10.941 -4.661 10
-12.512 -10.555 -4.668 43
-10.663 -8.94 -3.737 24
-10.549 -8.793 -3.87 28
-10.752 -8.912 -4.217 31
-10.67 -8.793 -4.378 21
-10.278 -8.423 -4.322 13
-9.449 -9.899 1.255 255
-9.462 -9.797 1.096 255
-9.478 -9.703 0.937 255
-9.442 -9.559 0.793 5
-33.797 -33.849 -5.44 8
0.0 -0.0 3.0 0
-29.209 -28.646 -5.214 2
-29.266 -28.418 -5.688 4
-27.263 -26.208 -5.516 3
-24.596 -23.422 -5.065 6
-22.967 -21.656 -4.882 26
-21.865 -20.441 -4.847 21
-21.405 -19.831 -5.012 17
-20.398 -18.74 -4.955 6
-19.431 -17.701 -4.881 8
-18.614 -16.823 -4.845 6
-17.81 -15.967 -4.788 8
-17.128 -15.242 -4.766 7
-16.436 -14.522 -4.721 32
-9.38 -8.227 -1.561 3
-9.377 -8.169 -1.716 6
-9.398 -8.13 -1.885 7
-9.501 -8.167 -2.103 4
-13.801 -11.785 -4.653 33
-13.366 -11.344 -4.652 35
-12.962 -10.932 -4.654 10
-12.576 -10.544 -4.661 41
-10.749 -8.958 -3.751 17
-10.601 -8.785 -3.863 20
-10.783 -8.886 -4.195 29
-10.748 -8.805 -4.388 37
-10.33 -8.415 -4.315 13
-9.462 -9.854 1.262 104
-9.458 -9.734 1.108 255
-9.479 -9.648 0.949 255
-9.455 -9.515 0.803 5
-38.224 -38.053 -6.488 3
0.0 -0.0 3.0 0
-29.286 -28.546 -5.186 14
-29.518 -28.486 -5.709 4
-27.478 -26.252 -5.53 3
-24.794 -23.464 -5.079 5
-23.061 -21.61 -4.865 34
-21.988 -20.428 -4.842 23
-21.546 -19.837 -5.015 18
-20.542 -18.754 -4.961 6
-19.574 -17.719 -4.889 6
-18.729 -16.821 -4.844 7
-17.917 -15.963 -4.786 7
-17.219 -15.227 -4.759 6
-16.542 -14.524 -4.723 19
-9.373 -8.169 -1.528 5
-9.392 -8.131 -1.694 6
-9.458 -8.132 -1.886 5
-9.579 -8.182 -2.113 1
-13.881 -11.78 -4.65 20
-13.439 -11.336 -4.646 35
-13.031 -10.922 -4.648 10
-12.641 -10.535 -4.654 41
-10.847 -8.985 -3.771 23
-10.872 -8.956 -3.997 4
-10.885 -8.917 -4.221 17
-10.804 -8.798 -4.383 29
-10.387 -8.412 -4.313 13
-9.497 -9.833 1.266 12
-9.465 -9.685 1.117 255
-9.484 -9.594 0.961 255
-9.473 -9.476 0.812 5
-9.511 -9.411 0.654 0
0.0 -0.0 3.0 0
-29.411 -28.492 -5.17 2
-29.717 -28.502 -5.714 4
-27.688 -26.289 -5.542 4
-25.007 -23.52 -5.098 5
-23.258 -21.658 -4.883 30
-22.153 -20.453 -4.851 24
-21.692 -19.848 -5.019 18
-20.668 -18.752 -4.96 6
-19.706 -17.727 -4.893 5
-18.85 -16.824 -4.845 7
-18.03 -15.963 -4.786 7
-17.309 -15.211 -4.751 6
-9.389 -8.192 -1.356 2
-9.382 -8.126 -1.504 6
-9.424 -8.108 -1.681 5
-9.499 -8.116 -1.877 5
-14.423 -12.245 -4.651 14
-13.955 -11.771 -4.644 11
-13.517 -11.332 -4.644 30
-13.105 -10.919 -4.645 12
-12.711 -10.529 -4.65 40
-10.861 -8.943 -3.739 30
0.0 -0.0 3.0 0
-11.237 -9.151 -4.41 21
-10.84 -8.776 -4.364 28
-10.433 -8.401 -4.302 13
-9.51 -9.788 1.274 3
-9.467 -9.629 1.128 255
-9.477 -9.53 0.974 255
-9.491 -9.436 0.821 4
-9.467 -9.311 0.678 2
0.0 -0.0 3.0 0
0.0 -0.0 3.0 0
-29.953 -28.552 -5.729 4
-27.904 -26.33 -5.555 3
-24.319 -22.73 -4.827 3
-23.387 -21.643 -4.878 33
-22.295 -20.456 -4.852 25
-21.836 -19.855 -5.022 17
-20.812 -18.764 -4.965 6
-19.841 -17.737 -4.897 6
-18.969 -16.823 -4.845 7
-18.14 -15.959 -4.784 7
-17.411 -15.205 -4.747 6
-9.381 -8.134 -1.325 4
-9.397 -8.088 -1.483 6
-9.456 -8.084 -1.668 5
-9.554 -8.112 -1.874 2
-14.501 -12.236 -4.646 9
-14.032 -11.763 -4.639 9
-13.587 -11.321 -4.636 29
-13.171 -10.906 -4.637 26
-12.778 -10.521 -4.644 37
-11.04 -9.036 -3.809 18
-10.943 -8.907 -3.959 7
-11.308 -9.154 -4.413 25
-10.904 -8.776 -4.364 30
-10.484 -8.393 -4.296 13
-9.522 -9.744 1.282 0
-9.47 -9.576 1.139 255
-9.478 -9.475 0.986 255
-9.512 -9.4 0.83 4
-9.451 -9.239 0.697 3
-29.703 -28.72 -4.696 16
0.0 -0.0 3.0 0
-30.227 -28.636 -5.755 4
-28.132 -26.382 -5.572 3
-25.372 -23.569 -5.115 6
-23.515 -21.627 -4.872 28
-22.429 -20.45 -4.85 27
-21.972 -19.853 -5.021 13
-20.948 -18.768 -4.966 6
-19.971 -17.741 -4.899 5
-19.09 -16.825 -4.845 7
-18.253 -15.959 -4.784 8
-9.401 -8.159 -1.157 1
-9.381 -8.083 -1.298 5
-9.42 -8.058 -1.467 6
-9.5 -8.072 -1.66 5
-15.096 -12.739 -4.654 7
-14.586 -12.231 -4.643 9
-14.107 -11.752 -4.632 8
-13.66 -11.313 -4.63 25
-13.239 -10.897 -4.63 33
-12.846 -10.513 -4.638 18
-11.06 -8.998 -3.781 21
-10.926 -8.84 -3.907 12
-11.284 -9.081 -4.353 23
-10.957 -8.767 -4.357 36
-10.536 -8.386 -4.289 15
0.0 -0.0 3.0 0
-9.471 -9.52 1.15 255
-9.479 -9.419 0.998 255
-9.549 -9.38 0.834 2
-9.446 -9.178 0.712 5
-29.887 -28.723 -4.696 19
0.0 -0.0 3.0 0
-30.49 -28.708 -5.777 4
-28.372 -26.443 -5.592 3
-25.527 -23.565 -5.114 4
-23.765 -21.72 -4.906 33
-22.575 -20.456 -4.852 27
-22.111 -19.853 -5.021 13
-21.086 -18.774 -4.969 6
-20.103 -17.747 -4.901 5
-19.206 -16.821 -4.844 6
-18.369 -15.96 -4.784 7
-9.39 -8.098 -1.126 4
-9.395 -8.045 -1.278 6
-9.451 -8.034 -1.454 6
-9.546 -8.06 -1.653 3
-15.177 -12.727 -4.647 9
-14.662 -12.218 -4.635 9
-14.187 -11.747 -4.629 8
-13.736 -11.306 -4.626 16
-13.302 -10.882 -4.62 33
-12.913 -10.504 -4.632 12
-11.113 -8.987 -3.772 18
-10.987 -8.837 -3.904 16
-11.204 -8.963 -4.258 37
-11.015 -8.763 -4.353 34
-10.588 -8.378 -4.283 14
0.0 -0.0 3.0 0
-9.472 -9.465 1.16 255
-9.482 -9.366 1.009 255
-9.454 -9.231 0.869 6
-9.443 -9.12 0.726 4
-30.085 -28.739 -4.7 25
0.0 -0.0 3.0 0
-30.731 -28.757 -5.792 4
-28.589 -26.481 -5.604 4
-25.214 -23.132 -4.965 4
-23.932 -21.738 -4.912 31
-22.733 -20.47 -4.858 26
-22.238 -19.844 -5.017 12
-21.216 -18.772 -4.968 7
-20.228 -17.745 -4.901 5
-19.324 -16.818 -4.843 6
-9.41 -8.124 -0.962 0
-9.387 -8.044 -1.099 5
-9.418 -8.014 -1.261 6
-9.486 -8.014 -1.442 5
-9.612 -8.066 -1.657 0
-15.26 -12.718 -4.642 9
-14.743 -12.211 -4.63 9
-14.264 -11.738 -4.623 8
-13.806 -11.294 -4.618 12
-13.374 -10.875 -4.615 36
-12.981 -10.496 -4.626 11
-11.094 -8.918 -3.72 28
-11.071 -8.852 -3.916 33
-11.423 -9.084 -4.356 23
-11.063 -8.748 -4.341 30
-10.631 -8.363 -4.27 13
0.0 -0.0 3.0 0
-9.478 -9.415 1.17 255
-9.488 -9.317 1.02 255
-9.459 -9.182 0.88 35
-9.443 -9.066 0.74 5
-30.287 -28.755 -4.705 27
0.0 -0.0 3.0 0
-30.984 -28.816 -5.81 4
-28.822 -26.532 -5.621 3
-25.961 -23.67 -5.15 5
-24.105 -21.759 -4.919 30
-22.885 -20.479 -4.861 27
-22.375 -19.84 -5.016 11
-21.355 -18.777 -4.97 7
-20.355 -17.745 -4.901 6
-19.455 -16.827 -4.846 6
-9.403 -8.068 -0.935 4
-9.398 -8.003 -1.078 5
-9.444 -7.985 -1.246 5
-9.532 -8.002 -1.435 5
-15.917 -13.273 -4.663 7
-15.346 -12.711 -4.637 7
-14.828 -12.205 -4.627 9
-14.339 -11.727 -4.615 34
-13.879 -11.285 -4.612 10
-13.446 -10.866 -4.608 34
-13.051 -10.489 -4.621 11
-11.269 -9.004 -3.785 21
-11.187 -8.89 -3.946 11
-11.225 -8.874 -4.186 22
-11.127 -8.748 -4.341 26
-10.685 -8.357 -4.265 12
0.0 -0.0 3.0 0
-9.472 -9.353 1.182 255
-9.485 -9.259 1.032 255
-9.493 -9.16 0.885 255
-9.451 -9.019 0.751 5
-30.498 -28.779 -4.711 25
0.0 -0.0 3.0 0
-31.243 -28.879 -5.829 4
-29.044 -26.572 -5.634 3
-26.151 -23.695 -5.159 5
-24.252 -21.755 -4.918 24
-23.032 -20.481 -4.862 26
-22.497 -19.824 -5.009 11
-21.509 -18.793 -4.977 6
-20.495 -17.754 -4.905 5
-9.424 -8.1 -0.777 0
-9.394 -8.009 -0.906 5
-9.42 -7.972 -1.062 6
-9.481 -7.967 -1.236 5
-9.595 -8.004 -1.437 1
-16.016 -13.273 -4.663 8
-15.435 -12.706 -4.634 9
-14.907 -12.194 -4.62 9
-14.419 -11.721 -4.612 36
-13.961 -11.282 -4.61 9
-13.52 -10.86 -4.605 32
-13.119 -10.48 -4.614 11
-11.311 -8.984 -3.77 3
-11.757 -9.288 -4.257 14
-11.416 -8.972 -4.265 44
-11.197 -8.751 -4.343 21
-10.742 -8.353 -4.261 14
0.0 -0.0 3.0 0
-9.478 -9.304 1.191 255
-9.485 -9.203 1.044 255
-9.502 -9.113 0.896 255
-9.454 -8.966 0.764 5
-30.714 -28.808 -4.719 18
0.0 -0.0 3.0 0
-31.503 -28.941 -5.848 4
-29.295 -26.635 -5.654 3
-26.35 -23.728 -5.17 5
-24.454 -21.801 -4.935 29
-23.199 -20.501 -4.87 27
-22.633 -19.82 -5.008 11
-21.646 -18.794 -4.978 6
-20.622 -17.753 -4.904 5
-9.403 -8.031 -0.745 2
-9.407 -7.97 -0.887 5
-9.445 -7.944 -1.048 5
-9.523 -7.953 -1.229 4
-16.719 -13.861 -4.683 7
-16.11 -13.268 -4.661 8
-15.522 -12.697 -4.629 8
-14.998 -12.193 -4.619 8
-14.497 -11.711 -4.605 9
-14.028 -11.267 -4.6 10
-13.592 -10.852 -4.598 28
-13.186 -10.47 -4.607 11
-11.803 -9.318 -4.021 6
-11.282 -8.861 -3.923 1
-11.284 -8.816 -4.139 16
-11.261 -8.75 -4.342 16
-10.791 -8.343 -4.252 14
0.0 -0.0 3.0 0
-9.477 -9.249 1.202 255
-9.493 -9.157 1.054 255
-9.501 -9.057 0.909 255
-9.464 -8.922 0.775 5
-30.932 -28.836 -4.727 10
0.0 -0.0 3.0 0
-31.784 -29.019 -5.872 5
-29.532 -26.685 -5.671 3
-26.55 -23.759 -5.181 4
-24.532 -21.734 -4.91 30
-23.358 -20.513 -4.874 26
-22.764 -19.81 -5.004 11
-21.795 -18.805 -4.982 6
-20.745 -17.746 -4.901 3
-9.398 -7.976 -0.719 4
-9.42 -7.932 -0.869 6
-9.473 -7.917 -1.034 5
-9.578 -7.948 -1.226 2
-16.82 -13.858 -4.681 5
-16.204 -13.262 -4.657 11
-15.608 -12.689 -4.625 9
-15.074 -12.18 -4.611 8
-14.577 -11.704 -4.601 9
-14.104 -11.259 -4.594 14
-13.664 -10.843 -4.592 26
-13.257 -10.462 -4.601 11
-11.39 -8.938 -3.735 12
-12.105 -9.451 -4.384 20
-11.614 -9.02 -4.304 37
-11.311 -8.738 -4.332 31
-10.843 -8.334 -4.245 17
0.0 -0.0 3.0 0
-9.479 -9.197 1.212 255
-9.495 -9.104 1.065 255
-9.506 -9.008 0.92 255
-9.466 -8.87 0.788 5
-9.508 -8.811 0.639 2
0.0 -0.0 3.0 0
-32.011 -29.047 -5.881 19
-29.767 -26.732 -5.686 3
-26.75 -23.791 -5.192 4
-24.818 -21.849 -4.953 31
-23.508 -20.515 -4.875 27
-22.899 -19.802 -5.0 11
-21.943 -18.815 -4.986 7
-9.414 -8.003 -0.563 2
-9.406 -7.932 -0.699 5
-9.448 -7.905 -0.855 6
-9.518 -7.905 -1.028 5
-17.549 -14.471 -4.694 6
-16.908 -13.843 -4.673 5
-16.299 -13.257 -4.654 8
-15.701 -12.685 -4.622 8
-15.162 -12.175 -4.608 9
-14.66 -11.698 -4.597 9
-14.181 -11.251 -4.589 21
-13.739 -10.836 -4.587 19
-13.322 -10.451 -4.593 11
-11.446 -8.929 -3.729 12
-11.317 -8.783 -3.862 22
-11.699 -9.034 -4.315 41
-11.35 -8.717 -4.315 48
-10.897 -8.327 -4.239 14
0.0 -0.0 3.0 0
-9.481 -9.145 1.222 255
-9.497 -9.052 1.076 255
-9.508 -8.955 0.933 255
-9.485 -8.835 0.797 5
-9.51 -8.759 0.653 5
0.0 -0.0 3.0 0
-32.282 -29.113 -5.901 17
-30.002 -26.777 -5.7 3
-26.945 -23.815 -5.2 4
-25.03 -21.9 -4.971 28
-23.647 -20.508 -4.872 30
-23.03 -19.79 -4.996 10
-22.087 -18.819 -4.988 6
-9.404 -7.944 -0.537 4
-9.424 -7.898 -0.683 5
-9.476 -7.878 -0.842 6
-9.567 -7.896 -1.023 3
-17.641 -14.456 -4.686 6
-17.016 -13.845 -4.674 3
-16.396 -13.253 -4.652 9
-15.785 -12.674 -4.615 11
-15.244 -12.165 -4.602 7
-14.735 -11.686 -4.589 9
-14.26 -11.244 -4.584 21
-13.811 -10.826 -4.581 11
-13.392 -10.442 -4.587 12
-11.548 -8.954 -3.748 9
-11.536 -8.9 -3.953 10
-11.606 -8.908 -4.214 31
-11.406 -8.709 -4.308 29
-10.952 -8.321 -4.233 14
0.0 -0.0 3.0 0
-9.494 -9.103 1.231 175
-9.504 -9.005 1.086 255
-9.515 -8.909 0.943 255
-9.501 -8.796 0.807 5
-9.506 -8.701 0.669 3
-9.517 -8.619 0.528 4
-9.509 -8.522 0.395 0
-30.25 -26.831 -5.718 3
-27.146 -23.844 -5.21 2
-25.214 -21.923 -4.979 24
-23.824 -20.533 -4.882 25
-23.161 -19.778 -4.991 10
-9.43 -7.984 -0.389 1
-9.405 -7.895 -0.515 5
-9.446 -7.867 -0.668 6
-9.506 -7.854 -0.83 5
-9.65 -7.915 -1.033 0
-17.748 -14.453 -4.685 5
-17.112 -13.835 -4.669 6
-16.485 -13.242 -4.645 8
-15.874 -12.666 -4.611 7
-15.326 -12.155 -4.595 8
-14.819 -11.68 -4.585 9
-14.336 -11.236 -4.579 30
-13.88 -10.815 -4.573 10
-13.457 -10.43 -4.578 18
-11.668 -8.994 -3.777 8
-11.487 -8.809 -3.882 13
-11.813 -9.014 -4.3 29
-11.473 -8.709 -4.307 25
-11.006 -8.314 -4.227 12
0.0 -0.0 3.0 0
-9.51 -9.065 1.238 24
-9.508 -8.956 1.096 255
-9.516 -8.857 0.955 255
-9.528 -8.768 0.814 4
-9.486 -8.631 0.687 3
-9.536 -8.583 0.539 6
-9.518 -8.478 0.408 4
-9.508 -8.381 0.277 0
-27.363 -23.885 -5.224 1
-25.258 -21.824 -4.943 30
-23.987 -20.544 -4.886 30
-23.299 -19.771 -4.988 9
-9.41 -7.917 -0.36 4
-9.42 -7.857 -0.498 5
-9.47 -7.837 -0.654 5
-9.557 -7.846 -0.827 4
-18.618 -15.174 -4.731 6
-17.855 -14.449 -4.683 5
-17.215 -13.832 -4.667 7
-16.579 -13.234 -4.641 9
-15.97 -12.664 -4.609 7
-15.414 -12.15 -4.592 7
-14.897 -11.67 -4.578 9
-14.409 -11.224 -4.571 19
-13.949 -10.802 -4.564 11
-13.528 -10.422 -4.572 29
-11.65 -8.926 -3.726 9
-11.548 -8.804 -3.878 13
-11.942 -9.059 -4.336 40
-11.526 -8.699 -4.299 31
-11.061 -8.307 -4.221 13
0.0 -0.0 3.0 0
-9.523 -9.024 1.246 7
-9.507 -8.901 1.108 255
-9.529 -8.815 0.965 101
-9.561 -8.746 0.819 5
-9.476 -8.569 0.704 4
-9.569 -8.561 0.545 5
-9.534 -8.441 0.419 6
-9.521 -8.341 0.29 4
-9.532 -8.269 0.153 0
-25.448 -21.851 -4.953 16
-24.1 -20.512 -4.874 29
-9.44 -7.96 -0.216 0
-9.413 -7.87 -0.341 5
-9.441 -7.825 -0.484 6
-9.506 -7.818 -0.646 5
-9.629 -7.855 -0.831 1
-18.734 -15.172 -4.731 6
-17.954 -14.437 -4.677 6
-17.314 -13.825 -4.663 6
-16.671 -13.225 -4.635 9
-16.06 -12.656 -4.605 8
-15.5 -12.141 -4.587 8
-14.983 -11.665 -4.575 9
-14.489 -11.217 -4.566 10
-14.027 -10.797 -4.56 12
-13.599 -10.413 -4.565 33
-11.741 -8.942 -3.738 2
-11.769 -8.918 -3.968 1
-11.916 -8.986 -4.277 39
-11.557 -8.671 -4.276 32
-11.121 -8.304 -4.219 12
-75.419 -71.945 -9.686 20
-9.527 -8.974 1.256 1
-9.51 -8.852 1.119 255
-9.573 -8.804 0.967 6
-9.583 -8.712 0.828 0
-9.47 -8.512 0.719 4
0.0 -0.0 3.0 0
-9.573 -8.422 0.425 5
-9.539 -8.305 0.302 6
-9.521 -8.208 0.174 4
-9.506 -8.111 0.048 1
-24.258 -20.516 -4.875 30
-9.419 -7.893 -0.189 3
-9.422 -7.828 -0.323 5
-9.462 -7.793 -0.47 5
-9.551 -7.805 -0.64 4
-19.681 -15.955 -4.782 7
-18.853 -15.172 -4.731 7
-18.07 -14.44 -4.678 6
-17.411 -13.815 -4.658 7
-16.763 -13.215 -4.63 8
-16.147 -12.646 -4.598 8
-15.585 -12.132 -4.581 7
-15.064 -11.656 -4.569 9
-14.565 -11.207 -4.559 9
-14.096 -10.784 -4.551 21
-13.672 -10.406 -4.561 32
-11.871 -8.986 -3.772 4
-11.597 -8.737 -3.826 14
-12.097 -9.069 -4.344 19
-11.558 -8.621 -4.234 18
-11.172 -8.295 -4.21 12
0.0 -0.0 3.0 0
-9.557 -8.95 1.26 0
-9.523 -8.811 1.127 70
-9.615 -8.789 0.971 0
-39.894 -36.051 -5.989 14
-9.468 -8.458 0.734 4
0.0 -0.0 3.0 0
-9.623 -8.415 0.427 0
-9.575 -8.285 0.308 5
-9.536 -8.17 0.187 6
-9.509 -8.063 0.065 4
-9.471 -7.96 -0.056 0
-9.416 -7.841 -0.168 4
-9.442 -7.795 -0.309 6
-9.497 -7.774 -0.461 5
-9.611 -7.804 -0.639 2
-19.808 -15.957 -4.783 8
-18.968 -15.169 -4.729 7
-18.172 -14.43 -4.673 13
-17.511 -13.807 -4.653 7
-16.858 -13.206 -4.625 7
-16.234 -12.635 -4.592 7
-15.665 -12.119 -4.573 7
-15.142 -11.644 -4.562 9
-14.645 -11.2 -4.554 10
-14.168 -10.774 -4.544 12
-13.746 -10.399 -4.555 30
-11.805 -8.884 -3.694 5
-11.671 -8.74 -3.828 2
-11.816 -8.806 -4.131 39
-11.565 -8.576 -4.196 12
-11.224 -8.285 -4.202 14
0.0 -0.0 3.0 0
0.0 -0.0 3.0 0
-9.564 -8.796 1.13 11
-50.428 -45.82 -7.578 25
-40.097 -36.016 -5.98 10
-9.468 -8.407 0.747 5
-36.856 -32.371 -6.282 7
0.0 -0.0 3.0 0
-9.631 -8.282 0.309 0
-9.568 -8.146 0.195 5
-9.527 -8.028 0.078 6
-9.429 -7.875 -0.023 2
-9.421 -7.796 -0.15 5
-9.466 -7.766 -0.296 6
-9.542 -7.761 -0.456 5
-20.865 -16.836 -4.851 5
-19.929 -15.954 -4.781 8
-19.081 -15.163 -4.726 6
-18.282 -14.427 -4.671 12
-17.611 -13.798 -4.649 7
-16.953 -13.198 -4.62 8
-16.331 -12.631 -4.589 8
-15.753 -12.113 -4.569 7
-15.229 -11.639 -4.558 9
-14.727 -11.194 -4.55 10
-14.249 -10.77 -4.541 10
-13.811 -10.386 -4.546 35
-11.853 -8.866 -3.681 7
-11.747 -8.745 -3.832 0
-12.145 -8.998 -4.287 28
-11.621 -8.567 -4.188 12
-11.282 -8.279 -4.197 13
0.0 -0.0 3.0 0
0.0 -0.0 3.0 0
-9.605 -8.782 1.133 1
0.0 -0.0 3.0 0
0.0 -0.0 3.0 0
-9.473 -8.361 0.76 5
-37.196 -32.469 -6.31 6
-30.181 -26.067 -4.969 2
-30.164 -25.777 -5.375 4
-9.631 -8.149 0.194 0
-9.556 -8.003 0.087 5
-9.426 -7.823 -0.003 4
-9.439 -7.762 -0.136 5
-9.495 -7.741 -0.286 5
-9.593 -7.753 -0.452 2
-20.995 -16.835 -4.85 6
-20.057 -15.955 -4.782 8
-19.195 -15.157 -4.723 6
-18.399 -14.428 -4.672 14
-17.711 -13.79 -4.644 7
-17.048 -13.189 -4.615 7
-16.427 -12.627 -4.587 7
-15.842 -12.105 -4.564 7
-15.31 -11.629 -4.552 9
-14.804 -11.183 -4.543 9
-14.324 -10.761 -4.535 10
-13.885 -10.378 -4.54 31
-11.954 -8.888 -3.697 1
-12.308 -9.108 -4.116 46
-12.269 -9.036 -4.318 21
-11.668 -8.552 -4.176 11
-11.336 -8.271 -4.19 13
0.0 -0.0 3.0 0
0.0 -0.0 3.0 0
0.0 -0.0 3.0 0
0.0 -0.0 3.0 0
0.0 -0.0 3.0 0
-9.476 -8.312 0.773 5
-9.458 -8.205 0.647 1
0.0 -0.0 3.0 0
-30.197 -25.645 -5.333 46
-29.711 -24.982 -5.602 4
-9.442 -7.857 0.14 2
-9.425 -7.773 0.016 5
-9.459 -7.729 -0.123 6
-9.531 -7.721 -0.277 5
-9.67 -7.767 -0.458 0
-21.125 -16.832 -4.849 5
-20.176 -15.947 -4.778 8
-19.308 -15.15 -4.72 6
-18.489 -14.407 -4.66 24
-17.817 -13.785 -4.641 7
-17.146 -13.182 -4.611 8
-16.514 -12.615 -4.58 7
-15.928 -12.095 -4.558 7
-15.392 -11.618 -4.545 9
-14.89 -11.179 -4.54 9
-14.394 -10.748 -4.526 11
-13.959 -10.37 -4.535 28
-13.164 -9.729 -4.331 10
-11.988 -8.818 -3.89 82
-12.329 -9.028 -4.311 21
-11.726 -8.545 -4.17 12
-11.388 -8.261 -4.181 13
0.0 -0.0 3.0 0
0.0 -0.0 3.0 0
0.0 -0.0 3.0 0
0.0 -0.0 3.0 0
0.0 -0.0 3.0 0
-9.49 -8.274 0.783 5
-9.451 -8.149 0.663 5
0.0 -0.0 3.0 0
-30.235 -25.519 -5.292 157
-29.946 -25.023 -5.616 3
-9.435 -7.802 0.16 4
-9.442 -7.738 0.03 6
-9.491 -7.706 -0.113 5
-9.587 -7.717 -0.276 3
-22.319 -17.812 -4.93 5
-21.265 -16.836 -4.851 5
-20.301 -15.945 -4.777 8
-19.43 -15.151 -4.72 7
-18.598 -14.4 -4.657 27
-17.914 -13.774 -4.635 7
-17.248 -13.177 -4.608 8
-16.608 -12.607 -4.575 7
-16.013 -12.085 -4.552 7
-15.485 -11.616 -4.544 9
-14.966 -11.168 -4.533 10
-14.469 -10.737 -4.518 13
-14.03 -10.361 -4.528 28
-12.464 -9.157 -3.9 17
-12.435 -9.093 -4.104 42
-12.366 -9.002 -4.29 33
-11.785 -8.537 -4.164 18
-11.44 -8.251 -4.173 14
-74.127 -68.282 -9.04 27
-70.739 -64.322 -9.503 9
0.0 -0.0 3.0 0
0.0 -0.0 3.0 0
0.0 -0.0 3.0 0
-9.501 -8.233 0.794 5
-9.417 -8.07 0.686 4
0.0 -0.0 3.0 0
-30.294 -25.41 -5.256 18
-9.455 -7.851 0.297 1
-9.43 -7.75 0.179 5
-9.465 -7.708 0.041 6
-9.52 -7.681 -0.103 5
-9.644 -7.714 -0.274 1
-22.459 -17.81 -4.93 5
-21.404 -16.839 -4.852 5
-20.423 -15.939 -4.774 8
-19.547 -15.145 -4.717 7
-18.706 -14.393 -4.653 27
-18.011 -13.762 -4.628 7
-17.343 -13.167 -4.602 8
-16.704 -12.601 -4.572 7
-16.105 -12.079 -4.548 7
-15.56 -11.601 -4.534 9
-15.043 -11.156 -4.525 10
-14.545 -10.728 -4.512 14
